1.043133247904469429e-02 1.058677643120214257e-01 -6.594076671168206394e-01 6.876060622739920136e-01 -1.606302632458448398e-01 -7.080930882685029237e-01
5.688521940414778804e-04 -2.536919576242376365e-02 -6.092918128702717873e-01 3.182793504664128137e-01 -5.633506678793323563e-02 -9.463216236125420178e-01
5.251263141249308194e-03 6.513036823424460386e-03 -8.521642001721693171e-01 6.478104772781793086e-01 -3.683784396817711970e-01 6.668125004124032529e-01
-1.181671148146340271e-02 -6.542134110797613589e-02 -8.647388413758108072e-01 6.093284912155616517e-01 -2.896359515558848963e-01 7.381258736552218647e-01
2.421865552150361325e-02 -5.707515975474357350e-02 -6.234705260775885716e-01 -8.767181908216575836e-01 1.371151520923936384e-01 -4.610473391627801232e-01
9.338882533989821544e-02 2.059483131085639018e-01 -6.553616355139406657e-01 5.540707561114698310e-01 -8.257243788002572860e-01 1.057584392707919263e-01
-2.108223607453755047e-02 -8.995304737832085507e-02 -8.648161075755308458e-01 6.321074043817952459e-01 -1.347284224444008638e-01 7.630782931726943774e-01
-1.038200834681760575e-02 -2.196009850468904623e-01 -8.128145042735481773e-01 -9.089989612476538916e-01 5.716550316069939075e-02 -4.128595326489025719e-01
-2.508723142144921731e-02 3.858296245766605626e-02 -7.337214252747482623e-01 4.253302579250601290e-01 -9.030887213067330110e-01 -5.937114738635033973e-02
-5.246076296747181900e-02 -2.064254944830039018e-01 -8.012100237206275510e-01 8.643224900641504060e-01 4.946915684686684078e-01 -9.070217888956981500e-02
-4.669081560170841583e-02 -5.023094657351116071e-02 -8.086884754851664248e-01 8.211359097054786726e-01 -4.036534780709580827e-01 4.034844327026442246e-01
1.253072810303260641e-02 -6.860166010296908645e-02 -6.145916283140914205e-01 -3.232681278104413414e-01 2.653257516083716849e-01 -9.083501324243781205e-01
-3.506744507069754248e-03 -9.635924946865138951e-02 -8.249107085035413123e-01 -7.082018750571780208e-01 5.258142169922175313e-01 -4.711364063351065057e-01
-3.946865570780033750e-02 1.124699421575417121e-02 -7.016221314884654170e-01 6.981079436569216368e-01 3.218247200099712269e-02 -7.152688917456214712e-01
1.538142372109684020e-02 -6.270049901083082911e-03 -7.058344735675128323e-01 -9.245585399886412370e-01 3.738010979189496097e-01 -7.392053387699552836e-02
-3.137756437034962265e-02 -2.081905655047165959e-01 -8.573287709705020854e-01 5.454549346532272525e-01 2.896638278500625607e-01 7.864946160640218231e-01
2.948557381777155290e-02 -9.349745485700555747e-03 -8.442555325253748855e-01 -9.906766200467590489e-01 4.287849571403073989e-02 -1.293107462588912182e-01
1.801818653307492857e-01 2.021500622448618167e-01 -6.590431755824409654e-01 -3.211968811629656306e-01 7.909213691796703749e-01 5.208415798552754605e-01
-1.564182566754272405e-02 -1.274659709386390116e-01 -7.817410145914018837e-01 -9.944197415082351998e-01 6.570615697069741301e-02 -8.253531750006580514e-02
-1.770272063199813256e-02 -2.003744096641597583e-01 -7.395275762762152372e-01 -2.227906849485581653e-01 8.720708595058129786e-01 -4.357255176150982012e-01
2.886567494970970500e-03 9.022776143830296691e-02 -6.638580602337167402e-01 4.688850788841321116e-01 7.934452813660622383e-02 -8.796881428407460346e-01
-5.457400232377391039e-03 -1.574166134380880766e-01 -8.443813348095782212e-01 -8.946022098228174624e-01 2.119587530341103809e-01 -3.933959496389822785e-01
8.642623989374062510e-02 1.561820677116227407e-01 -6.671345302927689236e-01 -5.703896695993236898e-01 5.005062976033209932e-01 6.512672806719146390e-01
4.647858696693654701e-02 1.637696847752267426e-01 -6.549060842611451605e-01 7.125775611142391996e-01 -5.797138391793387191e-01 -3.951772818121438990e-01
-4.364194850618891702e-02 5.538204603859754431e-03 -7.388957882427427126e-01 9.383607000448123125e-01 -2.435291757099454779e-01 -2.453013191759154665e-01
1.207076571372609208e-01 2.148617319846756468e-01 -6.386610431954736766e-01 3.432685346289131578e-01 -6.408116352658664860e-01 -6.866783535554364937e-01
-5.779893979655290753e-02 -6.050312239872448344e-02 -7.582478213584439297e-01 6.950205544259644430e-01 1.385660111213695145e-01 -7.055110838869491641e-01
1.268872172879970464e-02 -1.110118928001729982e-01 -6.491606948458121806e-01 -9.790185604148389231e-01 1.321097428272888230e-01 -1.551440434350097319e-01
4.868807653967695964e-02 1.222368094120018095e-01 -6.818236062978833001e-01 -6.373559372602941586e-01 1.064870481143288111e-01 7.631762036534870397e-01
-2.404367091471045284e-02 -1.721436574821664511e-01 -7.668586567591380021e-01 -9.630516402066534587e-01 -2.671530533354197212e-01 -3.407028601049261890e-02
-2.532461046173791613e-02 3.627504987717938834e-02 -7.565335417227998516e-01 7.403401625732645153e-01 -6.608064658566135119e-01 1.234149843539461139e-01
7.638838203461031234e-03 -7.020623978703675883e-02 -8.757386822879166255e-01 -4.622094020745662335e-02 -6.280855648911788658e-02 9.969547180880845572e-01
-4.368607663597867674e-02 -4.357362345502246298e-02 -7.070242994427511363e-01 9.457082312876126107e-01 -1.001104649034020855e-01 -3.092148704245646917e-01
-5.297540817515420525e-02 -4.086654818201487793e-02 -7.265131205711937712e-01 8.608549770696810599e-01 -2.372079515983516740e-01 -4.501789601401567920e-01
-4.983530216709011751e-02 -1.823404776276885686e-01 -8.457688693850025086e-01 8.713380481116502763e-01 1.769551714245961860e-01 4.576645859350178536e-01
-2.664287096622210832e-02 -1.382461783898657481e-01 -7.653407485058817405e-01 -9.873179040345096968e-01 1.519625581254962499e-01 -4.594276113663596506e-02
-6.469276722839148452e-02 -1.568384888032991198e-01 -7.511480408788322460e-01 8.617233012186623631e-01 3.212821682706987758e-01 -3.926967283898463168e-01
-7.071112913639432396e-02 -1.259162295934161402e-01 -7.950528654702921916e-01 8.558675882132774637e-01 4.167985895101597449e-01 -3.062182346437408720e-01
1.244170274308090823e-02 8.022162501893433280e-04 -7.573094994233858790e-01 -9.813364915523277165e-01 1.757329499436748876e-01 -7.808085970237567397e-02
-7.008660861683067844e-02 -8.817971800937941806e-02 -7.479723673933714734e-01 8.151286933150415637e-01 -2.918625784925802172e-02 5.785441864605239681e-01
-5.941496508132997761e-02 -1.820607629733190236e-01 -7.682331757739750966e-01 8.684225817754989141e-01 4.299204237243769988e-01 -2.470033374815594762e-01
-5.052022569765956400e-02 -1.977157148217685845e-01 -8.216648691516612590e-01 7.065895678268914182e-01 -1.571767735328963300e-01 6.899468417928990016e-01
-5.268985239106054735e-02 -1.637574515237153749e-01 -8.389111109977781533e-01 7.592597992466696422e-01 -5.099979428012104687e-01 4.042606282912551419e-01
1.255423098756644207e-01 2.203923061700401864e-01 -6.419840380797006141e-01 3.531627866758174084e-01 -7.152322589789666951e-01 -6.030910891591878542e-01
-4.517252373321276049e-02 -2.171233980185089951e-01 -8.088036676109424672e-01 7.433558344762245529e-01 6.677690518251945262e-01 -3.881490402714267429e-02
-2.571387702674384455e-03 -8.632533658966452805e-02 -6.940812184171494259e-01 -8.059679993182803370e-01 1.474045747770122428e-01 5.733127204324848236e-01
-9.212133342115158205e-03 -9.638524657390951100e-02 -8.168686345559652562e-01 -6.583434917657355889e-01 6.244123603341827922e-01 -4.203487255976801618e-01
-4.648618020992932587e-02 1.625299762382987484e-02 -7.173351020617036999e-01 8.923564918617986619e-01 -4.309787095518461397e-01 1.340046392671879749e-01
-1.203970377104616324e-02 -8.240993549147468400e-02 -7.787680219420519689e-01 -9.929698774578652465e-01 5.943425856814620045e-02 -1.023640140369976720e-01
-2.981274674601619434e-02 3.383442478341751325e-02 -7.235780731353597117e-01 7.812887915557479301e-01 -5.367104827708230053e-01 3.186372261259967087e-01
-6.565535465705858720e-02 -1.202239009035465933e-01 -7.450469599076490201e-01 6.074387517291203187e-01 -1.192080326780616678e-01 -7.853710001284709419e-01
2.061899955497818737e-02 8.865073495213483812e-02 -6.586309829703036467e-01 2.031070511064262396e-01 2.143421993061807307e-01 -9.554082621515480600e-01
4.560576398585272639e-02 1.332448069458796736e-01 -6.840908017371550853e-01 -3.298753970469648911e-01 -3.178021747827849963e-02 9.434893959129273533e-01
-1.232541233673681118e-02 -2.437296463632310506e-01 -8.406145358245318278e-01 2.389819703360098191e-01 8.706101903215164306e-01 -4.300296668401517031e-01
5.526976721752302479e-02 1.276181679833294502e-01 -6.772645745418128804e-01 -6.360376122563772272e-01 2.428216495502223959e-01 7.324573723466202280e-01
1.116468175853423421e-03 8.753389192453821244e-02 -7.210362852250542520e-01 7.055119740545634510e-01 -7.069537894152224666e-01 -4.969098607484601082e-02
-2.670650821822558377e-02 -1.107433516291121273e-01 -6.629487093375803219e-01 7.339670071470935087e-01 2.760564706902874921e-01 -6.205523808749435766e-01
1.585367257988195278e-01 2.139206051058086533e-01 -6.327648344495161448e-01 -9.878366542809201289e-02 4.058554783445525449e-02 -9.942809465898296839e-01
-2.335947126550930002e-03 5.960431645139871448e-02 -8.043145302539133068e-01 7.896387355474319136e-01 -4.597770655287767294e-01 4.062951111406583049e-01
-4.480769502310957136e-02 1.465713723431850447e-03 -7.459837214904961877e-01 9.565401836551997716e-01 -2.526357057876029155e-01 1.456230655290449427e-01
-5.324071576395580929e-02 -1.934033994684964952e-01 -8.178000211011163811e-01 7.505636007563830647e-01 -1.644634831075078574e-01 6.400047218136433180e-01
2.741653639854108732e-02 -4.803884541627690546e-02 -6.294820533716788402e-01 -9.798090312095885102e-01 8.431751792998115613e-02 -1.812865646711169509e-01
3.107658445235537970e-02 1.375609401677898302e-01 -6.509976167509679001e-01 6.204388851199594823e-01 -3.264542338673260824e-01 -7.130800957965374165e-01
2.690541849523463147e-02 3.378895440124680266e-02 -7.342863161634485270e-01 -8.421303132643099820e-01 5.263539230407213720e-01 1.173374756034818722e-01
1.839162670228955410e-01 2.056478663560267206e-01 -6.409553035708766000e-01 -3.072701952143344628e-01 6.248720362178630250e-01 -7.177185837679603830e-01
1.250218478985050119e-01 2.062136027132927263e-01 -6.711526918437945577e-01 8.176640124341821858e-02 -1.269012771513774729e-01 9.885394890873351326e-01
-4.376812138434946209e-02 -4.632521136078387308e-02 -6.987130155398589837e-01 7.760183999030895174e-01 3.984344794241819199e-01 4.889227020888167741e-01
1.639773642594174671e-02 -7.034621519084684194e-02 -8.677302099304611271e-01 -9.464925922893584476e-01 3.190456461509145192e-01 4.859679427200696428e-02
-1.575116453482655263e-02 -1.970030382478879794e-01 -7.496433619650133551e-01 -9.713926878411254240e-01 -6.985256222282176797e-02 2.269732705842271991e-01
2.322511469105691465e-02 -1.197150061878581549e-02 -6.161607057644432617e-01 -9.430964129277148444e-01 -1.824762502638233030e-02 -3.320183430230533306e-01
-3.119184208142173741e-03 -4.550240864293610132e-02 -8.615619838970415278e-01 4.833994836594481259e-01 -5.670409863352623425e-01 6.669253773951864250e-01
-6.224317123746547775e-03 -7.486744951470911125e-02 -8.166380738927980776e-01 -8.887168403460360411e-01 1.973029989445221621e-01 -4.138283512434309253e-01
-1.754644989371373712e-02 -1.066261843110214713e-01 -7.270274522648502158e-01 -9.753341213000996657e-01 1.398361181995003422e-01 1.707899642094286019e-01
2.652097959948940611e-02 2.397413353903284777e-02 -7.192118658581706514e-01 -8.617915075924104107e-01 2.811711428729934958e-01 4.222063309059861380e-01
-5.103816881096055053e-02 -6.929655018206787309e-02 -8.166053172306264596e-01 8.389269507802821213e-01 -3.298401225818127780e-01 4.329053762541105743e-01
2.872204896250475648e-02 8.622713284424488034e-02 -6.583995165772471569e-01 -1.641573003919936380e-01 1.740353679343463467e-01 -9.709603861311590922e-01
-2.104692198222930105e-02 -1.521901086531458336e-01 -7.446393677429723468e-01 -8.833545940183931133e-01 -1.157031468163023102e-01 4.541997831829132082e-01
2.991225591268393755e-02 3.880869691709944169e-02 -7.615749860878887612e-01 -7.720281432124715959e-01 6.322957743628219163e-01 -6.461114308556260843e-02
4.897350666204016573e-02 1.154434506436592400e-01 -6.803264426434186829e-01 -7.930583884463273669e-01 1.740847407149035131e-01 5.837404350952049015e-01
-5.481473794125438226e-02 -4.471872955185585141e-02 -7.220261523742156351e-01 7.394449516019423463e-01 -6.706328529901256497e-01 5.892995877078066602e-02
1.525346887073828275e-02 2.700634981380837640e-03 -7.763995615842784748e-01 -9.632088357859315275e-01 2.072222730852524286e-01 -1.711364023265986856e-01
2.613061530562782800e-02 1.047040367028724897e-02 -6.373022355589587074e-01 -9.982417840837897183e-01 8.281253542537529364e-03 -5.869208932195949663e-02
-2.104899792654795973e-02 4.036309105460353375e-02 -7.341776721313226783e-01 5.541093014427129759e-01 -8.306118490489522443e-01 5.519817274284864739e-02
1.162131354729742903e-02 -1.280507431163809828e-01 -6.647052798604990986e-01 -9.905795107329450344e-01 1.360172772236263872e-01 -1.585979863524995814e-02
-3.922046928201784050e-02 -4.922891064303608344e-02 -6.658765836454942910e-01 8.846402518287066474e-01 -2.550494485604192299e-02 -4.655761190528705518e-01
-5.930843430663034627e-03 -1.618136707618792192e-01 -8.683088240058525198e-01 -5.962867766990541663e-01 2.084827218040286312e-01 7.752270858548715449e-01
-3.821432302265976438e-02 -2.507024675424815094e-02 -7.838975448761511533e-01 4.703269205171344280e-01 -8.735552516072047080e-01 1.252749385405665106e-01
-4.110124827451864388e-02 -1.704631162342107598e-01 -7.288635742687235020e-01 8.489180286152929744e-01 5.182921011955080592e-01 -1.034962730259873648e-01
1.809640040459943588e-02 9.417273514499542239e-03 -6.150356841445558942e-01 -3.949746851245045653e-01 -2.768363707275749430e-01 -8.759889394011680652e-01
9.467524574597134535e-02 1.563284026277421690e-01 -6.513156618637740980e-01 -6.238013506545249109e-01 7.814430245564399913e-01 1.478763989532330854e-02
1.080487205372633736e-01 2.065954622940270324e-01 -6.378726674010849473e-01 4.091141108412139071e-01 -6.152975294268416828e-01 -6.738208920713485428e-01
1.891732639888378748e-03 -7.739433757187666463e-02 -6.240812032110231167e-01 9.188072517421045360e-01 1.721440106248757207e-01 -3.551896306933856051e-01
1.333906536011683630e-02 8.012586369505051917e-03 -6.133170359854019926e-01 -5.743401847532303428e-02 -3.062283383583709884e-01 -9.502239411360079435e-01
3.527274217268659695e-02 6.164552520547911252e-02 -7.210936507208201007e-01 -9.920486572022415572e-01 2.254117875474694055e-02 1.238198570649142460e-01
-3.304360707413344506e-02 3.726458129984261403e-02 -6.953535739058293030e-01 8.225004126159497497e-01 -8.395409499070057013e-02 -5.625342488959091947e-01
-6.512312545732818446e-03 -6.381101582329895550e-02 -8.071825755848003325e-01 -9.057577147452579025e-01 3.135680752043390473e-01 -2.850930100723170213e-01
-1.770906637730097766e-02 5.939114922156413191e-04 -6.322506360447155416e-01 8.424124528455286809e-01 -2.338268556674022169e-01 -4.854546949607924655e-01
1.170133762164817931e-01 1.744999313176390510e-01 -6.568607393503693714e-01 -5.159827518641680877e-01 7.353705629788839238e-01 4.393084734930569613e-01
-5.864854668123241355e-02 -1.404994434650781165e-01 -8.325598766713153687e-01 8.633149494558514103e-01 6.525634888692792568e-02 5.004287231724299234e-01
-5.443459993506693899e-03 6.059361455901328929e-03 -6.193282902964394321e-01 6.203845513241391663e-01 -2.824861006550296594e-01 -7.316588080622439261e-01
-7.147122976816565679e-03 -6.228499667987930088e-02 -8.672838322775259234e-01 5.408866791010203956e-01 -3.180707135267130115e-01 7.786351016796492219e-01
-5.983270620146708893e-03 -1.687192846820594894e-01 -7.250514189345278471e-01 -9.669039022231097347e-01 -2.173909418176620811e-01 1.335590591511970904e-01
-4.521737930186948973e-02 -1.909219076115060143e-01 -8.499730465501987853e-01 7.931040096745538559e-01 1.860733185231003006e-01 5.799678870178469614e-01
6.066810656204848010e-03 -1.126893153422067057e-01 -6.817150332991054329e-01 -6.488766667314871395e-01 5.490133352652804694e-02 7.589103471085655306e-01
-4.564166436131183828e-03 -1.353682179688949494e-01 -6.997399916039981349e-01 -8.922441352951825388e-01 -1.040805356967959422e-01 4.393946348334489271e-01
-2.931887895193817026e-02 -2.327986262977504647e-02 -7.993462478948997196e-01 6.127270705686689301e-01 -7.299654504909897090e-01 3.028464595827791150e-01
-7.282054463761722385e-02 -1.306723224989220500e-01 -7.617644803442312762e-01 9.908517259581310910e-01 4.958183573689326634e-02 -1.255169260727496405e-01
-1.239627593889419156e-02 -1.992907083820291414e-01 -7.776306662198433362e-01 -9.607069301732845679e-01 -1.726143036148372334e-01 2.173625922383803366e-01
-1.965692705021751183e-02 -7.707054109434306743e-02 -6.402436351459109831e-01 7.555489577334587592e-01 1.779542569263337093e-01 -6.304586068170382473e-01
-3.930920073286838477e-03 -1.045104753075901949e-01 -6.938867927822058856e-01 -8.181134675839056847e-01 -2.307313727270614637e-02 5.745937560522501597e-01
-8.167678702334988175e-03 -1.838335425437712389e-01 -7.321325653598279581e-01 -8.376904990140584539e-01 4.575311772517254294e-02 5.442253945563401141e-01
-3.315503853865987144e-02 2.293007241447756264e-02 -7.618768568973810495e-01 8.830829465940834844e-01 -4.378455432577674777e-01 1.686884396869612057e-01
9.201240890240536957e-03 -1.400416325374438387e-01 -6.654937147461996716e-01 -9.301582282307518934e-01 2.353592749107255300e-01 -2.818007845413597057e-01
3.998239051693753231e-03 -1.183770951146773248e-01 -8.686385814965273955e-01 -8.351987302319991979e-01 5.483480668061638807e-01 4.192229298116964542e-02
1.258593219297831321e-02 3.668598203584004513e-02 -6.270099520794949477e-01 -4.077193666630235525e-02 -5.290992755385680590e-01 -8.475798521703084010e-01
8.066322548741804155e-02 1.969924521726964528e-01 -6.550924011010244019e-01 6.201093692486365772e-01 -7.842753871475440786e-01 1.940328025433964501e-02
1.508896760718397845e-02 -7.451440682428986384e-02 -8.654952115652916333e-01 -9.570672134100820516e-01 2.569193531305152822e-01 -1.342192050433106965e-01
2.949463995429909419e-02 2.120620521127979108e-02 -7.119098432564852086e-01 -8.859633954165221370e-01 3.769106872521847396e-01 2.701984378509859619e-01
1.438845435786712812e-01 2.112124432666238616e-01 -6.720571729139395156e-01 -5.536246848570236523e-03 1.771115122182376489e-01 9.841752192626069817e-01
3.452261876289963727e-02 8.032240259154714568e-02 -7.375891474558048388e-01 -9.958482868888397510e-01 -5.203369968443403992e-02 -7.469058573684730917e-02
-6.018336186905330620e-02 -1.717065626167507686e-01 -7.943254672512309877e-01 7.655969044718141658e-01 -7.285677922707110843e-02 -6.391817187497101926e-01
3.689852491147794372e-02 5.303682773859654670e-02 -7.732843515279622659e-01 -9.911524613594804300e-01 -1.141545986039208677e-02 -1.322364761222093177e-01
-4.941984416814002024e-02 -1.302862115613505900e-01 -7.031752723045320286e-01 8.126909586629269544e-01 2.515992525849581885e-01 -5.255770369852772461e-01
2.720333876943263618e-02 -2.710145685433644480e-02 -6.322966356974301094e-01 -9.669900265014655938e-01 -9.400110507473621868e-02 -2.368418900689305828e-01
-3.651829464237812267e-02 -1.379760977666345534e-01 -8.605172490853866263e-01 6.960610652981155111e-01 -1.418385073339036850e-01 7.038329568962672367e-01
1.531753379989536645e-01 2.268577163095864824e-01 -6.380073709649537461e-01 1.401522056412142225e-01 -7.045915794360243511e-01 -6.956350087810067029e-01
-2.660707035220047714e-02 2.271359065365611066e-02 -6.878829940933066656e-01 7.460371770491106558e-01 -1.003416146697210937e-01 -6.583009120653466884e-01
-1.479437486603220331e-02 -1.046580115606946942e-01 -7.167474158952934493e-01 -9.566016573374775955e-01 6.974447811570237687e-02 2.829292790637960575e-01
2.859817873729212853e-02 8.560863408415315956e-02 -7.908624123988061694e-01 -1.535648841452262880e-01 -8.909264210816451035e-01 4.273966993041883877e-01
-2.179269552758461223e-02 -1.805401347231260639e-02 -6.524314317759293269e-01 3.758766056276409140e-01 -5.334398067127154031e-01 -7.577326375154657123e-01
3.136023560503709701e-02 2.244898767774610934e-02 -6.812398221076222393e-01 -9.877188820728637353e-01 1.048629039584972472e-01 -1.158239239972623513e-01
6.966577777186418186e-02 1.742905320667074986e-01 -6.393391258010695521e-01 4.904389474949208405e-01 -3.676255254711743303e-01 -7.901399317855779536e-01
-5.257548064401187243e-02 -9.557924926483130079e-02 -6.988128460598798108e-01 8.009397395579156420e-01 4.258683458984240805e-02 -5.972285116406580441e-01
-1.813777513099698504e-03 5.635521687895599791e-02 -6.508669166172751375e-01 6.886655082740118505e-01 -5.427796850054319444e-01 -4.807598478025190136e-01
2.778476163367042673e-02 1.845636319698028271e-02 -7.047653072366316662e-01 -8.405110070032648650e-01 5.355770979785227093e-01 -8.184387104274616631e-02
3.873692095642670280e-02 5.189490206910073178e-02 -8.248530306899968245e-01 -9.523342968328205593e-01 -2.190431575209632609e-01 2.123192930922286337e-01
-1.091564127791238951e-02 -6.744764514443656045e-02 -8.662777906064150768e-01 6.093284912155616517e-01 -2.896359515558848963e-01 7.381258736552218647e-01
-7.445604943820106902e-03 5.034363699373829021e-02 -6.530164719699861342e-01 7.753439134094459728e-01 -4.913949945059405411e-01 -3.967023762387018038e-01
7.739452268193169893e-02 1.615579625479053316e-01 -6.362052474650582434e-01 -3.146312334549678392e-03 2.281317483169430504e-01 -9.736251877024076906e-01
-2.616922940913975551e-02 -1.500188262055482669e-01 -6.830937833321946151e-01 6.410416315561985323e-01 3.492162008288808850e-01 -6.834571469305226188e-01
-7.720684546432695326e-03 -2.015776329309771353e-01 -8.583270188494366293e-01 -8.677404801834136538e-01 -2.100942123570451459e-01 4.504296626390534297e-01
1.467689931798640268e-01 2.008278783079249230e-01 -6.335402057754081495e-01 -1.848856413553015277e-01 3.482538216411576459e-01 -9.189867111840995806e-01
-2.259840486124751330e-02 -3.087436372081445515e-02 -6.455620580714327428e-01 4.776165435717159014e-01 -3.410854566530368559e-01 -8.096561915815853050e-01
5.668232466788837229e-03 -1.359091456957792488e-01 -6.555541134705018536e-01 -4.647233481073647088e-01 6.035701245706439622e-01 -6.478698283217539933e-01
5.974172890602318271e-03 3.032668108949303654e-03 -8.546055342365967977e-01 6.550000351517497599e-01 -3.306180759843684314e-01 6.794605520437527746e-01
1.678535860254196446e-02 4.572257421480938749e-02 -8.385798234610022384e-01 5.227040461885610334e-01 -4.783287607235462424e-01 7.056784513946725568e-01
-6.721400979134486975e-02 -1.127289804431658021e-01 -7.353950193209189967e-01 6.599954744049205679e-01 4.602005571634828485e-01 5.938193504353356245e-01
1.040290622304590462e-02 -3.359684806802677032e-02 -8.150879148380245631e-01 -8.202692423513542330e-01 4.340052801389875370e-01 -3.725557500077194550e-01
-9.216946477165116614e-03 -1.820155019355155224e-01 -8.331689208950634473e-01 -9.649277763647727824e-01 -2.569769125540841692e-01 5.364002995809825924e-02
-5.115236672815740709e-02 -1.126585633341760373e-01 -8.360650366313852055e-01 8.072443713909306373e-01 -2.327511782201969193e-01 5.423867751842513796e-01
-1.015907794458510011e-02 -6.039148486585524389e-02 -7.820811400569303018e-01 -9.439147265898053529e-01 3.145188126834975728e-01 -1.005132100524899902e-01
-5.593953651994679199e-03 -1.006696340280413410e-01 -8.744059377815158740e-01 1.392815463034455525e-01 -6.731929323991476220e-03 9.902299389469590984e-01
1.045420687895758398e-03 1.022135671536899548e-01 -6.894990907393772073e-01 5.977052945086716029e-01 -6.009313124048203392e-01 5.306881746258557131e-01
-6.976033921362272475e-03 -1.365344148597011642e-01 -7.048487602054187562e-01 -8.907881009480457246e-01 -1.311985810524203266e-01 4.350672264595505934e-01
7.586493497994754864e-02 1.507516081738219105e-01 -6.400042806870487322e-01 -2.907004203458493086e-01 5.021443101273409537e-01 -8.144595492825187355e-01
-1.891044284654638113e-02 -1.617338725083911910e-01 -7.435033832899030637e-01 -8.706913376773426361e-01 -1.475839338481357843e-01 4.691647652622145115e-01
2.714857345625740562e-02 1.688206279869384346e-02 -7.078999881215034540e-01 -8.142974907307664045e-01 5.490813415070684433e-01 -1.882266638879185605e-01
-1.261307783404870542e-02 -6.864545141314956633e-02 -7.704096265182027725e-01 -9.759097857138179233e-01 2.035714906355975129e-01 7.847762960494510109e-02
1.728574889420562977e-02 5.792729703095139335e-03 -7.836872320404537628e-01 -9.593706942268646065e-01 2.350014860641503611e-01 -1.561479189944743606e-01
-2.033518938394398429e-02 -1.740793513352592581e-02 -8.243755245197422754e-01 6.663324761196001145e-01 7.439775006302831173e-01 4.998509602111109174e-02
2.838664105880434052e-02 -9.281641978720797312e-03 -8.375783068050793867e-01 -9.800509267940997749e-01 3.139326574857932012e-02 -1.962514809005658223e-01
-5.129350013211238235e-02 -1.505651939792070348e-01 -7.311760416056618528e-01 8.996980601388928633e-01 4.189113797835584130e-01 1.227055682116682117e-01
3.745872201639836863e-02 2.916443157196259989e-02 -8.427748784748299027e-01 -9.423016034153331999e-01 7.836350832961615220e-02 3.254640514145399899e-01
1.655900432739862080e-02 -7.199421005608133695e-02 -6.573201116749546324e-01 -9.650177068479679487e-01 8.450937218515301719e-02 2.481914411956240574e-01
-3.054221907665483071e-02 -5.367594947365994518e-03 -6.685311357609142746e-01 7.435723264424264345e-01 -3.943036403234476683e-01 -5.400229944888227385e-01
-3.073476147403133435e-03 6.095678278820872154e-02 -8.012777326379357801e-01 8.264167321513180564e-01 -4.356667114960166565e-01 3.566930071007605729e-01
-1.403506222129905119e-02 -4.245397776889647812e-02 -6.260653206476279875e-01 8.352231944557889642e-01 4.153553247606432408e-01 3.603916891883716667e-01
1.507177332301347199e-02 -9.127672045438349480e-02 -6.567021889748410057e-01 -9.940701364287113373e-01 9.951728346031696315e-02 4.382777832930275647e-02
-5.856247756394352549e-02 -4.413346953681240858e-02 -7.665621769382724437e-01 9.085326113884087951e-01 -3.788988695292141995e-01 1.760799270593954302e-01
5.194076974305577438e-02 1.546737648881971461e-01 -6.794739852510818245e-01 1.140400780883669418e-01 -3.580109120642626652e-01 9.267270619942605814e-01
-7.983207266603238594e-03 -1.376900777062523562e-01 -8.511753617319279819e-01 -9.332569829620120938e-01 1.295313645469891584e-01 -3.350418322407479055e-01
2.877853963612020394e-02 1.387773565113047947e-01 -6.812812114687507581e-01 3.818220450171864733e-01 -5.255303150423306091e-01 7.602827197236583512e-01
-2.316318702752869982e-02 -9.610314485529361517e-03 -6.416077908344454128e-01 9.775923448033426721e-01 2.102661617725062881e-01 1.006720394949114396e-02
-3.380088702653057109e-02 1.151614314908163024e-02 -6.868840769849358097e-01 8.016909776224350193e-01 -4.799957062605036962e-01 -3.562242248503947883e-01
-6.587979144412436927e-02 -1.575057777550115945e-01 -7.549581282807267257e-01 8.908637397894839660e-01 3.198538711575176219e-01 -3.225760348101592845e-01
-2.862534334048827747e-02 -3.321916249741653504e-02 -8.213828556364459743e-01 6.472238091966292517e-01 -6.072744965313774390e-01 4.607808879191581664e-01
1.333411765905271051e-01 2.097149925061608522e-01 -6.715371148722246719e-01 7.509277347658978308e-02 -4.355473598902907112e-02 9.962249044992400604e-01
-9.888306967540795231e-03 -1.784588945460139353e-01 -8.256234106680215845e-01 -9.609063455109347895e-01 -2.762460652962360763e-01 -1.863079614959319355e-02
-6.898000208089519192e-02 -1.033362177589497721e-01 -7.893650572362820306e-01 9.256090038697488698e-01 -2.924372515936315420e-01 2.402674048547039642e-01
4.082468626496906644e-02 4.921312259532224787e-02 -8.151389398340164183e-01 -9.810881990369301198e-01 -1.767982102735761452e-01 7.879301082287371027e-02
-1.034621151733226309e-02 8.556298797121701660e-02 -6.949393131501354626e-01 6.620452023171548017e-01 -5.837417364508449280e-01 4.700443970671175919e-01
-3.433517591058634494e-02 -7.124818590041338828e-02 -6.588728326063405527e-01 8.384468267147857645e-01 1.613946649366548580e-01 -5.205369159837666126e-01
5.837130466667611074e-03 1.101734172320785743e-01 -6.698896432224711317e-01 8.402340910818798525e-01 -4.774424054936471928e-01 -2.570124931209511465e-01
2.337723278959906101e-02 9.177946638423035985e-03 -6.202329182364159088e-01 -9.174272014169063683e-01 -9.848188859411864671e-02 -3.855238614136338171e-01
1.188488663517838356e-01 1.979716827341606589e-01 -6.710977886743766385e-01 -4.953190854951908251e-02 9.634216596104899777e-02 9.941150723600240546e-01
-4.494122945883756437e-02 -5.241154006065114335e-02 -8.140994317756095056e-01 8.041130713183197720e-01 -3.982570484441890213e-01 4.413541569981432322e-01
-9.893836339748485892e-03 -2.149557535868779623e-01 -8.137419560972822818e-01 -9.209637212770602765e-01 1.493083563605687204e-02 -3.893621633373205992e-01
-1.503007286493921076e-02 -1.085660056888823055e-01 -7.170042755230445763e-01 -9.462465763302880806e-01 2.574461524371923077e-02 3.224199614930214897e-01
-6.362396760972842402e-02 -1.202818896705705187e-01 -8.180014487421428671e-01 8.908792727589441851e-01 -2.175274549454415673e-01 3.987680124000089199e-01
-2.291188028376680771e-02 -1.120295399260062830e-01 -6.590950087768558951e-01 7.235164166142807884e-01 2.997924744608536640e-01 -6.218106360832604818e-01
-6.881240213200824629e-02 -1.092360925549128864e-01 -7.316482132608544964e-01 9.426685906545123617e-01 1.033296467717843697e-01 -3.173309192175478577e-01
-1.617986978294706779e-02 -2.036042034833842884e-01 -7.592614342671164529e-01 -9.826763561741680419e-01 -2.160107295625637511e-02 -1.840667614301894073e-01
-2.766829445400175239e-03 -1.396606470451762783e-01 -6.970180997525939892e-01 -8.913932748031688780e-01 -8.336025193239011977e-02 4.454987071063741255e-01
1.045198071010535433e-02 -3.738572134143235137e-02 -6.899609420304441132e-01 -9.720212228384436104e-01 1.370314554790078576e-01 1.907802991950726390e-01
-6.727436408368972498e-02 -7.255243622395157743e-02 -7.323634349663604715e-01 9.600468365819194716e-01 -1.228280782490321493e-01 -2.514425078675022185e-01
-1.867560262656360603e-02 2.188311309237873578e-02 -8.069358374185547911e-01 8.088560879435023887e-01 -4.319801410804499642e-01 3.989298017306398547e-01
-1.123691094166094423e-03 -6.512308582264980661e-02 -8.212568902673456073e-01 -8.423977794155974586e-01 3.259932884960325961e-01 -4.290621832452878315e-01
-3.507635763997130063e-02 -4.332606409975848366e-02 -6.591363210947763784e-01 8.626812669961315683e-01 -7.183292362542678666e-02 -5.006206774169170703e-01
-2.359331172339492605e-02 3.813030883181902503e-02 -7.559422922434485548e-01 7.141121570751850500e-01 -6.919650772223164825e-01 1.059630078005511650e-01
-6.189573513089897255e-02 -1.177800144022875806e-01 -8.203791321611568765e-01 8.697676987344569177e-01 -2.274252653369865651e-01 4.379291026234365392e-01
-3.268322753849291912e-02 4.702099957600990032e-02 -7.055762826872049587e-01 9.029964904990239738e-01 -4.232719085227007461e-01 7.374435301768252071e-02
-4.190829728163456003e-02 -2.183539822836928213e-01 -7.958819108556123290e-01 6.510698882036098922e-01 7.338065146638740321e-01 -1.939999992561780573e-01
-1.845671434247026649e-02 -1.982439518226921174e-02 -6.270186768670051869e-01 8.574610084775374785e-01 -7.798733642360557161e-02 -5.086045559157290619e-01
-4.239289396905348423e-02 -5.511431411666841036e-03 -7.654574540390187698e-01 9.575467578506726696e-01 1.046307975927371903e-01 2.686198107451731598e-01
-5.915565038833536099e-02 -1.151969749542167271e-01 -8.243490681340668313e-01 8.522701956239515653e-01 -2.534752956163499604e-01 4.575869186977655767e-01
1.555732430233779662e-01 2.043965425543399217e-01 -6.339948129910112362e-01 -1.868108981658065104e-01 3.406837714487521152e-01 -9.214316340336592415e-01
-1.738769759799618092e-02 -1.668397756465515858e-02 -6.461014064426969794e-01 9.992048447319114013e-01 3.075628339611925430e-02 -2.537182090301799003e-02
-1.358707891652185737e-02 -2.423953524263376680e-01 -8.385514029801414138e-01 2.863905080289858573e-01 8.974666265081517880e-01 -3.354610725776946967e-01
3.096950034026893506e-02 2.193987181941179851e-02 -6.781454077303881167e-01 -9.899507083003296071e-01 1.160585998800016255e-01 -8.079601803040509234e-02
-3.891220856821373669e-02 -1.944060904039643656e-01 -8.562092058364477731e-01 6.332514247650711248e-01 2.592282658389521988e-01 7.292416192340760439e-01
8.578476389208304284e-03 -1.216840957275027724e-01 -6.461260617376900495e-01 -6.899494725562477226e-01 4.154336419001875558e-01 -5.927770360741904110e-01
1.656907864009567188e-02 -3.635475740263411325e-03 -6.962079260998541574e-01 -9.353325168047920135e-01 3.446867461466455729e-01 7.965004732234176599e-02
-4.482808699647890943e-02 -2.091458096595839589e-01 -8.279744989856238080e-01 6.567167881566794430e-01 -3.422392378016974462e-02 7.533603275951449296e-01
1.431169785907629444e-02 -9.814001313687190087e-02 -6.527665714230196370e-01 -9.936901822067845114e-01 1.097364914653591178e-01 -2.318888153233449392e-02
-2.950550514074156208e-03 -3.989962776788227167e-02 -6.111576798228606222e-01 4.457009491681741542e-01 1.233403858794012153e-01 -8.866441299200649162e-01
-4.046029249036987158e-02 -1.967800763258110153e-01 -7.485662876794986209e-01 5.993902909150983227e-01 6.672734300677847230e-01 -4.421283169875995789e-01
2.811165193655862371e-02 -5.607446760715043346e-03 -6.566100484515530189e-01 -9.897452828491692944e-01 -6.939971090742967641e-02 -1.248517328825789335e-01
-3.336695290307219175e-02 -1.499070125068913129e-01 -8.645854485776331977e-01 5.579796976613582427e-01 -2.361477263466995030e-03 8.298512399357329539e-01
2.289954191615210539e-03 -9.294925582275033460e-02 -6.263338220583812843e-01 4.420343978779862071e-01 3.579375552565393637e-01 -8.224878708100311631e-01
-3.970765369264870476e-02 -1.422209137402364598e-01 -6.949256557287699643e-01 7.692185315577448890e-01 3.073820593518341582e-01 -5.601956089588460141e-01
1.127534537781123627e-02 -8.643844646688143493e-03 -8.634957872358156594e-01 4.332292518360047473e-01 -2.807183669629175204e-01 8.564517580128424568e-01
-5.105126067355889724e-02 -4.443388000692450462e-02 -7.141022011027867711e-01 5.060335510725088026e-01 -6.460289196121017374e-01 -5.714688794796857207e-01
-6.285059254866665057e-02 -1.414638344126170622e-01 -8.208741225588538359e-01 6.350790698820742985e-01 7.722394588533638693e-01 1.791070036552034131e-02
-3.528690265412478405e-02 -1.617557345181748485e-02 -7.750743589841031511e-01 9.625334152973129553e-01 -1.221005819323813524e-01 2.421174762958352156e-01
-5.965514962244968661e-02 -9.374623136785817379e-02 -8.019921065931682191e-01 6.211763935699705641e-01 -6.899356866277153166e-01 3.716566108505918176e-01
2.091824085197264288e-02 8.209795302383094892e-03 -7.219026653722702136e-01 -8.393071945278348656e-01 1.400905195417454507e-01 5.252980863741456563e-01
-5.563884496380714501e-02 -1.234058025961146665e-01 -8.333497535667304668e-01 8.229173391619128974e-01 -1.534384661662013816e-01 5.470499885817026176e-01
-3.474399604657951723e-02 -6.883196265478490339e-02 -8.420674080770630399e-01 7.448077912959907287e-01 -3.333450503006671894e-01 5.780505440399078543e-01
1.774823655233380704e-01 2.076386667825577681e-01 -6.657742394323854507e-01 -2.248308916907808819e-01 5.712132620222686308e-01 7.894089430905933957e-01
1.992894356729117342e-02 -5.519261943677233190e-02 -6.158054249656305101e-01 -7.725464038160304581e-01 1.930235608348834786e-01 -6.049082235459697365e-01
4.170693570582776830e-03 -2.757421215899605316e-02 -7.838245827937093679e-01 -8.676368750164445975e-01 4.779454636566272119e-01 -1.370196587419132139e-01
2.100097975200767783e-02 1.350819941858441564e-01 -6.761182161081163988e-01 7.659741596807779773e-01 -6.099693251700826213e-01 2.030295767933338325e-01
-1.644071014449476065e-02 -1.478926934864076836e-01 -8.013345437666120619e-01 -9.291628127646092139e-01 -2.547091732552014820e-01 2.679173462749498968e-01
-3.098160078275500121e-02 -1.362070949238478566e-02 -6.634225865913822018e-01 7.857374822150255955e-01 -3.364183777310830181e-01 -5.190754127939203322e-01
3.090357641454901522e-02 2.816457378269020956e-02 -7.136933367222562108e-01 -8.443218064285935576e-01 2.738391054081955045e-01 4.605788005742294522e-01
-7.320507279425201262e-03 -2.309142169438511139e-01 -8.221931242824445096e-01 -8.054758951308083059e-01 3.197995463742432931e-01 -4.989356997670654770e-01
-2.093233751837613593e-02 3.751624744384966098e-02 -7.751094748837017434e-01 7.349651911617794964e-01 -6.638992045070268855e-01 1.380724955791921005e-01
-5.737269302683863093e-02 -1.652923759625663236e-01 -8.228282569525418033e-01 9.206671775426946702e-01 3.452485456722012014e-01 -1.821411263465735342e-01
-4.997882467189051353e-02 -8.797971572312947297e-02 -6.955705748794149823e-01 7.206950952938655508e-01 -3.731571054015989791e-02 -6.922471504934121223e-01
-1.271432306982672560e-02 -1.819103483717483261e-01 -8.062287340886068465e-01 -9.093797295139144365e-01 4.755642829575245333e-03 -4.159397689695918388e-01
-2.655160055929586815e-02 -1.589696442853997804e-01 -7.691174347148209689e-01 -9.891457943289957422e-01 -1.076953400132420746e-01 -9.996154911110695374e-02
-6.032715853446931481e-02 -1.543110522376551497e-01 -7.865922602688132370e-01 4.840939396535633987e-01 1.390565308204753381e-01 8.638960231572236914e-01
4.067121333454298826e-02 4.427548435574581859e-02 -8.230371703521233151e-01 -9.847552335531735146e-01 -1.173844397066819978e-01 1.283667531114772997e-01
1.938499113536124030e-01 2.178609037944493620e-01 -6.441390301841792843e-01 -7.635408271621804133e-01 -3.695462003432555820e-01 -5.295668145459605514e-01
7.405554736672326221e-02 1.908239207084849454e-01 -6.502576955771175449e-01 6.455361159990703479e-01 -7.090528562410263191e-01 -2.837730959715483725e-01
7.932826232412525103e-02 1.954582543997221977e-01 -6.505086607638002061e-01 6.405736965625706825e-01 -7.381536286560542726e-01 -2.116472531691911130e-01
-1.347909291664385785e-02 7.611655154087418329e-02 -7.020602688555204196e-01 5.435324179636396025e-01 -6.064051048995183768e-01 5.803838035079922353e-01
-1.052442541512044021e-02 -8.167132747541466786e-02 -7.925374769262604202e-01 -9.559634551598018559e-01 -2.740535127177841646e-01 -1.050168775291724227e-01
2.931674377748566193e-02 -2.177698560236549993e-02 -8.620787864399377387e-01 -9.796456985014526664e-01 4.363581490893332637e-02 1.959342263741434276e-01
-4.033189263298128657e-02 -1.965784120190034179e-01 -8.313162087884382601e-01 4.923021236322968619e-01 6.053064536206055335e-01 -6.254939778066425093e-01
-2.796360970659719780e-02 -4.123551869994497576e-02 -6.479005889449436228e-01 8.133759242529104982e-01 -7.569048152484632308e-02 -5.767933398126755540e-01
-2.059429243944860266e-02 5.524967495302843951e-02 -7.186129110817219834e-01 8.681205852720438321e-01 -4.469486196709628878e-01 2.158786251604010165e-01
2.040980525409948759e-02 -4.991065466714388749e-02 -6.537052981013468100e-01 -9.328843979992108570e-01 1.492060823872612130e-01 3.278173957377732983e-01
2.009641853190761301e-02 8.258483366533050929e-03 -8.613396069164502844e-01 3.006135401122723150e-01 -3.313700042917587796e-01 8.943295923521971114e-01
-5.433535528855680530e-02 -1.703622004332473738e-01 -8.373990995406169757e-01 9.557945989811843512e-01 1.566518979632593872e-02 2.936175852823568744e-01
1.451652425905322064e-01 2.330037613582545963e-01 -6.639917549190891277e-01 3.437511882349682524e-01 -8.337070928613306009e-01 4.321661762560280451e-01
-2.785133985299301229e-02 -1.372617086896258942e-01 -6.801437823298781549e-01 5.253030242914238368e-01 1.082257789894858491e-01 -8.440046880393513584e-01
-5.866469840776390721e-02 -5.994440935218980221e-02 -7.890702315880646633e-01 8.924266978175634524e-01 -3.403973058599262802e-01 2.961490556894332826e-01
-1.181605439100932853e-02 -1.166232866551590308e-01 -7.095893641549694264e-01 -9.137767111811395671e-01 -6.166006771250528290e-02 4.015098481390830809e-01
-3.767614937980924561e-02 -3.394879070651382613e-02 -8.086741857142641932e-01 7.131348664055452424e-01 -5.444161250863559509e-01 4.416443649167308139e-01
-1.568617530154610418e-02 -7.714805692904865009e-02 -6.355176434858578194e-01 7.285799035976996407e-01 1.401602680362790676e-01 -6.704673171285571165e-01
-1.520036690976335481e-02 -1.021474041819359913e-01 -7.190814203287154704e-01 -9.635593206991365234e-01 1.253446014742496117e-01 2.363094716152536745e-01
2.065459382224041698e-02 -2.619888880589905239e-02 -8.709442531119259145e-01 -1.017224028689519000e-01 -1.592955234471058745e-01 9.819763179243578000e-01
9.940531060015614720e-03 -1.413850057332117494e-01 -6.694213080197510823e-01 -9.731474139963578462e-01 1.647906262162261437e-01 -1.607114188334641813e-01
-3.559376052317501232e-02 1.202953346296943386e-02 -6.952150582098395315e-01 8.932354911855350243e-01 -4.457052237893918134e-01 -5.896787916640767319e-02
2.851829718262856653e-02 -3.204180764110103885e-02 -6.367599839792095207e-01 -9.984311600252168128e-01 -4.188065486838629670e-02 -3.716489524396843214e-02
2.751195266672458103e-02 9.730172378530274613e-02 -7.142263009820173369e-01 -4.530738804276799314e-01 -8.802047908844656821e-01 1.412925510359216985e-01
-1.433060692373702184e-02 -4.029387074240326633e-02 -6.215339141024377456e-01 8.272583538401422354e-01 1.239428090926627257e-01 -5.479797405706875457e-01
-3.901063727313226759e-02 -1.988978615020407792e-01 -8.267624677785464504e-01 7.616101600203992739e-01 7.160877442753404640e-03 6.479958996690887707e-01
3.906483666431592727e-02 1.446349412276813351e-01 -6.816136002364014956e-01 2.422093491676214627e-01 -4.489924596163969994e-01 8.600816254190155608e-01
1.778155046128518102e-01 1.993672878117858926e-01 -6.554985922790395048e-01 -3.110463022621419160e-01 8.826313606000829592e-01 3.524373407207226361e-01
-2.101389469225726711e-02 -1.773001429173540200e-01 -7.550783820020099402e-01 -9.255766967821712488e-01 -1.953910099715323589e-01 3.242377701565765657e-01
-7.012657671430266859e-02 -9.845896117485469778e-02 -7.419857735076306193e-01 7.409617530373634464e-01 3.504558591477141549e-01 5.728493443522780781e-01
-5.692396944285952470e-02 -1.439954042529396350e-01 -7.251585020156569028e-01 9.114124031684173177e-01 3.773048517792337853e-01 -1.642208274690538650e-01
1.234647091491643950e-01 1.773771056796941414e-01 -6.440920587871614700e-01 -4.732807070593673116e-01 8.095327066947090033e-01 -3.473646054463865318e-01
5.919097947105887714e-02 1.653001943350131675e-01 -6.761496431585252154e-01 2.040969399382341898e-01 -4.355547938086481441e-01 8.767191458489744793e-01
-7.419567601637960114e-03 -1.973103562563397473e-01 -8.549465864457298503e-01 -9.490307310770659255e-01 -2.151202157810277737e-01 2.303561682127355792e-01
-6.924587650570997177e-02 -1.446038449291316974e-01 -7.547563377057064926e-01 9.234944840615498807e-01 1.775915147732743116e-01 -3.400282220469734717e-01
-1.373969009245127812e-02 4.904168948679126644e-02 -6.671103125099931974e-01 8.670027976325479502e-01 -4.287997260610088013e-01 -2.538443299097675188e-01
-1.673532580477996023e-02 -3.936430718193630052e-02 -8.430766190194287635e-01 6.518030147900504279e-01 -5.184461932866080147e-01 5.535037258928133808e-01
-6.704905919723737340e-02 -1.086198543871832178e-01 -8.017709999808964039e-01 9.242549200835769030e-01 -2.362643112138239354e-01 2.998866751757376381e-01
3.391159042459758466e-02 5.280532531851881567e-02 -7.423824166940887759e-01 -9.971968359688888617e-01 -4.702480915031331810e-02 -5.819912076667235756e-02
1.712834106366735165e-01 2.243724237833968627e-01 -6.358080687927274433e-01 -1.087228385590094520e-01 -4.682588280224680988e-01 -8.768768524454825242e-01
-5.752266127594586609e-02 -1.390550971496808674e-01 -7.216843007663871212e-01 8.848409001788356543e-01 2.740860449302425228e-01 -3.767405225685248604e-01
-2.776044610525174941e-02 5.836112909602141074e-02 -6.965633902799767130e-01 9.108930577681767504e-01 -4.097995623205515359e-01 -4.835448305613075648e-02
-4.093528259530070101e-02 -7.626350365744775928e-02 -6.781476025312832556e-01 6.399097395163799717e-01 4.437843587162111358e-01 6.273523477527761516e-01
-1.660957840329040092e-02 -2.065430284588930243e-01 -7.594299526378610610e-01 -8.932438725564159077e-01 3.679179997147308812e-01 -2.583635609491573004e-01
3.470185467361813769e-02 7.831632881842871818e-02 -7.187383942521010649e-01 -9.928477616550422935e-01 -1.099756485017552854e-01 4.646158534951854574e-02
2.785319425586264136e-02 3.992617631795378555e-03 -6.694034311809564652e-01 -8.312939576838145328e-01 3.927353208498131631e-01 3.933310611626987252e-01
-8.348034680415738346e-03 -2.435927580057916653e-01 -8.564791824217162786e-01 4.624983501746406378e-01 4.089897461453599892e-01 7.866528228092045660e-01
4.336825968038846707e-02 1.335977644787315066e-01 -6.846459052245007504e-01 -1.816956306179657032e-01 -1.629165763886998020e-01 9.697653772702575781e-01
-2.410859378691083271e-03 -1.226448490063344610e-01 -8.544899089411085447e-01 -8.397309581683689572e-01 4.032360129502382540e-01 -3.636655548077495914e-01
1.522774207729439382e-02 -1.115949231832768195e-02 -7.167427847482740200e-01 -9.440358200508712772e-01 3.118646545532144376e-01 -1.074095326369291087e-01
-6.131000533710310313e-02 -1.761668550930274857e-01 -7.969010242656017207e-01 9.981140954295824042e-01 5.314326559380525700e-02 -3.072532875028029589e-02
1.001423945180267804e-02 -1.732847470822124550e-02 -7.417287402090605442e-01 -9.677464251907096360e-01 2.246524668238762956e-01 1.140093227791019320e-01
2.788020578996794514e-03 -4.407080119736900281e-02 -8.100739528979212789e-01 -8.408078162452461424e-01 4.137961850173634271e-01 -3.490199613288276215e-01
1.376761951719664319e-02 -1.666421292514614141e-02 -7.193457548540608260e-01 -9.483634961742929415e-01 2.916163857427744865e-01 -1.247660317970938210e-01
-1.268214844408930946e-02 -8.144160925885818303e-02 -7.706759810827633617e-01 -9.896252317893843298e-01 -1.386667405704993250e-01 -3.759568679198766611e-02
1.105618107302370756e-01 2.067708907056264034e-01 -6.367037340144870994e-01 3.503161278503611475e-01 -5.767613628438627016e-01 -7.379870872165852358e-01
3.381319287759663311e-02 4.181245069994148078e-02 -6.811466320726807799e-01 -9.376100922952408379e-01 2.260521130449190119e-01 -2.641737250637108403e-01
-2.714452040514205499e-04 -3.603334011473290077e-02 -7.843525086525513501e-01 -8.994567316599136886e-01 4.092472009267618671e-01 -1.532785582045862183e-01
-6.482597954715024757e-02 -1.120722478511610304e-01 -7.390713665211429140e-01 7.196466768062573793e-01 3.963779836297456893e-01 5.700817087535148264e-01
2.854499875525631086e-02 3.774875086048177369e-02 -7.510995182378463753e-01 -7.864744897075779395e-01 6.176005639643826761e-01 -5.236452050902279734e-03
-5.719040098196599003e-02 -1.410134308931830227e-01 -7.224212393183409020e-01 8.766690465155024814e-01 3.017016146384763897e-01 -3.747365989680431775e-01
2.416532779976137552e-02 1.018163573549086959e-01 -6.542391868617173367e-01 1.244163565903993462e-01 2.975495160950614726e-01 -9.465647657103899437e-01
-1.450776799066305633e-02 -1.946974307671230364e-01 -7.446353238496352667e-01 -9.426985918048531587e-01 -9.657353561509160814e-03 3.335057728605829719e-01
-5.460770930520830041e-02 -9.957738315904944570e-02 -8.189482050820818815e-01 6.497230088232469614e-01 -6.307922612959470099e-01 4.242182632735331804e-01
2.912600158907106482e-02 4.972364406300808920e-02 -6.612633338675970585e-01 -9.673241130255112452e-01 1.117275121482990373e-02 -2.532967232115319045e-01
-3.121385174654061484e-02 -1.808216681041854568e-01 -8.650249315828105745e-01 3.567105244135749809e-01 6.007392233922327629e-02 9.322814626642392799e-01
-5.894585397378293568e-02 -7.391090571031398715e-02 -7.610084751020351757e-01 9.482744043784770982e-01 -2.172995691462985823e-01 -2.314228840229017314e-01
8.396987368625980289e-03 4.194545892521225200e-02 -6.310550478596415047e-01 1.882708797930801592e-01 -5.762452454933361112e-01 -7.952958524148510122e-01
3.373988201391044106e-02 7.363755284447079386e-02 -6.659345115860331177e-01 -8.508965043454023158e-01 2.198561500009582337e-01 -4.771146740559665811e-01
