-2.036512158652271226e-02 2.064564226581039677e-02 -8.166682061567798190e-01 -1.896729069567599235e-01 -6.811064630014208587e-01 7.071903381864506066e-01
3.988173374599907756e-03 -2.371536824250447262e-01 -9.007916136956739539e-01 -3.793660358776262398e-01 3.118321395910635951e-01 8.711154501789962756e-01
4.206278401255096611e-02 -1.102026617318423302e-01 -8.077505833157280213e-01 5.216311284924012304e-01 1.493485146621910675e-01 -8.399976112799021344e-01
9.341142225067065874e-02 1.369927663697510312e-03 -7.134450613269406327e-01 -8.632228503183292379e-01 -4.876125857513117778e-01 1.306915334106201476e-01
-7.532476738469348794e-03 -1.183775735541060942e-01 -8.572283867275991565e-01 8.330766776705145205e-01 1.849129996558886713e-01 -5.213352392460336437e-01
5.050728458905966861e-02 -1.267177660595820154e-01 -8.816153648957351097e-01 -7.059492000031486469e-01 -1.239094590681598801e-01 6.973393528034613764e-01
7.806672700920896935e-02 -8.392495965691575133e-02 -7.363834379810190178e-01 5.195276029097702919e-01 3.638336102266884198e-01 -7.731210603031341000e-01
1.041744722858058692e-01 -1.006806328894563063e-01 -7.580206375853349998e-01 -9.822726757933256669e-01 1.631096296278932989e-01 9.238852262306183893e-02
3.946896511136428060e-02 5.098733633823428896e-02 -7.313801709974472320e-01 -5.251548553816517417e-01 -7.260324423727343435e-01 4.439473735606045968e-01
7.881055692560820503e-02 -1.143501004160886181e-01 -7.553318177035309722e-01 8.230368140626976858e-01 5.053830661019063086e-01 -2.592264631455685753e-01
1.392440983215295809e-02 -2.209994295747109982e-01 -8.761483310785624923e-01 1.317265049735645011e-01 3.555770506693706756e-01 -9.253178313016134915e-01
-1.002906326290656375e-01 -1.947976182577842519e-03 -7.776594463989674466e-01 1.014952584971896415e-01 7.752033861738647502e-01 -6.235049499139223572e-01
-1.202997637740443049e-01 -2.589598580909900985e-02 -8.138668264239007355e-01 6.962762558314512518e-01 5.251993729864702365e-01 -4.892494191922499569e-01
5.247914655796991068e-02 -7.318900075006501416e-02 -8.479020621155120008e-01 -4.080299040117484344e-01 1.305411237934528401e-01 9.035876340626325387e-01
6.962300529371102942e-02 -8.115116422311445532e-02 -8.315846230115090387e-01 -8.279190096248540964e-01 -3.440915320613628370e-01 4.428895246734391167e-01
4.356514345263508281e-02 -9.498118903255961185e-03 -7.976116828355606092e-01 -1.721326088867523585e-01 2.405148535159169487e-01 9.552606818015997314e-01
4.993227126504080210e-02 -1.602216358725021550e-01 -8.788403996184507294e-01 -8.310635124212883973e-01 -3.062636049989773679e-01 4.642585945085149213e-01
-7.202520867101321056e-02 1.489164289852281699e-02 -7.538860646422654854e-01 -2.518780128809670199e-02 8.687398389724506620e-01 -4.946278063841456629e-01
-5.385944136501237545e-03 -9.023433186618277924e-02 -8.989453305119179394e-01 -7.986915674066684401e-02 -4.423848375044222569e-01 8.932617608225041916e-01
7.166858582437486171e-03 -6.936320849498012198e-02 -8.109699813565257598e-01 1.867644682868681849e-01 5.565990332334294077e-01 -8.095162441786670771e-01
4.376570234675140891e-02 -8.264437581515096665e-02 -8.653396549147868155e-01 -7.426435887493599841e-01 -4.816444171567113020e-01 4.652946974888531595e-01
5.240711428554498640e-03 1.238830555037318398e-01 -6.487961671060018531e-01 -7.596403396128238450e-01 -6.273864477688291252e-01 1.712682095104755553e-01
5.892747174038454050e-02 -1.174482658274021429e-01 -7.940429241082889167e-01 7.660514780459234396e-01 2.852451743267156448e-01 -5.760211137683912686e-01
8.999967190480416546e-02 -1.418071579803433513e-01 -7.936752592700179187e-01 -8.526313882618676843e-01 5.224481316934023178e-01 -8.225900601979072024e-03
1.428403614272636020e-02 8.470904592731715033e-02 -7.142962062145207236e-01 -9.655294108792286112e-01 -2.592470481304928187e-01 2.332219464020661784e-02
1.197967023187722010e-02 5.679356590649962955e-02 -6.838346687201971585e-01 9.724965800621168666e-02 3.825513239978623470e-01 -9.188019310630325398e-01
3.627690528821618261e-03 1.285950528923827385e-01 -6.019666334579523159e-01 -9.854790116977931724e-01 -1.445958685027539103e-01 -8.901209083644458231e-02
2.205400145000874571e-02 -2.744330118507775328e-03 -8.097720482065505765e-01 -8.180797129052282957e-01 -3.657806786868119109e-01 4.437905794767560419e-01
5.586292903484454259e-02 2.303834557948723077e-02 -6.793196676056967309e-01 2.896497271415138797e-01 2.424198093107460261e-01 -9.259242256365194379e-01
9.408526408434994548e-02 -1.294553338691210032e-01 -7.706589629290120369e-01 -8.483138108589005633e-01 4.974670287127203605e-01 -1.813566476581071618e-01
8.045275218568502529e-02 -3.958178207319194147e-02 -6.957764197481954849e-01 3.069296026350764595e-01 4.376270403692453792e-01 -8.451489765502464557e-01
1.802230075134798881e-02 7.503391574456766758e-03 -7.101066507778269754e-01 5.562215620855280873e-01 7.825600582460362498e-01 -2.796736117496528840e-01
4.518138987405486556e-02 -1.344967884529754965e-01 -8.248808102471782977e-01 8.478803460933453939e-01 3.642901548150942470e-01 -3.852163052278858024e-01
2.080365443423717875e-02 -2.149668127686737984e-01 -9.020834284187841945e-01 -4.629988222672942050e-02 1.511003441909002376e-01 9.874335455569567266e-01
1.751057044074364258e-02 -2.308097281871803463e-01 -8.960946786932124652e-01 -7.785628662000195765e-01 5.283502500008619984e-01 3.386530329089598723e-01
-1.771807459113760100e-02 -1.768682231552953510e-01 -8.822976331193831401e-01 5.089868781666683217e-01 3.054107260896529730e-01 -8.047711763250100514e-01
-7.813375289553521619e-02 3.621297367489734881e-02 -7.966392709000293948e-01 -3.295298957247415061e-01 -2.435276499832244035e-01 9.121975287827134293e-01
-1.248357744391078751e-02 -1.058101696474311876e-01 -9.052529853086489497e-01 -9.730251895219640262e-03 -2.833224200015590499e-01 9.589753534489381392e-01
3.494191961982617139e-02 2.316989314984104278e-02 -6.899240134123320045e-01 4.539567969528937041e-01 4.648788494459747955e-01 -7.601387253903435504e-01
6.977348262186791605e-02 -7.854378324957432544e-02 -7.406978433958778529e-01 6.713222470576800660e-01 2.961300931070613984e-01 -6.794360960103832392e-01
-5.969508337279622739e-02 7.937059568420347377e-02 -7.353999238305656272e-01 3.220074483493750583e-01 -9.382318496015874532e-01 -1.266183225315702376e-01
-1.817051308689373798e-02 8.632784547062632985e-02 -7.203424506665132565e-01 6.693411269753185566e-01 -6.322648857391672816e-01 3.901583909140599604e-01
-1.627263296590659991e-02 -7.571657037372893362e-02 -8.890010541564662416e-01 4.690339357707942192e-01 -6.795919463673332217e-01 5.640584664093060141e-01
-3.663886512915436044e-02 -1.599885232432528004e-01 -8.803472256870845669e-01 5.350255088253058622e-01 1.394641407010024578e-02 -8.447207837154286914e-01
-2.746243631285855136e-02 1.082479467361323056e-01 -5.936702597869274456e-01 3.704529444215490797e-01 9.260446521710568035e-01 -7.215204886066080292e-02
-4.716464694176529526e-02 -3.917820613310316058e-02 -8.106438137101504848e-01 8.073065937855944396e-02 7.953279605213448011e-01 -6.007794902035699103e-01
4.642779732448262114e-02 1.817393004851951136e-03 -6.949812024195854976e-01 4.854418305207659490e-01 4.059170787957711024e-01 -7.743239337141500922e-01
-1.012719121345919127e-01 -2.456277668446344917e-02 -8.002707410631106910e-01 3.861503884932162567e-01 5.937113446195401156e-01 -7.059707619559012493e-01
7.725316581679249339e-02 -1.389105514504780925e-01 -7.843839334577898947e-01 6.154060478984872962e-01 4.920190267557333352e-01 -6.157862238799320931e-01
-1.460298539047615377e-02 1.464192908311644503e-01 -5.475942613422480898e-01 -3.683906878797070239e-01 -9.246727206299114599e-01 -9.627388434250547244e-02
-4.291453409780642686e-02 -7.747442611701807480e-02 -8.438574156317667496e-01 1.474449139585064239e-01 4.746709953029700779e-01 -8.677254425023254170e-01
5.619926222157169832e-02 3.501472280108542529e-02 -7.341689340562644883e-01 -5.760420919601761947e-01 -6.195225131572227317e-01 5.332610655031012614e-01
7.142003350203392220e-02 -1.671160051531224433e-02 -6.894293079748291531e-01 3.666194653675995396e-01 3.761060090003235934e-01 -8.509608907625685337e-01
-9.235335620715302840e-02 -5.037711920317384379e-02 -8.535340478673901776e-01 -4.487916443236756869e-01 2.293767607456335678e-01 8.636969153673594857e-01
-1.008689985803829237e-01 -8.157826423865813248e-02 -8.429643019719698094e-01 -1.096866135659296665e-01 6.716462631234206837e-01 -7.327074068390349026e-01
-9.654817641200559228e-03 -1.135100355322829838e-02 -7.508282147422370434e-01 2.943151613189315952e-01 6.849986263791235652e-01 -6.664498988495124454e-01
3.705972760217997319e-02 -5.196227246868824479e-02 -7.636254641378480423e-01 6.262908159086415516e-01 6.751997276924508462e-01 -3.896987832063736890e-01
-1.407313847585519792e-02 5.693714414625885428e-02 -7.660884617702701238e-01 -1.750144679088467548e-01 -5.114016699494127183e-01 8.413312474855163536e-01
-4.206634258441988017e-02 1.344504440049191785e-01 -5.601073684118950124e-01 9.489070982409391064e-01 -2.994948398670253531e-01 9.938893198433119969e-02
9.965450427776594011e-02 -7.723239051574412595e-02 -7.649737584103732946e-01 -9.205783248784503714e-01 -1.597773600731691168e-01 3.563800541164381386e-01
-5.043876032468710101e-03 3.143020399315318934e-03 -7.340304298734043886e-01 8.751297413998380958e-02 7.981240001150260444e-01 -5.961036485356926429e-01
2.365391939328577442e-02 2.266737016985021294e-02 -7.879923591854903764e-01 -7.333662524844065667e-01 -4.957111054231663760e-01 4.652358968062547118e-01
-2.577562191108860243e-02 1.450126386975047754e-01 -5.266613371291198886e-01 6.699971338685867250e-02 -9.885571498579123206e-01 -1.351510261554825232e-01
-1.655743871029254771e-02 -1.810010513413737587e-01 -8.832224643138214537e-01 5.381614633421146765e-01 3.017952079733075554e-01 -7.869573634053003142e-01
3.036976981966839351e-02 -4.851224433044864365e-02 -7.678554307751500607e-01 5.618159959522908142e-01 7.306152537002987835e-01 -3.880259498443159316e-01
8.622900689600357382e-02 -2.855869394464308209e-02 -7.601778793348269447e-01 -8.240421137559232889e-01 -4.097128726532559551e-01 3.912671168637698593e-01
-4.181804819106400145e-02 -9.506111325604724854e-03 -8.339144813468153394e-01 -1.283268669699449416e-01 -3.104432535723816167e-01 9.418902279592203941e-01
1.324099152715915023e-02 -7.700560860231499272e-03 -8.315210719778228787e-01 -3.292316936448719950e-02 -5.995111905513325068e-01 7.996889378519133063e-01
-8.567533419474390732e-02 -5.599858485160384008e-02 -8.592931934996432819e-01 6.324669954944450723e-01 -6.950743015409033276e-01 3.418438458531250501e-01
-3.866268914784162097e-02 1.213202672903888057e-01 -5.982851271226128365e-01 9.778007219815864071e-01 1.808171958836350957e-01 1.058814892465508722e-01
8.530753115483458160e-02 -1.106077918425426715e-01 -7.465889551441944327e-01 3.220448716216565144e-01 5.085964200115267175e-01 -7.985090996436106092e-01
5.032599229670228769e-02 5.294341983878897429e-02 -7.076810062613646535e-01 -5.629661983693140526e-01 -8.172423286558487820e-01 1.232235194545593521e-01
-7.521188270067319381e-02 2.153723054397283995e-02 -8.175842052621921097e-01 1.458204790056140954e-01 -7.233281371675780447e-01 6.749316957176145770e-01
-1.594133019618860971e-03 -8.671966936495112410e-02 -8.966964332023656947e-01 -1.343363248860882098e-01 -4.447392771955158697e-01 8.855285015942226945e-01
9.066046685536878480e-02 -6.921666201626887338e-02 -7.768950193986624564e-01 -4.273278964433358529e-01 3.944546483243276114e-02 9.032358076523909762e-01
3.406852467635398864e-03 6.905730780885870057e-02 -6.771795368117154990e-01 -3.228499191060498208e-01 4.613630130125377926e-01 -8.263849586949232329e-01
-6.489488522782740909e-02 -1.425414949940222685e-02 -7.835387247411528255e-01 1.712528871755343296e-01 6.592063820198547086e-01 -7.322017444245384477e-01
4.743976466040107642e-02 -1.243381909740334801e-01 -8.066462755948520247e-01 6.795806426733548289e-01 2.281361016205033232e-01 -6.972259814730583649e-01
7.158865062837588278e-02 -1.295117451613490289e-01 -8.446217319123582312e-01 -9.437982333237735499e-01 -3.145138867204764765e-01 -1.016164840707619171e-01
5.769249608817095948e-02 -1.003708191638621183e-01 -8.538022833474607776e-01 -8.610649782528624341e-01 -5.049941063768735861e-01 5.956555842952123564e-02
-9.707558119004491837e-02 3.526826897628219243e-02 -7.552497723690082543e-01 4.740621736797278052e-01 3.661290335017128861e-01 -8.007587566259598555e-01
1.764056629469109433e-02 -1.211856049801220553e-01 -8.851020568399766697e-01 -5.003424176816330116e-01 -1.282928870737103100e-01 8.562700509738679910e-01
-5.583629147858906044e-02 1.635372324195522031e-02 -7.494147704815008471e-01 1.206324659274951722e-01 8.365394016227413188e-01 -5.344620077207712372e-01
-5.868742809206389799e-02 1.898349828508198722e-02 -7.458682676723350502e-01 9.776907338440464501e-02 8.580980331565519759e-01 -5.040922274568531147e-01
1.155538901482118345e-02 2.885164501709934839e-02 -6.977513177172085523e-01 2.731487580336288690e-01 5.219323645915824317e-01 -8.080695284296551817e-01
7.448500110402175509e-03 -2.142275833161316201e-01 -8.745642311887564802e-01 2.061862431032083498e-01 3.349287692191907362e-01 -9.194073921305520036e-01
6.227365245915346403e-02 -1.395522907091747145e-01 -8.674059295516347579e-01 -8.494631858077710262e-01 -1.148466771180740031e-01 5.149976084529412912e-01
-1.016073284894598583e-01 -2.607733976033363432e-02 -8.416540547318331900e-01 3.756238882290328096e-01 -4.434814912035914269e-01 8.137756825756972123e-01
-2.438706316349973854e-02 9.789678299572422693e-02 -6.945430924953045482e-01 8.364283124617478693e-01 -3.911114483912447315e-01 3.839524880108159399e-01
1.020225971834187451e-01 -5.177219175127848599e-02 -7.427451708791787954e-01 -9.195949405608878635e-01 -2.900996668579317039e-01 2.649289123212762442e-01
3.716733170827730276e-02 2.192625927572341635e-02 -7.779616488562727250e-01 -5.857865370867810784e-01 -6.821737135205725444e-01 4.375993116418595563e-01
-3.507880467382026163e-02 3.132443658693888442e-03 -8.329352055979497571e-01 -4.515603049928935686e-01 -8.311826911065195445e-02 8.883606499022647096e-01
2.091120989311137310e-02 -1.626009604693089139e-01 -8.943226798411534340e-01 5.089274031365851325e-01 -1.989087354236870053e-01 8.375131123205187267e-01
1.961931362163060397e-02 -2.188320192192234198e-02 -7.493693549090024719e-01 4.602380846843596718e-01 5.173021177513962288e-01 -7.215119017563002002e-01
8.762967555031522804e-02 -1.740274524317150795e-02 -7.408194151619361678e-01 -8.672679306343239469e-01 -4.630668786635793177e-01 1.827988029994384311e-01
-4.067050054928580570e-04 -3.205975483216684518e-02 -8.629196379691408403e-01 -2.106983374089782812e-01 -6.365320137490283470e-01 7.419118587040505197e-01
-2.898828366132278830e-02 -1.624136481760422024e-01 -9.086890544869348219e-01 1.146196195487113600e-01 1.797298105983241023e-01 9.770156283278170761e-01
3.166778811492299006e-02 -1.607876941034553364e-01 -8.456662556820306875e-01 4.692344447250864081e-01 9.416945754747817199e-02 -8.780382390014421778e-01
3.681027110457179424e-02 -1.791886071965070881e-01 -8.463915254096641139e-01 7.458474192241044687e-01 3.284342692465269664e-01 -5.795192473259563881e-01
-6.550818500693753044e-02 -5.534075520007988164e-02 -8.276105245973921498e-01 -1.080090775974399120e-01 6.702344256063886840e-01 -7.342478150383726643e-01
6.572804893683059646e-02 -5.170934970858510893e-02 -8.107752169777895368e-01 -8.307507137656062746e-01 -4.253657764820978349e-01 3.590504251156347304e-01
9.549457737618632924e-02 -1.154888871169180431e-01 -7.847933223457406182e-01 -9.795534922668155398e-01 -5.985507560796477639e-02 1.920737507101131503e-01
-4.185388247246857318e-02 -1.445657804265595807e-02 -7.765559313280456788e-01 3.118895936764095045e-01 5.983687971562330343e-01 -7.380241621696181920e-01
-1.287704059475136553e-02 9.507841923283052998e-02 -7.159913085016744727e-01 5.205292081132898430e-01 -6.896908835861123022e-01 5.033645086804979796e-01
-7.419780922010421609e-02 -8.209273710072557961e-02 -8.460907293164563470e-01 -9.074920650503565112e-02 5.461489635781865415e-01 -8.327580027241879845e-01
-2.560423970127531298e-02 3.540824893643282345e-02 -7.077907073741913635e-01 7.391924588223510728e-01 4.105083689404315783e-01 -5.339263880443011479e-01
-5.070614309592004487e-02 1.214181783014171706e-01 -5.076097649916246901e-01 9.759628786455603056e-01 -1.967379606836723027e-01 9.375838272869975454e-02
-2.688725720480898349e-02 1.030282219359750645e-01 -4.878650004770094806e-01 -4.437243197844585874e-01 8.119545083438954869e-01 -3.792606022405208832e-01
-2.635143033810629157e-02 7.603232058231154666e-02 -7.451937288491454758e-01 -2.621295215567405190e-01 -8.624555169097966045e-01 4.329648892003714056e-01
9.762026180925609253e-02 -5.354565411429502986e-02 -7.002886297065880061e-01 -4.638885864722074731e-02 4.249821732627767079e-01 -9.040122931698746367e-01
-2.569287273708973501e-02 8.690685378321104382e-02 -6.711589735155341074e-01 8.579528613148174054e-01 4.153853199345238223e-01 -3.022778915908524433e-01
-2.758882720343534215e-03 3.454311801586888719e-02 -6.982031605647004424e-01 1.219446264329054341e-01 5.334568327068476279e-01 -8.369906306061720702e-01
-8.578912848983696882e-02 -4.445789136680163012e-02 -8.514972416241475273e-01 -4.597686551026277102e-01 1.450850829967355871e-01 8.761067871423844355e-01
-2.987145662055277345e-02 -7.729821532988011279e-02 -8.846578394793613853e-01 -1.310548623839222215e-01 -2.676361952582276826e-01 9.545656027917783781e-01
4.016487632109846245e-02 -2.001932796407048798e-01 -8.914641337558013579e-01 -7.515787993479666751e-01 3.428816832109093382e-01 5.635259174954800887e-01
-2.151614693550453483e-02 1.464539788456666325e-01 -5.374645574092485889e-01 -4.224128255340497962e-02 -9.924358037030894808e-01 -1.152685975296240950e-01
6.222290217688124930e-02 -2.580123847130735837e-02 -6.986155243512218727e-01 5.991444003654667894e-01 4.544097854663982639e-01 -6.591947621022843373e-01
-2.822904073210068601e-02 9.872419617862961128e-02 -6.819642910051192386e-01 9.520776938949103707e-01 -2.367781198614327953e-01 1.936083333501794901e-01
2.405145675373210334e-02 5.174624064206768959e-02 -7.491442079292267575e-01 -8.260099726182315028e-01 -4.597496400797566052e-01 3.260947616594951914e-01
-1.116594382128484157e-02 1.134861827669766260e-01 -5.424922721713639762e-01 -5.435060519831456105e-01 8.391978504942447792e-01 1.865848824351616295e-02
-4.565311981382329243e-02 -1.560614764971435531e-01 -9.042796691122194641e-01 5.746722545009548266e-01 2.559723600622639816e-01 7.773222953131760926e-01
8.732932606439409995e-02 -9.705561434729390036e-02 -8.012085153841148610e-01 -9.205997449957195045e-01 -2.557649604372064789e-01 2.950938740915685643e-01
8.309996947167337666e-02 -8.373937296053005075e-02 -8.018581003378404404e-01 -9.161886636792411220e-01 -2.846840574950086356e-01 2.820519809429193336e-01
-9.181186253800233121e-02 -1.172345402318667601e-02 -7.861359553409236200e-01 1.576862303639380292e-01 6.734806538161149936e-01 -7.221903223451759946e-01
-2.286269005998375556e-02 -4.627261777422917582e-02 -8.084029302608660705e-01 4.917255210644081442e-01 6.086037795003322870e-01 -6.227418819317096510e-01
5.741713564131138703e-02 -1.473038158513127471e-01 -8.760083217757912433e-01 -7.578121638693643414e-01 -5.180023936347229185e-02 6.504132989826689748e-01
-8.330212810009873792e-02 4.658243188468173639e-03 -7.682815945181310502e-01 9.547493382031016496e-02 7.163976518385065662e-01 -6.911287444841817118e-01
-4.110455755978763975e-02 8.287985197131154946e-02 -7.326445605873453948e-01 5.244908675765933004e-02 -9.856348838902582177e-01 1.605396180290863672e-01
-6.122560541094260872e-02 4.065436584516061297e-02 -7.884909383096625479e-01 -3.178022384943453571e-01 -4.916034797044546711e-01 8.107575198235629221e-01
6.925381025691361436e-02 -8.306178244583223291e-02 -8.336129371499477747e-01 -8.129189312413303004e-01 -3.411860919487530452e-01 4.719691323489183521e-01
-5.550438372223143180e-02 -1.519250636182494507e-01 -8.885682792678063491e-01 4.836651480256002333e-01 5.254832998151961476e-01 -6.999538029046681320e-01
-9.625416824491522805e-02 2.326011692514087792e-02 -8.049528254288541573e-01 -4.983874192993748009e-02 -2.751773142441871212e-01 9.601007996706373282e-01
8.306094832649715820e-02 -2.558958615450177693e-02 -6.891530428961778476e-01 2.355315961183571394e-01 3.733048882622163611e-01 -8.973117226635752841e-01
-1.916294756114440048e-05 -2.336945939202081379e-01 -8.858687296121938726e-01 5.268661113182544486e-01 3.499094914199017414e-01 -7.745808211921119124e-01
8.153357408594418682e-03 1.173301734268664409e-01 -6.584502294366560982e-01 -8.180532649865204231e-01 -5.506671739295793122e-01 1.659955397030433155e-01
2.894182381284324257e-02 -5.810722240080968930e-03 -7.225841176466093474e-01 5.773972722080422670e-01 7.042825609888158089e-01 -4.130356695658948252e-01
-6.673870327739264696e-02 7.717690088742162891e-02 -7.475122591200820121e-01 2.134137580692589409e-01 -9.607616722249880947e-01 1.771766831448214619e-01
7.828354622950757513e-02 -7.145126381319254205e-02 -8.023249607980811327e-01 -8.812584073790508121e-01 -3.673465226245342663e-01 2.973888897376659735e-01
6.071309331637066847e-02 -1.382816787156190830e-02 -7.870449022567879149e-01 -6.375811205554944294e-01 -4.216963947557083592e-01 6.447189041444634228e-01
1.835173226953612513e-02 1.810499928635661213e-02 -8.108989550899856624e-01 -6.319330317828938393e-01 -5.525080447011397888e-01 5.435029934436458321e-01
3.363440291530295223e-02 3.786529001025294716e-02 -7.459246956853138322e-01 -5.118850234190771564e-01 2.185894002427707719e-02 8.587758203048488914e-01
-7.998442288474957862e-02 3.842658937871596542e-02 -7.973762512185587070e-01 -4.838457494817398064e-01 1.334161787550854350e-01 8.649239353578119793e-01
-1.256476758364088175e-01 3.587508037455349689e-03 -7.973456817318508305e-01 9.729949394404345808e-01 -2.444899339516935430e-02 -2.295279820528824954e-01
6.552367242433149641e-04 1.354221941696665543e-01 -5.912565815169154027e-01 -9.117657654788874355e-01 -4.086288144894562047e-01 -4.129988946280801348e-02
5.551154176826655906e-02 -1.384024296591083447e-01 -8.039222464844436589e-01 6.544865977827066805e-01 2.548843673886269090e-01 -7.118154624505687034e-01
3.522420218083712612e-02 6.131372228284356907e-02 -7.145701294135790027e-01 -5.115122684114444818e-01 -8.259892841082802084e-01 2.368478452569696135e-01
-2.370008421124348078e-02 1.472221263903496502e-01 -5.623642472602307096e-01 1.437905168452956461e-01 -9.891312946121370020e-01 3.071757289046113046e-02
-1.061808362940480505e-01 -4.806347942443840032e-02 -8.504211890371070615e-01 5.310861704420606344e-01 -3.820058098483696818e-01 7.563194039605738439e-01
-3.137132738624204970e-02 -1.261952405932045829e-01 -9.086638093911220126e-01 1.717461955195820067e-01 -2.240490858246874384e-01 9.593254147919105801e-01
-7.402459520453054387e-02 -3.329572141108348704e-02 -8.009927215067785822e-01 6.645308484131345894e-02 6.115800318354333021e-01 -7.883868670743087170e-01
-7.947943554644652797e-02 -4.814855231140550279e-02 -8.139990397765914931e-01 -1.898215559398104824e-01 7.131005660709305305e-01 -6.748743287234355570e-01
7.611784196996257412e-02 -1.481035251475008863e-01 -8.281638296372049179e-01 -7.915922312923783233e-01 2.006198518552986532e-01 5.771771083463999030e-01
9.196896466753212707e-02 -2.747542007465921324e-02 -7.436821554475051554e-01 -8.721828051388091918e-01 -4.054490715478700213e-01 2.736936331030890290e-01
-3.227666156575724477e-02 3.151414443175933749e-02 -7.186755983503013701e-01 6.647411399049450997e-01 3.571294214445170367e-01 -6.561842677606488650e-01
2.032547507313390081e-02 -1.963269688723170148e-01 -8.670201027201359656e-01 1.915183053282009940e-01 2.786312373134720022e-01 -9.411085868896201800e-01
3.470263540064764951e-02 -5.728096008926036875e-02 -7.754177703170100910e-01 6.458304835813919453e-01 6.234094761930524253e-01 -4.407534588290029642e-01
-7.155427661329100651e-03 1.186957299483121925e-01 -6.769780342844540222e-01 -1.102904923134249010e-01 -8.943524440793245711e-01 4.335547405744756833e-01
2.406188766072312260e-02 6.579241513274744491e-02 -7.194515815227335853e-01 -4.066800345790068105e-01 -8.619696198285909938e-01 3.026875021658020914e-01
-1.359273513701807212e-02 -6.959101345575684217e-02 -8.826658984046873435e-01 4.621460584853277487e-01 -7.391232326896570726e-01 4.900182318290486894e-01
1.010484168988501526e-02 1.075681751781338846e-01 -6.548294461628099139e-01 -9.909737413809351914e-01 5.086522421330239713e-02 -1.240313382141882137e-01
8.703955186660464194e-03 -1.701617286769361616e-03 -8.248311975625149950e-01 3.502588265630676712e-01 -5.545723354573989239e-01 7.548299670521758653e-01
3.395293045856100089e-02 -1.675733472749368347e-01 -9.003187455344625612e-01 -3.274123246058812109e-01 -1.756982682576196664e-01 9.284025464352445578e-01
-5.865770776799960479e-02 -6.261696699825775037e-02 -8.342818626361875323e-01 -4.652121389310559518e-02 6.018979280323769609e-01 -7.972168217544354230e-01
3.691655015484218705e-02 -1.944597374049146510e-02 -8.208363650142161960e-01 -6.901673581035913108e-01 -7.012133579705377429e-01 1.787983344776783723e-01
-2.834387462406981473e-02 -1.091647775275249310e-01 -9.047521141339375239e-01 1.432403404048776252e-01 -2.692549757643180053e-01 9.523570564167893604e-01
-1.871530751843841073e-02 9.553528276438724709e-02 -6.405181065045382205e-01 3.392183083936617938e-01 8.897433209900628137e-01 -3.054304536291635452e-01
-1.134208766690543296e-01 1.867776851248112088e-02 -8.077760647070209021e-01 4.054815159995166507e-01 -4.199069925327086894e-01 8.119500340568190921e-01
5.286875473896973654e-02 -1.918700421465293904e-01 -8.509939531077566066e-01 -5.292371105784465790e-01 8.366444042351881549e-01 -1.411886031113138706e-01
2.373470311054381651e-02 -1.036020720684275101e-02 -7.348145148226075118e-01 4.951118898191783635e-01 6.837876578408382811e-01 -5.360024771810504296e-01
-1.766828763306739492e-02 1.119336531311626720e-01 -4.876581192268626408e-01 -7.175283638428345823e-01 3.674873550460752702e-01 -5.916976347445243034e-01
-2.657891752161499130e-02 -2.739751255990773363e-02 -7.851287144985574784e-01 2.458992759391382399e-01 9.015113645894945460e-01 -3.561050485581401248e-01
-1.129837488065472788e-02 9.360976045583165039e-02 -7.194817328056809513e-01 3.780989023327841481e-01 -7.707647437011044822e-01 5.127991126377996478e-01
-8.536440910576375760e-03 1.427088789104112576e-01 -5.469353410135723292e-01 -6.955683380056851828e-01 -7.136975378186670715e-01 -8.258638916662471019e-02
-4.736408776634856016e-02 -2.032556270123930808e-02 -8.456261444650517989e-01 5.039497901020311144e-01 -8.369073366182849805e-01 2.135900722660290518e-01
3.029267209128343533e-02 -6.155178528768047441e-02 -8.585179737099996045e-01 -7.096326301947202264e-01 -6.306528828226871664e-01 3.141631288842749448e-01
4.243861166528613282e-02 3.122322382600484919e-02 -6.822445679438179367e-01 3.929442278031126667e-01 2.842348763641951437e-01 -8.745315139515821290e-01
4.557686267442292993e-02 -2.048832749582529464e-02 -7.217111689258526308e-01 6.479680821570341642e-01 6.242279652801290268e-01 -4.364364923651153916e-01
-1.072136130498965584e-01 3.297389326238178708e-02 -7.625604633369206242e-01 5.513278094307807464e-01 3.030000969316103965e-01 -7.773214185957386668e-01
1.721387199986995978e-02 -2.246043607309266832e-01 -8.774868423596710043e-01 3.521942017004148218e-02 4.750385314761421118e-01 -8.792599081363122737e-01
-7.619797397592724397e-02 1.508760613962661402e-02 -8.233914065393850290e-01 1.798979931023528267e-01 -6.380758019026783190e-01 7.486627966608196960e-01
-4.276280977197520483e-02 1.197883270890764268e-01 -5.552551052773482265e-01 9.417783265559872552e-01 3.011701474194242167e-01 1.494995850588447805e-01
5.504260456582044797e-02 -1.847182256562472369e-01 -8.701836136781324615e-01 -9.762599602679015165e-01 2.137844582650059166e-01 3.482377610273740265e-02
-4.770582546108967370e-02 -6.819414417768378256e-02 -8.852037908887117057e-01 2.228631284427748938e-01 -4.462297737734304826e-01 8.667243015970028663e-01
-8.965011650345684757e-02 6.078831682147838034e-02 -7.437335882398286024e-01 6.919987599419483715e-01 -3.416920417438205071e-01 -6.359121518321102506e-01
5.116607396473389635e-02 -1.417368797607901354e-01 -8.804025479973507373e-01 -1.901107761820695907e-01 2.818173047142650267e-01 9.404450539734037218e-01
-7.985928903585857996e-02 -7.511431170908425270e-02 -8.404681288397315431e-01 -1.254785812814314672e-01 5.886180470556737765e-01 -7.986137491428280111e-01
-8.557411406933061043e-03 -6.604398803519129224e-02 -8.125688933779486867e-01 6.727209263363818081e-01 5.448178723350987074e-01 -5.006196572782342091e-01
6.809449412861891260e-02 -4.505407890618175898e-02 -7.202222708193560807e-01 6.843723456799076788e-01 5.314669398432191327e-01 -4.991767065100946588e-01
6.090960742083761231e-02 -1.556278299976071866e-01 -8.118952965276854394e-01 8.066343999020534339e-01 5.247942092823055793e-01 -2.719043633309585761e-01
-3.711258001737901407e-02 -4.145689009260417751e-02 -8.709780035268951393e-01 1.419533880812457738e-01 -5.782708472569542124e-01 8.034003129355747896e-01
7.132753874820825513e-02 -5.013757910936802314e-02 -7.212020961203063907e-01 6.843723456799076788e-01 5.314669398432191327e-01 -4.991767065100946588e-01
-5.741370278920268633e-02 -1.228505354119334425e-01 -8.960665576591583248e-01 7.248997662771906603e-01 -4.726875254055143416e-01 5.010856535336903894e-01
4.279427979889181832e-02 -1.376720483936913486e-01 -8.320520455596465137e-01 7.827945505586524355e-01 3.258039310143142631e-01 -5.301740187441265073e-01
-2.252738308472872902e-02 1.207085080604801824e-01 -6.657725285848310470e-01 4.830239089311217926e-01 -7.937559245382888040e-01 3.696477183228185637e-01
-2.505892481268751082e-02 3.002535497998353939e-02 -7.113094688147362232e-01 7.027617645869750351e-01 4.856367871294242633e-01 -5.198873081940078578e-01
7.468804072264524641e-02 2.482470220459722515e-02 -7.202920017308928058e-01 -7.181554622598889104e-01 -6.161168128365029917e-01 3.235008577523016404e-01
-1.098903950854781542e-01 4.270467177569074041e-02 -7.859384154163894243e-01 6.802333335658409252e-01 -6.582767132992466408e-01 3.224195723492062626e-01
2.809693558452889227e-03 -1.996164286713574681e-02 -7.567940453726494932e-01 2.743469810113631779e-01 6.098830437403346405e-01 -7.434893455645319449e-01
5.643695931909971375e-02 3.146700433454743817e-02 -6.790932300428887958e-01 -1.074508834245302136e-01 -1.770720446861510089e-01 -9.783147748255435205e-01
3.644040533350053875e-04 -1.202544969487706200e-01 -9.060949695123048375e-01 -6.955960580423535822e-01 4.419644953772448592e-01 5.664040155771106200e-01
4.269845167999403862e-02 -1.668150650307256844e-01 -8.423170413076666030e-01 4.363523734676186816e-01 6.676835162415763192e-02 -8.972951539992671810e-01
-4.582724089558597169e-02 -1.540200127910268668e-01 -9.047496336891642787e-01 5.380193969245118391e-01 2.151941486230028455e-01 8.150009858468918456e-01
-2.559707156951510857e-03 1.253250123708201380e-01 -5.543964379772056139e-01 -9.745789965401902011e-01 1.974503765572147851e-01 -1.058731708230659513e-01
6.000657309822535895e-02 -1.568649056969727089e-04 -7.746088171903926511e-01 -6.866508058727562869e-01 -5.487701262944739700e-01 4.768249356745529743e-01
-5.403071524366294398e-02 7.905902299195070870e-02 -7.473040167064574080e-01 2.626078950793964834e-02 -9.651599587216369569e-01 2.603394419116470404e-01
-1.775372091146532744e-02 7.151514640945350054e-02 -7.483639990194327352e-01 -2.945742829078258351e-01 -8.443334319833912804e-01 4.475790963444203907e-01
2.519931154941056073e-02 6.851015545723637690e-02 -6.948093310068902406e-01 -5.314095115145692771e-01 -8.334132669471794319e-01 -1.517440527608134859e-01
-4.846852598302189494e-03 -1.162190021438490664e-02 -8.448919083859540713e-01 -1.822222974692359609e-01 -7.447356439342388557e-01 6.419998870396225188e-01
-7.974215856079176074e-03 -2.138105450729093915e-01 -8.850573375638396412e-01 6.816487211133075430e-01 2.310553044053535177e-01 -6.942394884409427425e-01
-7.163883132126022159e-03 -8.866984345349564201e-02 -8.982920359380375253e-01 -4.360979826093597939e-02 -4.634339089736678186e-01 8.850577368223084829e-01
2.829985347593442710e-02 -1.894049501520148615e-01 -9.036798486405326347e-01 -1.055500105844087849e-01 2.474771122748245858e-02 9.941060034295299275e-01
1.295352792429399838e-02 -1.960859920664735634e-01 -8.984130723266295915e-01 -8.568609594187072132e-01 5.788002712394829663e-02 5.122881988531298170e-01
-6.862994518531309596e-02 -1.188297991680388882e-01 -8.633804656626455909e-01 5.459121643706050381e-02 4.138853347580530584e-01 -9.086906672570905785e-01
-4.664253210665521981e-02 -1.572338350175423172e-01 -8.859555223511426103e-01 4.344821263183495930e-01 1.074655611250763254e-01 -8.942462944189136786e-01
2.998349041795780878e-02 -1.908167554811208144e-01 -8.622141137075151063e-01 3.597666289220450286e-01 3.397689602137339282e-01 -8.689793014734848997e-01
-2.510583411273184171e-02 -1.214146851598829346e-01 -9.085531661335826126e-01 1.368070175271958178e-01 -2.364105785875828536e-01 9.619739488609855282e-01
3.766142348245916927e-02 -1.409864677496509011e-01 -8.406689531414580641e-01 7.078944006107851239e-01 2.733084862421036876e-01 -6.512971587009627195e-01
5.335276721716732812e-02 -1.719396236656398347e-01 -8.806992831276120315e-01 -9.638499022996550591e-01 -2.466081944169915274e-01 1.008849061224568466e-01
1.267811950487493511e-02 -9.943086242394308383e-02 -8.331461308225687201e-01 3.294760898007175198e-01 5.874496224941077038e-01 -7.391538725334257931e-01
-8.466032351730556210e-03 3.149139256662291525e-02 -8.010038563551592494e-01 -3.487804641793117999e-01 -7.263186966375614340e-01 5.922949761069882246e-01
5.206588306917076664e-03 -1.087611256203739191e-01 -8.397428102480788414e-01 -3.409368481044900978e-01 4.831438938188977184e-01 -8.064329131862671973e-01
4.458462003326954526e-02 -1.866785475308657405e-01 -8.445592513937192347e-01 4.530584882232128185e-01 5.137338800574098308e-01 -7.285708659629863693e-01
-9.269443631315070486e-02 -2.140738775602561705e-02 -8.430085692672379949e-01 3.623152611219744301e-01 -4.631227787574155319e-01 8.088540927473418796e-01
3.298023701971015270e-02 3.339508902920945016e-02 -7.489150190131752538e-01 -6.983509084668063638e-01 -5.943025095648309941e-01 3.988866201924177735e-01
-1.029689154042398441e-01 2.414037308860077571e-02 -7.630277642259306603e-01 5.644610940013151668e-01 2.398012077251088781e-01 -7.898601484645352278e-01
2.647421936310340521e-03 -2.773388588706526825e-02 -7.636077420287845641e-01 3.679388623821349125e-01 6.483004857696768042e-01 -6.665789328352206278e-01
1.518297704452202784e-03 1.337748424118410939e-01 -6.120473726078757837e-01 -7.750767210541283925e-01 -6.289581287931395037e-01 6.056194106048621434e-02
-3.041534475464828524e-02 1.150398921978236649e-01 -6.566660598852656072e-01 9.398848168589675200e-01 -2.693716342076490355e-01 2.098939106365062535e-01
5.362747173403110967e-02 -8.563337891446542310e-03 -6.954401148638719166e-01 4.670325854134352306e-01 3.415040822467047543e-01 -8.156319794925149802e-01
-6.901594429097475912e-03 3.232513562873674806e-02 -7.987561061139255569e-01 -4.885100846687755460e-01 -6.951254129903985390e-01 5.274073922423100358e-01
1.842182071557559996e-04 1.253144408115459685e-01 -5.755922735240663890e-01 -9.733903850269498559e-01 1.824161100325415452e-01 -1.386921812420655320e-01
-5.311166333665846145e-02 -1.215158468612811404e-01 -8.695789920101515413e-01 -1.699061575021310055e-01 5.364657877093119698e-01 -8.266416129498250775e-01
-3.398923754957514781e-02 1.274490695856893285e-01 -6.210300851694442459e-01 8.741563615744550875e-01 -4.288855046018286155e-01 2.278330078398330960e-01
1.305317729926524714e-02 2.035761088230717344e-02 -8.112526780807703952e-01 -2.051010252784094337e-02 -6.811014095248428823e-01 7.319017732165770118e-01
-3.055020580649833728e-02 7.629437362819141422e-02 -7.471284621767774192e-01 -2.286254688953572589e-01 -8.658855602961718079e-01 4.449411100842029509e-01
-1.324702427873509017e-02 -1.036046881272178477e-01 -9.046067036295836195e-01 3.282026209432729880e-02 -2.762049453885165873e-01 9.605382129509405509e-01
9.449443966684563379e-02 -1.313297421264245923e-01 -7.850675763562752207e-01 -9.753255730956372771e-01 2.155565610451793679e-01 4.770110539644159542e-02
5.852353508081085259e-02 4.681384532382251024e-02 -7.040154914397790398e-01 -6.622001633986166480e-01 -7.477560591973233528e-01 4.849556194678510124e-02
7.793431299856427852e-02 -4.385247403444112423e-03 -7.361332744564785813e-01 -7.851561010330543322e-01 -6.192184882503861676e-01 -9.917702328612004389e-03
7.494047547392997111e-02 -1.247615362752276247e-01 -7.759860523570055735e-01 7.194318212193933082e-01 4.708292664694683771e-01 -5.106247707003349623e-01
-6.026442304195959998e-04 -1.610215625022332619e-01 -9.152001571005837777e-01 -7.910704578520744157e-02 -1.475467014788109932e-01 9.858864266181270875e-01
2.623995313457906653e-02 6.319348232983661162e-02 -6.866232456794079120e-01 -4.018170278021649944e-01 -5.978783315749348626e-01 -6.936026072625495198e-01
9.489520511356968474e-03 4.455594453550577871e-02 -7.847958477869109162e-01 -8.500809359621898376e-02 -7.686558774083667167e-01 6.339887744658501134e-01
-7.923258717771145335e-03 -1.108679898609254456e-02 -8.449295140406991589e-01 -1.285929992902759000e-01 -7.428032262157435728e-01 6.570442965714061723e-01
7.352360181027085828e-02 1.503589804777986233e-02 -7.327214298568843764e-01 -3.247935868844418206e-01 4.373571136686432020e-02 9.447731545032240774e-01
-5.624468754307274500e-04 6.110859304511319368e-02 -6.816889532917110861e-01 -5.259964305199754664e-02 5.833060365736428832e-01 -8.105475589054293994e-01
5.352267683767227002e-02 -1.105651058170337847e-01 -7.978938178902738043e-01 7.655612373894119527e-01 2.778430570571597258e-01 -5.802751308232364513e-01
7.006045728901330594e-02 2.131639600526796449e-02 -6.806085982420215785e-01 -4.319912621266929764e-01 -2.332356988685186927e-01 -8.711972556312951310e-01
7.094384965515306181e-03 2.261151459876848888e-02 -7.032520365087379099e-01 2.773809800602591302e-01 5.201720006034697974e-01 -8.077628870460649146e-01
-1.877175440073182780e-02 1.098599982354589860e-01 -4.879411003432962413e-01 -7.117079021661334437e-01 5.304529452658006683e-01 -4.605339671002767199e-01
-8.971752480929445772e-02 6.299104952383620393e-02 -7.707264403063035507e-01 3.574541698229724562e-01 -8.647460450750577010e-01 3.527616674232275651e-01
8.005446046720306186e-02 -7.455714010342201492e-02 -8.008206017842887103e-01 -8.887431947819386391e-01 -3.555829091222699745e-01 2.893031774262713185e-01
2.839571583399426447e-02 -2.284247747375527104e-02 -8.316479580904292401e-01 1.424290174151190969e-01 -7.165157555486593166e-01 6.828756453767386159e-01
7.151305005094722722e-02 -9.081217047216982863e-02 -7.445448539614935024e-01 6.270099441696460607e-01 3.317573690272620501e-01 -7.048372705869678789e-01
7.945346696256079533e-02 4.113109586287488385e-03 -7.298728063307741154e-01 -1.777125168315679127e-01 1.538545907874470930e-01 9.719809803977735863e-01
-4.920124070238917485e-02 1.243523092949183756e-01 -5.172129659131254886e-01 9.770315062767906955e-01 -1.912947996860426825e-01 9.389214746496492292e-02
-6.121909424665430283e-02 -1.861871023785813262e-02 -8.408669501299025351e-01 -5.974168812947241447e-01 3.698640292688667452e-01 7.115431608813931330e-01
-1.543508677177172529e-02 6.808165888666382892e-02 -7.530120989221154026e-01 -2.452815311683725630e-01 -8.300049764799634078e-01 5.009278485832010519e-01
-1.298675648235835456e-03 1.023414855872902957e-01 -6.279899194137759100e-01 -4.542876472694044598e-01 8.497618159102473534e-01 -2.674464240915326307e-01
1.004626547056054406e-02 9.864045090843867603e-02 -6.963142205298963328e-01 -7.997222133514911846e-01 -5.543145447282193938e-01 2.306073870779926371e-01
-9.219312935226114947e-02 -4.817821297756385429e-02 -8.133885800655387133e-01 2.168209135204413884e-01 5.257710735325854534e-01 -8.225287044818279103e-01
6.362760827066461788e-02 -9.298751064675979047e-03 -7.793039998239676969e-01 -6.974059367757596828e-01 -5.112536307396354784e-01 5.022396682914098687e-01
3.484580279646311025e-03 -8.174267118198225157e-02 -8.217317830535421086e-01 8.819518077615233487e-02 6.657906302109618535e-01 -7.409078531174790871e-01
-4.827430638601130225e-02 3.004276946628801556e-02 -7.311994819499630927e-01 5.405140187850591138e-01 1.490962407780369314e-01 -8.280186631246195805e-01
9.834224805669851410e-02 -9.310282695211924420e-02 -7.307278554516384306e-01 1.704147648593898334e-01 5.275344621981030713e-01 -8.322657022317314635e-01
6.355777634854554992e-02 3.078255585627417013e-03 -7.654751697816619682e-01 -6.850065334720173427e-01 -6.050478912428959299e-01 4.058116538533301232e-01
-5.860844790311076774e-02 2.121435238079021068e-02 -7.421347955243501326e-01 3.145738018458447138e-01 6.801620942865254094e-01 -6.621350683116091762e-01
-9.650503482971200739e-03 -9.644556229069876918e-02 -9.019647767989726894e-01 -5.094569678697090376e-02 -3.598192416916717318e-01 9.316301032530671655e-01
-4.676444625293889323e-02 -3.785052538639808312e-02 -8.665200598611547678e-01 1.824992998235486497e-01 -5.835618226612725445e-01 7.912961548599664052e-01
-7.314760268008890787e-02 -1.202862520727121937e-01 -8.906490616604327837e-01 5.259248660200832592e-01 1.451373997432768570e-01 8.380561857641273260e-01
-3.907368255916045252e-02 2.237927397504159421e-02 -7.330811433332639071e-01 1.544220385132339113e-01 9.218117933249264651e-01 -3.555514754694465984e-01
-7.484379020647859149e-02 2.801841804307718398e-02 -8.100132467518903479e-01 2.378832998849662594e-01 -7.951782056996289372e-01 5.577662205764688519e-01
-7.957036011548153376e-02 -1.226169840835753932e-03 -8.352001897322007817e-01 2.167350054514221580e-01 -5.287485719789398741e-01 8.206405333897440757e-01
7.632015093638111480e-02 -2.042079651716611002e-02 -7.711570855380701639e-01 -7.877027997859995523e-01 -4.414712776058803967e-01 4.296829182761742194e-01
3.080212486520240295e-02 -1.237912778110267092e-01 -8.830563196799959824e-01 1.854974413738332342e-02 -9.209227518936488610e-02 9.955776814708553468e-01
1.766823418344860971e-03 -5.297032210402493474e-02 -8.700452344865547971e-01 -4.362485463341523872e-01 -2.391798411422549064e-01 8.674561714648785227e-01
1.252960405207319099e-02 -2.097055477429216053e-01 -8.724826574578542493e-01 1.193366666151126909e-01 3.039639691069528360e-01 -9.451797001025471490e-01
5.112508133981154279e-02 5.052368113325932802e-02 -7.147427051132646536e-01 -5.974055450485316054e-01 -7.513572279926306052e-01 2.803014996187093155e-01
-3.848578284418483625e-02 -8.661388633024863504e-02 -8.452803140550405603e-01 4.947749460302447444e-02 6.497247683291654807e-01 -7.585576464234079497e-01
-8.691496760512153197e-03 -2.609997441594416601e-02 -7.645099266640978941e-01 1.797292794972555341e-01 7.305956895252054828e-01 -6.587316028084478914e-01
4.776769364850450006e-02 6.959721858409539073e-03 -6.913841130233696619e-01 4.870673505537219672e-01 4.378143141909666136e-01 -7.557010138368687180e-01
7.333899206463495579e-02 -2.611520725246665314e-02 -7.806694516474761425e-01 -7.510163042243458431e-01 -4.071204743936954196e-01 5.198340409386993377e-01
3.446369493472271894e-02 -1.355057417199144465e-01 -8.417673881323782803e-01 6.814550094175182426e-01 2.695019979106421659e-01 -6.804320269225594409e-01
2.812815288134171490e-02 6.697857831815254293e-02 -7.073544683139287859e-01 -4.747220894620361453e-01 -8.775025683879852378e-01 6.803073018341018741e-02
-1.264544362852756433e-02 -4.900142326407321003e-02 -7.995257680768161901e-01 7.507609639584514882e-01 4.536070246603565170e-01 -4.802068743520394589e-01
-8.757705004201384036e-02 -5.494040615548603096e-02 -8.188588621857415539e-01 -1.771746559885078731e-01 6.999769534040581886e-01 -6.918391474747050962e-01
-1.412648851199430067e-02 2.336401810315890532e-02 -8.121449104545570563e-01 -2.408375251533288186e-01 -6.962387893058035182e-01 6.762017707341566597e-01
-4.524086476912559523e-02 4.088237500812023917e-02 -7.862793409972765879e-01 1.944291550497808108e-01 -9.808370589817215768e-01 1.248869067257213882e-02
-1.179603961391137434e-02 -7.935812373125415708e-02 -8.930656887144798883e-01 1.129937389696044486e-01 -5.484790363672966684e-01 8.284945151413318776e-01
6.737766490038755995e-02 -9.365269344513563188e-02 -7.553397652691845598e-01 9.042823157552893898e-01 4.149676545672045247e-01 -1.003759885393150919e-01
-1.284211861871913628e-02 -5.582925055818702131e-02 -8.073856581770704199e-01 7.325489522324494240e-01 5.224567075153849771e-01 -4.363611134775003952e-01
-4.922163725684999824e-02 6.452374223008709719e-02 -7.730183518300026702e-01 -1.584151139140960174e-01 -7.869964629499670572e-01 5.962727723012556380e-01
2.226098083963699500e-02 5.776007293677552779e-02 -7.430755061742827516e-01 -7.656390715674938896e-01 -5.987881035379850614e-01 2.350523753350507172e-01
-7.170346752158085479e-02 3.424615326425206954e-03 -8.339592412126151100e-01 1.897320460791326324e-01 -5.433029374001884237e-01 8.178164029309713534e-01
-6.205250238983640865e-02 -1.460076349025512255e-01 -8.910965333108361586e-01 8.084669450483275011e-01 4.742485912183395658e-01 3.485247085812498424e-01
-5.246080697299927709e-02 1.157434314255848390e-01 -4.974705092256302419e-01 9.918274878484810708e-01 -1.164139402951887975e-01 5.221138624016459506e-02
-1.699593685046902345e-03 6.328546569409715383e-02 -7.619453905287129070e-01 2.298116712679140194e-01 -7.191182190905461846e-01 6.557862324882168803e-01
-7.377610731588418042e-03 1.135538311517937521e-01 -5.743589565082355408e-01 -6.256201866348867213e-01 7.564981895658398070e-01 -1.905514924070030591e-01
-9.298741949070500612e-02 3.740879739585863811e-03 -8.271427172636827141e-01 3.219065876931126446e-01 -5.517374989543486485e-01 7.693905906932944072e-01
-6.062622288766418566e-02 -1.067700546658564426e-01 -8.573824416259263614e-01 3.750768802311625627e-02 4.267403206542471072e-01 -9.035960779391813968e-01
7.331638308562762885e-02 -5.626109770291753964e-02 -7.244508335926506115e-01 6.723131872449875646e-01 4.926735594125467577e-01 -5.525104000037085461e-01
-1.017957676458871863e-01 -8.527117060717834263e-02 -8.651624084532745229e-01 7.887578589272395968e-01 -1.159809796377790359e-01 6.036633601128844617e-01
-4.468737850128313288e-02 1.342611724684018570e-01 -5.320596948605864629e-01 9.113661412663517369e-01 -4.083645772900299509e-01 5.147939945274728618e-02
-2.955040824637537866e-02 8.834909154989895042e-02 -6.869647303494920143e-01 9.967882488482664449e-01 -6.160198157776980432e-02 -5.117013605315592212e-02
-4.930675106740332880e-02 7.966484023622467936e-02 -7.452923711337761103e-01 -1.886003071042494442e-02 -9.475662863569068728e-01 3.190022448218541862e-01
9.608808969949221568e-02 -6.920030100744044288e-02 -7.704206011266407916e-01 -8.886393419216870315e-01 -1.877112913024243379e-01 4.184311067625919311e-01
3.059322076261722714e-02 -7.698634154462534462e-02 -8.017100292937474615e-01 6.092420242362006633e-01 5.310985095972344805e-01 -5.888620628026340897e-01
3.097963345458904991e-02 -5.822297094277821550e-02 -7.815155646527314204e-01 6.079950259952136005e-01 6.229033337007403581e-01 -4.922737909228802611e-01
1.142328249873187859e-03 -2.274105544900830445e-01 -8.823176938722694373e-01 4.782683177702174993e-01 3.441766155571361896e-01 -8.079615544819455097e-01
-2.598778389368508121e-02 -4.591152408953430575e-02 -8.101316166125336338e-01 4.194534088215922663e-01 6.300506561993003407e-01 -6.535250633684811516e-01
4.084475302078965225e-02 -9.149306818532997043e-02 -8.031590453553871800e-01 6.367454364051711169e-01 4.572238955229019353e-01 -6.208877181745915408e-01
2.811241879799435042e-03 -2.943082655814771922e-02 -8.597649059321079701e-01 -2.859331419300177868e-01 -6.115618218646980964e-01 7.377224250241819492e-01
