5.881204420757094042e-02 -6.896045568139309856e-02 -6.311177568510095703e-01 -9.550251519061321304e-01 -1.953284265929221275e-01 -2.231003473583196839e-01
-1.603679346604259537e-01 1.959520277466189342e-01 -5.304181728054355727e-01 -5.364365223418317008e-01 -7.296403457789593094e-01 -4.241000156913015684e-01
5.932710244938812355e-02 -1.219872451397408936e-01 -6.229257970956667556e-01 -9.009936716293871495e-01 1.070098539458211317e-01 -4.204275143735130560e-01
-1.943715515280523276e-01 2.056546984335863026e-01 -5.152662403482262121e-01 -3.490890925600060313e-01 5.023435672072882295e-03 -9.370760751132644062e-01
5.482972829766639272e-02 -1.068035200859059342e-01 -6.239769417215883518e-01 -9.405693164182858945e-01 5.715378759645356466e-02 -3.347578312389686839e-01
-9.431859884090099122e-02 1.824024161883879835e-01 -6.660874115135996254e-01 -4.169067734728942876e-01 -8.837328608226707738e-01 2.126146112914135688e-01
6.212911364427170513e-03 4.573437199722564517e-02 -5.966025427586175711e-01 -9.341571549170718525e-01 -3.562066440470361139e-01 2.161565761178595863e-02
6.506901192226303976e-02 -1.729210589391645403e-01 -6.823105387770618258e-01 -9.379467652337484251e-01 3.294330654854872309e-01 -1.083038362773096341e-01
2.279520857056459293e-02 -2.503523193465635732e-02 -8.098923636984555197e-01 -7.150948183861385310e-01 -1.993208782344684793e-01 6.700079016079852900e-01
1.868032166375300715e-02 1.967542114318562851e-02 -5.876493236073029314e-01 -9.266014042115821026e-01 -3.198811972711433360e-01 -1.977014348594982873e-01
-1.261182422546598854e-02 1.042519095397256707e-01 -6.801217569234048188e-01 -6.730703519925061995e-01 -7.379398261899031697e-01 4.920481878332133574e-02
3.881003394633101428e-02 -8.965412014929564910e-02 -5.832544430971403626e-01 -8.212449913608662611e-01 8.960573430767443392e-02 -5.634957644418220335e-01
6.586027991390461245e-02 -1.674537617790480548e-01 -6.712618672083099369e-01 -9.739127978186834511e-01 2.136623441674737889e-01 -7.643471024242912137e-02
-1.626908033008936938e-01 2.010027395648494308e-01 -5.938336510037812710e-01 4.367263374791904851e-02 -9.984285681851997607e-01 3.511545661346239522e-02
-6.421714859528958319e-02 8.501922028236043316e-02 -5.074421100410313468e-01 -7.356759504674916794e-01 -2.637679918378144084e-01 -6.238648430434268199e-01
-9.117811328570691459e-03 7.767463394118404030e-02 -7.430257490445248969e-01 -5.307041809300909740e-01 -7.842643213250214407e-01 3.213760206361468419e-01
1.357048679711831893e-02 -1.797130880709405520e-01 -8.306245190520258337e-01 -4.073060348340281633e-01 -4.453537785520370607e-01 7.973467287931923497e-01
2.446245012387592010e-02 -2.300926523480741059e-02 -5.684856934349333812e-01 -8.138153115486123079e-01 -1.717155952030313681e-01 -5.551742006371548355e-01
2.615560623543029470e-02 5.282770796991271590e-03 -6.550051396435343509e-01 3.237822199965018077e-01 -3.593942965036353021e-01 8.752147243132933907e-01
4.074159938788381868e-02 9.638215285027500190e-03 -7.180410052526152720e-01 -8.786923261590225964e-01 -4.722119551517147684e-01 7.011180614590252491e-02
5.568053677135940960e-02 -3.948806284630815983e-02 -7.101844170461537598e-01 -9.907444027570880829e-01 -4.154878410635510361e-02 -1.292254887581560374e-01
-3.543962403770639646e-02 1.322143196017814548e-01 -6.576536317686026978e-01 -6.958521779615448599e-01 -7.180942489278290264e-01 -1.141911042733981772e-02
-7.711910736909298458e-02 1.716380524469574564e-01 -6.528082232790617390e-01 -7.050565213521925445e-01 -6.972053889824663120e-01 1.296146105674544358e-01
-1.000002076133450768e-01 1.816206859834065546e-01 -6.793928964397378811e-01 -3.046427751798208017e-01 -9.155270006219822232e-01 2.626843936415987901e-01
-8.234838945241870767e-02 1.673044931595915608e-01 -5.943668512990523123e-01 -7.461571116916662083e-01 -5.993368639852032498e-01 -2.899049639801503098e-01
2.214258376991717903e-02 4.615871681271743049e-02 -7.284335551164027311e-01 -7.793264515611414422e-01 -5.738212245040100745e-01 2.517528236303191447e-01
5.498063670941175096e-02 -4.836083059689800373e-02 -6.583778966166744517e-01 -9.418683383271860832e-01 -3.246427408743217669e-01 8.655127991192924919e-02
5.026841510396961449e-02 -3.368352542324279386e-02 -7.644294662082413705e-01 -8.580761740012187166e-01 -4.321370822574467918e-01 2.774217398645080213e-01
-2.531952269444886702e-02 8.951315360239871233e-02 -6.095465703779495703e-01 -7.872144467843473770e-01 -2.308502593832197081e-01 -5.718405131824032539e-01
5.904193138321237044e-02 -4.625187772245702850e-02 -7.487465721695157894e-01 -9.461187995201262302e-01 -3.216283713972443170e-01 3.760861479703039162e-02
4.951893470175192102e-02 -1.869032703621125238e-02 -6.934820956234999390e-01 -8.778980375495483157e-01 -3.069758078967837478e-01 -3.675063115550111781e-01
-2.102049598604663616e-01 2.026847913542521029e-01 -5.322702631972421328e-01 2.163367610036707744e-01 -2.041577752488558592e-02 9.761053231421776832e-01
2.376117921959182422e-02 4.416801782658286157e-02 -6.686451317435508912e-01 -9.471811454508748396e-01 -2.424672419327329465e-01 -2.098988191770076728e-01
3.927313800572557190e-02 1.382176210229526213e-02 -7.157526797232023341e-01 -9.541185874034968650e-01 -2.886160204151808628e-01 7.974029051150764713e-02
-9.658255178999933244e-02 1.821107501238079240e-01 -6.720237294568971453e-01 -4.548230488892155976e-01 -8.700019046361193720e-01 1.903488380018193149e-01
-8.161971639005233259e-02 8.651443973552389033e-02 -4.882028633330773859e-01 -7.358897275041752506e-01 -2.638581300309745803e-01 -6.235745313676531731e-01
2.390327238265697526e-02 -1.375466118592501841e-01 -5.774450527533068200e-01 -5.393177146880445694e-01 -3.846408147359295371e-02 -8.412234644017355656e-01
-8.753015493672243463e-02 1.404916880099047471e-01 -5.630595807614604542e-01 5.495568820117056885e-02 6.005854269345564100e-01 -7.976697419911155107e-01
-8.028649006715378456e-02 1.732878426140075090e-01 -6.397434143886708835e-01 -6.621418647805409341e-01 -7.487861757695658538e-01 -2.978949280092876503e-02
5.277358106892668377e-02 -1.723636950174768090e-01 -6.389793547503751503e-01 -8.004386954172185709e-01 3.580599645315344914e-01 -4.807192077278143461e-01
6.060597639257879476e-02 -9.435776621713654055e-02 -6.971669428371453092e-01 -8.854101995478290688e-01 -9.660473865211939570e-02 4.546606459840453196e-01
6.823181803258102085e-02 -1.293300318309620334e-01 -6.600575559032588746e-01 -9.794052486000328628e-01 1.859352355072262653e-01 -7.869845749174593508e-02
2.340602792318595762e-02 -1.957328780389938905e-01 -6.135115367447470103e-01 3.447297590621941077e-01 -8.965988388036406631e-01 -2.779782643892954597e-01
-6.091154079296434015e-02 1.510044440279001976e-01 -6.092400076355166672e-01 -6.483564557512633275e-01 -7.167769378581860806e-01 -2.566412430617929230e-01
4.065663631798205335e-02 1.045016849823661616e-02 -6.883968803575847284e-01 -9.013139119554004486e-01 -3.367424119231700597e-01 -2.724661082186533578e-01
1.723157831089737468e-02 5.914436746927806410e-02 -7.131760756640090904e-01 -7.957930464518485625e-01 -5.944075729068003522e-01 1.157284083098575889e-01
2.576092272542651260e-02 -1.693139491817616527e-01 -5.990391115363367103e-01 -6.869965363455841079e-01 7.228907864574903863e-01 -7.392340565776059358e-02
-7.827521531405359778e-02 1.476731839083814668e-01 -7.115321701400920684e-01 -4.361355559855017439e-01 -7.721038163489470918e-01 4.622136665922036425e-01
-4.325732509437164169e-02 1.006064693163498253e-01 -5.581551027763372863e-01 -9.152126190792583271e-01 -3.727259027493605714e-01 -1.531706998670394060e-01
6.189524038493103564e-02 -1.171700930727425788e-01 -6.283308881032478865e-01 -9.149476874470149346e-01 3.138629781331315344e-02 -4.023501330246249119e-01
-1.289703069240466515e-01 1.641907164291143417e-01 -5.524597475229345855e-01 4.029471585103321929e-01 5.127434020176171448e-01 7.581080339475698704e-01
3.649136100853527659e-02 -1.452122835579804962e-02 -7.813625001526619540e-01 -7.279333133534404698e-01 -5.614188255646630488e-01 3.936013130210266331e-01
-7.432374481543509159e-02 1.695206444416982317e-01 -6.531169354102519531e-01 -5.364703537117919696e-01 -8.367462267785876762e-01 1.097966828284945295e-01
5.080584176152754677e-02 -1.387813269415882900e-01 -8.057651256874331924e-01 -9.076176528118932163e-01 -1.018943711348160343e-02 4.196741255730930820e-01
2.997200657140199759e-02 -6.471669095980993325e-04 -5.930699421127348936e-01 -8.784131223606872485e-01 -4.113713426999252021e-01 -2.432365204277701642e-01
6.727213180562241490e-02 -1.014548746615547836e-01 -6.767493229165237878e-01 -9.864893476195174538e-01 -8.808188201705313691e-02 1.381316368307887177e-01
-8.980007440912297911e-02 1.443995880344525196e-01 -5.632995793595139133e-01 -9.034715421956754922e-01 -3.492131031476709557e-01 2.485746990997713679e-01
7.492956776014390169e-03 -8.537704456889439603e-03 -5.477936332811609299e-01 -8.656797823250607093e-01 -9.523766283856378856e-02 -4.914552899813813269e-01
-4.641363018857243283e-02 1.136046955630667515e-01 -5.852628070675509608e-01 -7.664934582575727573e-01 -4.724554282500256774e-01 -4.350559122290276748e-01
-1.094751080932975379e-01 6.938169252629983186e-02 -4.689979413666667263e-01 -6.110431598604766368e-01 -5.742914467482320567e-02 -7.895113362895067599e-01
1.593896500299759114e-02 2.960828276130788791e-02 -5.899859228403309119e-01 -9.384516165758872708e-01 -3.224943531994973189e-01 -1.237172401104302405e-01
-6.927478344630461256e-03 9.797101556835992320e-02 -6.652414887148089262e-01 -8.770711220529666674e-01 -4.787290699226647850e-01 -3.955659833365969547e-02
-4.818783483169809811e-02 1.153677869504492054e-01 -5.840777255405028567e-01 -7.374355424101359802e-01 -3.833821497448823279e-01 -5.560637985404742745e-01
4.772138158802809171e-02 -3.585608068632089446e-02 -7.782718014726155431e-01 -8.146909340976041802e-01 -4.720183281249715201e-01 3.368640375778927942e-01
5.649094775510373617e-02 -9.861939500613209342e-02 -7.105839354659848617e-01 -1.293778869959821276e-01 4.964698848767387651e-01 -8.583583259728612136e-01
1.019469684901976037e-02 -7.925972161407507030e-03 -5.539800947426022359e-01 -8.029371590125882197e-01 -7.940862359161396378e-02 -5.907505304069382568e-01
-2.006207960710945926e-01 2.108144747628680760e-01 -5.130697957773890927e-01 -3.800004961728215003e-01 -1.037404434868744729e-01 -9.191504464958695220e-01
-5.936448875544706599e-02 1.426657496052682050e-01 -6.918989311800740616e-01 -5.407807422093696692e-01 -8.071011346094846273e-01 2.369471404502826728e-01
-1.608165810653902628e-02 1.053966629042774467e-01 -6.569842031078446665e-01 -7.498459209562827743e-01 -6.466196635266663328e-01 -1.400503679605484830e-01
-1.213868606826249835e-01 1.642225766774317863e-01 -5.274563989908920281e-01 -6.159236236371428141e-01 -5.180613010884120850e-01 -5.935070161002925504e-01
9.036732704668941699e-03 4.616046617069877178e-02 -6.271430708677118160e-01 -8.580649753924877166e-01 -3.423122796959446323e-01 -3.828143168352706738e-01
5.046439538212649581e-03 8.146328210840854400e-02 -6.728291116627760360e-01 -7.904354798932712312e-01 -6.032252174606153039e-01 -1.064475887255686704e-01
4.815172117430249754e-02 -9.748698461411051119e-02 -5.999886436177518378e-01 -8.357852904289132523e-01 8.996435281082600099e-02 -5.416358218637191690e-01
2.977346103331816873e-02 9.064482016770040659e-03 -6.099083146845289960e-01 -8.627717703774516744e-01 -4.769307346999235309e-01 -1.678152154554205244e-01
4.963835349577973288e-02 -7.153274039133039608e-02 -6.973151673233003445e-01 9.521490403090979715e-01 2.636816625454583840e-01 -1.545450933408326621e-01
4.986336774303882363e-03 -2.202631455821824763e-02 -5.449415430098420998e-01 -6.689517051907822864e-01 -1.584189853018563576e-01 -7.262279540325304872e-01
4.210010472956007138e-02 -5.041447253863783756e-02 -7.984462792362554406e-01 -8.362676897339259563e-01 -1.770415215028530165e-01 5.189534186909621205e-01
-7.350348199158580897e-02 1.162975902332156475e-01 -5.186774890305427821e-01 -7.964363978308215408e-01 -4.537033716978530196e-01 -3.998028448126215717e-01
-2.711794558201162039e-02 1.122234024292093207e-01 -6.267041412603054917e-01 -8.518668006907786916e-01 -4.192550025938594493e-01 -3.139238708363544794e-01
-4.576612164146652562e-02 1.020876028232921978e-01 -5.881841104922362895e-01 1.019149496917718528e-01 5.851198979429433900e-01 -8.045172764214348904e-01
-1.608018716492441158e-01 1.950014512968887836e-01 -5.378510713060165038e-01 -2.450992911423030829e-01 -8.081979763687865415e-01 5.354833036378808808e-01
-3.191073080755636726e-02 1.259298762962715867e-01 -6.758642376422799858e-01 -6.730605072939783717e-01 -7.379490893213926928e-01 4.920055986368242207e-02
4.888852900679786090e-02 -1.430637298885307357e-02 -7.462055544828767317e-01 -9.369748158210806643e-01 -3.161072329423628702e-01 1.488435816505848108e-01
4.890646357586260484e-02 -9.319415219674120898e-02 -6.005743039904052338e-01 -9.107660590867296957e-01 1.660913307319986654e-01 -3.780461023093631412e-01
-1.367266313933238608e-01 1.728486782378441111e-01 -5.515069819216307234e-01 1.906275034967783721e-01 -1.557103381078414339e-01 9.692344636448538830e-01
2.186146978977315455e-02 -4.913982179114058380e-02 -5.616551419318061011e-01 -8.165822806707394577e-01 -1.063628312762643635e-01 -5.673449806048083133e-01
-9.358258475098632512e-02 1.848837273310205698e-01 -6.551303311094931470e-01 -7.107247959202797061e-01 -6.759096939533536519e-01 1.949778194666274000e-01
-1.221268129665064872e-01 1.967521948556693046e-01 -6.306337033857727370e-01 -5.707672055821653156e-01 -7.934504101969839240e-01 2.113320694787336473e-01
-1.149264412375605553e-02 5.926385117506717537e-02 -5.636136936296495259e-01 -8.810400638863890022e-01 -4.074952138541930724e-01 -2.402416627335755561e-01
3.582771476843674141e-02 2.543585876136338769e-02 -7.009235669687212678e-01 -8.392491846728866722e-01 -5.436250989343718309e-01 -1.151337632884222133e-02
4.036421975798178824e-02 -2.175176223838850287e-01 -7.307381469216508441e-01 -6.940393380121469002e-01 6.833206343815396711e-01 2.266766594073395258e-01
-1.337580508373946986e-01 1.554918498876411703e-01 -5.090985299162629207e-01 -3.081043831262237909e-01 -6.088443010567090585e-01 -7.310132051948011744e-01
-5.068751991850155292e-02 1.135138074073891723e-01 -5.956479857293403013e-01 -8.720953030306104470e-01 -1.630618533116524327e-01 -4.613681983259324548e-01
-7.274625831241054346e-04 -4.455829843312441446e-02 -8.415206336115873542e-01 -4.298703755899365708e-01 6.053984277196541308e-01 6.698538675746656956e-01
2.576269796349942541e-03 4.141245756292957769e-02 -6.273409685073855213e-01 3.391583727357870282e-01 6.525008045674236534e-01 -6.776535237435706849e-01
-1.566658815178818553e-01 1.862965770533509813e-01 -5.297929550646633956e-01 -2.929579878471994525e-01 1.527716312224858819e-01 -9.438413246145461732e-01
3.262137020782394925e-02 3.176686373823194021e-02 -7.049482673487884599e-01 -9.381800577864929380e-01 -3.403760117862953405e-01 6.294719828704295472e-02
6.203435325331888017e-02 -1.866087816935561028e-01 -6.975480472452172398e-01 -9.354068779533720734e-01 3.309910764139057937e-01 -1.243337444617883675e-01
-3.796634051018311223e-02 4.889127311461953507e-02 -5.140258643429870267e-01 -6.385554144255809472e-01 -2.546321573847576958e-01 -7.262296104768509730e-01
-6.325655294283887009e-02 9.762319634124387580e-02 -5.165473199223891143e-01 -8.463724331009389035e-01 -3.482629892122865445e-01 -4.029473846939815584e-01
-9.915419695241266262e-02 1.597359179215965264e-01 -5.540177489142804612e-01 -6.361083106515801333e-01 -3.142213569052058064e-01 -7.047206226474744817e-01
2.870605761314320645e-02 5.621446221414388121e-03 -6.370298401574783220e-01 -8.412688233112509684e-01 -5.175510055875958138e-01 1.562297140104005055e-01
-7.823301606982151213e-02 1.715385388245327380e-01 -6.590686535278508229e-01 -5.773301517006222960e-01 -8.120644571039026260e-01 8.509531976483984683e-02
-8.646331149416716655e-02 1.404887137034874500e-01 -5.712270356846207431e-01 4.397219938620857693e-01 -1.093332744833356435e-01 8.914543191912323028e-01
-1.872657791805665273e-02 7.488090152195421567e-02 -5.812515536347363510e-01 -6.953091185653568207e-01 -6.985973784171624068e-01 -1.688399612311453080e-01
2.601818987692817650e-02 -1.284126707727474732e-02 -5.742969959238383160e-01 -9.366166712462767885e-01 -9.767897471675313081e-02 -3.364640085385480761e-01
6.304477550026293953e-02 -1.736021361905570604e-01 -6.654489427753548236e-01 -9.031930221471067277e-01 3.797906110003727020e-01 -2.000036413187012141e-01
2.166925314709002015e-02 -8.762517922292953343e-02 -8.447255199809010628e-01 -5.830442105267058528e-01 1.861901458787302080e-02 8.122270500710173646e-01
1.794365098862869476e-02 4.785024223855992992e-02 -6.562954035809371867e-01 -9.578289775647067517e-01 -2.027147292416987823e-01 -2.036427958112272119e-01
2.323318232106340656e-02 4.425594385631573258e-02 -7.295197438703361348e-01 -7.658905848066070998e-01 -5.952225992075828032e-01 2.431494797386227202e-01
-1.246798980896246176e-02 6.843109743800462885e-02 -6.173057477893270084e-01 2.225977575767713879e-01 -3.846048803397607019e-01 8.958400104598095437e-01
-3.087899943684243448e-02 4.384335405354998494e-02 -5.224075482099805878e-01 -8.175371415676363496e-01 -2.601305564671891890e-01 -5.137753553348868296e-01
3.118105443860336515e-02 -2.689517284268645378e-02 -5.804394665399336128e-01 -9.409882072023060262e-01 -8.666136781649029508e-02 -3.271559280134853087e-01
5.832424340218223674e-02 -1.834892750950343487e-01 -7.572704052462503332e-01 -9.803049901596088134e-01 1.554427622936535303e-01 1.218182002768395666e-01
3.317213732337330467e-02 -2.612720845838948855e-02 -7.931307559916234151e-01 -7.136051562204028809e-01 -5.575857606571419378e-01 4.241058836281935696e-01
6.957645677583861044e-02 -1.501910498514266445e-01 -6.770342038718361044e-01 -9.981593553827089460e-01 6.009564612349770768e-02 -8.149514033022402584e-03
3.275547716496281236e-02 3.105467261104720086e-02 -7.075510807541985914e-01 -9.022766224074100228e-01 -4.300110627323508461e-01 3.142264446017372509e-02
-4.216607286282698930e-02 9.456765950157192124e-02 -5.956574448480541628e-01 6.769495762550225004e-01 7.265757024408039388e-01 -1.175883490435926382e-01
5.374046545494189087e-02 -9.879906500843702033e-02 -7.134403343998484415e-01 9.770974028280664525e-01 -1.011010381933182163e-02 2.125522316688527036e-01
-4.422019744419624504e-02 1.279602785629193606e-01 -6.208155710730682841e-01 -6.924099159741476939e-01 -6.001073653673016928e-01 -4.005491958456410817e-01
9.916780224427105411e-03 -2.392894800356453258e-02 -8.221949055496631242e-01 -4.686497488524994925e-01 -6.686322684913125203e-01 5.773199307426089000e-01
5.557076351806689712e-02 -1.255030419257185670e-01 -7.290311406576138742e-01 7.929949806739864382e-01 -2.970814867526059277e-01 5.318849037665248636e-01
-1.227818963071947295e-01 1.609522639022666068e-01 -5.534082461824324506e-01 4.437015201539378229e-01 8.201146637912973825e-01 3.613044412231491420e-01
6.364839518853235290e-02 -1.181450305418542124e-01 -7.781084917226294140e-01 -9.553534082912035208e-01 1.241318122890305020e-01 2.681252663294192984e-01
6.113801584741755668e-02 -5.656400987670313213e-02 -7.403389122531258693e-01 -9.986258251036631561e-01 -2.555538136867566840e-02 4.575351264252305872e-02
1.514817445370926323e-02 3.461874568661086476e-02 -6.035956226674474845e-01 -8.531255347734977290e-01 -4.990782319673381373e-01 -1.519794074662406125e-01
-1.518593907178502345e-01 1.920373215378419485e-01 -5.348719426412744671e-01 -5.126019080362622660e-01 -8.430174058760268041e-01 -1.629752658155152190e-01
4.499043350491209459e-02 -7.322318014432733189e-03 -7.505457995607481836e-01 -8.772767474867280146e-01 -4.440526278534086546e-01 1.822162781301105150e-01
-2.148058800069643434e-02 4.116081099810269678e-02 -5.336850930018708361e-01 -8.364310773252866538e-01 -1.108886895307752279e-01 -5.367371343764170133e-01
4.480349444568542533e-02 4.690242720597678598e-03 -7.220994904428734706e-01 -9.215592176937545954e-01 -3.854094768002001015e-01 4.677759587956057535e-02
6.170839183047791693e-02 -1.359349657806478151e-01 -7.517756933670328712e-01 -9.627473082311049923e-01 2.426509155470654155e-01 -1.193237347635961731e-01
-1.034707317394821871e-02 9.353310567173575563e-02 -7.076250489927307097e-01 -6.531079411767369836e-01 -7.369396016948873696e-01 1.742700221657897675e-01
4.203910604689270469e-02 4.420365743874036038e-03 -6.966227056011390362e-01 -9.555893023697086264e-01 -2.800695643302769655e-01 -9.170673002796701778e-02
4.158483665994028300e-02 -1.826109381433653200e-01 -6.268557547561509624e-01 -7.976557763630777176e-01 3.468041270229224038e-01 -4.934289816320930333e-01
1.667285012515907355e-02 4.715567982297485389e-02 -7.426099019412533142e-01 -6.700802818478752698e-01 -6.688368275801822582e-01 3.219467563917205455e-01
5.328968468821312227e-02 -4.835129113706781306e-02 -6.200603445971846206e-01 -9.834272359307497657e-01 -7.917117462714355625e-02 -1.631036380273720998e-01
5.152493477637608982e-02 -1.907776175901572668e-01 -7.819949417978508954e-01 -8.791325438894175281e-01 2.373644723366622744e-01 4.132603024086146104e-01
-1.753349044894843278e-02 1.098449269471915846e-01 -6.831120340059144702e-01 -8.355984698648559750e-01 -5.340374726974689290e-01 1.287601448990002007e-01
-2.108528778143907711e-01 1.976327271998243595e-01 -5.164459138922070647e-01 2.318434300711948517e-02 7.269215211311662594e-01 -6.863290671067924231e-01
1.079038799657291992e-02 3.756523830077592579e-02 -6.244427781644322772e-01 -6.889119542984196709e-01 -7.220307113085355777e-01 6.381199849575668048e-02
6.107338490774107814e-02 -6.490140189485962829e-02 -7.528776098082382573e-01 -9.860021390245087280e-01 -3.463996889700924481e-02 1.630946179182735101e-01
-2.188334748528069362e-01 1.985147337205724061e-01 -5.159944844185344603e-01 1.044574970723482765e-01 8.280432052181513347e-01 -5.508476028789004442e-01
2.298964557673985332e-02 -2.628203891961275462e-02 -8.103970789841703493e-01 -6.320177428940201292e-01 -5.330829795167342233e-01 5.624732079101275595e-01
5.691472192163207766e-02 -6.104817845017892347e-02 -6.216953663040802880e-01 -9.913406435143481410e-01 -2.487108612748313921e-02 -1.289385806940555879e-01
-5.559868946387446637e-02 1.110574305659024902e-01 -5.521682067737321287e-01 -6.575760463387450017e-01 -6.952580243702715102e-01 -2.901896325340582172e-01
6.113000590266497170e-02 -1.389396784843953125e-01 -7.754401080722416184e-01 -9.513668954042436843e-01 1.745359501216556530e-01 2.538468680996905369e-01
2.248915474466762002e-02 1.809939635325482146e-02 -7.708569858186492540e-01 -6.997703628032487799e-01 -6.235332165018754313e-01 3.486083293053037213e-01
4.104627703069065048e-02 -4.726043352587872004e-02 -5.936696095293910735e-01 -8.581766931831696921e-01 -1.250963586102966929e-01 -4.978791664045044696e-01
-5.382365324444470488e-03 7.896282367688686743e-02 -7.339467315988060792e-01 -7.533582191811206696e-01 -4.983484070096135254e-01 4.290690606688292164e-01
3.273098704969579914e-02 -5.044060727968643909e-02 -5.755762592920864451e-01 -8.216326408338041620e-01 -1.614016974899071255e-01 -5.466893958765302042e-01
8.322970151650038728e-03 4.139079748434978945e-02 -5.940955564190494309e-01 -8.080067581438216129e-01 -5.573871546674583621e-01 -1.909047893732017109e-01
-3.061334178105892465e-02 7.740473975559393482e-02 -5.510777017581292014e-01 -7.722034880282911962e-01 -5.358812203182015121e-01 -3.413694344653835366e-01
6.959846714890662034e-02 -1.325623386821320471e-01 -6.953212249804923140e-01 -9.965724315192293625e-01 -5.989194082962012028e-02 5.706438608722901040e-02
-8.432867761800419415e-02 1.245775833926474063e-01 -5.154718313464525803e-01 -7.394504020239968112e-01 -5.613211924845030731e-01 -3.716606272048803561e-01
-7.121122506663178642e-02 1.279911797597876599e-01 -5.532900633290208647e-01 -8.560633617898372183e-01 -5.167849512009129453e-01 -9.425222191132530403e-03
-7.465414893516089667e-02 1.332514996931490892e-01 -5.681457492920551910e-01 -2.457972174465690440e-01 3.554643010572126616e-01 -9.017920262285707977e-01
5.968313641765898153e-02 -1.038555625113496694e-01 -7.918910864242475478e-01 -9.371023918683183407e-01 2.316871316213549303e-02 3.482848229324490008e-01
1.390485819939923234e-02 2.074120719754719410e-03 -5.628080106895211321e-01 -8.918401529565423980e-01 -8.543374413212775909e-02 -4.442096542602573805e-01
5.232103897284402783e-02 -5.577100491972235979e-02 -6.116609411407398778e-01 -9.929761072957619117e-01 -2.710987087639310858e-02 -1.151672924090030442e-01
5.286994311038396843e-02 -3.210076758788136392e-02 -7.528729416828876531e-01 -9.422896393708486418e-01 -2.030274022293975245e-01 2.662144050917203963e-01
3.614380005359432019e-02 -1.975071430848140130e-01 -6.275844362190126091e-01 -7.514913877191271574e-01 4.232771349273779515e-01 -5.060604323908866053e-01
5.578273038512358839e-02 -7.702087414599562143e-02 -6.159747779688792280e-01 -9.763720344590244293e-01 4.523941165167315315e-02 -2.113079410712148665e-01
3.806174147125778590e-02 -2.711134297546537869e-02 -5.936827074012721583e-01 -9.584834830162880515e-01 -1.850842012559062444e-01 -2.169176139238769840e-01
-6.913281307304805501e-02 1.087207258312564706e-01 -5.193523970791016353e-01 -8.188102589006425180e-01 -4.278801464227375839e-01 -3.827118239829019886e-01
5.284882762650013055e-02 -1.861580026207999491e-02 -7.270060829138736969e-01 -9.762555304148539115e-01 -1.944657111361344226e-01 9.543702911726467675e-02
2.716192929536357173e-02 -4.973785954468600695e-02 -8.191455928724089564e-01 -6.607870771477253324e-01 -5.320812874524766256e-01 5.293863827276645839e-01
3.089725975890425871e-02 -1.441866871336513686e-02 -5.854173299978197020e-01 -9.496412736768642393e-01 -1.761587731587186401e-01 -2.591322789013335570e-01
-2.078978389480909059e-02 9.394601975467523070e-02 -7.285612479380453310e-01 -6.201987652059266498e-01 -7.103391306853733544e-01 3.328239941082855036e-01
4.751647756739781764e-02 -3.146383322853373715e-02 -7.697045754441838028e-01 -8.686887864801102754e-01 -4.007814244510997104e-01 2.911254747676000343e-01
-6.723186809183936963e-02 1.544254176909964082e-01 -6.042306291359832437e-01 -6.503778503248659471e-01 -6.405003769513837319e-01 -4.083722798280288169e-01
1.333947687309977245e-02 -7.795049942084577958e-03 -5.586154519448034428e-01 -7.663271245282132771e-01 -1.889044165681552367e-01 -6.140503722117308660e-01
-2.013151847418257270e-02 8.521001004206323060e-02 -7.479616992289852551e-01 -4.906511212683455914e-01 -7.824190068241380080e-01 3.835126790061117452e-01
2.294962185161449064e-02 -1.171353206442112826e-01 -8.463040518292235248e-01 -6.467070093180973256e-01 3.935415662090137323e-02 7.617225836585784782e-01
-7.028784814457973706e-02 1.416909782216395075e-01 -7.113399611566283420e-01 -3.735911968208465161e-01 -8.426301940154841130e-01 3.878195118755571880e-01
-6.574025123315642427e-02 1.294161350972906077e-01 -5.792632881140903356e-01 -7.454344869204168611e-02 -6.148739360036886703e-01 7.850944637942806059e-01
3.543359288114626693e-02 2.419375440157701951e-02 -6.914524524527584370e-01 -8.901146052101911454e-01 -4.280921237855795924e-01 -1.563109821613881678e-01
3.664097637228987125e-02 -1.841898839343119598e-01 -6.149605728679038430e-01 -6.513800876611215429e-01 6.856246551848040049e-02 -7.556475168493687056e-01
-1.607395098399195255e-01 1.806056290088270122e-01 -5.449928593096640128e-01 3.139987764904427769e-01 1.140271129163414748e-01 9.425511051834107867e-01
5.973473699465678410e-02 -1.615372120409584167e-01 -7.672708232224891844e-01 -9.788156943998765902e-01 2.047433404829385184e-01 -3.040353791269022411e-05
-7.414456803188696800e-03 5.425396186862244076e-04 -5.346754220930723944e-01 -6.678779028325996237e-01 -1.012148338046196389e-01 -7.373565381318808454e-01
5.705907961136777451e-02 -6.560794533359466663e-02 -6.707669905394085808e-01 -9.076617778896546307e-01 -4.139538128920032811e-01 6.922671269360944346e-02
-4.796391564306094063e-02 1.298235099538785076e-01 -7.089521000520788707e-01 -7.683670865235711078e-01 -5.039616346505346733e-01 3.945056287908199066e-01
6.960916186232322944e-02 -1.339851428074071982e-01 -6.738304534905626975e-01 -9.971815392261654809e-01 7.132268379506236100e-02 -2.328202316820658993e-02
-3.430559561434291804e-02 1.130318143027101846e-01 -7.143320831978675622e-01 -7.551695931358040070e-01 -5.502753295096648456e-01 3.562526453742264065e-01
-2.601898777772725796e-02 1.141561918651284591e-01 -6.332622236711433761e-01 -7.372500974137131680e-01 -5.966895205698429239e-01 -3.168973176055633334e-01
-8.115123287870232294e-02 1.716376850999503378e-01 -6.688124849015308904e-01 -5.957077982805600858e-01 -7.743327379590237980e-01 2.134034441910653557e-01
3.893115380691184596e-02 -5.138635031890068788e-02 -5.886191773929170257e-01 -8.424800057405779086e-01 -1.527395794722634648e-01 -5.166217773090796550e-01
1.846769274683070228e-02 5.183084584664936212e-02 -6.624181067856484972e-01 -9.418479982605516554e-01 -2.567964202358686832e-01 -2.167439658367334709e-01
-3.338800589554309639e-02 1.299849041042215880e-01 -6.548905233877457821e-01 -6.859886137408893747e-01 -7.221949876503903631e-01 -8.862291820125076103e-02
5.360955874777012520e-02 -1.004951133816989750e-01 -6.077023461919822678e-01 -9.186689793411690896e-01 2.166922923683856916e-01 -3.302904128556999330e-01
-9.316070798886516569e-02 1.810925754533566912e-01 -6.050893489891747690e-01 -5.398113519479359468e-01 -8.178921453741974101e-01 -1.991385016598612168e-01
2.347974402246012088e-02 -9.287307449885066901e-02 -5.654491907978793641e-01 -7.117888126033408147e-01 6.839973617751018975e-02 -6.990551926304341412e-01
-3.690581161812223066e-02 1.022035746456628341e-01 -6.016725952914494524e-01 -8.709471104204994374e-01 6.699984262868285273e-03 -4.913310910791823805e-01
-1.006183135704671883e-01 1.900273024095722463e-01 -6.355579702800836506e-01 -5.124173886068313921e-01 -8.573604916517030272e-01 -4.859431250779869260e-02
-1.227327699910047004e-01 1.287394372189775704e-01 -4.914336114851677317e-01 -3.226871101407772779e-01 -4.142929293773410238e-01 -8.510196223454166153e-01
5.961790804417622242e-02 -1.384422974524672223e-01 -7.833679055536474367e-01 -9.607984540243367233e-01 2.456701294558159554e-01 1.285010437218601365e-01
3.859126699223004719e-02 -3.107631260550758681e-02 -6.737248611920522157e-01 9.401255066597161703e-01 1.614894742181084697e-01 3.001419354981418874e-01
4.255005143018893154e-02 5.564290013523069331e-03 -7.055183777310942705e-01 -8.879804821206462861e-01 -4.410125773104414115e-01 -1.303785642917827114e-01
5.888602398705274077e-02 -1.860776830654309877e-01 -7.356096554015520983e-01 -9.017960103172876218e-01 3.173139162385905099e-01 2.933868339533170500e-01
3.984040805692815740e-02 -8.924196605968301443e-02 -5.846639156599975351e-01 -7.869218193472231615e-01 1.922961051843173619e-02 -6.167530075439969783e-01
-8.512992409700624596e-02 1.241476503607675946e-01 -5.137783930342417760e-01 -7.619890771523029072e-01 -4.901950765423230827e-01 -4.231801427693030471e-01
-3.768125197349472821e-02 2.762147709737276455e-02 -5.107563430452272124e-01 -7.223690037934987762e-01 -1.340915501537296994e-01 -6.783822510471202438e-01
-2.099130668809886524e-01 2.008261952761043190e-01 -5.138398724087175351e-01 -7.034700536024324213e-02 5.718884897010334534e-01 -8.173095216527928031e-01
2.362902263060455421e-02 -4.586151496504811687e-02 -5.643408755307425251e-01 -8.254540335355174951e-01 -8.958259563205636655e-02 -5.573155273987693281e-01
-1.275535441509684578e-02 7.589070082746188217e-02 -6.088043375655255440e-01 -8.019136164140494571e-01 -4.271780443522404935e-01 -4.176762744436602892e-01
-1.019320735082749202e-01 1.838752551151555947e-01 -6.773811316058709897e-01 -7.328052062404696310e-01 -5.821261284816841020e-01 3.523147743790893682e-01
1.218306700730458110e-02 4.667928860546711328e-02 -6.419259900560316812e-01 -7.692470396406497768e-01 -3.669425028354142415e-01 -5.230795270482097026e-01
-9.189699003929320542e-02 1.406482909578598284e-01 -5.646984968067841892e-01 4.938450445131070676e-01 8.179416034523614432e-01 -2.951077859895048228e-01
2.969965985562300279e-02 3.954720191683980257e-02 -7.066916786771387793e-01 -8.539616810179880835e-01 -5.120122790426444581e-01 9.269775327638422879e-02
5.038301407690277262e-02 -2.058051236356162605e-01 -6.813773178324601387e-01 -8.120957848855576700e-01 5.821091429947795604e-01 -4.061258195428240486e-02
4.378201143130725989e-03 8.063507004311862292e-02 -7.003281493434689864e-01 -7.957853774322650731e-01 -5.944983962320932180e-01 1.153138757585428359e-01
-1.568376460646230819e-01 1.773685967028575117e-01 -5.457805983307979503e-01 3.524169242666890245e-01 2.407371579146283802e-01 9.043494525290509678e-01
-5.019276560024298756e-02 6.119492784872183899e-02 -5.095736477010974763e-01 -7.757885398256939569e-01 -1.347259720576055864e-01 -6.164422551449983967e-01
1.591423258529812913e-04 7.630426080725702387e-02 -6.430565832354061540e-01 -6.819500013061392529e-01 -6.503615392966084485e-01 -3.346252589424515977e-01
-7.209157540321799174e-02 4.784264253151745971e-02 -4.878497417105229217e-01 -7.416478207110059895e-01 1.199762039908394973e-01 -6.599728937695578113e-01
1.733065454474927089e-02 -1.163983275041883952e-01 -8.508938029942595405e-01 -5.830497398863737635e-01 1.857406890238083585e-02 8.122241099492439886e-01
-5.643072431906185488e-02 1.561681814013387432e-02 -4.925646401460934132e-01 -7.031914313549719742e-01 1.740500122466048794e-01 -6.893681194441054760e-01
6.007783099006704791e-02 -1.182614534969409770e-01 -7.261860781509518192e-01 -1.913603788230859581e-01 -4.786242496015062908e-01 8.569130837547529467e-01
-6.196810494520890028e-02 1.027722239054092851e-01 -5.235278486269329123e-01 -8.186333962453936630e-01 -4.256163331144696138e-01 -3.856035522890381984e-01
5.906249069405346622e-03 5.087603367199690363e-02 -6.243836337445118900e-01 -8.381996691732928051e-01 -5.194972881032029477e-01 -1.659634967431097841e-01
3.653535859933427360e-02 -1.374633641598107803e-01 -8.265305373966747027e-01 -7.761528492748873687e-01 7.684790895174294090e-02 6.258443524169717831e-01
6.250157302617663502e-02 -1.546552695071017614e-01 -7.291821802584811385e-01 -9.850537127126509640e-01 -1.026118101724560611e-01 1.383473869798552969e-01
8.853116937388013849e-03 5.694044761841102198e-02 -7.416854300553785695e-01 -7.775539395448974878e-01 -5.308085603653692752e-01 3.371233355035717638e-01
-3.554208127811259166e-02 6.829604014558164626e-02 -5.259868974134297437e-01 -8.359959954596558607e-01 -2.215409988790359441e-01 -5.020261760019071318e-01
4.725329205584837683e-02 -7.465624932255182471e-03 -7.404509320757339808e-01 -9.286691411490874959e-01 -3.020502615907795230e-01 2.152655702855383046e-01
5.023803502842741353e-02 -3.611011044264916120e-02 -7.715496162889069476e-01 -8.730751264072592610e-01 -3.877578135405650994e-01 2.956073437639679669e-01
5.129681202815278979e-02 -2.034282482375865120e-01 -7.636776802241924678e-01 -8.670832379790421873e-01 4.021652499915366330e-01 2.939894047666086752e-01
-3.218866277113754948e-02 1.111457151540630323e-01 -6.143654341016844267e-01 -6.940393380121515632e-01 -5.513544579685576430e-01 -4.629445528028733881e-01
-2.453702042000429143e-02 6.436305871518313571e-02 -5.442462677133080851e-01 -8.402075897618047629e-01 -4.007556153965302626e-01 -3.653028097822508813e-01
-4.232854409994221689e-02 7.985279004565541683e-02 -5.306762349247129418e-01 -7.397136837694097133e-01 -4.441441017599349617e-01 -5.055291118384286353e-01
-3.377353776597392943e-02 1.113426054680026200e-01 -7.166501400705215241e-01 -6.197317240782502790e-01 -7.106407322116192748e-01 3.330500561368114898e-01
-6.698332558387137814e-02 1.295947950261261694e-01 -5.717506744890138437e-01 -4.304633142938387724e-01 1.032605472600228586e-01 -8.966819918046332605e-01
4.747260575933173743e-02 -1.144805134154550270e-02 -7.479069312416920523e-01 -9.265353173988586377e-01 -3.113374196732480725e-01 2.111902382303693093e-01
-6.826965937525260320e-02 1.520020995425633847e-01 -6.893700708411270028e-01 -7.349342093288325772e-01 -5.986855254032057427e-01 3.185080055993746440e-01
5.506556271863690538e-02 -4.671241974532462649e-02 -7.667692214107981741e-01 -9.435930544613653215e-01 -2.732783840001811182e-01 1.869520591235098728e-01
6.346206909624158010e-02 -1.262079079206742671e-01 -7.156855184576239592e-01 -8.473299663366722356e-01 -1.346106889369466930e-01 5.137235546203952063e-01
2.380622258805635549e-02 2.185523420156664301e-02 -6.435141288807939564e-01 -7.020588856818921197e-01 -6.070202107994310259e-01 3.723436379423104015e-01
3.699543249948488571e-02 -1.865903322669468511e-01 -6.230860448979341770e-01 -6.697874625476482047e-01 1.085660649274188816e-01 -7.345734575657892895e-01
5.502262327101323930e-02 -1.560760460248371284e-01 -7.448497703026573102e-01 8.259200902797604327e-01 2.141381014511054837e-01 -5.215370341396556864e-01
6.027183485239250710e-02 -8.455182954045199761e-02 -6.444674065757224346e-01 -9.973526782735573359e-01 1.927386378351816573e-02 -7.011528588985624366e-02
5.242105486739408182e-02 -1.968847951878243893e-02 -7.372136589511334437e-01 -9.125956676444079152e-01 -4.088459486088805162e-01 -3.760013665125000199e-03
-3.584778959635380111e-03 2.216960662113540235e-03 -8.157325005826195907e-01 -5.091088873198384990e-01 5.219433712998248209e-01 6.843853139921467488e-01
5.293511867497552315e-02 -5.800111003463386677e-02 -7.801451456818019325e-01 -8.943365558333680188e-01 -3.044450254513029752e-01 3.278343352641155950e-01
-5.721245873118279562e-02 8.969149265923669068e-02 -5.191549495007852233e-01 -8.389809285433506014e-01 -3.098687649821996737e-01 -4.473168340549498190e-01
3.885822560289509814e-02 5.085348612075668746e-03 -7.505754268499151838e-01 -8.832446306259771340e-01 -3.520740321870007850e-01 3.097140589801634092e-01
1.288236918076549574e-03 1.190541389549040936e-02 -8.016408016034503037e-01 -4.909685463518124737e-01 -7.147387686066885015e-01 4.980947491630311474e-01
5.863975688958821680e-02 -1.768706565234407224e-01 -7.312042340820844588e-01 -9.511851259269058501e-01 3.081835430524443309e-01 -1.642437234899887105e-02
2.434627597305400598e-02 4.118601648436124446e-02 -6.668979708491448166e-01 -8.679610173982096333e-01 -3.942167226575781225e-01 -3.020543789687262781e-01
-1.641553725386591875e-02 9.473282377682643030e-02 -7.189167003990156735e-01 -6.380223840739912555e-01 -7.128286995334658371e-01 2.912090014782649505e-01
3.835766764489331737e-02 -2.015676636033550961e-01 -6.349541592470597795e-01 -7.466379202538792059e-01 5.260389444108273249e-01 -4.072036898188727272e-01
1.307921145425070680e-02 -1.268765420192966009e-01 -5.636231146767352040e-01 -5.264505356014594906e-01 8.956660417543606256e-02 -8.454748115594084013e-01
5.226476222240447611e-02 -1.114745149807606223e-01 -6.188490970341996578e-01 -8.980808709622435382e-01 1.193932330023401711e-01 -4.233154912413992776e-01
-1.080200310989791190e-01 1.502130243350104921e-01 -5.204945932498787897e-01 -6.446562307903127564e-01 -6.075484587557506977e-01 -4.640077740369650816e-01
-2.635047306219285776e-02 8.365867895351064565e-02 -5.717140234638236063e-01 -8.898343822225472932e-01 -4.418209893081998518e-01 -1.139692310289978083e-01
-1.160849155830222107e-01 1.378368345733274047e-01 -5.006990908622502845e-01 -4.524838284646505726e-01 -5.001057425662387423e-01 -7.383445206881702472e-01
-9.383271442813334584e-02 1.504236436117558084e-01 -5.659672897786544032e-01 1.484823724090647834e-01 -3.613318480607584093e-01 9.205391250027198380e-01
5.195418281547661832e-02 -1.318879630609359199e-01 -6.107536058440372617e-01 -8.901446136510940965e-01 2.610455847424595910e-01 -3.734940019256156596e-01
3.549449985077982733e-02 -1.208809882371676137e-01 -8.344999062163919179e-01 -7.507775743318582107e-01 -2.428042566780866940e-01 6.143119132976121444e-01
4.504833579519616771e-02 -2.320812802426172605e-02 -6.249099041478293204e-01 -9.137738589129376088e-01 -3.755562644118220494e-01 -1.548380671165724698e-01
-3.060963312926274008e-02 8.513085143501240848e-02 -5.525096921435759256e-01 -7.399875377261146969e-01 -5.651114079103723986e-01 -3.647842385021572431e-01
3.425571531110398193e-02 -1.027178825957072994e-01 -8.346246810237666347e-01 -7.467679800041574500e-01 -2.879813149426276031e-02 6.644608729360589328e-01
-7.166287255248199317e-02 1.667042181502570164e-01 -6.599709233410140374e-01 -6.849530899863982558e-01 -6.834111322385214571e-01 2.525638312398419405e-01
-1.288274769868279906e-02 5.060650389376761260e-02 -5.499657090476387511e-01 -8.919913213764805171e-01 -2.860572640988712223e-01 -3.500324617022100848e-01
-9.991562567818780549e-02 8.867497265810884988e-02 -4.788246937728408703e-01 -7.012798722351829550e-01 -1.079973133966594945e-01 -7.046581590366419734e-01
4.305068917743875428e-02 -2.711100710921071286e-02 -6.754175278175779118e-01 -8.952687208878118419e-01 3.094750793414726697e-01 -3.204981944824188411e-01
4.098074530805861926e-02 -2.864502666181684490e-02 -6.752332532565096246e-01 1.323587921343856166e-01 -4.962200346357555913e-01 8.580482663410118338e-01
5.860398663019817517e-02 -1.175540487638718490e-01 -7.262198931598499163e-01 2.687900399297003529e-01 -4.499480638377832964e-01 8.516446760728445531e-01
3.845559483083715174e-02 -2.800017061825223544e-02 -7.903800320758572751e-01 -8.372930489566019485e-01 -2.188388217002527614e-01 5.010488202618607056e-01
-1.544955422942900780e-02 1.034576185896018269e-01 -6.515781707542804835e-01 -7.072960189274323239e-01 -6.673734953929330027e-01 -2.331200533125024343e-01
-3.355171665351913690e-02 6.169617385614144939e-02 -5.297338368202132441e-01 -8.475264403788539402e-01 -2.570357286176136458e-01 -4.643614616575770238e-01
-7.051519923116572608e-02 1.522854341965272640e-01 -6.931691465204875557e-01 -7.137892673090755480e-01 -5.721596790710243852e-01 4.039036809930254268e-01
-7.338177662068774698e-02 1.692244698008023573e-01 -6.414540176871008637e-01 -5.912404849628005721e-01 -8.025679899639116543e-01 7.949409051142659888e-02
-3.440046645958614452e-02 1.011692389431420452e-01 -5.951531224759880612e-01 -5.429863965570719264e-01 -7.226161085921003480e-01 4.277753297668954180e-01
4.716748361107943321e-02 -4.988478797804101611e-04 -7.238685888867231188e-01 -9.510772625834396088e-01 -2.780873250355707649e-01 1.346086187855434213e-01
6.459545602732412461e-02 -1.786578049997863404e-01 -7.029978987820058034e-01 -9.798121169223168447e-01 1.997751494240775361e-01 -7.622677009795603142e-03
3.641697708022610669e-02 -3.422368904109081289e-02 -5.863377777715735872e-01 -9.242314835033165199e-01 2.715634405248023436e-02 -3.808657215856559586e-01
-1.523848528491602780e-02 -1.511064330148230786e-02 -5.250704672043602361e-01 -7.598959453229520156e-01 1.428428472642066516e-01 -6.341561899620564713e-01
4.822658793921210524e-02 -5.517167581501551676e-02 -6.852273434455309342e-01 1.911229443594656685e-01 5.215078096823148046e-01 -8.315657668397150593e-01
-6.230375795840800181e-03 5.306765942790700463e-02 -6.205890006412028148e-01 6.615524282474930517e-01 6.681407536883330334e-01 -3.404942260018983258e-01
-9.420899803915711024e-02 1.833691726559663615e-01 -6.104446827991046876e-01 -6.040687791338580359e-01 -7.788163951086960468e-01 -1.689554165619605863e-01
-2.857334310377523945e-02 8.742660486009690146e-02 -6.055954882990994825e-01 5.190604542530269372e-02 -4.871589401952167164e-01 8.717694244673760418e-01
5.814199888152315338e-02 -1.581030121072534433e-01 -6.380748196905376979e-01 -9.205206734372524124e-01 2.197319328242616221e-01 -3.230473146025849562e-01
-3.175306653223677888e-02 6.246081783129252968e-02 -5.332632806780446266e-01 -7.795696829867183597e-01 -4.240890335318641124e-01 -4.608900096617378206e-01
-9.326355258597740505e-02 1.849222291701756726e-01 -6.538352152960976715e-01 -7.108902386785785898e-01 -6.757198834834901024e-01 1.950325809104011543e-01
-6.028227347814854586e-02 5.024297936805569020e-02 -4.966335842634485576e-01 -7.610729900828325789e-01 -1.005872629986785394e-01 -6.408198703916814232e-01
6.748217412525649161e-02 -1.155761575513892109e-01 -6.946427703794278985e-01 -9.499160573795423224e-01 -1.971622504175858104e-01 2.424593387411158041e-01
-4.212228679997945258e-03 7.967431882557535205e-02 -6.359760746066803749e-01 -6.942052973544182715e-01 -5.942173191146296052e-01 -4.061831887083536818e-01
-7.775892501640634114e-02 1.678211629678247330e-01 -6.122623278311778439e-01 -7.953125522307129547e-01 -5.973587489122810235e-01 -1.031526507765264666e-01
-1.690793987030119946e-02 7.737869634397566421e-02 -6.118581379019027988e-01 -8.121495049723979898e-02 -5.789700603160617964e-01 8.112939054826843188e-01
-1.344914950168426236e-02 3.471785457973043665e-02 -5.391151652621171131e-01 -6.752786250316866745e-01 -2.905339788820667790e-01 -6.779297793210367074e-01
-7.031011264830674956e-02 1.651720314916510501e-01 -6.261651389453397609e-01 -6.519422362788052094e-01 -7.512898514993099353e-01 -1.026395615244705961e-01
-2.006217721078813049e-02 7.005647910072863860e-02 -6.103162011086255001e-01 6.768164736197318510e-01 7.267134094683045387e-01 -1.175035383973757896e-01
4.372691719441029051e-02 -2.145185458394817946e-01 -7.805205546427560481e-01 -7.182586374174377841e-01 3.637341105622070581e-01 5.931290134437580130e-01
-8.202059342296529054e-03 -6.937061872647727091e-03 -5.329956125093452401e-01 -7.868853256287240416e-01 1.949371702889189997e-02 -6.167912769378103288e-01
-5.035055723843399195e-02 1.160077258836206548e-01 -5.872992876248968042e-01 -2.504525923910890794e-01 -6.636575157442327066e-01 7.048632496880345988e-01
3.098073877390886827e-02 -2.973010809715753971e-03 -5.933030044801776981e-01 -8.711899074139255461e-01 -3.576829010190782365e-01 -3.362901835300757813e-01
3.212600700760494254e-02 2.372361791548189408e-02 -6.723032324720125130e-01 -8.968786157328175745e-01 -2.694019334785919817e-01 -3.507582456324886411e-01
1.665779562556588683e-02 6.032388074394234856e-02 -7.123290593884239463e-01 -8.773666479711186295e-01 -4.440183164133519322e-01 1.818667086560263324e-01
5.141367283272464672e-02 -4.518029610209402941e-02 -7.772058558851837606e-01 -8.445850465344257874e-01 -4.065564685103527087e-01 3.484077167383532458e-01
-3.771428791280478920e-02 5.037373294648847533e-02 -5.177102006896842079e-01 -8.362543909675375087e-01 -1.107381563566416649e-01 -5.370434380143239705e-01
-7.481449793198406695e-02 4.147651871910081056e-02 -4.852301036902932907e-01 -7.633303356271229356e-01 1.126753560311761077e-01 -6.361061726273622430e-01
4.966047958291786718e-02 -4.101189324344257231e-02 -6.794922214654528503e-01 -9.522451408473406875e-01 -1.211036166586062918e-01 -2.802911089650073073e-01
4.794892155909526860e-02 -5.933363390845777102e-02 -6.882514508144892407e-01 4.884566961853699651e-01 5.181802062228852979e-01 -7.020678954563307483e-01
-7.438805691486591234e-04 3.719335764364000568e-02 -5.583356771864204093e-01 -8.892104879265151363e-01 -2.032134121707381835e-01 -4.098890304404529950e-01
1.296772873946275243e-05 6.836129992239378672e-02 -7.386753198657136643e-01 -5.826270313389344535e-01 -7.071435407357404834e-01 4.006167185089766214e-01
-1.764637540098519877e-02 9.107675946902003827e-02 -6.242459931033100817e-01 -8.685706940854480695e-01 -2.850097885280609700e-01 -4.054064254783251164e-01
4.225145283209164743e-02 -9.337624780774515798e-02 -8.231010854536234822e-01 -8.322249997771207219e-01 -4.611125711073547212e-02 5.525172411007993611e-01
3.732210334667383084e-02 1.389358664206999730e-02 -7.416812602628501949e-01 -9.106898663979823283e-01 -3.509979365625254255e-01 2.178173908779434675e-01
5.490491917281777046e-02 -9.131010957934629357e-02 -7.111268591156241214e-01 5.484335702307813198e-01 -3.777702134033067982e-01 7.459961695003124449e-01
9.489104275599319349e-03 -8.664448590158692690e-03 -5.503553074438163328e-01 -6.965808796291460547e-01 -1.734938321106707648e-01 -6.961860156270301969e-01
-1.300807923691623541e-02 9.565699580792096091e-02 -7.090078293870945014e-01 -7.301017706645700489e-01 -6.262673245431444879e-01 2.733873491623767249e-01
