-4.224344930231666538e-03 6.597803120585843395e-02 -8.094541864974332812e-01 -7.378038239529972619e-01 -4.751859700503225925e-01 4.794202866250745765e-01
-1.995384713717092418e-01 2.525412613003510387e-01 -8.034800196280496021e-01 4.926033912288066974e-01 6.522256443805110049e-01 -5.761454744787172233e-01
8.533358328915278956e-02 -1.026690050367460721e-01 -9.253452901739337433e-01 -9.519035440476473209e-01 1.834352704367770981e-01 -2.454203422483868802e-01
-5.005717014187127840e-03 1.428652283847996474e-01 -8.572646947828765907e-01 -8.531505028019696901e-01 -3.898217490178932931e-01 -3.466600980230874485e-01
-6.576837891612921823e-03 -1.957813836118869055e-01 -8.165599272222581195e-01 -4.675147418657882303e-01 6.949776489899364140e-01 -5.462929923974735313e-01
-6.473128286700740273e-03 -1.700374980508702616e-01 -7.986291716037299260e-01 -4.819679319214518198e-01 5.940202598525556876e-01 -6.440860528563409071e-01
-2.578685908983244929e-02 -4.207589135400854191e-02 -7.525498003730907159e-01 -4.667764652464934660e-01 -2.012252010223210610e-02 -8.841463768385439126e-01
-1.804080517440866949e-01 2.402784647138939411e-01 -8.008461344423740691e-01 5.009953801805736573e-01 6.554724482947542619e-01 -5.651190127435133936e-01
-1.699134914047695753e-03 5.916454407896373086e-02 -8.124021900541155139e-01 -5.748415352805269496e-01 -4.802049036353104317e-01 6.625409118242653328e-01
8.505403144433834606e-02 -1.332186947344053130e-01 -9.650906811589576861e-01 -9.943479668504943136e-01 -8.997175186521548518e-02 5.636669838293022206e-02
-7.357621393090632567e-02 1.505282129864386476e-01 -7.979430577079269504e-01 7.434098296860465194e-01 6.309459895426914322e-01 2.219211197839381089e-01
-1.528511080045967807e-01 1.114042177103970604e-01 -7.202744931191601419e-01 -1.311822909523167879e-02 -1.870149114510571975e-01 -9.822694818431234598e-01
2.969470150488229612e-02 9.718535474853159939e-02 -8.718748962967727278e-01 -8.290249783016073737e-01 -4.876487775652733059e-01 -2.737083394621254162e-01
-1.205531944969131380e-02 1.685551627243046524e-01 -9.119395298383411452e-01 -6.814522547288208720e-01 -7.260349695420057481e-01 9.217400678686410442e-02
-9.671361869424348334e-02 -1.243302701094075799e-02 -7.271732273371975808e-01 -3.803286929553690299e-01 5.266918619572515947e-01 -7.602274448234975779e-01
6.802145756270189247e-02 -1.070148556748895356e-02 -9.832145824713781623e-01 -8.837641163658974675e-01 -3.732832199610093826e-01 2.821712677073005549e-01
-2.954654345144643729e-02 4.465937466188815708e-02 -7.577053988294358833e-01 -7.219102900730313133e-01 -1.229771316332781278e-01 -6.809714811810573254e-01
3.108070765420388112e-02 2.889586549395868273e-02 -8.340414927186088345e-01 -6.296676502169471501e-01 -1.461871857142628961e-01 -7.629862102313590411e-01
5.603936367779736166e-02 -1.973639488670457520e-01 -9.584982890410033152e-01 -8.473214338309651428e-01 4.701284860257387010e-01 2.470335896144166543e-01
-3.803695950473891252e-02 1.538713860640560094e-01 -8.156728653295024500e-01 -5.385070029697532901e-01 -4.129281549386698003e-01 -7.345070092323692235e-01
-1.191165494296352739e-01 2.005804176354227530e-01 -7.909752246890501270e-01 4.105418649846277468e-01 4.851507692871864785e-01 -7.720648341654959834e-01
4.151120372142575593e-02 -4.309503424120385978e-02 -8.411872531262464259e-01 -8.815471236879889316e-01 -3.424955727504054304e-01 3.249176070387770898e-01
8.334443287387215127e-02 -9.121377036291464235e-02 -9.148896213581222403e-01 -9.695408727639424074e-01 1.391027331706999326e-01 -2.015959465479748025e-01
3.437557560535217660e-02 9.128300346599349524e-02 -8.902459684324708356e-01 -9.032042947556436774e-01 -4.196665321893367495e-01 -9.001113095132715070e-02
-1.431019567643797008e-01 9.618760876651859248e-02 -7.156190814840562853e-01 -2.074685679727966692e-02 -1.923906771464654053e-01 -9.810990751601785798e-01
-4.279384141397781643e-02 1.183699340399366334e-01 -7.955206251566492304e-01 2.330626173817109958e-01 3.209217854953606008e-01 -9.179820390256315799e-01
5.647589587370235170e-02 -1.966327785192928113e-01 -9.240703265293462865e-01 -9.836976424385245332e-01 1.662963253513723150e-01 6.844326435463991831e-02
1.197809334245461023e-02 1.324808531808059631e-01 -8.914737407910902078e-01 -9.403603698471256767e-01 -3.356861832263227652e-01 -5.511044557904293956e-02
-1.215471056365190483e-01 2.150830663552779076e-01 -7.979770225485338653e-01 -5.778736543672022830e-01 -5.606146394674700328e-01 5.931047678134564460e-01
-1.615361994482323038e-01 1.281067387656301682e-01 -7.286880027411205552e-01 9.606398166152166351e-02 -2.534532116106081312e-01 -9.625659358982133762e-01
-8.343321626061019070e-02 3.355315275695269772e-02 -7.288032761432396978e-01 -3.773180200378178362e-01 1.834497213430377749e-01 -9.077319601588910158e-01
-1.431416883096381376e-01 2.166512930162058925e-01 -8.059086956906071908e-01 7.668224480191809800e-02 3.519103828691290681e-01 9.328874078692679372e-01
4.716986438790961300e-02 -1.057381121450506195e-01 -8.673587874314141466e-01 8.540231583538558935e-01 3.057649609714444550e-01 -4.208945635636506810e-01
5.922197120546272148e-02 -1.892003645671720691e-01 -9.670698965833866012e-01 -9.179231328023319536e-01 3.406177575407858260e-01 2.034617052770343326e-01
4.275599405637941358e-02 -1.379988765251191907e-01 -8.388943489871167891e-01 -8.924738266229415018e-01 3.380000893996672473e-01 -2.987413736977527767e-01
-1.497629629501729120e-01 2.227313473716659165e-01 -8.075309902161857956e-01 -2.321408985822239618e-02 2.242283859540754598e-01 9.742600971837471757e-01
1.847606406564699169e-02 1.220725066219231492e-01 -8.958916196638802010e-01 -7.234654655266183898e-01 -6.902759378718004157e-01 1.080970793129187174e-02
-1.485297678325018522e-01 2.227453531181364244e-01 -7.933490416140385193e-01 4.012846553312015563e-01 4.373029248158279980e-01 -8.048209598061178971e-01
3.637860725154498653e-02 -1.929830292576102668e-01 -8.752237235794372294e-01 -7.046719297523745817e-01 5.215650977687947831e-01 -4.810481474951255332e-01
-1.063003191360487737e-01 1.041358291578949186e-01 -7.292784779502895498e-01 -4.667434652556841090e-01 -1.980059509077834040e-02 -8.841710660698907098e-01
-1.032643554479568404e-01 2.002747904493031583e-01 -7.924715910211356240e-01 -6.936641370149868591e-01 -7.200018559792862316e-01 2.067347105922689998e-02
1.093697315079473695e-02 9.639319214293173843e-02 -8.364928102984474645e-01 -7.872738261667314719e-01 -2.809627923374751202e-01 -5.488714165947468082e-01
-1.035942703326387868e-02 7.403648847771381394e-03 -7.651725398110043042e-01 -7.599462931282534583e-01 -4.910374037709323847e-02 -6.481284241889146980e-01
-1.031431877545124220e-01 1.167705014285936871e-01 -7.345161541280503803e-01 -4.174866608453265959e-01 -2.754186244144932183e-01 -8.659384905071766392e-01
6.764844547801489305e-02 7.185331786135137552e-03 -9.410011953964088072e-01 -8.962497553216344226e-01 -4.181626611861682941e-01 1.479066086272421698e-01
-1.364817719781465377e-01 2.291969519438881997e-01 -7.934460434033332454e-01 -5.528696528343101102e-01 -6.963482080311680367e-01 -4.576399459691544713e-01
2.112640052460122882e-03 -1.164364335500446129e-01 -7.881551587191387709e-01 -6.094242674405540017e-01 3.943136525529998826e-01 -6.878363218563380288e-01
-2.516222332521221312e-03 1.390682144988056590e-01 -9.420032367511642635e-01 -9.696354250997077928e-01 -1.242677174698402810e-02 2.442390585792065527e-01
8.522226249301699530e-02 -5.160438538569165484e-02 -9.464648969000372114e-01 -9.604976242095917272e-01 -2.664184529399595269e-01 8.040846858887665261e-02
-9.780757969213442482e-02 1.010856100461934859e-01 -7.323777829945248286e-01 -5.133358569536702332e-01 -1.319032265153495254e-01 -8.479904697580517015e-01
-1.639916524903708289e-02 1.703371232514989120e-01 -8.674121945538748601e-01 -8.477232887969569086e-01 -4.568795949081144725e-01 -2.694925998758929131e-01
-5.036013599735721102e-02 3.573373035598753633e-02 -7.406137514457959981e-01 -4.573323702034664540e-01 -1.073885235683291750e-01 -8.827880879179860196e-01
-1.873189142236857674e-01 2.622705940211048081e-01 -7.946802988392196454e-01 6.583620537647870419e-02 -4.966004390438073096e-02 -9.965939364159511760e-01
2.757734382265401157e-02 -3.014301057126721558e-05 -8.248534419885378277e-01 -9.072139307613100723e-01 -2.098306554989491368e-01 -3.646011243064037899e-01
8.469085657757681462e-02 -1.261865077721631978e-01 -9.368026102158867330e-01 -9.527271037487369254e-01 2.926764067189157048e-01 -8.155726045329753093e-02
-3.408910849154989098e-02 1.975440952108248882e-01 -8.834350262734936843e-01 -7.049221680450046268e-01 -7.038468475476726827e-01 -8.766043689107068382e-02
-1.657207234720809164e-01 2.543893991586708148e-01 -7.975346830278299270e-01 -6.074001503517795220e-01 -7.683724798934049582e-01 -2.016650428187652389e-01
4.154863315192766637e-02 7.413304398275188944e-02 -8.759539880410769364e-01 -8.644666051117489980e-01 -4.269041238187076259e-01 -2.654248626507111353e-01
1.830126150866392271e-02 1.073977071156753949e-01 -9.459878179377605445e-01 -8.069392068601699552e-01 -4.847593314392821817e-01 3.374277804426005778e-01
2.488959211356660955e-02 7.419012852255976731e-02 -8.407451285868872137e-01 -8.301974874904487489e-01 -2.169603696891664046e-01 -5.135176041275375525e-01
-6.324628712637229977e-02 7.006985805797885658e-02 -7.414682489874443450e-01 -6.007482754485250487e-01 -9.244227724414739999e-02 -7.940755221788032836e-01
-7.195392485817818373e-03 7.069207741601470085e-02 -8.088278602270920770e-01 -7.052774009215979634e-01 -5.097644390311011353e-01 4.926702796481459701e-01
4.922943968434004280e-02 -1.786338423590841940e-01 -9.067714369046329104e-01 3.497051770290581230e-01 7.536910972173394008e-01 -5.564674466079737591e-01
-3.678653008992309459e-02 1.966344043439661182e-01 -8.654492759524653467e-01 -7.091770461307195239e-01 -6.736688649084104918e-01 -2.079379178849331544e-01
8.509716470083006357e-02 -8.375819518540292274e-02 -9.841356671976315695e-01 -9.744088203715780550e-01 4.150433775677998816e-02 2.209181765483337334e-01
3.636770934128483179e-02 -4.922094482015069994e-02 -8.178587432691953873e-01 -9.799898252852683456e-01 8.279525778485063991e-02 -1.810107389789051280e-01
2.687720578788494949e-02 1.088804085232968899e-01 -8.941187566581421109e-01 -8.211806220935657930e-01 -5.692689942068093201e-01 -3.993993155717821125e-02
4.640103591232988545e-02 -1.322760291965505153e-01 -8.461129328107490633e-01 -9.575847425046273287e-01 2.125835938108912027e-01 -1.945242313049780070e-01
-9.246720971505697009e-03 5.825511395778829038e-02 -8.106856613475442730e-01 8.164209669978356176e-01 5.330340616784116081e-01 -2.221069421178324121e-01
4.656304733413287739e-02 -7.472683538772369183e-02 -8.563439839152169331e-01 -3.787761752089104927e-01 -4.165456747332708654e-01 8.264492180134923593e-01
8.745251962499181464e-02 -7.578462185750288460e-02 -9.600581491749540231e-01 -9.958384777371237506e-01 1.387560620404205969e-02 9.007326912396421137e-02
-1.220842185608062430e-01 2.031154597281071283e-01 -7.910265820788953128e-01 3.631391094365045147e-01 3.956995948040425426e-01 -8.435353092014459264e-01
1.064464628102588552e-02 1.302871202835339803e-01 -8.747672738542521254e-01 -8.869539717668900591e-01 -4.059028956670798771e-01 -2.203531058460907466e-01
-1.075464939995584429e-02 5.475704209614496581e-02 -7.902429944808695428e-01 -7.742824322202294107e-01 -4.977718361977487849e-01 -3.907811590179949279e-01
6.046216414657202415e-02 2.919323774610307551e-02 -8.842666103811333000e-01 -8.876787286362528562e-01 -3.400899236292768135e-01 -3.104276382227559306e-01
7.851468540236121452e-02 -5.769227324042620203e-02 -9.001159075271442100e-01 -9.134746150145014454e-01 -1.102582838159553297e-01 -3.916723612588311476e-01
5.169495345207111847e-02 4.422551717516211289e-02 -8.718089435339170246e-01 -8.829420434572847753e-01 -3.905503651495811357e-01 -2.605451211920935539e-01
-1.758614036674990555e-01 2.395892859534612396e-01 -8.123125060595329794e-01 6.513764581506822915e-02 3.846757465268653142e-01 9.207505944237394102e-01
-1.012393084241815511e-01 1.869655369018478341e-01 -7.899576951870576069e-01 3.961877510363571164e-01 4.138894981252164706e-01 -8.195918186941656414e-01
3.574327814934497027e-03 -5.801731991885289430e-02 -7.714431103479342244e-01 -7.335347992164189534e-01 1.968114947996580100e-01 -6.505320390674480535e-01
-1.369555182357020014e-02 1.705727090731181395e-01 -9.143073635082432649e-01 -9.495609788868810686e-01 -2.965967841021542872e-01 1.018051817720904417e-01
-8.676984341024712721e-02 1.431605801373742604e-01 -7.558488775177907293e-01 -5.919078340305258257e-01 -5.117570209138971871e-01 -6.226956460090472545e-01
-1.810105201188282886e-01 2.416098016153832295e-01 -7.999015665135530417e-01 4.578088364069128890e-01 5.725599872372482135e-01 -6.801368467614665736e-01
-9.860604740356192222e-02 1.940041820276516282e-01 -7.949644373450995838e-01 -5.985717285773033414e-01 -5.595569952592356344e-01 5.732432771558988449e-01
1.849149045371340991e-02 2.821485498250266878e-03 -8.157527756168180266e-01 -9.896895053465852854e-01 -6.251393396995673368e-02 -1.288669510248116046e-01
1.692444900683988743e-02 1.227451427367848708e-01 -9.197390284675269756e-01 -7.774807504710042894e-01 -6.221064658644638312e-01 9.223463436622265921e-02
-9.219624896525888125e-02 1.627738043394394707e-01 -7.673673501046903711e-01 -8.051193953531603498e-01 -2.795480531608019459e-01 -5.231019453224837745e-01
6.842959474657024643e-02 -6.739371375687065301e-04 -9.661616465319801117e-01 -9.528183243545476078e-01 -3.705122371768727711e-03 3.035185543626656157e-01
8.639077450085902443e-02 -6.246165175215065424e-02 -9.373689302505783250e-01 -9.685759641170167411e-01 -2.324179689323860598e-01 -8.855783111693719956e-02
-1.227565001413779971e-01 1.999741078808384698e-01 -7.940884267063105240e-01 5.183671096223616548e-01 6.450219108138310897e-01 -5.614644015713130543e-01
4.256928642622577474e-02 -5.023279112410181102e-02 -8.413979940109219680e-01 -3.853103685564057690e-01 2.645569058362789439e-01 -8.840506566126519195e-01
-1.754381593908830705e-03 -1.753143734423938671e-01 -8.077291232237145957e-01 -5.428280594901164768e-01 5.705525847885226653e-01 -6.162851984441376496e-01
-4.915087242848259486e-02 1.318780650350084571e-01 -7.936764703612931848e-01 -2.713077521213139165e-01 -8.125303444739928604e-02 -9.590568533887702252e-01
-5.660256373052567624e-02 1.287965124997298427e-01 -7.926439016773010326e-01 -7.193571275412515842e-01 -6.693908559294848848e-01 -1.855834180458778293e-01
4.495469291309341781e-02 3.161859175226780505e-02 -8.528148954595705655e-01 -8.119142943616816099e-01 -6.143375806827845731e-02 -5.805351599866976908e-01
1.057882211261197691e-02 -1.786963395874454352e-01 -8.171584999632893753e-01 -6.111624537789382972e-01 5.814101022215855119e-01 -5.370686623939181503e-01
7.767580127606323048e-02 -3.705373990120978261e-02 -9.686249767384790266e-01 -9.502232148993381422e-01 4.120474756445509368e-02 3.088333055946452244e-01
6.512375016788382598e-02 2.476238225052602993e-02 -9.438000302356990279e-01 -8.589360984484797346e-01 -5.083163834561530425e-01 6.199381495085479893e-02
7.038907263671889680e-02 -2.291098660528914990e-02 -8.813417175861297803e-01 -8.908869428834431670e-01 -1.887451386354396521e-01 -4.131533948078862650e-01
3.031665342271289143e-02 -6.963822846165115821e-02 -8.046190655968020744e-01 -8.841568608089216408e-01 1.138325801860402692e-01 -4.531101291879291448e-01
6.704590319407909005e-02 2.272598556382524754e-02 -9.342145483757837710e-01 -8.939434991270825970e-01 -4.426408712420719649e-01 7.024300302867854395e-02
6.157860173707368351e-02 -1.894672764089683215e-01 -9.435283689814438768e-01 -8.476517960366097837e-01 5.179454461859225312e-01 -1.149736815587614897e-01
8.392356821237940967e-02 -6.641553160078285389e-02 -9.679792170960618281e-01 -9.682175496390571512e-01 9.794968277895751974e-02 2.301317801053159862e-01
5.156905816794889186e-02 3.119097912251638741e-03 -8.532618921360646258e-01 -8.036881160034127225e-01 3.942100003092288696e-02 -5.937435447661280064e-01
-1.945690414372347118e-02 -1.294865415243355855e-01 -7.795950220740649472e-01 -5.334528758314759367e-01 3.604287391054583067e-01 -7.651922329022801117e-01
-1.506647464179181571e-02 1.667619565240523738e-01 -9.321338012522696337e-01 -4.486235051250809236e-01 -8.715688346919902019e-01 1.977491265288744693e-01
4.761138194154374004e-02 3.964292163356708532e-02 -8.593539153586757795e-01 -8.402837006730168312e-01 -3.159157026692284709e-01 -4.405911610441902715e-01
5.573802765636573509e-02 4.882153251639914648e-02 -9.382679128032620497e-01 -9.827361680279359524e-01 -1.364030336219647643e-01 1.249953457873274887e-01
2.052937680939896301e-02 8.136715108858239009e-02 -8.406251884726190227e-01 -7.232114602600142605e-01 -4.348143839908598651e-01 -5.365646608035483656e-01
-8.972058258424846222e-02 1.857240711437867509e-01 -7.932710729433477548e-01 -6.668233286608806765e-01 -5.590716526064909431e-01 4.927327222800105821e-01
-1.258397317827205653e-01 1.763077792840920255e-01 -7.539910152502476981e-01 -2.403363857059409026e-01 -5.064273755768773366e-01 -8.281121512042446398e-01
-1.522011779892865069e-01 2.417102981639053516e-01 -7.939288027266940828e-01 -4.847820425404764655e-01 -6.467571745707828557e-01 -5.888051701297308815e-01
-3.216887449662703125e-02 1.816881119291641478e-01 -8.488974122707048098e-01 -8.119344806238956158e-01 -4.764162434798431822e-01 -3.373276776704809410e-01
6.496183948287125032e-02 1.982911584452948239e-02 -8.984549327584443468e-01 -9.073600718828576106e-01 -3.987120927702101358e-01 -1.331404034526517122e-01
8.436208415623565327e-02 -5.980045155514933375e-02 -9.185641611917495508e-01 -9.667617450964837156e-01 -1.054510592178163481e-01 -2.329201629911895610e-01
4.431250771388169779e-02 -1.773894340310619433e-01 -8.708163520412385283e-01 -9.271205576665244585e-01 1.743963295151972626e-01 -3.317128152540078645e-01
-5.401870452402196543e-02 4.756116634869846094e-02 -7.416278654083741095e-01 -6.262125617320410953e-01 -4.813229446155271873e-02 -7.781652200907344108e-01
7.353421363314428805e-02 1.851598063371785990e-03 -9.145505618629630185e-01 -9.871233710520879168e-01 -1.548783281549397373e-01 -4.000192233746732717e-02
3.722610269175007092e-02 -3.444891327656905006e-02 -8.402809913009342546e-01 -4.502250618653143022e-01 -3.949627237595880191e-01 8.008132369715059706e-01
-2.189887897931219393e-02 -3.106784969526643972e-02 -7.540662564677182989e-01 -4.604089720446507550e-01 3.823136279996214304e-02 -8.868832738073514355e-01
6.730517258419524418e-02 9.753224318359374895e-03 -9.393463555316390323e-01 -9.928742886434859249e-01 -1.007765134358521997e-01 6.359828056170312160e-02
-7.832649932084714828e-02 3.327305811345290104e-02 -7.308005637464337623e-01 -3.045589731779431153e-01 -1.062961973349921402e-01 -9.465436864133199846e-01
5.313722231108226196e-02 3.559558114451694122e-02 -8.707201567158200373e-01 -8.772496879608043807e-01 -2.843536293239122825e-01 -3.867505636233652400e-01
-3.399345087381591690e-02 6.442954035009243463e-02 -7.623543304093500783e-01 -6.803321107965474290e-01 -3.220482703383156786e-01 -6.583563856994274488e-01
8.474775944592720378e-02 -8.255646316960998932e-02 -9.249016069237168125e-01 -9.721164724450532812e-01 -7.440549529201433143e-02 -2.223811733743125407e-01
4.821919754505251537e-02 4.046548519844901659e-02 -8.609706158622004724e-01 -8.130256207631961773e-01 -3.687824319014218477e-01 -4.505428480216865372e-01
-7.247181794342615058e-02 1.512741875136431324e-01 -7.997890205148575626e-01 4.624311038269259821e-01 2.901051120499734126e-01 8.378523128665834596e-01
7.557284034280190022e-02 -8.966242396117576896e-02 -8.970829311074348666e-01 -8.939075097850506246e-01 6.625470505819976152e-02 -4.433279576200226391e-01
4.806779787022461004e-02 -1.043619564902122654e-01 -8.635548694647542378e-01 -8.786654277072687425e-01 -4.194612736769466887e-01 -2.280335634009091061e-01
-1.772224414002670501e-01 2.374545997890836480e-01 -8.013147297473772745e-01 5.125508926259922937e-01 6.671477859767150909e-01 -5.405602779844868033e-01
7.411146024264977927e-02 -2.569654757219734173e-02 -8.916076020230347954e-01 -9.647381694464021162e-01 -6.038683789881851144e-02 -2.561907379703388665e-01
-1.450052529292451264e-01 2.169290840633157080e-01 -8.057885931446667760e-01 2.183656502885747419e-01 5.092384511638098354e-01 8.324617964989937668e-01
5.684412916424804590e-02 -1.930105570021044548e-01 -9.215288976774611562e-01 -9.732598160568123324e-01 1.637697008828487288e-01 -1.610739442672269872e-01
-1.607082919089357917e-03 -3.620123821767717159e-02 -7.690222116843348221e-01 -6.705416852631457258e-01 3.805447006458734238e-02 -7.408952055672675119e-01
-1.087087107210030074e-01 1.976809464126760285e-01 -7.885190887278934468e-01 1.861947364780207337e-01 1.944097362765241366e-01 -9.630868987525335045e-01
5.702734390876989384e-02 -1.889646429731163535e-01 -9.186398269618254453e-01 -9.315436048902577815e-01 2.095685658267245344e-01 -2.971658264427337048e-01
-6.475797230925807446e-02 1.001390347168139294e-01 -7.514287897876360534e-01 -5.707890544896692120e-01 -3.720801856718606304e-01 -7.319536807101820752e-01
8.583417016032891811e-02 -8.031940600419562593e-02 -9.330572893632019804e-01 -9.851132903428876375e-01 -1.097045922375844140e-01 -1.323506994004734483e-01
-6.267512098829775002e-02 1.531293865228409989e-01 -7.938365226945200970e-01 -7.800140370677262069e-01 -5.870488803125498700e-01 -2.166834421479618966e-01
-2.515361950736453786e-02 -6.125611661447868950e-02 -7.563547062066350302e-01 -5.072672138030495104e-01 2.443342821090236094e-01 -8.264264833527293908e-01
7.935501726356773700e-02 -3.880659149384275280e-02 -9.614110203731821569e-01 -9.855060015645520366e-01 6.618846449968351919e-02 1.561954162177086047e-01
-4.224113972121550792e-02 1.863752025408512147e-01 -8.400816389441444487e-01 -8.083544201013866948e-01 -4.335899231759050010e-01 -3.981995856638519959e-01
5.329334851381047067e-02 -2.014830537066688854e-01 -9.203090543222126607e-01 -8.521282232874524132e-01 4.691342847977027497e-01 -2.319278204621371964e-01
4.027740306583662416e-02 -1.828544764305351511e-01 -8.654241676590258558e-01 -8.015694189288216087e-01 4.713496646847165628e-01 -3.678531775582707386e-01
-9.931777192842802804e-02 1.824863664284797349e-01 -7.918559840109498094e-01 6.137274942725345905e-01 5.758461883800601866e-01 -5.401293642287117169e-01
5.172574288589981695e-02 -4.319043270731872525e-02 -8.535224122511225753e-01 -6.433841362795322816e-01 -1.577705078651020498e-02 -7.653809103004333148e-01
3.788167111715736585e-02 -2.117418163889709104e-01 -9.730140835626923668e-01 -5.803858865856457161e-01 7.763759822265483557e-01 2.457489712571676588e-01
1.069196759293186520e-02 6.174906035286023553e-02 -8.213555713762048516e-01 -5.623054157091269545e-01 -2.790501238486829405e-01 -7.784238227625234208e-01
4.638199135137895807e-02 -2.100370159659434854e-01 -9.180391710804419736e-01 -8.321229264255157743e-01 5.334440608685946383e-01 -1.516867470844394938e-01
2.474470396297587943e-02 -1.164231931457141572e-01 -8.018136665833578425e-01 -7.875723752952235035e-01 8.399822954593114122e-02 -6.104703523554514399e-01
-2.808424756273871295e-02 1.027068600178137753e-01 -7.982956192499957027e-01 -3.299135796422530964e-01 -2.186701041899815137e-02 -9.437578417279350873e-01
-2.042050750274669868e-01 2.550906921009513662e-01 -8.118021558594450404e-01 7.380459811990013330e-01 -6.726297386003103895e-01 5.345432055953412698e-02
-9.721390944647322063e-02 1.897402633664555527e-01 -7.967645652289484515e-01 -4.617826097529348917e-01 -3.939838075344737067e-01 7.946908711759608224e-01
-5.783194133333063175e-02 2.785451893656292963e-02 -7.358153744424568155e-01 -3.745708350745947657e-01 -1.709175564913254231e-01 -9.113088819903794047e-01
-8.236028050548274693e-02 2.338590294466687952e-02 -7.274150554680730574e-01 -3.176194565082158805e-01 1.006010104890421170e-01 -9.428665428023252915e-01
5.791514431159450887e-02 -1.707138002568812096e-01 -9.936448843444060097e-01 -7.068950928808772627e-01 5.671564365520406215e-01 4.226498599769400455e-01
6.266959390353797621e-02 2.440736399438071455e-02 -8.940085142753997349e-01 -9.778768350359297035e-01 -1.798630534961948579e-01 -1.067997073363875504e-01
-1.563397219601808316e-02 -4.380692660777461833e-02 -7.579246216419394111e-01 -6.214205615620226331e-01 1.239318829398578931e-01 -7.736131940827545295e-01
4.900887447511670381e-02 -5.238983671436744233e-02 -8.529085862781781158e-01 -6.914858614518245572e-01 3.206571146590371235e-01 -6.473224221597527750e-01
5.522799411913395518e-02 -2.022706918569275591e-01 -9.319703238328509443e-01 -9.651792122280465902e-01 2.550808121157438491e-01 -5.799023687846383696e-02
7.977657927919218350e-02 -5.112895010909339344e-02 -9.057592051121249321e-01 -9.721754398794320018e-01 5.827539448156802276e-02 -2.268896041982758072e-01
-4.546157909159224964e-02 3.138108220733040049e-02 -7.425765121185159412e-01 -6.409556792995833030e-01 -2.094474899455812597e-02 -7.672920791088387871e-01
1.304951783683525046e-02 -7.488110638059967961e-02 -7.806757773742971640e-01 -7.501543311735884290e-01 2.495177089267590631e-01 -6.123801044722527731e-01
8.664102785464458667e-02 -1.037415072212417161e-01 -9.620334179909416639e-01 -9.726212627630457241e-01 2.232933993661292693e-01 6.440447981884948880e-02
3.023665629344749958e-02 -8.744142085097758588e-02 -8.029730850523666419e-01 -7.808514326462442368e-01 6.131736486906464410e-03 -6.246866750155336545e-01
-1.257639927015954673e-01 1.104769067680134720e-01 -7.217416635145833537e-01 -2.097503538204305296e-01 -2.230244871202325674e-01 -9.519794468458662173e-01
5.195556047909805075e-03 1.247226062394007906e-01 -8.500987894311365922e-01 -7.383513444120077818e-01 -5.203343485456171091e-01 -4.290564740550930622e-01
2.445225701397882312e-02 1.027695012430254878e-01 -8.673457614408868199e-01 -8.059925052640418697e-01 -5.226962017213416800e-01 -2.777854606783370373e-01
5.782216593366969193e-02 4.330461081141827318e-02 -9.439957217989508598e-01 -9.491504971174213878e-01 -2.084702141305950218e-01 2.359099481626323047e-01
-1.930478399704033468e-02 -1.428121903240634483e-01 -7.772801604245808127e-01 -4.638736919106998258e-01 6.350593547004409478e-01 -6.176737115667111366e-01
1.726339509308789932e-02 -3.056297277281175284e-02 -7.903266551141852059e-01 -8.737382583267143676e-01 7.284051916587068118e-03 -4.863418535596914505e-01
3.952984436942849622e-02 -1.111442904500711260e-01 -8.229141339122638676e-01 -8.750598764449278866e-01 1.083647565500273358e-01 -4.717279853623705943e-01
7.120769405131538443e-03 -1.565233980390992874e-01 -8.013264986473197515e-01 -5.911694983778975621e-01 3.390690657850121137e-01 -7.318133592763278461e-01
8.560090633787477421e-02 -7.249041095871555651e-02 -9.721341653013438888e-01 -9.889179784671353612e-01 -1.900042196288601265e-03 1.484507383077852405e-01
6.453176466862498885e-03 -2.233159149210614258e-01 -8.895484645695337367e-01 -3.735984097081797017e-01 7.802844990561443872e-01 -5.015778392196178492e-01
-1.053860780492979349e-01 7.596622670357731921e-02 -7.246844823522038403e-01 -2.481220303034253061e-01 -9.637685543218045547e-02 -9.639226938998328720e-01
6.981020418405121941e-02 3.974499312413489437e-03 -9.200569169254725344e-01 -9.469245155724369534e-01 -3.173271749649831386e-01 -5.135587441226700800e-02
1.585362529884357108e-02 -1.671790744689373720e-01 -8.172308152375737933e-01 -5.734224635810259985e-01 3.486913540122987820e-01 -7.413508062299094536e-01
5.872049345301152967e-02 4.508907872696174546e-02 -9.239548643825691299e-01 -8.645257422646150935e-01 -5.017746872731866370e-01 -2.859028110585700930e-02
-2.481787344301273832e-02 1.864998244319571452e-01 -8.968662325520856404e-01 -8.749936103248736607e-01 -4.841343260708935725e-01 -3.690671004714402991e-04
8.619883218613498543e-02 -1.060196932976042311e-01 -9.655178750752666517e-01 -9.999961588983569127e-01 -1.287617111275184611e-03 2.454430831535062661e-03
6.900676309259316799e-02 7.615246669036077401e-03 -9.173957792016963486e-01 -9.823489691914913946e-01 -1.806767619919304457e-01 4.843976057461019114e-02
-8.100490452820652623e-03 -1.376341180735957959e-01 -7.815923199703801449e-01 -5.495902552307809774e-01 4.285637038160280965e-01 -7.171357633857433633e-01
-5.746336982676581925e-03 1.473143405957617336e-01 -9.351208222464891806e-01 -2.851135063164264016e-01 -9.504992895289909871e-01 1.235369949482196805e-01
-5.582546199702268647e-02 2.040702507258737308e-01 -8.408132045724118209e-01 -6.139177310604048143e-01 -6.569336988750189565e-01 -4.376564117798688591e-01
-3.672866725895865270e-02 7.238698884941743850e-02 -7.649432804244234996e-01 -6.189196799237016711e-01 -4.134571871126110354e-01 -6.678260134406790449e-01
1.704101939864725163e-02 1.192666290175791455e-01 -8.740847603041990155e-01 -7.687962016425113898e-01 -6.037322159568483393e-01 -2.108549543071739085e-01
-1.902436006024406726e-02 1.747718194967916583e-01 -8.688197456841151300e-01 -7.330458019069098219e-01 -6.250483190899068786e-01 -2.682507243411239028e-01
8.558367499042277005e-02 -1.043011697605117916e-01 -9.722429720948578824e-01 -9.809255257740036038e-01 -1.755431701577953862e-01 8.348477882791474625e-02
2.684555950343448308e-02 -2.170628809150057792e-01 -8.956227055656131864e-01 -5.915169922484329046e-01 7.663877185186653840e-01 -2.505144961576524776e-01
7.522539530821127640e-02 -2.527551524243978540e-02 -8.954891631200567748e-01 -9.316476005888353340e-01 -1.555881870961371011e-02 -3.630298492926264942e-01
-8.879200599229980159e-03 1.610726496256309481e-01 -8.992698187630027151e-01 -9.063865720878283572e-01 -4.223272846063958474e-01 -1.015118790409773840e-02
3.796852531872533382e-02 -7.614986385139936587e-02 -8.160192844367563092e-01 -8.658519247281709630e-01 -1.439892995675427778e-01 -4.791320549228262893e-01
4.638653602868310355e-02 -1.771249781616248131e-01 -8.821556445243895483e-01 -8.517808579971225535e-01 1.817381086012274105e-01 -4.913660853495426806e-01
-5.461678880623565407e-02 2.111981219259679576e-01 -8.564251672933906878e-01 -8.070641768108157699e-01 -5.211324865110796845e-01 -2.776118621591298630e-01
-1.134596964993159381e-02 -4.190261231695602273e-02 -7.609931797557452082e-01 -6.269962686995173007e-01 1.373684145264282841e-01 -7.668152305003974600e-01
7.405880159855428475e-03 8.447605286940371161e-02 -8.254007862565599929e-01 -7.451500475267155421e-01 -7.070906483805047826e-02 -6.631377193469406572e-01
5.112029401348786722e-02 6.045203100449200728e-02 -9.011000920509162349e-01 -9.559581194048281105e-01 -2.799970987963739666e-01 -8.800965066171875795e-02
-7.061309189962550192e-02 -2.855797893135304626e-03 -7.322512203585642698e-01 -1.741990850737862584e-01 -5.969159104526153975e-02 -9.828995842495513724e-01
-9.226614880570834301e-03 -1.728839618468528405e-01 -7.989248176960861425e-01 -4.704740772617759803e-01 5.474180517810711688e-01 -6.920893144738594627e-01
2.399404158265432824e-03 -1.940315304309525590e-01 -8.218259274792163449e-01 -5.217274091591980190e-01 4.210251516167733410e-01 -7.419827034628933005e-01
2.527385788925637020e-02 -2.240607484093635193e-01 -9.157301433791064094e-01 -4.974110006562226238e-01 8.474320397804628868e-01 -1.855834970564441966e-01
-1.516597948188077617e-02 7.617643286090095001e-02 -8.095524428721733168e-01 -5.368831665387292507e-01 9.516591529704139518e-02 -8.382719809542862333e-01
-1.449760414806277042e-01 1.933287677816334649e-01 -7.634654974399771588e-01 6.752795691268169420e-02 -5.389699519898778490e-01 -8.396138194951460187e-01
5.743692095379322043e-02 -1.593221285527182673e-01 -9.034845521744767627e-01 -6.693557530932436883e-01 3.217075237532932563e-01 -6.696768959442311875e-01
4.755872190906871438e-03 1.032113441084836925e-03 -7.801834939481535613e-01 -7.559921441169994427e-01 -2.236216768582317271e-01 -6.151985237892677594e-01
5.579662969047051446e-02 3.581122931576104836e-03 -8.602132214904156804e-01 -8.325331137496860823e-01 -1.627293755100875650e-01 -5.295354236086088351e-01
7.612501540980774750e-02 -9.452638671090649383e-03 -9.176880246555715326e-01 -9.871386861786589639e-01 -1.546886055725318898e-01 -4.035653051857130552e-02
8.533946684042383046e-02 -7.687537647484704584e-02 -9.285924073835533088e-01 -9.866979862312554861e-01 1.120601427668383859e-01 -1.177693014764922969e-01
-1.077793490377923144e-02 -2.310442096030028147e-01 -8.913035811735845471e-01 -3.194421956759620485e-01 9.413880814380755080e-01 -1.083751066807299712e-01
1.500039470214483382e-02 7.916243852104634660e-02 -8.322526955847248109e-01 -7.624410504937120248e-01 -2.598412663838859937e-01 -5.925927444763926522e-01
8.180137968144228500e-02 -4.251468403953834185e-02 -9.642294570757581340e-01 -9.646380822390524523e-01 -4.434079639360290204e-02 2.598216004672132540e-01
6.970129036672975675e-02 -1.515798081026277222e-01 -9.149261905867257516e-01 -8.137709052608891325e-01 3.882071968036804877e-01 -4.325183072434062859e-01
7.759832133575153557e-02 -2.611965229641759548e-02 -9.039805518158147146e-01 -9.479017715564169722e-01 -1.856013881300863089e-01 -2.589099384040546292e-01
-8.084236748467105160e-02 -3.251236090405838774e-02 -7.333160368446913768e-01 -7.160332577583870817e-02 4.097781099851168646e-02 -9.965910810074559700e-01
2.595455546930859267e-02 -1.459374158494671503e-01 -8.160055292900999513e-01 -7.769913893219710932e-01 4.446332354575298074e-01 -4.456295174762127664e-01
7.172729262665748784e-02 -3.923442449765039697e-02 -8.827449688058779387e-01 -9.134746150145006682e-01 -1.102582838159543444e-01 -3.916723612588333681e-01
-6.586087533346973721e-02 8.169945352208744793e-02 -7.439247870972045540e-01 -6.653715043907354465e-01 -1.504708645328745042e-01 -7.311903172714603327e-01
-2.904940467862756302e-03 1.502681231322379463e-01 -8.964073101159052426e-01 -7.659893215631954355e-01 -6.412213907854483752e-01 -4.577649233319502214e-02
9.427323043412875331e-03 -1.023552363566873347e-01 -7.834114284664179806e-01 -6.758480592119345820e-01 2.972173203952545584e-01 -6.744562738358400589e-01
-1.275406593755022133e-01 2.021875139110902164e-01 -8.001649648440489759e-01 4.839532246370307766e-01 8.094565135532271194e-01 3.325198174991589317e-01
3.210607863855502453e-02 -1.201747588198439631e-01 -8.140127700346390105e-01 -7.490647726810836238e-01 2.504106832512973946e-01 -6.133485599900393437e-01
5.612084156972400872e-02 -2.001907280694960600e-01 -9.323436079764928497e-01 -8.773748772035593335e-01 4.203803244842933551e-01 -2.312870675989459057e-01
4.661092396775971120e-02 -6.402510136648949246e-02 -8.490091000887922679e-01 -9.657305519350993794e-01 -1.323209669666720878e-01 -2.232838166104580968e-01
4.400754273230881274e-03 -9.485165395594481741e-02 -7.790647530261040066e-01 -6.424965981477869237e-01 1.824593169277871074e-01 -7.442490974363129563e-01
-8.032842651850206905e-02 1.030710599379332792e-01 -7.427600616676792722e-01 -6.038863058277107454e-01 -2.360453076168899378e-01 -7.613172416186360092e-01
-7.256202850585251329e-02 -6.607193216994168561e-02 -7.399323704791981315e-01 1.498361791273913890e-01 -3.644851552443911236e-01 -9.190754544818268146e-01
3.070948120628444467e-02 8.805775397324921983e-02 -8.671702400007772482e-01 -9.040850993836029303e-01 -3.739180252233716417e-01 -2.069189297420482854e-01
4.292647634592636208e-02 3.605063915469918640e-02 -8.497722220208795418e-01 -7.424205618884767155e-01 -1.799561447991221697e-01 -6.453119363797913399e-01
1.589159377432374995e-03 8.646503800626165193e-02 -8.221909550663919486e-01 -5.899599656680348803e-01 -3.438745665303057364e-01 -7.305460433145644084e-01
5.307674153662236827e-02 -1.165217087529393930e-01 -8.709778229664831839e-01 -5.161877955233022952e-01 3.298210451285455980e-01 -7.904228222559792627e-01
-1.582834522225785301e-01 2.334729951065344089e-01 -8.095820993061171311e-01 -2.053370595402106147e-01 -7.298222411602017269e-03 9.786641037296763823e-01
2.275189330771218779e-02 4.735240244803845533e-03 -8.213094983532140958e-01 -1.085550829805282703e-02 2.887859703704892533e-01 -9.573321373780186994e-01
6.654970679446346737e-02 -1.530567651409789898e-01 -9.109043600318109668e-01 -8.040129104564998075e-01 4.035743940112193062e-01 -4.366817471772150849e-01
-7.838176141857558510e-02 1.321417717115812851e-01 -7.575892068240420718e-01 -7.769138374417359216e-01 -2.611964008039153740e-01 -5.728711280895870672e-01
8.452410855539814472e-02 -7.074760745169124398e-02 -9.665496179310104630e-01 -9.676217151736072886e-01 -2.355056921933059155e-01 9.080355317408289606e-02
-9.845984929612651079e-03 6.506933673830224418e-02 -8.127549452057549750e-01 -1.059691488706662743e-01 -2.185985857117495323e-01 9.700439154040653156e-01
4.787075463136696019e-02 -1.609050454072646630e-01 -8.669043858189746654e-01 -9.380927032031227686e-01 3.233482666478897927e-01 -1.242094145097828312e-01
-4.295237547026696523e-02 -4.796966890467839473e-02 -7.448000672147031542e-01 -3.838773745944760174e-01 3.185314241911214039e-01 -8.667040400720583682e-01
7.732342692510141280e-02 -2.671210731598152449e-02 -9.023437691993189125e-01 -9.390881827846823127e-01 -2.488165912519396117e-01 -2.370731719784599512e-01
-6.308683254632371784e-02 -2.083133465182472263e-02 -7.358146705735365556e-01 -2.963541889594417111e-01 2.116041256885612953e-01 -9.313419826668243307e-01
-3.637113073286950965e-02 4.854089630410412387e-02 -7.528352811351635143e-01 -6.154209189416228742e-01 -2.261630827499314100e-01 -7.550545361297396063e-01
6.702737507439608666e-02 -3.581982306440239117e-03 -8.879342206397176085e-01 -9.014513892975338782e-01 -2.114326007380207262e-01 -3.777322438959939688e-01
6.418900646551418260e-03 1.237734205422660883e-01 -8.512584220101224730e-01 -7.115539468940804690e-01 -5.259588637697044655e-01 -4.658951108152321607e-01
2.213510468352656094e-02 -7.828643503386188696e-02 -7.934259033781116965e-01 -8.270104444989460069e-01 1.864404110159675054e-01 -5.303712829988560529e-01
3.922436879891953720e-02 8.728797012281171164e-02 -8.971293131566553392e-01 -9.609168667862811875e-01 -2.762546632693506643e-01 -1.794815164784717768e-02
-9.032229163713632186e-03 -1.370895815644145865e-01 -7.804886703937480297e-01 -5.480397611563385674e-01 5.038374917370097572e-01 -6.676827106581852966e-01
2.037204286249170646e-02 1.086481384765019820e-01 -9.367562894174094046e-01 -7.099331804854063233e-01 -6.708911559305986705e-01 2.142427038197114997e-01
-9.498376349849541045e-02 1.815533694139346566e-01 -7.895826923886100079e-01 4.072043891866997667e-01 3.986505783090577015e-01 -8.217434525695599401e-01
4.374293913664992900e-02 -2.193076855310124862e-01 -9.568547359488551729e-01 -7.544930361359918347e-01 6.246532009519715212e-01 2.013669212227979233e-01
8.413960129511055541e-02 -1.174992769117141206e-01 -9.331277119730063685e-01 -9.822275818241797962e-01 3.217971667475161973e-02 -1.849146920570582386e-01
-2.889288089095373713e-02 -6.388951439783339958e-02 -7.549777709035709883e-01 -4.162387082129808125e-01 1.499794682262091949e-01 -8.968007007667716524e-01
1.702286865943590868e-02 1.801477976528815389e-02 -8.237782955839327848e-01 -4.490836956604742913e-01 -4.052818935665162825e-01 7.962853891910045556e-01
6.485036465051535748e-02 1.629347243202662610e-02 -8.866053135998250845e-01 -9.565111457691790608e-01 -1.144064463570804019e-01 -2.683236721783538448e-01
5.472560913818125261e-02 -1.413479492725533138e-01 -8.856024206861448089e-01 -9.201992299138779252e-01 -1.818531991838702178e-01 3.466450507543665238e-01
6.717627867951568577e-02 1.214091361954461497e-02 -8.918328186715523964e-01 -9.126319556836061109e-01 -3.091329475663959214e-01 -2.674691275531217993e-01
-2.575277730077088142e-02 1.362608307889654792e-02 -7.522129542331340568e-01 -6.701297740388854063e-01 2.075741773042743057e-02 -7.419536478485408981e-01
-4.829890965029538102e-02 -7.266303631418295772e-02 -7.491331463016911441e-01 -4.046921738521851442e-01 4.786283487464903508e-01 -7.791913424820637868e-01
4.593124468245072395e-02 -1.335673395438480016e-01 -8.454356993654299490e-01 -9.578183308909025140e-01 2.061471092741996303e-01 -2.002184166036091728e-01
-1.487444651674977580e-01 7.618717036479827343e-02 -7.168764603157978810e-01 -3.625756117468105777e-01 2.815390877900668665e-01 -8.884113167968782365e-01
4.931906322986595592e-02 -1.373030711897475255e-02 -8.514010086843375458e-01 -7.579812489518296115e-01 -2.085232580248971013e-01 -6.180473097588131681e-01
-1.626207856932954294e-04 5.734982394676121226e-02 -8.123363167462001044e-01 -7.219517673461928187e-01 -5.075887730209904802e-01 4.702544876221321224e-01
-1.692770893635386908e-02 4.651357504981001173e-02 -7.737543670269310114e-01 -7.739078960911943694e-01 -3.730783939553022344e-01 -5.117412239906350413e-01
2.867432582080934114e-02 1.023041841965563609e-01 -8.773355866073595521e-01 -9.275816487687026379e-01 -2.838473079917706032e-01 -2.429464768490382509e-01
-5.810936998369192752e-02 8.873612204397950121e-02 -7.527030220418776674e-01 -6.969994046668253063e-01 -1.807559302077623997e-01 -6.939157899837827825e-01
-1.531246999512272944e-02 -2.073778064489409656e-01 -8.252862890270796781e-01 -3.928043741465731542e-01 7.804546509543587307e-01 -4.864105893738631670e-01
-1.861687228621870110e-02 -1.182738772995895471e-01 -7.696022794764549868e-01 -4.413003188800782017e-01 4.483410575992623492e-01 -7.773315409959359323e-01
3.762053907477858755e-02 -1.111530907528161805e-01 -8.193554727825593798e-01 -8.955482334869362404e-01 2.065602829353206105e-01 -3.941144643528169955e-01
-2.501756148176599581e-02 -2.522601774516332329e-02 -7.512230016904097862e-01 -5.135572667336918418e-01 -2.272255207076464070e-02 -8.577544050673310272e-01
-1.098926074600279912e-01 8.919405870768803979e-02 -7.255353722259135774e-01 -4.861170683725642427e-01 5.179824465025992947e-03 -8.738783469427395811e-01
2.850294788933330214e-02 -1.476211165394497038e-01 -8.207843589228317471e-01 -7.490635915718566462e-01 2.504061590772610479e-01 -6.133518494939461663e-01
-2.814052738806259099e-02 -1.125119790389353253e-01 -7.647348734724852548e-01 -4.055459513545345840e-01 4.666143041928392243e-01 -7.860048170733928696e-01
6.022063471803951185e-02 -1.637565868315327688e-01 -9.096119995612436115e-01 -6.894877564444822360e-01 4.382821736434411863e-01 -5.766414570420119734e-01
-1.652066788361726268e-01 2.440165446041303310e-01 -7.925700233623589330e-01 1.138961590607371621e-01 3.005909796121674499e-02 -9.930378218280355718e-01
-1.065638503743379234e-01 9.779487131028989644e-02 -7.281148274642005314e-01 -2.814849375272986398e-01 -2.361855544045808608e-01 -9.300444149801952998e-01
2.282761788064930839e-02 6.880610588110187831e-02 -8.350812200161473742e-01 -6.806090961509031478e-01 -3.803962908850223590e-01 -6.261548691159145585e-01
-1.485106752066188140e-01 2.326417374405031491e-01 -8.060045890025135940e-01 -4.540276969343279845e-01 -3.780621586440587878e-01 8.068010006302078763e-01
-9.849617806734562581e-03 -3.805644103047300941e-02 -7.615129495262608073e-01 -6.321080549435763585e-01 1.985651812471130317e-01 -7.490068595625474224e-01
-1.168314953252497373e-01 2.075393183636132510e-01 -7.998328592314172258e-01 -4.828811231672490711e-01 -4.098693167097204326e-01 7.738429841438396739e-01
-1.337289342538396097e-01 2.270919450561624531e-01 -7.971903568384536287e-01 -6.469369734229600821e-01 -7.031767840564058236e-01 2.949829872762683158e-01
5.474123070285606338e-03 -1.999765058002015428e-01 -8.332587274864617921e-01 -5.999045594406786641e-01 4.725057725872522374e-01 -6.456413977077440913e-01
-4.038129611533872176e-02 -3.540838782048770506e-02 -7.439942302555576648e-01 -3.559490610246027198e-01 2.895691664473490010e-02 -9.340566165571194679e-01
-7.836578685334830152e-02 1.518590667564362895e-01 -7.743017283330769773e-01 -6.313835895314435787e-01 -6.313509464929486503e-01 -4.502785196218527242e-01
-9.018163215516300513e-02 4.259677075258311990e-02 -7.260676437339321776e-01 -2.192083262582390224e-01 -1.078243192524153266e-01 -9.697018231790711651e-01
-2.814107393870779461e-02 -9.394017730388391774e-02 -7.587562219740789926e-01 -3.962012384737680359e-01 3.436485407884313781e-01 -8.514283640129887143e-01
7.513893613881318656e-02 -1.447529905145713558e-01 -9.196833095825232007e-01 -9.070700501992762232e-01 2.150664687450117574e-01 -3.618982426774594030e-01
-1.620390799677261517e-01 2.334147742723995667e-01 -7.942737463577186352e-01 3.439130779807608729e-01 3.524824520784208270e-01 -8.703332211116513450e-01
-1.687727997093858290e-01 2.566811076506631539e-01 -8.026257503141198679e-01 -6.355632046752425213e-01 -7.087512382207563633e-01 3.061553448553204770e-01
5.346394310903763297e-02 -1.705270271497081880e-01 -1.001441536783981068e+00 -4.543001614411221190e-01 8.126570941918394020e-01 3.649654923061166345e-01
-2.225423238264594497e-03 -6.737713763107419651e-02 -7.682210650585018508e-01 -5.411677541339771080e-01 2.270098788075014182e-02 -8.406081887745474601e-01
4.003053298220479034e-02 -2.925801775527346604e-02 -8.417767057888263516e-01 -5.386050058599536339e-01 -1.196403667808612408e-03 -8.425575447889971370e-01
-7.271858695666565120e-02 1.493559787490036095e-01 -7.969137974143026826e-01 7.701099367907907611e-01 6.372210391559678389e-01 -2.966534195105639121e-02
6.603243516668537427e-02 -3.352613055565076272e-02 -9.982834583386082095e-01 -8.461194145905226449e-01 -3.737449573036298323e-01 3.799955830573549798e-01
-1.934450887698261623e-01 2.674423881514678691e-01 -8.013011887467956784e-01 7.649193937547815736e-01 -6.439475069645336225e-01 -1.516342085346604474e-02
-9.183792893411046876e-02 4.093492779243550206e-02 -7.254934279608458159e-01 -2.192708296533653900e-01 -1.081651022957602071e-01 -9.696497377447552690e-01
2.869269519596040485e-02 8.836221812180622415e-02 -8.617643893896785867e-01 -8.877373018554556294e-01 -3.582610016683575038e-01 -2.890874220335100664e-01
6.394059745488016311e-02 -7.582557498326013279e-02 -8.722795911336386210e-01 -7.533962534364921915e-01 6.613824140933327600e-02 -6.542322357780434583e-01
-1.076702076209581221e-01 1.966991017120899021e-01 -7.885164807501707784e-01 1.854118659884400333e-01 1.934866601327242808e-01 -9.634237656926304405e-01
8.580358483532767033e-02 -1.129724232961845237e-01 -9.421234225705903409e-01 -9.946402728524785797e-01 8.027997339731494930e-02 -6.516021402108479466e-02
-9.844693836504737894e-02 1.814208102292732550e-01 -7.919491336144018900e-01 5.444828905298257915e-01 5.242180276122458960e-01 -6.547777038404808403e-01
-1.248935050047090545e-01 2.035422628937946787e-01 -7.922604640175415769e-01 4.222757347793429927e-01 4.846585678091464566e-01 -7.660217206226943576e-01
-9.868274704978731438e-03 1.025238882313863065e-01 -8.173385292668295943e-01 -5.382781658347205456e-01 -4.132640967751611827e-01 -7.344858082374493558e-01
7.586607319725212351e-02 -7.758732934184964236e-02 -8.932125052190492687e-01 -9.332676980423253443e-01 -2.202893902057842957e-03 -3.591748196202447230e-01
-1.678919647666449744e-01 2.346260656817735490e-01 -7.966787378456946511e-01 4.297849931299900783e-01 4.986039001826540473e-01 -7.527808515118461496e-01
2.816343656397005124e-02 -1.368805288409510879e-01 -8.142482344678459993e-01 -7.694938562111394154e-01 3.506619687192683577e-01 -5.337746612075525698e-01
-1.621861800053242542e-01 2.260396997524492801e-01 -8.055782695913172864e-01 5.078545335695419105e-01 8.163951952451370397e-01 2.749230036092242813e-01
-8.671565820572284256e-02 1.656247453804789715e-01 -7.794302418050361725e-01 -8.438960628102366579e-01 -3.644811425406657146e-01 -3.936914171094306747e-01
-4.325225363150986962e-02 2.699501661712709610e-02 -7.448292186796302561e-01 -5.477943714299970956e-01 3.478141967712291421e-02 -8.358896933656126960e-01
2.873613456958896625e-02 -1.443685836829706748e-01 -8.193955187966210918e-01 -7.740110115520834055e-01 3.462156667652677156e-01 -5.301336304012432832e-01
5.134619403349646033e-02 6.023542845179979260e-02 -9.034739632287531741e-01 -9.398425867579096593e-01 -3.298975644055346379e-01 -8.867642931183661315e-02
-1.631385009551068049e-02 4.930959323180524045e-02 -7.763606655931336586e-01 -7.709917472256836435e-01 -3.472094156866302184e-01 -5.338701596534838334e-01
