-1.845561992416818245e-02 1.481880379779637047e-01 -8.604556530497744493e-01 5.800774692887623596e-01 -1.674492418410556682e-01 -7.971642748081482210e-01
3.744110179320087745e-02 1.789682463283884251e-01 -8.472465718925467071e-01 5.191174141051944080e-01 -3.365416242600552943e-01 -7.856569515463731612e-01
1.368402250188049084e-02 1.506231945458940125e-01 -8.520986616171433159e-01 1.034414862875246977e-01 -2.230100612587605433e-02 -9.943855007191133577e-01
-3.772358276590537240e-02 5.397109263472708862e-02 -8.496936524655333001e-01 4.361238060370484226e-01 1.076967273066933156e-01 -8.934189614817826808e-01
5.876032551415937000e-02 1.211180476267895850e-01 -8.199259730644582467e-01 3.711844142278544201e-01 -1.470779854253310426e-01 -9.168370612260124952e-01
-9.879191060286884873e-02 8.584948787955694327e-02 -9.535403298726291554e-01 9.935305720362787030e-01 -6.244203371069442093e-02 -9.485776117607737368e-02
-1.145498334604532903e-01 -4.840253461615333375e-02 -9.291788193119315808e-01 9.441678275839856527e-01 1.233540405998132111e-01 -3.055010540457052670e-01
7.463950684329268004e-02 1.365736056144452315e-01 -8.140790120097977089e-01 2.849151154357300042e-01 -1.395796585498893239e-01 -9.483358560738601728e-01
5.764443785836604467e-02 -6.513171685987499682e-02 -8.209202858778957834e-01 -6.512937755360924397e-02 1.510862215906211836e-01 -9.863727073601283868e-01
-2.460936136034965610e-02 -3.603359920553124429e-02 -8.562089202520046793e-01 9.264955690749090422e-01 -2.512170293039779345e-01 2.801713130787036876e-01
-6.606593453389009163e-02 -1.057963794171489988e-02 -8.668636237564507629e-01 5.736455037000259827e-01 -4.486692081297601054e-02 -8.178739484184013309e-01
1.324628594967560682e-03 -1.308205676727819400e-01 -8.573731002771901588e-01 4.951977659167956514e-01 2.100896982300695937e-01 -8.429955464464882198e-01
1.743788960727818557e-04 2.214215533061608676e-01 -8.858572538795798090e-01 6.626280359450730240e-01 -3.897934476817309646e-01 -6.395194712625762445e-01
-6.202600944019408258e-02 4.001018929914592487e-02 -8.640328642145194138e-01 5.850566501487575177e-01 -1.499335888268834571e-01 -7.970123180090793458e-01
2.330640545747520234e-02 -3.641847155003892500e-02 -8.195683626943641720e-01 3.384844620768819867e-01 1.948424096536716665e-01 -9.205784618015320220e-01
6.607923557879741283e-02 1.896806332415284235e-01 -8.376260369034105313e-01 5.175949484407799117e-01 -5.025979465904718557e-01 -6.924527228855611449e-01
1.029923780675771339e-01 2.883883602768020915e-01 -8.898071018757107709e-01 -7.455399769257309295e-01 1.480964414564788778e-01 -6.497981123653013835e-01
-2.409427411871001637e-02 9.049254236523690542e-02 -8.484084222654354468e-01 4.079497277877810468e-01 1.345648398821194247e-01 -9.030334010795919575e-01
-5.628391966625521242e-02 -1.751231529767282857e-01 -9.284810177151776589e-01 6.677310948843153682e-01 4.441093927906289984e-01 -5.974127820525205745e-01
1.007146842109897175e-02 8.181075432774184697e-02 -8.452993429649731105e-01 -9.248126795204782979e-01 2.963500854465651035e-01 2.385332988368013829e-01
1.627769555604667018e-01 1.289064853425228585e-01 -8.198116626712019794e-01 -4.011679652972678367e-01 -1.623585693272295571e-01 -9.015009476341473427e-01
4.374994415006162353e-03 -7.908041296898386807e-02 -8.371971210376378814e-01 5.132513178705538914e-01 3.019982974322270586e-01 -8.033493094863379813e-01
1.270323237078030965e-01 1.506333642206404422e-01 -8.127787697230272057e-01 -3.723831297764673698e-02 -7.500405810688143271e-02 -9.964876814662984028e-01
9.309981597748051563e-02 6.899671265138919082e-03 -8.059360708945721985e-01 -1.616742478602171684e-01 5.073178973048319412e-02 -9.855393057050415573e-01
6.503177940493727605e-02 -1.689680002721029861e-01 -8.594231381513314227e-01 3.109677701967211716e-03 3.389213477658297724e-01 -9.408095715569562145e-01
6.379962696276993139e-02 -1.695621313218561577e-01 -8.595693564457477231e-01 -1.428615337168085697e-01 3.877539930654049782e-01 -9.106247432647081030e-01
1.300335799445023477e-01 1.488399462756709590e-01 -8.128247682209766012e-01 -8.641767004273064046e-02 -5.844069567925239822e-02 -9.945434487205228047e-01
-4.294534672561398092e-02 -8.128922721195920575e-02 -8.706005160149424826e-01 1.586580678490023544e-01 5.187278067045572039e-01 -8.400887334430222619e-01
1.327100957327490005e-01 2.087484017954545634e-01 -8.409346810699491748e-01 -1.682777604886399325e-01 -1.973412645792852749e-01 -9.657841480471591744e-01
-6.744113923692847401e-02 1.438588590715053905e-01 -9.077524780971483187e-01 8.538851933189932630e-01 -2.150872433411653017e-01 -4.739383444948128687e-01
-9.503977882320660542e-02 6.337699295599692750e-02 -9.153831776133078968e-01 9.362505805549694582e-01 4.013663993174897832e-02 -3.490328072624002687e-01
9.950205045983941121e-02 7.179205817129709344e-02 -8.048992268710613018e-01 -5.813586713783868570e-02 2.557865475255569759e-02 -9.979809383816813373e-01
7.614609294795711414e-02 2.014277291277752069e-01 -8.396269602997173953e-01 2.954255585960218755e-01 -5.482439391967947051e-01 -7.824016375636044796e-01
-2.486799861110103402e-03 2.439585660030168246e-01 -9.344277586685182380e-01 9.699945175571800249e-01 1.207085807435953478e-01 -2.110451952636702988e-01
2.676989936102160128e-02 -1.150356269812084636e-01 -8.381228105694920050e-01 2.851249696438151182e-01 4.824704547485495487e-01 -8.282065032226815227e-01
5.785227241788564595e-02 1.635108947611647601e-01 -8.302069899402545472e-01 5.343215816411519548e-01 -1.619504053746484151e-01 -8.296219100237680610e-01
-6.615770484593580525e-02 1.367733738431449186e-01 -9.044867357900816529e-01 8.263473830347365379e-01 -3.188776401132143445e-01 -4.641842879584249792e-01
-6.846350396254172188e-02 8.870270935123907019e-02 -8.804269153840218465e-01 7.478957287893666095e-01 -7.259794148399766056e-02 -6.598344623850049828e-01
1.723591375155841127e-02 -3.176530222704064543e-02 -8.213851971240357930e-01 5.002250114136610470e-01 2.422748743805762661e-01 -8.313109064604402576e-01
7.791040808496144110e-02 2.481048059211737045e-01 -8.874590746323189894e-01 1.777983543259152310e-01 4.139892581359785328e-01 8.927489229044294206e-01
-9.102324183792492862e-02 -2.803222951654917028e-02 -8.894383244390872134e-01 7.400851785924874582e-01 7.647411839844918402e-02 -6.681509093332929083e-01
1.071058829475077419e-02 -1.322613065491048678e-01 -8.530231759154319748e-01 4.240673881936087297e-01 4.162939287650169184e-01 -8.042799358084463668e-01
4.799804976942131929e-02 -1.510958839088895889e-01 -8.504401461846060606e-01 1.022314142820752031e-01 5.309372758901317324e-01 -8.412219368301407929e-01
1.076722014816401257e-01 3.136749175082101382e-01 -9.019892571671405124e-01 -4.800562075314041555e-01 -8.327133656948795259e-01 2.759247872222995723e-01
-9.251872369980437827e-02 -1.227675773809255022e-01 -9.228100612701499728e-01 7.079200854438669754e-01 4.088656483651705309e-01 -5.759149539750442193e-01
-2.844908132123830091e-02 -1.954704681231953511e-01 -9.220923102737496047e-01 1.184241236666594976e-01 3.031263429802708020e-01 -9.455634019594831852e-01
3.749147501537419824e-02 1.394373552539525662e-01 -8.372393168102009176e-01 6.264071556270032204e-01 -3.744280650372517338e-01 -6.836795298176970848e-01
2.185323506971767818e-02 1.251354410693733821e-01 -8.407241152184594668e-01 -5.856105882141221519e-01 1.543373404240117042e-01 -7.957639249943119220e-01
-1.124304950685694887e-01 -8.743611014623106636e-02 -9.409841106571298353e-01 8.989106500391922383e-01 1.114537287474134802e-01 -4.237189039851951833e-01
4.929549676741581260e-02 1.920733682453823199e-01 -8.604484923197173174e-01 -4.910147429518555429e-01 4.023322425898640531e-01 7.726792923176692973e-01
-4.959211443651722825e-03 -2.245681759347055995e-01 -9.388504042093771540e-01 4.506223139121995902e-01 8.806801732054007070e-01 -1.460888863922258085e-01
-6.212611767497860232e-02 1.448168302153172993e-01 -8.984813808581733063e-01 8.179472887352831068e-01 -1.688396185201126443e-01 -5.499594676597380216e-01
-3.393786982129190499e-02 2.111867506377693993e-01 -9.141850001800321257e-01 7.212849530450837765e-01 -5.880206319632222955e-01 -3.660324478735787479e-01
7.250469216547072993e-02 8.591301742825938059e-02 -8.067393885431161094e-01 2.462182537217085243e-01 -6.937095887038510766e-02 -9.667286287266121381e-01
5.011437615754268243e-02 -6.347005415997200584e-02 -8.208970880441180951e-01 5.556448090550712010e-02 1.695930887196890891e-01 -9.839465294009718255e-01
1.004088126926307167e-01 -6.076050658291197448e-02 -8.206528459639340634e-01 -2.892787241059215919e-01 1.429285332547504672e-01 -9.465142651652410644e-01
1.834161636521615749e-02 1.358521260449258028e-01 -8.471262278647072597e-01 -1.909772116745533932e-02 -3.981377045827697581e-01 -9.171268425009561076e-01
-9.227652416933895818e-02 -2.973098867466660369e-02 -8.909184390541320386e-01 7.318951200614202124e-01 3.092111573430895641e-02 -6.807153721137969571e-01
-7.294887968069616035e-02 1.014475180007397143e-01 -8.907061247521769198e-01 8.174861746385524430e-01 -1.162764154321513921e-01 -5.640887780208680979e-01
-4.532615844068873384e-02 1.983291823793188746e-01 -9.141366809614798195e-01 7.807404217769402521e-01 -4.975632143443066147e-01 -3.779884145511964166e-01
-1.119212910037273578e-01 -1.130747980359608218e-01 -9.528511782542781194e-01 8.614526901351847732e-01 4.647524957989625505e-01 -2.047055942261691852e-01
2.836833698538289775e-02 2.434285203680244120e-02 -8.137982701083121828e-01 4.857925243510556323e-01 2.895683263348242456e-02 -8.735943710489815217e-01
-7.614248120919189788e-02 4.950874053972200567e-02 -8.788454980261976024e-01 7.968241660879176180e-01 9.809608289011012214e-03 -6.041316246675976220e-01
2.452529346464576293e-02 1.301257821933803627e-01 -8.504613915567100779e-01 -1.706967193080337897e-01 1.493295374191832836e-01 9.739421539658540405e-01
-6.247819750432741931e-02 -1.895416827420057515e-01 -9.948164243151058628e-01 5.204225580770430737e-01 8.492572380910325958e-01 8.900845237694117451e-02
3.096444682583454275e-02 1.615740728770614087e-01 -8.518240145824020892e-01 7.795834902355536222e-01 -1.814987994798570592e-01 5.994228620427511922e-01
-3.360340880945399816e-02 -2.163155807365299277e-01 -9.469313023117426065e-01 4.782709926899724739e-01 7.218377407245505362e-01 -5.002070907304544400e-01
-8.426096177426062317e-02 -1.532177014983127361e-01 -9.346893928973026844e-01 6.845468201732092250e-01 4.810921591713649970e-01 -5.476732469041938334e-01
-3.596556763327988376e-02 6.225728399523574631e-03 -8.524538872136890877e-01 2.305554710818080999e-01 1.553983647647299016e-01 -9.605704154213234869e-01
9.347653070147043941e-02 1.176669879325636658e-01 -8.095914171439783091e-01 1.549932537018133827e-01 2.109112374890233232e-03 -9.879132770400020913e-01
9.159381875741445800e-02 -7.338240666210471552e-02 -8.267134829248810046e-01 -1.860559484319294077e-01 4.629220164798741322e-01 -8.666524047801995589e-01
-6.541888532961358249e-02 -6.962687377606956163e-02 -8.797417092347453726e-01 5.303205536334686387e-01 4.364269023862171193e-01 -7.268367555837161875e-01
2.900513011983823011e-02 -1.201262460965446671e-01 -8.395725796960477050e-01 2.433873090817640084e-01 2.449275973527790251e-01 -9.384951197704405335e-01
-9.706780410255590186e-02 -6.403087200330841167e-02 -9.102836320509808399e-01 7.909825748543271029e-01 3.159690775784302352e-01 -5.239371224594181475e-01
9.845971550603221933e-02 3.071558413712235369e-01 -8.959692739328461997e-01 7.129226907311684291e-01 -5.760861534135608419e-01 -3.998324410122294781e-01
8.295031197131642192e-03 -5.146815178486452425e-02 -8.289555334396480069e-01 5.408167460153480155e-01 2.121877757517396934e-01 -8.139370952665201386e-01
2.943826955029000408e-02 -1.095924005743917490e-01 -8.371160777993670310e-01 2.629840003379477764e-01 4.078848273648139622e-01 -8.743393981583046370e-01
-2.492822313243584637e-02 -6.396545768467577775e-02 -8.605590018409505770e-01 -5.223397658105863872e-01 2.885818433938613925e-01 -8.024223879705394413e-01
1.026166241152952491e-01 3.056628047120110714e-01 -8.923763752470276200e-01 8.934952370938824273e-02 -4.671715034964074031e-01 -8.796405225623771251e-01
-1.481246136482197023e-02 -8.001821162058561990e-03 -8.490233171663645884e-01 6.677791300465739655e-01 -3.737883166216309228e-01 -6.437028257133942111e-01
-5.183216581644625037e-02 1.698675558220533455e-01 -9.071243886719028149e-01 7.690220937966443238e-01 -3.724371647949763497e-01 -5.195147519869911523e-01
5.267456735261497047e-02 2.001145734874789084e-01 -8.622200707505491835e-01 -3.582966116882226881e-01 3.599162172612966892e-01 8.614428910874233347e-01
2.871921803622303621e-02 -5.323472363192875006e-02 -8.229570272622073190e-01 1.756284784766887486e-01 1.379239094676447119e-01 -9.747469583154004802e-01
4.255489809711766880e-02 2.350958511951993790e-01 -8.709482454561084941e-01 2.010725274513764094e-01 -4.166699283018445166e-01 -8.865416005767871033e-01
2.002798121577371512e-02 4.655034172223249112e-02 -8.207257136258993002e-01 5.279858610638077376e-01 -1.772695530023433719e-01 -8.305458663403598729e-01
9.518328326938051143e-02 2.752761890078412876e-01 -8.837885565585950065e-01 -7.421480696615391226e-01 1.405612550942413330e-01 -6.553310432628560722e-01
2.401235752339783702e-02 2.117720417426688095e-01 -8.654693648813016615e-01 3.529218632130574629e-01 -3.095464654014068451e-01 -8.829649733844032733e-01
1.969312017795776110e-02 3.508842771800969179e-02 -8.200417097960822632e-01 5.279858610638077376e-01 -1.772695530023437327e-01 -8.305458663403598729e-01
6.901821013773271063e-02 2.486050943995116169e-01 -8.676971807322383379e-01 4.378946509545757482e-01 -5.358100465864983342e-01 -7.219112609194741070e-01
1.183178783784936128e-01 1.242239880207000741e-01 -8.086641969578077793e-01 -1.902042610938845316e-02 -3.138368517879457781e-02 -9.993264169905725636e-01
1.180829234685287776e-01 3.079509370096895071e-01 -9.027427555205179699e-01 -7.945320254269570004e-01 1.941794490623115210e-01 -5.753374680418397169e-01
1.149902098156442044e-02 8.807184181076342655e-02 -8.411651802131067113e-01 -8.468596652470852248e-01 2.642920173817997487e-01 -4.614958688069193404e-01
-1.670842376287093312e-02 -8.813413781485224252e-02 -8.570254117964438700e-01 7.160809020170357808e-01 2.330473768689387548e-01 -6.579643317847674311e-01
-1.099472867278765836e-01 -1.280996837585031689e-01 -9.565819431825688390e-01 9.155325223880949048e-01 2.263538499452187325e-01 -3.325118570286935138e-01
1.579884067583746474e-03 2.430567642127506311e-01 -9.157311908372641751e-01 8.164370376900910165e-01 -5.096457802456361152e-01 -2.714622297220114500e-01
1.425707571576654252e-02 1.995803933915219208e-01 -8.631841952042818011e-01 3.761276574705954001e-01 -3.171447937594219502e-01 -8.706016110006783437e-01
1.441303213641917935e-01 2.046254871085509131e-01 -8.441277078526253641e-01 -3.494700215448462433e-01 -1.375158336737243858e-01 -9.268010031988881403e-01
1.413553777130489852e-03 9.245536238545171148e-02 -8.446337312934788510e-01 -1.657266591281141704e-02 -2.229750515615915030e-01 -9.746832681059259818e-01
8.603140490663607406e-03 3.856377281741369539e-02 -8.288405357251408256e-01 6.040115501266938303e-01 -2.990315250195541563e-01 -7.387490740150056689e-01
6.920029426768445346e-02 3.508562856533731233e-02 -8.055638487943044268e-01 1.765872169160025706e-01 9.593435222713428412e-02 -9.795986703158703346e-01
3.943088076563362049e-02 -1.515280507409865196e-01 -8.518003384194756666e-01 1.740149037841260682e-01 4.064717160386649986e-01 -8.969389930879271278e-01
8.916454749473806674e-02 2.842219635815830814e-01 -8.827557520771391886e-01 2.654220881538528198e-01 -5.119058617949493462e-01 -8.170088761941445288e-01
8.894627967147683556e-02 2.909995282760881596e-01 -8.903785669911481460e-01 7.999948508241518930e-01 -5.404506390863964560e-01 -2.606172391956230738e-01
-4.209943959237372191e-02 1.682044484186169253e-01 -8.913476515948765000e-01 6.976856172087770869e-01 -3.769052630253172942e-01 -6.092431388565852091e-01
-6.521166174274566074e-02 1.362131977806559646e-01 -9.024312929923394844e-01 7.271901694548831285e-01 -3.881759167430734458e-01 -5.661394837925129986e-01
-1.183770511472354986e-01 -2.604499654932330988e-02 -9.380305601353001732e-01 8.809156825153843240e-01 3.811778651985536781e-01 -2.805191533231345402e-01
-8.695437994495543166e-02 1.137698706176283187e-01 -9.406841157916231433e-01 8.369716132096047811e-01 -5.145425601743913724e-01 -1.863450360232186687e-01
-5.511167355907748561e-02 1.595992112875082580e-01 -9.027375710976853762e-01 7.845678517284825348e-01 -4.296471006652019531e-01 -4.470533021062922385e-01
1.112214829726549392e-01 1.620829962777380617e-01 -8.138200975286689065e-01 8.879483527534777487e-02 -8.795817556425006289e-02 -9.921586751018370842e-01
1.220604345593833268e-01 9.008434071192739090e-02 -8.107743761028354257e-01 -7.604680670576582924e-02 1.553048960512675158e-01 -9.849351615473789234e-01
-1.769813954125360259e-02 -5.992821905140233163e-02 -8.526089764215611932e-01 7.376989132463078747e-01 -1.087230851185503056e-01 -6.663179452465024522e-01
-7.428194143151828355e-02 -1.058790682897223223e-01 -8.953323700132773677e-01 5.417133019548981965e-01 3.736727351877165981e-01 -7.529378363865454338e-01
-2.890602696645377945e-02 1.029928060121286376e-01 -8.535771972456904777e-01 3.883251137991515223e-01 2.020137052330305341e-02 -9.213009880716814815e-01
5.825005643803252142e-02 2.108519489315556772e-01 -8.575877623238239433e-01 -8.487200865120581028e-01 3.088518771391984274e-01 -4.292839768015549451e-01
6.674404234438033323e-02 2.313330480748200801e-01 -8.770644896498983600e-01 4.493800230604442225e-01 2.646271371415700457e-01 8.532467832710836086e-01
-9.406475124024807344e-02 -1.524546629517168073e-01 -9.503437717289006104e-01 8.654655857893579496e-01 2.656858239674472766e-01 -4.247120939613356350e-01
-1.583404227034451717e-02 -8.014744120316631693e-02 -8.541058080750142389e-01 7.241595996151449777e-01 2.119419704029858464e-01 -6.562571717451424202e-01
7.417391321977705176e-02 1.252449893782640600e-01 -8.139344171538592798e-01 2.472797109652195291e-01 -1.523634803078524891e-01 -9.568898130994165641e-01
-7.311409250794399795e-02 8.719283570331495814e-02 -8.871250729359947407e-01 7.959100075752444381e-01 2.015561519997495499e-03 -6.054115933423589446e-01
-9.744489847082395129e-02 6.522864294369952465e-02 -9.183857996095701193e-01 8.319263245848192989e-01 -4.476794373801928351e-01 -3.278440358001776245e-01
9.972796423603488836e-02 2.870766785848932745e-01 -9.108930814843098078e-01 4.048087758704864703e-01 3.268277752679790149e-01 8.539985130500062915e-01
3.010049912936075579e-03 -7.750509296119642566e-02 -8.374438455652415403e-01 5.307634591937394619e-01 3.543540576204969317e-01 -7.698852851123897389e-01
1.056417959863936856e-01 9.555019658399649396e-02 -8.092925310983710707e-01 -1.151405603591331983e-01 -8.714341942989954626e-02 -9.895194165908265393e-01
4.912683334761398096e-02 -2.243680833187348400e-01 -9.279799874873052579e-01 -2.530653457680360208e-01 5.624953621756723088e-01 -7.871193672513490114e-01
-1.100109390958885561e-02 1.814194787857565938e-01 -8.693465368904610413e-01 5.485411399361370677e-01 -4.343067630176609129e-01 -7.144790083653156376e-01
9.113537422411722988e-02 5.395354873507075821e-02 -8.058015784830698802e-01 2.492399233119917470e-02 1.258034996382837167e-01 -9.917420400915930578e-01
1.138960629583601371e-02 2.385505271531542792e-01 -8.924924633668618323e-01 6.434687053261566314e-01 -4.628693647506011422e-01 -6.096720236662124259e-01
-2.110427926339140253e-02 -4.224826951767549771e-02 -8.604700916778513786e-01 -4.408357863579486779e-01 -1.296181422354565071e-01 8.881795689327685039e-01
7.187205522908986233e-02 -9.155157587019932541e-02 -8.255598411238952439e-01 2.110975853535496799e-02 4.960334465097020473e-01 -8.680467718033896274e-01
4.131853562819298720e-02 -1.636458774762583265e-02 -8.118478550414669481e-01 2.057319100029453840e-01 -3.516734290001533036e-02 -9.779762978722403854e-01
-1.842810647478351424e-02 7.981039749267153371e-02 -8.460443085764650650e-01 3.286595966754979337e-01 1.666290324889028451e-01 -9.296330647330222074e-01
9.994977225853024505e-02 2.937923852809713465e-01 -8.877352470338819579e-01 -3.610125017767039646e-01 -2.147350664931812758e-01 -9.075014186099625846e-01
-6.445865045561680051e-02 2.943455013418310937e-02 -8.645864131360532223e-01 6.203912813682904703e-01 -1.248877924680452667e-02 -7.841930173083253575e-01
-1.147902136379641974e-01 -2.054115338064237128e-02 -9.309850665958725457e-01 8.981596652637374723e-01 -1.836436330304014319e-01 -3.994799516130022043e-01
-2.942764178518773865e-02 9.892978517730965926e-02 -8.534510841598037523e-01 4.364257496582176765e-01 -2.100196159862898759e-01 -8.748853215914839110e-01
-2.078477699986590668e-02 -1.239314166401368073e-02 -8.498489293321341842e-01 9.640166698559599068e-01 -2.125083839191913015e-01 1.597249104049800195e-01
-9.897344421228271641e-03 3.578609533569258178e-02 -8.443239446807595527e-01 9.273338831219276601e-01 -2.474744134989258770e-01 2.807281316102283042e-01
8.665720076579303682e-03 -4.067435815311062214e-02 -8.291817713451556937e-01 5.013101084447915134e-01 2.464419920643052819e-01 -8.294302380058546920e-01
-5.725883586663910868e-02 1.215619283121197394e-02 -8.611791866042328714e-01 5.599616286809739885e-01 1.908674331264290647e-01 -8.062335873533670316e-01
-5.792360159513375989e-02 -1.735548353949582789e-01 -9.284650223464632202e-01 4.393033349389900977e-01 5.942866997158809950e-01 -6.736734360595556526e-01
4.554642534268413950e-02 1.742082073653677954e-01 -8.480098021033125599e-01 6.273739866066139204e-01 -5.487461884768244369e-01 -5.525210417364049276e-01
1.001524123642931613e-01 2.821789350112987038e-01 -9.084626955943876370e-01 -6.981764695842501700e-02 6.007401594918773124e-01 7.963898272497350606e-01
3.991613721662544412e-02 6.471698112352589072e-02 -8.137457618671094517e-01 3.614552477763198768e-01 -2.312625721166343684e-01 -9.032539657222424800e-01
2.929638757541323541e-03 6.382650541198796323e-02 -8.468639254460317289e-01 -2.319120855702640760e-01 7.149222297586876884e-02 9.701059976210947289e-01
4.614331249992884021e-02 -8.662247991884619580e-02 -8.250125792128556457e-01 4.422262364883512709e-02 2.804234387271167805e-01 -9.588571606710111217e-01
8.275878768769322907e-03 -1.859366392758252939e-01 -8.832415949509070385e-01 3.943212515377864102e-01 4.802892922636163853e-01 -7.834749174814652495e-01
6.049411468123415229e-03 -8.093743685712825875e-02 -8.367011668718865591e-01 5.073445868530279679e-01 1.382349223481864620e-01 -8.505836680975726871e-01
5.663930318371769579e-02 2.053807060192375245e-01 -8.607167635342921619e-01 -9.230218597798675040e-01 3.804124070024749726e-01 5.759381014569155133e-02
6.735121756431008966e-02 1.677454325428459278e-02 -8.046293847378938047e-01 1.082335140987734923e-01 -5.722228355527722923e-03 -9.941090294975084563e-01
1.403708052770339110e-01 1.016146976016227138e-01 -8.117754311877029005e-01 -3.214034625135699375e-01 -1.029534525413695056e-01 -9.413290608995882325e-01
-6.675914093668602889e-02 5.094956937745905023e-02 -8.702694534073258659e-01 6.599697828925600307e-01 -1.813817588496341726e-01 -7.290682706203587271e-01
-2.249119997108211394e-02 -5.479505807367699571e-02 -8.592936557994172997e-01 -8.804594583332963076e-01 2.603898325667773350e-01 -3.962174621685476406e-01
8.743503313567553559e-02 1.206806394069704080e-01 -8.105266527587894343e-01 8.119385121337152622e-02 3.602816143280504479e-02 -9.960469517592597244e-01
1.228335606478467151e-01 1.312519958788480878e-01 -8.101979955872066208e-01 -1.416635060523268042e-01 -1.417490199985958488e-01 -9.797135634369876778e-01
-4.710842919816458051e-03 1.800292655658156937e-01 -8.650522318404008093e-01 4.267509988965244583e-01 -3.974723275734622363e-01 -8.123418823095072128e-01
4.631282245237716699e-02 -7.832762955617256218e-02 -8.225533101893178767e-01 9.439406411135220498e-02 1.666938394215911889e-01 -9.814799664585269756e-01
5.860793626431975295e-02 1.082731572493523114e-01 -8.157596642879141324e-01 2.260749821975412133e-01 -2.702347417206790170e-01 -9.358756791324047697e-01
-7.386165873266536952e-02 1.541299452414794380e-01 -9.471387522667502612e-01 9.665519619784295191e-01 3.900248274129163722e-02 -2.534878914971366304e-01
-5.694808750915651696e-02 -7.099052511297597456e-02 -8.753895105328485249e-01 4.426105623152579716e-01 3.242887202296750315e-01 -8.360219590768959153e-01
5.453372982572612243e-02 2.072040985493364684e-01 -8.539954722951440536e-01 -7.770984596388623711e-01 1.876831431012686291e-01 -6.007437239143962326e-01
-2.809746859411531988e-02 -8.790543473772886862e-02 -8.751976368697207409e-01 -1.778754879163978175e-02 -3.377174425629663745e-01 9.410794504698926088e-01
-7.058591403248097584e-02 2.253576731989023058e-02 -8.701854751419509926e-01 6.923106773599387864e-01 -6.334761510866411538e-02 -7.188136098276572961e-01
-9.355215077735663798e-02 -1.102411401540089875e-01 -9.162632100856478168e-01 6.758640743172708021e-01 5.160991554829181815e-01 -5.261648171030417487e-01
-5.358917979376755236e-02 1.435211069467397238e-01 -8.857340841229166539e-01 7.913948264034187385e-01 -1.747531631577688427e-01 -5.857948110970746525e-01
4.872178309974318361e-02 1.886215931710434057e-01 -8.590856206148215213e-01 -6.720242057624721266e-01 4.020348737179091358e-01 6.218934210810913576e-01
-1.045636920985472396e-01 6.497091894781882593e-02 -9.526673672706101881e-01 7.975595611872802193e-01 -5.946645349159086491e-01 -1.013550061516414608e-01
1.262377750126796594e-01 1.873891384084739042e-01 -8.288791309997908252e-01 -1.264299890780982705e-01 -3.510292298303615000e-01 -9.277898133017066229e-01
9.837198177887841732e-02 9.806323239909525702e-02 -8.090477727579514777e-01 -3.569158223402157937e-02 -2.027820711358503392e-01 -9.785732177938897269e-01
6.602401322388250227e-02 -1.565400252207949094e-01 -8.526031119039019224e-01 -2.570635751766625447e-03 2.841560545276944350e-01 -9.587745973413592804e-01
-2.342801394866913731e-02 1.610366679871317319e-01 -8.696152196204898210e-01 5.839022827924349457e-01 -1.550055954125797442e-01 -7.968885678315226206e-01
4.622516660347768258e-02 6.347006318883337793e-03 -8.090789097407227182e-01 2.788824496531705499e-01 1.386935766396162339e-01 -9.502571604962301022e-01
-8.056074463861395696e-02 6.044489904722277762e-02 -8.876975733359023790e-01 8.160266617205830242e-01 4.717192677582412313e-02 -5.760861885910975033e-01
-5.435682899810807128e-02 -2.014422551931815408e-01 -9.999705729580735669e-01 9.525599048740117022e-03 9.989538155409328768e-01 4.472736722605935578e-02
5.593131405262028594e-02 2.399698360908559397e-02 -8.056192911263775347e-01 1.872163787858219797e-01 1.706476283524421267e-01 -9.673827652237819708e-01
9.929425482904534472e-02 2.757560072721176314e-01 -9.033060803691714824e-01 -4.512065998997628058e-01 6.728059222730526923e-01 5.862975312596860888e-01
-2.183522758456350743e-02 4.228486293587595257e-02 -8.455038851458878124e-01 3.025652555986690917e-01 1.843138305234304775e-01 -9.351377855601241684e-01
-4.279361869968004162e-02 9.441139888431468452e-02 -8.587537587228785130e-01 5.230766890773627109e-01 -1.292974456703739616e-02 -8.521875374876679565e-01
7.224144905499504943e-02 1.537431456032198607e-01 -8.197244330998353368e-01 2.887609354788495675e-01 -3.192503112942460253e-01 -9.026053184420679276e-01
-1.034571152554914636e-01 1.642687889431755643e-02 -9.115017368011441024e-01 9.121895603476587455e-01 1.122471035410323170e-01 -3.940949044829100689e-01
-4.863836582540737724e-02 -1.915015382567262225e-01 -9.360877768443580660e-01 5.200284725252440898e-01 6.884392641380046030e-01 -5.055905135148248686e-01
1.035838845697824723e-01 2.962655636907018386e-01 -9.161892706265796216e-01 5.100619089040258070e-01 2.521052970778767111e-01 8.223623096120451503e-01
5.200170287290538373e-02 2.802242477385481767e-03 -8.082464404431879412e-01 2.320857077193846374e-01 1.220235556138369870e-01 -9.650111274735384548e-01
5.352752222570451857e-02 8.999705052285821016e-02 -8.119093651161677361e-01 2.376143248548914788e-01 -2.513803787724472882e-01 -9.382682653654952354e-01
8.913158535497320289e-02 2.831674874710839451e-01 -9.011206603588668429e-01 7.842816186319876426e-01 -7.727289274017729026e-02 6.155739132903171873e-01
6.181432157697072660e-02 -8.015551459168286652e-02 -8.221833024613026675e-01 -1.053439022291512671e-02 3.550423577198177361e-01 -9.347908594158292894e-01
3.212868737534875507e-02 -1.189777698404184542e-01 -8.384703494278726854e-01 1.372010010669925673e-01 3.134284212239736300e-01 -9.396480777797946438e-01
-7.684000282252931302e-02 -9.512816395591829066e-02 -8.920032493425986697e-01 6.644429608589902392e-01 2.377622535365340461e-01 -7.085087596904978691e-01
1.069613961064223330e-02 -4.691319338784321474e-02 -8.290149439787453112e-01 4.382858619679308454e-01 6.480498416016584884e-02 -8.964964122778343869e-01
1.575301842646105802e-02 -1.336697147050239232e-01 -8.513628019715472339e-01 3.299976772140870152e-01 4.446016525748618942e-01 -8.327249867519345150e-01
8.577661783763812497e-02 2.829439600628309015e-01 -8.949384252814095442e-01 9.026026178590781379e-01 -3.352915608631248934e-01 2.699779314090476889e-01
-3.140195015447256894e-03 5.422986433072995299e-02 -8.460649085014954052e-01 5.774877273736995775e-01 -1.889036282616123053e-01 7.942438819168571307e-01
-8.813629205748498008e-02 1.005115239713817443e-01 -9.202674133924214628e-01 9.282162078283385798e-01 -1.423271408952454797e-01 -3.437406820400569218e-01
-7.552812004826869874e-02 1.530053318862908129e-01 -9.540098253196209743e-01 4.894813461641006613e-01 -8.715755538631375643e-01 2.764173774467099803e-02
1.110257323462921913e-01 3.089491031040432767e-01 -8.960036456112692171e-01 -5.481736399736263365e-01 -7.270352939180804719e-02 -8.331985701212166751e-01
-8.416000205873070197e-03 9.751766463432291060e-03 -8.436224928165784176e-01 8.554381924368197332e-01 1.521042162956677823e-01 -4.950654565868108925e-01
-2.559875855928860772e-02 -6.601715663438502413e-02 -8.676164867779095902e-01 2.938941145238128105e-01 -3.344446073911120920e-01 8.954178097599294617e-01
1.614511175443592017e-02 9.987711255720028991e-02 -8.441837734256860681e-01 -9.322165389436829486e-01 3.304837405852502630e-01 1.474883782833144308e-01
-6.374653223388254686e-02 1.153540626119147899e-01 -8.895756981972733346e-01 7.878812420995026100e-01 -1.916839282543186529e-01 -5.852353543633012078e-01
3.731609831125055204e-02 4.907142376121523264e-02 -8.130670971121345403e-01 2.767318907114641457e-01 -1.850118143821685990e-01 -9.429687636408095042e-01
6.721164574418972415e-02 3.717260490733654416e-02 -8.056772482755946152e-01 9.547087284112514005e-02 6.660577774913814530e-02 -9.932013807931332483e-01
4.581945698188181343e-02 -9.255262561635278773e-02 -8.267286941867212358e-01 1.596747484099061420e-01 3.953309962527194465e-01 -9.045536900162787219e-01
1.523197135744266961e-02 2.596290869897554046e-02 -8.212367511264406783e-01 4.754798010474830527e-01 -1.642050032576243823e-01 -8.642659750915858696e-01
-4.501946499766724952e-02 1.536668749660625166e-01 -8.852264174687376475e-01 7.901258120955848563e-01 -2.537083786626135318e-01 -5.579724542095968465e-01
1.872295358644798444e-02 1.106967441053931106e-01 -8.481350936288521991e-01 -7.122096740963452799e-01 2.746564883381764632e-01 6.460040197532204154e-01
1.214613749841843837e-01 -2.526834976209606232e-02 -8.199737319366585675e-01 -1.273155703541468120e-01 5.372782165663330112e-01 -8.337402854298808785e-01
6.497185090635992921e-02 2.224282643957422589e-01 -8.716897057695347506e-01 -3.831637940909025652e-01 6.530560046441097333e-01 6.532253529189886443e-01
5.094429818351805389e-02 -3.775832238248447246e-03 -8.078310028437751811e-01 2.638369419892062084e-01 2.184987654638019250e-01 -9.394936708315704266e-01
1.159919275191422239e-01 -2.966052352479450066e-02 -8.169594840076406239e-01 -3.683946341960255833e-01 -1.333133043269542350e-01 -9.200613872916336700e-01
-3.039389099341737246e-02 -1.805414881732816668e-01 -9.167112173503790817e-01 -4.287117300048761681e-01 4.995681954790682777e-01 -7.527535258117453720e-01
2.705768705865300647e-02 1.542449751757271059e-01 -8.482400721195857418e-01 9.442720723023688700e-01 -3.161664244062082352e-01 9.159173296746409010e-02
-4.862113924510812896e-02 1.614944142741362165e-01 -8.948167496386074671e-01 7.653123795419920494e-01 -3.832100437262693782e-01 -5.171528053748570830e-01
8.170313582264615571e-02 2.516908629964315081e-01 -8.896633799078295102e-01 -3.256581590216818534e-02 5.219028165198853486e-01 8.523830815679281914e-01
-8.732312900263225486e-02 -9.157864751778076184e-02 -9.008602925070096079e-01 6.361524281479482568e-01 3.559100442875060000e-01 -6.845714926410061407e-01
5.170405102372441913e-02 -1.888417890989075310e-01 -8.734289974411973967e-01 1.086189904486554447e-01 5.390907907899039619e-01 -8.352143642200074991e-01
8.109404584289960083e-02 1.995355243538462497e-01 -8.365453435994593123e-01 2.176370343467511348e-01 -4.655359288498618908e-01 -8.578522135138706428e-01
-2.152967144020507054e-02 -3.226273761868966167e-02 -8.580155148633581419e-01 4.754150338982979229e-01 -2.592083663384064929e-01 8.407089676955129542e-01
6.431085469474955019e-02 -2.083051363309977311e-01 -8.928615977754751354e-01 2.706106531711985688e-02 8.329992980708699202e-01 -5.526118603118657102e-01
5.067885353495218959e-02 -1.727766653028771013e-02 -8.101830650443631043e-01 1.489403482280831359e-01 6.075681917759109124e-02 -9.869779032952659126e-01
4.763509901864890032e-03 2.177563752668674468e-01 -8.793865010168268048e-01 5.246297398906558662e-01 -4.999250654438598951e-01 -6.890853103667318180e-01
9.331246802334113022e-02 2.992998997434309638e-01 -8.995832388833636672e-01 9.060129484239177744e-01 -3.964374239367480235e-01 1.482494728172566167e-01
-8.514628407903915286e-02 2.402064439062745124e-02 -8.855357567996393620e-01 7.228435577572196458e-01 -4.597432848806148886e-02 -6.894806394156092200e-01
4.602984100666936140e-02 -4.464789676996509804e-02 -8.146208841941419143e-01 1.548352277720416170e-01 2.849438100011361108e-01 -9.459561709629135118e-01
2.429804933906550696e-02 1.235526228210571675e-01 -8.472695336759958895e-01 -8.996207943180275501e-01 3.342269292561629301e-01 2.810245295176163061e-01
-6.272335408522336508e-02 -3.458413461296302310e-02 -8.660396051252596816e-01 4.395100693251122737e-01 6.415170910839838869e-02 -8.959438917590245577e-01
3.139784105618583822e-03 -1.156217120841104978e-01 -8.490726209505412569e-01 5.321687411648369226e-01 4.352490586524155880e-01 -7.261919084300093585e-01
-6.124689349057335641e-02 2.710742933675906741e-02 -8.619228620229079096e-01 5.911720248014823431e-01 -1.277221271278673742e-01 -7.963684419501119161e-01
5.232111403546143777e-03 -7.388934680750294803e-02 -8.352191229254475324e-01 5.007487607595094703e-01 1.401598876081579514e-01 -8.541697047446042967e-01
-1.192068016737349578e-01 -5.432714032897283107e-02 -9.641987602867261309e-01 9.688693689405037945e-01 2.000136695097932404e-01 -1.458995474223870326e-01
-1.248477032349112475e-01 -4.036166744490951586e-02 -9.666257969176634823e-01 9.322934647165006528e-01 3.563484535086628435e-01 -6.200544596152441496e-02
-9.080128390394960614e-02 -1.675475129359565718e-01 -9.684873335483396017e-01 8.933663905203459432e-01 3.816355932086346603e-01 -2.371724399776301839e-01
-8.262416816218655369e-02 -1.673150205302799398e-01 -9.479710677287588316e-01 6.861123452889277274e-01 6.382711970869341389e-01 -3.490841282718812888e-01
5.132234227411465455e-02 1.475592058670188722e-01 -8.275490235506035575e-01 5.618742671127806565e-01 -2.378894376214881479e-01 -7.922789429390433291e-01
4.331469386113029341e-02 6.730389386925401951e-02 -8.126793136789528527e-01 4.078361983045962202e-01 -5.698510294433233037e-02 -9.112751139995419747e-01
-1.587961618008135178e-02 -2.266739806011344449e-01 -9.432766043353423280e-01 1.599074956240960355e-01 8.188050927761061359e-01 -5.513508981466722636e-01
-1.046601587119898452e-01 -1.117454804194326946e-02 -9.093057176216440274e-01 9.039194449129276387e-01 -6.135486434018259938e-02 -4.232791250819047391e-01
-4.523740589035876031e-02 1.421529779093159696e-01 -8.757264113470955014e-01 7.075132528006384813e-01 -1.318818008551017607e-01 -6.942853791595178237e-01
1.090579458291276865e-01 2.151379429791706877e-01 -8.389970687424890272e-01 6.272051083334767574e-02 -2.746518703643590076e-01 -9.594959549816577393e-01
1.519692592709282267e-02 -1.148159602253529671e-01 -8.422593128979906085e-01 3.174955356383679650e-01 2.391370035976899955e-01 -9.176110714022714943e-01
6.018929362890435703e-02 6.661362135864077466e-03 -8.054850724352542457e-01 3.805842916922580477e-02 -2.467256809112117200e-02 -9.989708806331445423e-01
-7.060676480183916692e-02 1.353158638205475550e-01 -9.113328763652719378e-01 8.005059978991879710e-01 -4.603224737753864870e-01 -3.837881804651285256e-01
2.510855193681629099e-02 -1.093572358635814812e-01 -8.381757942066617728e-01 2.237474437588994336e-01 2.819746157243465112e-01 -9.329669862854020890e-01
-6.056995899612470369e-02 -1.473446013730325688e-01 -9.082062534651474950e-01 4.299176063835179473e-01 3.437907684096784822e-01 -8.348525374446374991e-01
-4.916269214231642343e-02 -8.290880112232464072e-02 -8.726940230512042485e-01 2.912441022111115219e-01 2.218568853928858942e-01 -9.305677811589073700e-01
-1.169590181154294001e-01 -3.432488119265590665e-02 -9.367812418310695888e-01 9.221488175352966499e-01 2.258910389859750401e-01 -3.140299298221290170e-01
1.316331623502555170e-01 2.070167602084589942e-01 -8.398638066610133457e-01 -4.001504550293579765e-01 -3.904551799403286894e-01 -8.291105871942314742e-01
-6.851717473681305515e-02 -5.956394814931408738e-02 -8.736635934654326530e-01 5.399176940031611416e-01 3.265525562620472111e-01 -7.757914099170161171e-01
-8.197104144975146667e-02 9.198715534283169459e-02 -9.005967286085418966e-01 8.785754332207570405e-01 -1.770789066044506366e-02 -4.772752232719785770e-01
5.970753805963341376e-02 -1.241739676650124163e-01 -8.373986854195700769e-01 -5.357339543980148278e-02 5.025188959342673511e-01 -8.629047748912136440e-01
-7.395736544396626713e-03 4.444114978925466780e-02 -8.443909381910438272e-01 9.504255101933650751e-01 -2.519806679271462402e-01 1.822006930960229087e-01
-2.111271454238549533e-02 -1.834022452866377606e-01 -9.084275451873219387e-01 7.684733312530430682e-01 4.267638638825811959e-01 -4.767822811691524443e-01
-7.721534929212987841e-02 3.374747143685098011e-02 -8.766520484080042586e-01 7.362490791270714929e-01 1.285851635242500970e-02 -6.765884657912476507e-01
2.108056197795066602e-02 -1.829440401585562537e-01 -8.750945064728131717e-01 2.688257310792163124e-01 4.274853301103227476e-01 -8.631274638488765083e-01
1.428300885162835654e-01 1.658775289195744684e-01 -8.198892055083333297e-01 -9.968873481403099646e-02 -5.658070241667897265e-02 -9.934086672992203937e-01
-7.671400000766509519e-02 1.018076513058736032e-01 -8.967456166427745234e-01 8.759375132685376375e-01 -6.293835053921724432e-02 -4.783014079848953437e-01
-4.118189086850643221e-02 1.697481168571103316e-01 -8.912045002299517904e-01 7.239029247808329570e-01 -3.746998054119172750e-01 -5.792793896886262450e-01
-8.119700223120071558e-02 7.978767967974710607e-02 -8.969062984733019439e-01 8.268116322470192570e-01 -2.993388294470697431e-01 -4.762129670287005290e-01
1.167936346584422663e-01 3.075621855883838851e-01 -9.012289875472687672e-01 -7.478201915382343135e-01 1.662668114899381044e-01 -6.427443570539442819e-01
-1.169056283853033978e-01 -1.040136954355114635e-01 -9.545385742105111371e-01 8.332534968829693467e-01 4.509822791763008487e-01 -3.198493298433699450e-01
7.011940330407478994e-02 1.260417429669008771e-01 -8.152150717888013709e-01 3.417435839280864029e-01 -2.129593516446063317e-01 -9.153467306934001124e-01
-2.366090561341576207e-02 -6.607328117859002925e-02 -8.661396717604281648e-01 -8.927090328938118713e-01 -7.438948489047869650e-02 4.444511076907389779e-01
-1.320375164393560070e-02 -1.004565241032068790e-01 -8.557266149229070251e-01 7.106272269292435162e-01 2.607011726643226335e-01 -6.534859163886401756e-01
7.783890003245935718e-02 -1.213398456922038654e-01 -8.395867482467759269e-01 -9.215197850007347813e-02 5.737935362220883961e-01 -8.137991095155322485e-01
-6.481276732206429914e-02 -1.657805199208636227e-01 -9.245528630670545311e-01 4.580795099609182852e-01 6.606925024936649571e-01 -5.946835962952263799e-01
-3.003881946652304374e-02 -1.424129664625892466e-01 -8.952843113269720599e-01 -6.922222416655801069e-01 3.583048142257513891e-01 -6.264551286773293315e-01
1.025404265083581373e-01 2.775654900160304250e-01 -9.007859771434035823e-01 -7.733838415026638158e-01 6.126218140970706161e-01 1.630090383843701696e-01
-2.011237992922311132e-02 -7.845247395819027192e-02 -8.590349920585020893e-01 7.745478763139536094e-01 1.489825936894029756e-01 -6.147192644411944018e-01
-9.654370258248115566e-02 2.176171433439222716e-02 -9.020379718391510204e-01 8.635788410840242735e-01 -2.480794158010053430e-01 -4.389626278942270199e-01
7.830816523195779921e-02 9.986615434121756674e-02 -8.097844809184854276e-01 1.719794457992294689e-01 -1.100281286919426171e-01 -9.789366073036290805e-01
-1.462019541727405635e-02 -2.410077172022664915e-01 -9.756551100508386032e-01 5.797252607192764778e-02 9.451283398301723038e-01 -3.215145525022193307e-01
-2.171643263215282393e-02 -4.421275945736323487e-02 -8.550302705996657426e-01 -7.023070434489051550e-01 3.134092523948703302e-01 -6.391709139466111855e-01
2.231985354104212144e-02 -1.818585246533693245e-01 -8.740538276604621348e-01 2.964163793212539200e-01 5.829322430320433845e-01 -7.565231854369762754e-01
8.562210487482709020e-02 5.489988968170718409e-02 -8.058133493362978905e-01 1.864984228176472941e-02 3.186247465680948354e-02 -9.993182506547201305e-01
4.721029642038838264e-02 6.301813342540905916e-02 -8.107434374486213180e-01 2.102886066442361812e-01 -1.467211098249482926e-01 -9.665669236257578012e-01
1.047712822377818709e-01 1.077364750993217574e-01 -8.088304345195078682e-01 -1.149675858530169598e-01 -8.742712762203533328e-02 -9.895145029553078508e-01
1.033619521761953014e-01 1.452278542751600787e-01 -8.114290331097830933e-01 1.071056307182341460e-01 -5.053713973130535136e-02 -9.929624269710450868e-01
5.042093136436999468e-02 -1.531482020905269859e-01 -8.512788903299575161e-01 8.590386097490575190e-02 4.050968585148287948e-01 -9.102291260397138428e-01
4.332597696295630019e-02 -2.236707361606090905e-01 -9.253383227396317912e-01 -2.099611087494140105e-01 7.396178003747592156e-01 -6.394386930594050389e-01
-1.105677934808852736e-01 -1.277380312538684559e-01 -9.580499777650207660e-01 9.044358600392109482e-01 1.550976585048793044e-01 -3.974172761738432036e-01
9.784392012035583730e-02 1.634598192245935167e-01 -8.154871302042260295e-01 3.003593084493797263e-02 -3.151294671721611151e-01 -9.485732769681359811e-01
8.888889631516697087e-02 1.298369010968150605e-01 -8.098739322460521972e-01 1.714340389161730649e-01 -1.100991373779938165e-01 -9.790242848109079743e-01
6.411597634826714243e-02 5.155646104621957465e-02 -8.045253791224712403e-01 1.603270269019550220e-01 9.291945570685379574e-02 -9.826806292971904666e-01
-1.157583212226581393e-01 -1.222186289082163174e-01 -9.699869243304793942e-01 8.737404396897635594e-01 4.518518927440309807e-01 -1.800208628864324867e-01
-4.095377479674021381e-02 2.689354488687092579e-02 -8.506539895133886642e-01 4.192797540467737005e-01 2.169806625627880570e-01 -8.815463004971950678e-01
-7.658219942417768267e-02 1.290989649327264344e-01 -9.198197583802057986e-01 8.511358496665246687e-01 -3.954806995726805607e-01 -3.451996258369158244e-01
-6.743364250106696767e-02 1.167587827348471052e-01 -8.952482063504054732e-01 8.296920990098886062e-01 -5.125553543143373386e-02 -5.558631944356475785e-01
-5.520016558605807255e-02 1.082299720595370635e-01 -8.739240286482974351e-01 7.500272166272954344e-01 -1.464500734373792024e-01 -6.449895737982892507e-01
-9.842973341600443071e-02 -1.502724751971977746e-01 -9.579800737705372882e-01 9.152944778802353243e-01 2.265811426358858571e-01 -3.330120186476221988e-01
3.283372925349306581e-02 -6.438060856959521017e-02 -8.214967861593195364e-01 1.642094209311550923e-01 1.050631055793351809e-01 -9.808144625378852899e-01
-9.305773263371328041e-02 -5.759120702786080237e-02 -8.953921102188765468e-01 7.405876947323682957e-01 1.551314517640897117e-01 -6.538073868384804976e-01
-2.992542074352269599e-02 -1.092064601037588539e-01 -8.838296340841798049e-01 2.941644671338656813e-01 -3.951643073043062393e-01 8.702370001950945344e-01
-3.205649239168837164e-03 -2.377114627730924912e-01 -9.590434086514567635e-01 3.023095079915184558e-01 8.834546241403156142e-01 -3.579341957162239241e-01
-1.103741955795714408e-01 -9.870787298327142467e-02 -9.350700732278930394e-01 8.120795110527776473e-01 4.455942927011651844e-01 -3.767925079409489286e-01
4.966325180201736945e-03 1.186815219727532268e-02 -8.284887945194274739e-01 6.085823437780962797e-01 8.907403718648765345e-02 -7.884753304580047750e-01
4.556379804650102089e-02 -9.446235403005116826e-02 -8.273504052114646345e-01 1.198740233331681837e-01 2.523002393458053105e-01 -9.601951925290861389e-01
1.347080034422341588e-01 6.866336796938508902e-02 -8.142352432457764522e-01 -4.139964049891259878e-01 -1.012237527313039481e-01 -9.046329247485256353e-01
9.117798341490987446e-02 -1.917332998082650619e-01 -8.809932532031610197e-01 -3.374738818259022111e-01 3.766656717696997281e-01 -8.626901823920555268e-01
6.199551641693664544e-02 1.528068075448153762e-01 -8.228022384881806817e-01 5.147836364674325260e-01 -1.866014182992914716e-01 -8.367662268005680026e-01
3.387649511071736536e-02 1.124029811108241961e-01 -8.277213316410346744e-01 6.106531798440723025e-01 -6.308013970472069187e-02 -7.893817770389409683e-01
-4.232598591433765420e-03 -2.188683800464096829e-01 -9.276959772672620508e-01 1.682665064597247961e-01 8.365511854312434048e-01 -5.214101043875358776e-01
-9.606201776975015205e-02 8.475449521092018323e-02 -9.364308315277464212e-01 8.163193781506605795e-01 -5.096116775837374879e-01 -2.718797729254746609e-01
-1.197658102656113388e-01 -2.319520979499914166e-03 -9.599862565150028004e-01 9.450167651550535064e-01 -3.046454034060249727e-01 -1.188885686660363233e-01
-5.525552253045614565e-02 4.826073593104662773e-02 -8.604763975313407531e-01 5.117070992218847314e-01 -8.462187545174773562e-02 -8.549824459022263845e-01
-1.146007284896790462e-01 -1.052460275012243734e-01 -9.495120294550619677e-01 8.436856935894263554e-01 4.441013798293498849e-01 -3.016097061869795759e-01
3.915317074015313425e-02 -2.061583293034516262e-02 -8.122349856412565128e-01 3.027021231667680334e-01 2.605556641763252523e-01 -9.167781468250458810e-01
4.089928088507960302e-02 -9.842419794812461153e-02 -8.291577750521595958e-01 1.827276974643891327e-01 4.750189297899475860e-01 -8.607947519127749914e-01
-2.263699581812114725e-02 1.395164042105823676e-01 -8.570408126117056158e-01 6.032720044181485441e-01 -7.258559111452705936e-02 -7.942255477179416268e-01
-6.796902107204814969e-02 1.676482470581415196e-01 -9.476798754395944213e-01 8.594457626683407181e-01 -4.884023354400508499e-01 -1.510501233635327678e-01
-3.349191886791011430e-02 -1.300998300935673757e-01 -8.878412714465315769e-01 7.208718467369196192e-01 3.021103408311226479e-01 -6.237572625188474440e-01
9.697533515735060061e-03 -1.678392145738273333e-01 -8.713634742839063696e-01 4.249636322189547233e-01 3.906104341326147589e-01 -8.165962282780905301e-01
-2.990212594666569190e-02 1.530265581953212939e-01 -8.696390215739252527e-01 5.889476402840084779e-01 -1.335873459431901056e-01 -7.970540119764485398e-01
6.111053847369501968e-02 7.047627693462103771e-02 -8.088279113389984509e-01 2.759556494398068272e-01 -6.137976150913667479e-04 -9.611701736918091266e-01
-2.470589087531632408e-02 7.773567143605536467e-02 -8.479128053562966505e-01 2.717241579477911451e-01 -1.321152245252036339e-01 -9.532636306060454645e-01
