-2.371243005058313452e-02 -1.969681839694340519e-01 -9.240590339278379473e-01 2.203715899164031267e-01 6.481601405291752549e-01 -7.289202937131854521e-01
2.841056933783757399e-02 1.588829183561312614e-02 -8.545222479063490084e-01 1.224833305104542081e-01 -6.165877651479189508e-02 -9.905533953431110428e-01
1.022138729761901121e-01 5.114662469144097556e-02 -8.778601258955344155e-01 -5.632070401202394772e-01 -1.352558077046265572e-01 -8.151709614805766613e-01
-1.184246864459177345e-01 -1.627804766217544885e-01 -9.361491688897303209e-01 6.549469379451947626e-01 5.463352161006753693e-01 -5.220750330406940254e-01
-1.427438559342378288e-01 -6.121990330640972311e-02 -9.161514226762859092e-01 8.114719812051031100e-01 -8.887319396803869398e-02 -5.775939569567740683e-01
-8.942370593435206017e-02 -9.199351549787027071e-02 -8.840175565857327777e-01 4.799601780684815688e-01 2.918549037332008322e-01 -8.273203385843693747e-01
-3.831328171435900015e-02 2.255636504857107816e-01 -9.037751497187678229e-01 1.466276834390693173e-01 -3.989050916387792411e-01 -9.051933773034077646e-01
-3.088326510321361476e-02 1.147557951247583086e-01 -8.665026172854933817e-01 -6.332327031688762820e-02 -2.150575382248980788e-03 -9.979907506895540070e-01
-6.111513816599067894e-02 2.286785628830643735e-01 -9.127443755857390650e-01 4.267011148783008134e-01 -5.268262948299826665e-01 -7.351055799253105594e-01
5.842857511021917619e-04 1.985516578708683977e-01 -8.986349216457811817e-01 -9.869179976903007523e-01 7.995877736153364501e-02 1.399980705503333922e-01
-1.063979179893421168e-01 -1.038727976916152540e-01 -8.913046053280990755e-01 5.050264600808483939e-01 4.205559770209657544e-01 -7.537114466492784715e-01
9.493162460943341263e-02 -1.911801207692959137e-01 -9.392454876975612210e-01 -6.093557797443620583e-01 4.255808382415264268e-01 -6.690040985029763743e-01
-4.074929108663125077e-02 -2.353863013505020155e-02 -8.553035309397620800e-01 5.962449023103927499e-03 4.065721416375506214e-02 -9.991553633635207321e-01
-4.665287471161360527e-02 1.266062378034134572e-01 -8.664802819183050620e-01 8.642543244082805109e-02 -2.785882464839460337e-01 -9.565141052532449839e-01
1.039549477114941750e-01 -1.766851055378619029e-01 -9.329270435799437156e-01 -5.491225554816657750e-01 6.119602510115403904e-01 -5.691828091599194783e-01
8.913046102287684735e-02 1.580776779037818269e-01 -8.879263311976652862e-01 -5.124416241800405780e-01 -1.097373741127805613e-01 -8.516814489764078511e-01
-6.672044207760698120e-02 9.336040622020104485e-02 -8.643233599072055462e-01 2.183642183287372862e-01 1.022598513113479220e-02 -9.758137616275850412e-01
-1.050633730388658288e-01 1.937295459197662661e-01 -9.147300029124221243e-01 6.028736936369876176e-01 -9.956191172564848868e-02 -7.916001106960696143e-01
1.487465581429964819e-03 -4.892836107062505796e-02 -8.672056759190596154e-01 4.827157979722441761e-01 4.845619431210315686e-01 -7.295102341069585883e-01
7.020670410005068213e-04 -4.911686701303508845e-02 -8.696591337577815883e-01 -9.971674765167188870e-01 -4.576120953202617719e-02 5.969032986543548747e-02
8.203357799647897474e-04 -1.489102109732710066e-01 -8.989218200359480049e-01 -9.770994085502838766e-01 -7.298418838075626525e-02 1.998750961402832316e-01
1.015186997141679509e-01 -1.005322945748810121e-01 -8.910608458808216836e-01 -4.938805385220982891e-01 4.299317929394657622e-01 -7.558046487611586040e-01
4.771649700481554734e-02 8.845886050517282051e-02 -8.620688050749533149e-01 -8.002994963537270190e-02 -3.111957007487995974e-01 -9.469701383870682276e-01
-7.773714756940863779e-02 1.203133933406357603e-01 -8.748914437803504418e-01 3.295132719770669794e-01 -3.957965541045681962e-02 -9.433209710742981313e-01
1.109772176602863841e-01 1.311659530425970110e-01 -8.984057775786827849e-01 -5.884841710506512058e-01 5.842571693136798527e-02 -8.063949503958240950e-01
7.432050387233130051e-02 1.693034622240930376e-01 -8.853130898834057350e-01 -4.251311199642007765e-01 -3.225163959506004985e-01 -8.457225935145753493e-01
-1.457176143984892282e-03 1.210053037175129326e-01 -8.704853799275847903e-01 -6.925920292513613186e-01 -1.216862621911369152e-01 -7.109913744986159356e-01
5.642602746900857169e-02 -5.252407608676154527e-02 -8.607647454556196509e-01 -1.966548015154643281e-01 2.655072001309406460e-01 -9.438394014447276659e-01
-4.951594963287361123e-02 -1.879756004538965797e-01 -9.147009667214843764e-01 1.616151357740179539e-01 5.811861465465768539e-01 -7.975607882481978717e-01
-7.921984154219939567e-02 -1.047916834854330237e-02 -8.610584485291078449e-01 3.996046103155179163e-01 2.517587889009103574e-01 -8.814384082995988523e-01
-1.202690047061464595e-01 5.517605531553178289e-02 -8.891944834825314947e-01 6.669884925229769834e-01 1.521209971196950395e-01 -7.293733975661825797e-01
-3.927526119255887044e-03 -7.736173023817913275e-02 -8.757288749385933047e-01 9.673397753875762062e-01 -6.470996250995125765e-02 2.450844338285773361e-01
-4.363916952126582240e-03 5.981438281315964306e-02 -8.692517208777585935e-01 5.830208151830927887e-01 6.775478101860835101e-02 8.096270862022602044e-01
5.540738721080426532e-02 2.036449343798027445e-01 -8.929538967384973436e-01 -1.962819684721646141e-01 -4.129658753909766777e-01 -8.893439012076578276e-01
6.106137029013545018e-04 1.030370255938184987e-01 -8.726587617501544436e-01 -9.999753561582142014e-01 2.903899785079080888e-03 -6.391747983993359590e-03
-9.571237507834483293e-02 -1.393911051124518963e-01 -9.011145798882310709e-01 4.427391306696394913e-01 4.252731371496553114e-01 -7.893825568080297117e-01
-7.439487188445767507e-02 1.184873850295631303e-01 -8.735603977605645998e-01 2.411645849680172093e-01 -1.966852213082079526e-01 -9.503444463330887881e-01
9.392388310623425718e-02 1.844468039875728771e-01 -8.987810311452312240e-01 -4.570293266168964363e-01 -1.188982358037899145e-01 -8.814688900550333717e-01
-1.105855533812354213e-01 1.384701665964559736e-01 -8.979704141216925395e-01 5.543663675889893838e-01 -3.817211565952448316e-02 -8.313969088661955498e-01
-2.626032114960587249e-02 -1.367461409219376534e-01 -8.848320233736528539e-01 -2.513250055918270776e-01 3.770720258344351095e-01 -8.914327955024894390e-01
2.187932272491415267e-02 7.236200867394063097e-02 -8.591226170765799974e-01 1.056403001052612922e-01 -3.402201287088787440e-01 -9.343930602348158310e-01
4.845380369056425524e-02 1.835870470306875668e-01 -8.848929927881795665e-01 -1.540328444337748237e-01 -1.586678912008115949e-01 -9.752427303689723548e-01
4.902545151936055223e-04 8.727702329625912359e-02 -8.673794891258018724e-01 -9.841191902238811684e-01 -3.724572480668852242e-02 -1.735574124510861904e-01
-8.387807431685521953e-02 8.635188309540826890e-02 -8.695195650629300443e-01 4.891904649582431430e-01 -2.394602546384274055e-01 -8.386605245523587326e-01
5.884213362252724983e-02 1.718682887752634170e-01 -8.816458145785824874e-01 -2.378583045678890895e-01 -3.401592925207345686e-01 -9.097884823737234505e-01
-4.232139993302158620e-03 8.372616899170860771e-02 -8.729501328449669195e-01 4.162908409975329405e-01 2.089019182391723128e-01 8.849078620159056552e-01
1.820243041374240440e-03 -2.421585326184614861e-01 -9.611773693583021139e-01 -2.975538789210829260e-01 8.693185832150740477e-01 -3.946478050312123287e-01
-1.097977233454302537e-01 5.473798250468271676e-02 -8.808706015514853327e-01 5.933994701575034947e-01 7.684762816975265753e-02 -8.012312468079846317e-01
-1.391608695375369878e-04 1.430757746503228678e-01 -8.773720308512760191e-01 -9.226162573377968412e-01 -7.718956859685492666e-02 -3.779166736144721206e-01
-5.761668586275266873e-02 1.280432993650310741e-02 -8.542868658303518492e-01 1.702953683213574987e-01 -4.782834931333860423e-02 -9.842316477995688428e-01
2.416259444830519063e-02 -3.487486506217812171e-03 -8.556224092336721654e-01 2.273923149737918092e-01 2.488490115805191971e-02 -9.734852216573264272e-01
7.777420967923205641e-02 1.310712545264323264e-02 -8.612193002528197860e-01 -3.229575363386475439e-01 1.269011926556962155e-01 -9.378670039108066847e-01
8.091050993440601635e-02 -1.134108098219168415e-01 -8.842730793498011499e-01 -4.517983918015924805e-01 2.180742135750686761e-01 -8.650559811590866621e-01
-9.348252621164364340e-02 1.189471738949163526e-01 -8.812403798549510725e-01 4.634098143402458070e-01 3.482776615430237255e-02 -8.854594122137050549e-01
-1.239353199196468885e-01 1.433470527036310171e-01 -9.126699197030448962e-01 6.542050925297068220e-01 1.294662306246589234e-01 -7.451538042820691210e-01
-2.117511182006028177e-03 -6.443049432613924543e-02 -8.676694645655829152e-01 2.414298024297270306e-01 1.960397012737101485e-01 -9.504104829089677908e-01
-3.301560331823090097e-03 -8.184208184323278623e-02 -8.781944043943616940e-01 8.353418096875677712e-01 -1.383221123159492638e-01 5.320442220646259823e-01
-6.667026168506641481e-02 7.382655438175401985e-02 -8.603551022994110342e-01 3.106946988063192805e-01 4.533331033528777143e-02 -9.494280884341347315e-01
1.056289049635084631e-01 1.448931474055628263e-02 -8.772810980131827696e-01 -6.590552515711877168e-01 -1.048373496314868036e-01 -7.447518415544092107e-01
1.799821950020025554e-02 9.246166007482525817e-02 -8.645103637434189414e-01 2.657544575276033494e-01 -2.475790355556250696e-02 -9.637227892478948954e-01
9.798813274313281085e-02 -1.676882301645614137e-01 -9.199870062333570520e-01 -4.549535659865429627e-01 5.846181120372659912e-01 -6.717431919075255164e-01
7.953641400031884190e-02 -4.529946699198109800e-02 -8.666875828982179009e-01 -3.070452134469489613e-01 2.298416960120490959e-01 -9.235237039045736118e-01
6.594721793761737765e-04 -1.200942224067968883e-01 -8.889298209129333772e-01 -8.663626766051331085e-01 -1.888688142107870505e-01 4.623248680356711326e-01
-9.655132269548291624e-02 3.763682542245427171e-02 -8.686475315805278763e-01 5.633301525718439340e-01 -1.482390997901952556e-01 -8.128248941172848685e-01
9.382712100510832987e-02 5.492463492909017975e-02 -8.727572229147795291e-01 -5.001131581266872184e-01 -3.623465060788515213e-02 -8.652016407542668652e-01
-1.437044526799441946e-01 1.069190050091649302e-01 -9.230651237399499776e-01 6.535015641780121953e-01 3.903954007650486946e-01 -6.484806370882543192e-01
5.153979977436309867e-02 -9.582268569589059981e-02 -8.710960973591336254e-01 -1.676218023855593486e-01 1.666651901093533783e-01 -9.716612813994541797e-01
-6.299747167014663196e-02 1.956081154709937708e-01 -8.929083945280535950e-01 1.759351437542213958e-01 -3.833252594292618221e-01 -9.067020297074835922e-01
-2.847367250885968898e-02 1.604189258395934958e-01 -8.792590798710452349e-01 -1.114712986457688237e-01 -3.957519817235768955e-02 -9.929793317425316124e-01
2.534738796474083483e-02 -2.281709923603794099e-01 -9.536670220964706957e-01 7.121268044703875366e-02 9.361039911421443760e-01 -3.444387781758838085e-01
-2.739305593303078060e-02 -1.569057964465939981e-01 -8.939511637259622834e-01 -1.765951125723449477e-01 6.075760267793300917e-01 -7.743807447881200234e-01
1.150855852665083785e-02 -8.722520602578973103e-02 -8.722924001332039712e-01 3.267450323169285298e-01 1.096785623506746354e-01 -9.387269554119017645e-01
9.791558458554223965e-02 -1.801752709319476287e-01 -9.300181901222212000e-01 -5.725965034741873350e-01 3.704999848818298358e-01 -7.313432883480224245e-01
-8.516155335602620946e-02 -1.378816219122775688e-01 -8.947670912740663951e-01 3.650782608582547883e-01 3.615246145677744605e-01 -8.579148072567196470e-01
-1.218344146073082057e-01 -1.312382864457896717e-02 -8.861835415412855355e-01 6.350632987300497412e-01 2.965260568855788148e-01 -7.132789806197837867e-01
1.102189534622335376e-01 1.119996686550818188e-01 -8.944730485354609462e-01 -5.935080035258257780e-01 4.218838411876093403e-02 -8.037215873648264619e-01
1.436950451597995642e-04 4.265295379044228147e-02 -8.613549989369884141e-01 -8.880782155069885109e-01 -3.814669721063090185e-02 -4.581068790509952304e-01
-1.034728009278361588e-01 -1.370730709411219495e-01 -9.043543582245284762e-01 3.675031902045057808e-01 5.749743123626861463e-01 -7.309897026036459300e-01
8.705093167452941649e-02 1.513570644639802842e-01 -8.849161589675077488e-01 -3.910648988097680245e-01 -9.366502586188328594e-02 -9.155845716531044731e-01
-2.869927687963628755e-03 1.794737258655398071e-01 -8.976524981691231808e-01 -4.065796355792581154e-03 3.418286573216052782e-01 9.397534987078801638e-01
-6.386733007287734298e-02 2.005828297056157505e-01 -8.947480919646154662e-01 2.689086063156517770e-01 -2.360352522009092902e-01 -9.337962953277479938e-01
-1.269491762797095857e-01 2.260977067628956640e-03 -8.917974490936774190e-01 6.722074371141699700e-01 2.789668545989566484e-01 -6.857949077702195639e-01
5.057746675586319990e-02 1.748992148783099498e-01 -8.810653905317920032e-01 -6.125944959871736789e-02 -1.269656219438105027e-01 -9.900136416632265846e-01
-5.838517642256497677e-05 2.369492839667823314e-01 -9.106649895813272444e-01 -7.924044986558914649e-01 -2.927111607610027311e-01 -5.351778086541444379e-01
1.410167496107652893e-02 -1.778945003277778991e-01 -9.086542025468399286e-01 1.948412640061412959e-01 3.009431246649926783e-01 -9.335256384038735922e-01
-9.138324506293510341e-02 1.602485283244885761e-01 -8.923736839117540898e-01 5.169263554691809759e-01 -3.030922567720500393e-01 -8.005761843236256503e-01
2.180873164609579626e-02 -2.042072310373841404e-01 -9.244369040540952875e-01 -9.254884458018844406e-02 5.314840489873141616e-01 -8.419972785222780143e-01
4.945681431523668570e-02 -1.682981080781290606e-01 -8.994854546677700791e-01 -1.268820606709458454e-01 5.931929412563995418e-01 -7.949987906427757878e-01
7.668471869325110823e-02 1.232182752986982072e-01 -8.766527382106381605e-01 -2.627889077322912992e-01 -7.456785901333307098e-02 -9.619675796902081855e-01
-1.204252063097106529e-01 -6.138420818921370287e-02 -8.910256095446497104e-01 6.061841116484391057e-01 3.885805220347324784e-01 -6.939351559621459442e-01
7.528727952297542547e-02 -1.884070010741368539e-01 -9.223636320279974266e-01 -4.336258750481681856e-01 6.220201414012358487e-01 -6.519659072220701512e-01
-4.328397180379013609e-02 -1.197781904030688210e-01 -8.764824784996487761e-01 -2.417505747211936770e-02 4.311879279787285690e-01 -9.019382114987869459e-01
-6.760618890488908662e-03 2.285108934743537712e-01 -9.185039130767191917e-01 7.212817811260048284e-01 4.291431327389768069e-01 5.436807554426354994e-01
1.419485168321716131e-02 -1.070058305161638301e-01 -8.771625457524575564e-01 2.488520361057022512e-01 4.264097782780604806e-01 -8.696248415925694752e-01
-9.458209627631533611e-02 1.176349747575596988e-01 -8.817445283567317826e-01 4.670880820520717513e-01 9.193816773829095040e-03 -8.841629925178086102e-01
3.793168091582708318e-02 2.363390152180894488e-01 -9.087884265424933661e-01 -1.981791247204672257e-01 -3.495281000348665068e-01 -9.157265649805327312e-01
-5.872146290349313652e-02 -1.011198046676978629e-01 -8.703332520813453765e-01 4.998386113742723375e-02 2.711967355268451452e-01 -9.612252307681985464e-01
-7.416944485060780745e-02 3.385968146416240554e-02 -8.600250217558704779e-01 2.682086357948711974e-01 -1.097284687766068856e-01 -9.570913179132884974e-01
2.833162778107594162e-03 2.673375235623579593e-01 -9.423060051585512298e-01 -9.722029937444939263e-01 1.603551608142190221e-01 1.706093823753225824e-01
-2.520818212734844688e-02 1.606653300177465771e-01 -8.797849725315171066e-01 -2.329705776096360759e-01 2.002443957252779058e-02 -9.722776001677907454e-01
-1.053231992111866161e-01 -6.796401647772190580e-02 -8.819690538108343469e-01 5.296589560283262443e-01 4.146290514139489014e-01 -7.399622558094112179e-01
-7.924401583206699962e-02 1.232707877746587050e-01 -8.732672772245536619e-01 3.416540300298252508e-01 -2.516909615121725730e-01 -9.054966502740126044e-01
-7.997971707853335612e-04 -2.283272011974209550e-02 -8.613629216811157230e-01 -5.721137849717569113e-01 8.222000489419102609e-02 -8.160426997654531833e-01
-1.303576551886491131e-01 7.724165087576255473e-02 -9.012882249391021006e-01 7.346357477505441880e-01 -3.223845958950774526e-01 -5.969744470717038842e-01
-5.463477022943323547e-02 9.702917805954494601e-02 -8.642437335017580935e-01 1.593049315102980090e-01 -2.393095986573859912e-01 -9.577853907775688569e-01
3.136106251142684737e-02 6.869892457836486444e-03 -8.549972026909229417e-01 6.728811468826270681e-02 -6.219824359716374929e-02 -9.957929946103892815e-01
-6.197550645079692028e-02 -1.579038493728617543e-01 -8.958084234786060085e-01 2.648401206080916448e-01 3.618673289176338459e-01 -8.938186319261355317e-01
8.433159245290594574e-02 -1.926441309094354404e-01 -9.314815990271186896e-01 -5.088271609510341964e-01 3.793160322017863351e-01 -7.727963949147302891e-01
-1.085271476360302398e-02 2.760441252928520495e-01 -9.490550132192592248e-01 9.628452770098977487e-01 1.913544361415452089e-01 1.905582648658524503e-01
-3.950390795701429897e-02 -5.449404940161511196e-02 -8.572819418618593534e-01 -9.095125181922926461e-02 3.149296821747777919e-01 -9.447471434610473784e-01
1.073860240197056920e-01 -1.568804615540594916e-01 -9.230824710012068834e-01 -5.689850453298935795e-01 2.954496792485138412e-01 -7.674408806044211717e-01
1.201119119730537921e-01 1.264108421359278790e-02 -8.892722538491394380e-01 -6.651142630253377153e-01 -1.515733849160477709e-01 -7.311966398345614015e-01
-6.732165942425846761e-02 1.269721203775706631e-01 -8.701262353753612677e-01 2.324782918986774416e-01 -1.068830937207284476e-01 -9.667108399477886138e-01
6.578574359532669835e-02 -2.671686003835705564e-02 -8.596199601386799172e-01 -3.394570199394392196e-01 -1.415610355104029300e-02 -9.405150378096500674e-01
2.991245304027960461e-02 -1.966906465653655012e-01 -9.202911721830235869e-01 6.405177258864411249e-02 6.520449641364889359e-01 -7.554698770781647088e-01
1.191614272289889254e-01 8.265794358252134821e-02 -8.938778536644427231e-01 -6.399088072431757812e-01 -2.581822040883569036e-01 -7.237808148222041327e-01
7.358691245365961420e-02 -1.708454928693950992e-01 -9.079050648995208306e-01 -3.271869153740024627e-01 5.348155815403685676e-01 -7.790513565546772767e-01
1.008000293382844276e-01 6.622054491976216151e-02 -8.755735125895857118e-01 -5.456692005167089743e-01 1.158852298684197313e-02 -8.379205390384215635e-01
-1.634159703564877844e-02 -2.153010834153266662e-01 -9.369783958931644507e-01 1.621453582447533459e-01 8.038823330199560413e-01 -5.722604979011508552e-01
1.218823591263611950e-01 -1.429040920214208199e-01 -9.251772649648998259e-01 -6.712400705817429536e-01 2.545459163708062578e-01 -6.961631591116864692e-01
2.624467828072691786e-02 -1.673208379038979565e-01 -8.993485068200112176e-01 1.292036084818037611e-01 3.459617210690634215e-01 -9.293099133820817981e-01
1.213842442556995888e-01 4.680277003619674747e-02 -8.932427775568927419e-01 -6.579341923808587067e-01 1.378951152105411249e-01 -7.403428501020447028e-01
-9.249173068677198073e-02 8.639524250705789277e-02 -8.736268363862402797e-01 4.567427518493909488e-01 -1.312420106218870341e-01 -8.798645312097597149e-01
-4.672162361193971103e-02 -7.502347671325944323e-02 -8.616408912587547597e-01 1.882691082619956935e-02 3.462199763928556218e-01 -9.379644318284531268e-01
2.550562130290374638e-02 5.776842702214172315e-02 -8.563543784583348417e-01 1.709613750494975715e-01 6.908011042612154096e-02 -9.828530645954663969e-01
-1.973929210853279850e-03 7.622505750721879358e-02 -8.624540726301838101e-01 -5.786160403353576842e-02 -1.348284916994099136e-01 -9.891780995375546448e-01
1.093118364450175600e-01 -2.161068237253941163e-02 -8.829888375208795326e-01 -6.121404052181763644e-01 2.610732790074791199e-01 -7.464079764362179237e-01
6.127146617407674229e-04 2.002175131508711903e-01 -8.991664079793444397e-01 -9.997964654494388981e-01 -2.014254413388392312e-02 1.142624445465738369e-03
-4.130316331632904320e-02 -1.732154014045192980e-01 -9.027163596991656380e-01 1.159012021838621148e-01 4.151517686692653974e-01 -9.023391381864782623e-01
-8.802600599366942891e-02 -1.369264029593668663e-01 -8.954946414083297945e-01 4.258303380377411185e-01 5.620889811468909869e-01 -7.090306766846644626e-01
1.980195481621829096e-02 -1.903982632712575007e-01 -9.158476503999947171e-01 1.927210928148685720e-01 5.847261520275391922e-01 -7.880062864719481475e-01
4.195762076267382096e-02 -1.539152427437123771e-02 -8.556346462969371958e-01 -2.812745053424876157e-02 -8.934092270772102384e-02 -9.956038600046589471e-01
-5.012747596162490243e-02 5.562866958213755902e-02 -8.564934603655465217e-01 1.739149966771345035e-01 -1.417825150143934287e-01 -9.745005348212927299e-01
7.537629766676226528e-02 7.606136953676043144e-02 -8.652770434003277389e-01 -4.110794865751256633e-01 -1.704333698844640310e-01 -8.955256122227641669e-01
1.061561111009170222e-01 1.288000300721478808e-01 -8.943147513994560427e-01 -6.130502240150539350e-01 -2.642322714249085713e-01 -7.445473319895289377e-01
5.108883024488789643e-02 -2.215621534057026221e-01 -9.548046646780866675e-01 -1.267566941112533985e-01 9.093714688927475587e-01 -3.962023120349409400e-01
9.814736280593425177e-02 1.217958215200790478e-01 -8.884350869895334402e-01 -5.325244342777892825e-01 -3.192827111306768550e-01 -7.838853725323399191e-01
1.401348995275528142e-02 1.309231630488288667e-01 -8.739150325414666298e-01 3.087064272185052749e-01 -4.322146653194600813e-02 -9.501748505537354061e-01
-6.678750776965056146e-02 1.356817592586041510e-01 -8.746454865049843042e-01 3.421720198243826672e-01 -2.918610061366551656e-01 -8.931603786253629051e-01
-1.476816353524553534e-03 1.339734834829656163e-01 -8.734288272845219803e-01 -5.359666147154179550e-01 -1.673697131594325538e-01 -8.274824270203109400e-01
8.230615350854945944e-02 -1.140912917449142666e-01 -8.850593644794192416e-01 -4.004684973940877968e-01 1.810000179429129830e-01 -8.982560749026898828e-01
-1.271518010111654662e-01 3.624450289445600715e-02 -8.915688839996369630e-01 6.480832572265370350e-01 1.574041304960955012e-01 -7.451255138601885486e-01
-3.136811742671351960e-02 -4.554823572768645218e-02 -8.574838123306304238e-01 -5.445328346888617110e-02 6.474296440971566424e-02 -9.964151687318392181e-01
-8.588343291729774731e-02 1.733262579353702093e-01 -8.932595584169987779e-01 3.942466989872633332e-01 -1.222947609406277863e-01 -9.108312312300895774e-01
2.399863088048020954e-02 1.580234452484558239e-01 -8.763616508372309433e-01 1.762959248499340326e-01 -1.105388169262775805e-01 -9.781108918899971139e-01
-1.015371189955348863e-01 6.729125832254181927e-02 -8.745366882352966220e-01 4.737853854253794572e-01 1.282821458234559564e-01 -8.712468649127261822e-01
-5.070545601742569054e-03 1.694339489627390005e-01 -8.831852718545488701e-01 8.093721000146942846e-01 -1.860313140063483139e-01 -5.570539955218659633e-01
1.201690624595313922e-01 -5.721512632298764861e-02 -8.957095804217746204e-01 -6.073893178886258237e-01 3.688855240882100150e-01 -7.035635626103415863e-01
-1.332255581408830769e-01 5.521804384952531258e-02 -9.017645742868449776e-01 7.729770583335506817e-01 -2.446693237087764761e-01 -5.853574884853702809e-01
-9.529747399192630211e-03 3.068954249292689673e-01 -9.814503989601950362e-01 7.019104754743070718e-01 4.931554497249203695e-01 5.139254681624990662e-01
9.419675557598511384e-02 -2.031893585524539858e-02 -8.727585876249562835e-01 -4.613282235214757332e-01 1.292245519412744126e-01 -8.777683551815342877e-01
-8.304171241373976831e-02 9.223906526195208011e-02 -8.717630226688616313e-01 4.293706944685787841e-01 -1.870550087699910380e-01 -8.835446963372193263e-01
1.209982537777228584e-01 -1.294773182381421250e-01 -9.181108984608414847e-01 -6.750700154402291542e-01 1.137010827361264933e-03 -7.377527915636153955e-01
-1.436330923634209777e-01 5.351172680518412328e-02 -9.146444253586361040e-01 5.983816543863671455e-01 -7.374874079232029978e-01 -3.131321108550662591e-01
-3.997169578915854560e-03 -5.856108226320889953e-02 -8.684619582087123035e-01 9.471479312237560677e-01 9.287080144226270151e-02 -3.070599462939287427e-01
-7.312627326199255817e-02 1.535406812950299016e-01 -8.824973719661241001e-01 3.421720198243826117e-01 -2.918610061366487263e-01 -8.931603786253650146e-01
-1.220203840128004751e-02 2.961493099249967176e-01 -9.629441355707528682e-01 9.666785970658714477e-01 1.981601612339212448e-01 1.620649267253855830e-01
-7.727463959788598291e-02 -1.181134997814682099e-02 -8.606846692095585505e-01 2.967625422130781287e-01 1.645346332304996051e-01 -9.406701589861005131e-01
6.073824597810728587e-02 -1.049634630573067634e-01 -8.743679485228105230e-01 -1.359355432953173182e-01 1.617164070974881074e-01 -9.774299625776193823e-01
-1.148438359302996897e-01 8.850985638362458829e-02 -8.910603704252376689e-01 6.389085933369155201e-01 6.304099487969516691e-02 -7.666952734462512131e-01
-9.163414543337460028e-02 4.228611515471585036e-02 -8.659680809889623854e-01 4.299041593758927138e-01 1.024141720415278067e-01 -8.970472401810036800e-01
-3.649668239384185118e-04 -4.312145392412823630e-02 -8.643683170974876262e-01 -6.959982751864636219e-01 1.033621853414494335e-01 -7.105650283956475022e-01
-2.525313935901968981e-02 3.860815559115924472e-02 -8.561181122354393214e-01 -2.360791704846885442e-01 3.119945788904196840e-02 -9.712328346440370908e-01
-2.018415300977693581e-04 1.911152082181967748e-01 -8.916982128432008325e-01 -9.383593403614320927e-01 -7.896847426637911005e-02 -3.365200267866657047e-01
7.358019788309007325e-02 -1.134202482565899589e-01 -8.814517320930435051e-01 -2.554520520287785201e-01 2.036331147461276914e-01 -9.451337491027799187e-01
3.053244154288932096e-04 -8.581216075294326173e-02 -8.743563063256867274e-01 -7.792192165554323591e-01 1.815729623380469282e-01 -5.998738799935567911e-01
-9.973011826465845789e-03 5.754522224112130352e-02 -8.625958617958747743e-01 -4.601868296984314433e-01 -3.964589841182714069e-02 -8.869364602446028201e-01
2.201182170439435273e-02 3.732035843499965921e-02 -8.554883089084510672e-01 1.726365403178407032e-01 3.099888761624664327e-02 -9.844976860885157333e-01
-3.088100028148650644e-02 -1.387797252798383674e-01 -8.849417532618172322e-01 -6.968967936967852828e-02 2.937425036129711620e-01 -9.533408048334734985e-01
-9.965032427480791100e-02 -1.389721229686359805e-01 -9.033579134412866862e-01 4.428441821086951946e-01 4.252671439930812425e-01 -7.893268566395347241e-01
9.987620399628384382e-02 -6.717590152890881572e-02 -8.814941875658576231e-01 -4.619357563568523006e-01 2.766115207505032703e-01 -8.426751589949219579e-01
-9.910770694736034669e-02 -1.149415490245520449e-01 -8.937227336133248823e-01 4.966006025859875939e-01 5.083154807027607802e-01 -7.035646477681742894e-01
-5.330123485640370778e-02 6.059664592874835359e-02 -8.569932074264742239e-01 1.707155685403222156e-01 7.337192586818748474e-02 -9.825847317928096958e-01
6.149763858322903134e-04 1.903702189504745679e-01 -8.952497484122625693e-01 -9.997964654494388981e-01 -2.014254413388386761e-02 1.142624445465682858e-03
8.990619076408855326e-02 1.824131857810608326e-01 -8.961422684105615488e-01 -4.247693138121137468e-01 -3.292423477624767947e-01 -8.433092590997909310e-01
-5.183209154839277938e-03 1.783038617404443527e-01 -8.964830022826829614e-01 6.268239245730728992e-01 2.604349023274673547e-01 7.343469406435167990e-01
-6.158895439921718840e-02 6.834646768964786068e-02 -8.597289321420074071e-01 1.608656034340212870e-01 9.785370176060663450e-02 -9.821134917531448849e-01
7.096166424938532558e-02 1.229319908855215811e-02 -8.588809117981234253e-01 -2.873708773517367754e-01 -5.566459019325395441e-02 -9.562005188498435837e-01
-1.166139099369379456e-01 -1.053973067550604686e-01 -8.996758747138220436e-01 6.485093014794001132e-01 1.963007323182270336e-01 -7.354602017689524374e-01
8.956848368437074492e-02 -1.712328003740586635e-01 -9.165958686295738733e-01 -4.412004840693852792e-01 3.950928089457296233e-01 -8.057566662313835337e-01
6.476209309069444649e-03 1.118605672795088268e-01 -8.710024359804990901e-01 3.889288611581003807e-01 1.062224705288703115e-02 -9.212065505769106988e-01
1.067166568959863060e-01 1.115096419105323367e-01 -8.918093535239830505e-01 -6.051087526981300257e-01 -1.631259571638824790e-01 -7.792517690114538764e-01
-3.619120502066789508e-02 -9.045524541307182337e-03 -8.555154074730184632e-01 -1.026067984187189475e-01 1.724472203440712281e-01 -9.796600436446634141e-01
-9.234297123007677299e-02 -1.535952282351841711e-02 -8.672113580963116686e-01 4.054918397762025672e-01 3.268155331709740857e-03 -9.140928218926335225e-01
-3.023249942935869131e-03 -1.576326761325559656e-01 -9.027381065547309680e-01 9.778127207797032705e-01 9.222603170986355681e-02 -1.880867942106661805e-01
-3.262644627576714168e-02 1.508035005869418632e-01 -8.773339244741090726e-01 -2.367787016712317172e-01 -1.881886624722796386e-02 -9.713813343420053537e-01
-1.306126104064214977e-01 -1.379571640460595106e-01 -9.303227930773758647e-01 6.394735838739642464e-01 5.947677007014844364e-01 -4.871600535036275104e-01
2.553113255844690482e-02 1.918133081860238509e-01 -8.863519949348226401e-01 8.905907819475877840e-02 -4.160336191330633593e-01 -9.049776286418053095e-01
9.628131406938456038e-02 -6.980946622337320939e-02 -8.797495801129392445e-01 -5.360283220602996002e-01 2.942418577712949818e-02 -8.436870600172630130e-01
1.006132121893774795e-01 -4.170756111460049986e-02 -8.811920645919352202e-01 -6.113449483712343202e-01 1.749584330261544363e-01 -7.717816406303050769e-01
5.518762720926343119e-04 -9.141231677817571177e-02 -8.799158299009248729e-01 -9.478675348062366446e-01 -4.269830188602870974e-02 3.157910566757666793e-01
-2.472075296214419973e-02 1.495446803146515680e-01 -8.786038369615429833e-01 -2.274813385349829520e-01 -3.065548646912716335e-01 -9.242707155116669515e-01
-7.410999464886287857e-02 -1.773621588766950141e-01 -9.150599326306654291e-01 4.785112989864503952e-01 4.748178967560416908e-01 -7.386304229196553051e-01
-2.029097842310167640e-02 -3.251893194674500276e-02 -8.569861558322963146e-01 -2.770021531466936859e-01 2.317922039081688618e-02 -9.605896787360197475e-01
1.078123621672938820e-01 5.170403569404366517e-02 -8.818310215852276368e-01 -6.032515139961458495e-01 1.412143326799474297e-01 -7.849497583330509176e-01
-1.236113231286397190e-01 -1.396589710938716811e-01 -9.235085965522518148e-01 7.319390158733177776e-01 1.256369407488121259e-01 -6.696869687859234865e-01
-8.878374662746603765e-03 3.174211132725178741e-01 -9.601366439845695488e-01 6.570496232998540576e-01 -4.021919950947736022e-01 -6.375950059428048267e-01
-7.003481334928619850e-02 7.795203847190507185e-02 -8.621143668034312313e-01 2.470724886676203269e-01 -1.993986034330333945e-01 -9.482591324593423465e-01
-1.205930981138912499e-02 2.925296848654897475e-01 -9.544376541793485602e-01 9.916510874789663532e-01 -3.263722324844539613e-02 -1.247514823976625942e-01
-5.993997827298284259e-02 -1.234747653539170209e-01 -8.792795381366960150e-01 1.167172445935591857e-01 4.719889359469129908e-01 -8.738441103298620893e-01
3.480111507307797475e-02 -1.048955420115483921e-02 -8.554775625012963625e-01 1.207039592742214784e-01 1.326282641074322532e-01 -9.837887465179586677e-01
-1.019860163817686537e-02 2.725413233708917637e-01 -9.364246565110706522e-01 9.607493014729915348e-01 -1.167037768421528982e-01 -2.516763957742875757e-01
8.302806551420345571e-02 2.926222945904011913e-02 -8.632913639304304887e-01 -4.623174124813372865e-01 -5.410721511958013069e-02 -8.850621556639762799e-01
-7.371728607725902549e-02 9.171197168270864286e-02 -8.661435360995584087e-01 3.203305829933779103e-01 4.612415581202146397e-02 -9.461822656601374115e-01
-1.304403964723308863e-02 -1.851451566908915158e-01 -9.153710027136794380e-01 -2.054631682048731200e-01 6.164093953886409238e-01 -7.601475802683490546e-01
-2.495456824949066066e-02 4.613175977060856442e-02 -8.557958095469223592e-01 -2.364957173525564504e-01 2.000281803572943537e-02 -9.714266122278766291e-01
-8.327863283114303461e-02 -2.339614324614380791e-02 -8.649938834601930138e-01 4.053961655527049124e-01 1.727588113105573905e-02 -9.139778404788101440e-01
-1.344980271954470397e-01 4.143266504426386778e-04 -9.002646494105326358e-01 6.801847906669361565e-01 2.496665240596940283e-01 -6.892135208404768232e-01
-1.281451913521172714e-01 -1.316714191631472575e-01 -9.232393050528555634e-01 7.326361784272472644e-01 9.261604947004616062e-02 -6.742896243010717550e-01
6.142304342308555626e-02 3.204500154316962390e-02 -8.561601813556600771e-01 -2.052220601858587012e-01 -5.618492370166740246e-02 -9.771014074095428770e-01
-2.144132132304934352e-02 9.465535430688658963e-03 -8.565913536756372126e-01 -2.722444869013375679e-01 -1.400016679724607783e-02 -9.621262571416897558e-01
6.007752530007511070e-04 8.888509973581910917e-02 -8.693401017295434574e-01 -9.999519736794830749e-01 -8.786797798811880195e-03 -4.340797040757828941e-03
8.338883510928829252e-04 -2.117638601578596957e-01 -9.287513211705401561e-01 -2.014360488410363303e-01 3.743098625952461234e-01 -9.051605630998511565e-01
8.079828138384897995e-02 1.271116580344271996e-01 -8.803757948544443934e-01 -3.631971481709284633e-01 -2.545718930047168871e-01 -8.962594394774872075e-01
4.058118919814360237e-02 6.241974010315262666e-02 -8.568033733125935969e-01 -1.702384399690802241e-01 -3.502351409634852364e-01 -9.210614635251991311e-01
-1.003953068659579244e-03 1.858370703553111347e-01 -8.886982957910575243e-01 -6.266691174478564719e-01 -2.520616102501229139e-01 -7.373945767872446266e-01
7.011399762547276815e-02 -1.027927407635600282e-01 -8.764619208039030607e-01 -2.829477322762875557e-01 2.321211201190908902e-01 -9.306236437971932007e-01
1.006023716208347824e-01 2.098366497832177824e-01 -9.291318284035290365e-01 -6.848622723314676808e-01 -5.574200323909440646e-01 -4.693043526606773819e-01
-1.127999809753546523e-02 2.911551451618052400e-01 -9.494999965682507925e-01 9.752656101031904612e-01 -8.393488349079901434e-02 -2.044796446677206170e-01
8.153058098018083066e-02 1.213456409185450779e-01 -8.784768313407903539e-01 -4.321262443921098928e-01 -1.663284572163390568e-02 -9.016597237044423618e-01
3.341718757975411375e-02 -1.589370343786064288e-01 -8.946749203182389198e-01 -3.306796633611030697e-03 3.664538975131726994e-01 -9.304303338205548446e-01
-2.037694363702207204e-02 -8.777340781709384518e-03 -8.587726719953575616e-01 -2.466841660163551220e-01 2.171141954263945406e-01 -9.444619359090998811e-01
6.814672095722873468e-02 6.001843496863276672e-02 -8.617108913317460539e-01 -2.548456064931065579e-01 -4.476921624619760454e-02 -9.659448401062359357e-01
1.123995009303973280e-01 -8.210898740139827012e-02 -8.938690334074791410e-01 -5.788871628015420656e-01 3.002828903916965886e-01 -7.581027888628223410e-01
-1.241008058448602736e-01 6.231790474115374984e-02 -8.910846923881061699e-01 5.960100207065129885e-01 1.246296278811992869e-01 -7.932461856647124998e-01
5.697635441740956904e-04 2.112729774777697966e-01 -9.018092129388205480e-01 -9.842068297198596216e-01 -7.804652036871266574e-02 -1.588888195913075729e-01
-5.390274171459733150e-03 5.005935697806050688e-02 -8.663847156206273548e-01 8.888578831424873705e-01 6.180178181234564916e-02 4.539958186374355997e-01
-2.106484847337465431e-03 -1.685706672789221428e-01 -9.115892568129949636e-01 7.542732265611092890e-01 -2.890571867680019613e-01 5.895064397195859396e-01
6.177395769415304277e-04 1.407638902424993288e-01 -8.795336949562556628e-01 -9.839679185339167411e-01 -3.180635438694082162e-02 -1.754864414040115117e-01
-3.946531701306228018e-02 1.855040172857784220e-01 -8.850900122476554888e-01 -5.474023039852476263e-02 -2.228027590741219754e-01 -9.733254531372717011e-01
-6.972335832726959948e-03 2.065268556788944221e-01 -9.041246331104835221e-01 9.393729024264348970e-01 1.462333353623745114e-01 3.101521591344010842e-01
-7.981745968442646721e-02 -1.167528285653415265e-01 -8.838179988952691302e-01 3.860239790305720620e-01 3.052646742802835877e-01 -8.705164939562930471e-01
-6.056161693340363084e-02 -1.270706417442718228e-01 -8.808891426294096494e-01 1.472177614132055279e-01 3.562213895304546241e-01 -9.227314085721134429e-01
5.808595924713216537e-04 -4.711998285593822083e-02 -8.668832430066698569e-01 -9.712057280587552688e-01 6.235021291924521675e-02 -2.299388717350497047e-01
8.189157714280399791e-02 -1.083759966738868652e-01 -8.827616087072022166e-01 -2.988211240843281491e-01 4.513089964478112504e-01 -8.408484557435114137e-01
-4.027975106376289333e-02 -5.554790377573643606e-02 -8.575717499460661086e-01 -3.863909234945881593e-02 1.746066698413864526e-01 -9.838798358485202344e-01
1.170914697001584626e-01 -2.967255717028547540e-02 -8.874489329341935795e-01 -6.892174162581802266e-01 -1.030180567573974193e-01 -7.171935813351426603e-01
1.877563502014088781e-02 3.852200420372565298e-02 -8.561353571133927254e-01 1.615237243693540825e-01 2.139989667303824061e-01 -9.633870087893969814e-01
-4.584016321711700120e-02 -1.727996301370182805e-03 -8.551258731555235748e-01 -4.137340653141156899e-02 -2.524783795996592833e-02 -9.988247032939934211e-01
1.123559641257073222e-01 -3.039713908676357993e-03 -8.820360801420836783e-01 -6.352213024588418966e-01 -1.035138875361801408e-01 -7.653618568949197565e-01
8.330162542146486715e-02 1.101023040332571243e-02 -8.635448676944871282e-01 -2.797216038896970791e-01 2.311513029075806108e-02 -9.598028521884149900e-01
1.030439486311168912e-01 5.198908673962960442e-02 -8.784925317359218999e-01 -5.891902159966447838e-01 -5.627430095419919814e-02 -8.060323147529155907e-01
-2.382195464711987440e-02 -2.242577537530070220e-01 -9.533663079357287407e-01 3.123695266602829687e-02 9.136952432142512182e-01 -4.051977977676958220e-01
-8.688197174259856825e-02 1.174664483802187881e-01 -8.781327450459457395e-01 4.819558489206293150e-01 -1.099629403221731583e-01 -8.692679169547773421e-01
1.135513723523789596e-03 2.914077882094355809e-01 -9.441961062902064494e-01 -7.247275193402450411e-01 -3.601255673803486768e-01 -5.874347609989697405e-01
2.605876310500631607e-05 -1.410044005712673409e-01 -8.986566914593574484e-01 -8.603422192775803667e-01 -1.937846202693588871e-01 4.714433016552342925e-01
-2.753433084311751274e-04 2.060948586380259295e-01 -8.968552644368531501e-01 -9.391386891406773296e-01 -8.860535184608545056e-02 -3.319150707385272181e-01
-3.861020955595150655e-02 -2.054950603758218530e-01 -9.376291533878469142e-01 2.228005661923744551e-01 7.827966358504659938e-01 -5.810243838304467445e-01
3.540488915854740626e-02 9.104536332624060813e-02 -8.620520667383800850e-01 2.687955851608463120e-02 -1.576010600390595207e-01 -9.871369688186868441e-01
-4.410958358487452463e-02 1.249714744343017048e-01 -8.694521373758691274e-01 6.171612936417238821e-02 -2.606617262064016630e-02 -9.977533132098411750e-01
4.997597670615018918e-04 7.454790246285358801e-02 -8.687999260837433457e-01 -9.810898724658443371e-01 1.795232510181005159e-02 1.927183856522054484e-01
8.395159477130563486e-02 7.729918961888780637e-02 -8.687692623833904726e-01 -3.358942555076070424e-01 -5.570233846001247657e-02 -9.402511891016551715e-01
6.362507735077772841e-02 -2.109827464359081972e-01 -9.503573692347141444e-01 -5.657913997114131233e-01 6.536528939433638996e-01 -5.026111680534617321e-01
-9.781284602413500839e-02 6.575521611375412245e-02 -8.725052107211522801e-01 5.301023281132759557e-01 -1.598940456133969290e-01 -8.327216917471680357e-01
-3.015038291270848419e-03 -1.569793966332660162e-01 -9.041335341984896301e-01 9.685415138888193720e-01 -1.095595181189696343e-01 2.234368990643508524e-01
-1.100652370114919322e-02 -2.026815881048558698e-01 -9.245300809862729841e-01 -2.203855521065224699e-01 5.844019955813756217e-01 -7.809638378204261100e-01
-9.661415388074583166e-02 -1.588902442417207406e-01 -9.128884341847224304e-01 5.191374408520494921e-01 4.740604596101525847e-01 -7.111701611708660664e-01
1.006236659038180770e-01 -7.361739575129383484e-02 -8.832001149458383882e-01 -5.331220069556515950e-01 2.755989959491709773e-01 -7.998913170746303480e-01
9.404582593543836522e-02 1.484263576019630160e-01 -8.880442518477534852e-01 -5.124010425877451036e-01 -1.094716895168290349e-01 -8.517400546817806006e-01
8.170697931128954872e-02 1.742311956094668712e-01 -8.916933638441129073e-01 -4.258465787809445624e-01 -3.523968086681746881e-01 -8.333493748608986618e-01
9.754131657113608578e-02 1.267989088383573645e-02 -8.704545179759943796e-01 -4.240039141394302824e-01 1.805200384985629625e-01 -8.874870120147787533e-01
1.063617421556800474e-01 -1.550468854015728537e-01 -9.215181875469121708e-01 -5.892450290120688772e-01 5.523177417342757245e-01 -5.896909427404460891e-01
4.308370015784331042e-02 1.732716558144262523e-02 -8.537482473810370509e-01 6.105224657561357168e-03 9.869808777359881380e-02 -9.950986954577498711e-01
6.590930525110598459e-02 -7.227152012115180268e-02 -8.672233553793144978e-01 -2.798525068962409712e-01 2.740448636491777945e-01 -9.200989007119794172e-01
-3.790313146345467878e-03 -3.155520487761131337e-02 -8.630782633322264807e-01 8.757963325513470343e-01 9.056194499287749389e-02 -4.741089727148360966e-01
-1.186209366905216639e-01 -1.025281413888313869e-01 -8.997764277806311606e-01 4.871576816744612182e-01 6.042617196152616499e-01 -6.305118297012128892e-01
7.773847984097274899e-02 1.056448433981915791e-01 -8.711779220476096874e-01 -2.921266461448023821e-01 -1.174777972625501848e-01 -9.491369710229016210e-01
1.261765668222137038e-01 -1.239231814575006280e-01 -9.241406493662274180e-01 -7.312407176471971137e-01 1.830347386106184401e-02 -6.818738854798807036e-01
9.544241112157822449e-02 -1.704489753270827246e-01 -9.201018822282470699e-01 -5.772073805916538847e-01 3.105696210445492711e-01 -7.552338381420463653e-01
-1.174357487494797486e-01 -1.711081134642107593e-01 -9.503371657842416553e-01 6.707326917164383451e-01 6.459738849654275139e-01 -3.644659054088512651e-01
9.865438570526893769e-03 1.125986353041051047e-01 -8.696392328142893424e-01 3.857694540835370778e-01 7.581198061532071208e-02 -9.194751067273501111e-01
4.970785621275655708e-02 -1.034594493460971043e-01 -8.720650638688262068e-01 -1.354627588764802659e-01 1.675375438370145798e-01 -9.765147271611589463e-01
1.011604818878183015e-01 1.693998743608933488e-02 -8.744056237001787135e-01 -6.018744948151194540e-01 5.625539392572206226e-02 -7.966068184150238984e-01
1.858791441479278397e-02 1.204462808260026579e-01 -8.685610984279443780e-01 1.770145597512135793e-01 -1.753892104073154767e-01 -9.684546817011018272e-01
-6.691240186751896968e-02 -5.141396994543648291e-02 -8.607604425021555539e-01 2.029242989987812829e-01 1.199039379078255391e-01 -9.718254856454677792e-01
3.794128142874386711e-02 -1.567613467133997796e-01 -8.935582904647734193e-01 6.487866927416920289e-03 5.218555074841217944e-01 -8.530092243881198799e-01
6.529533132294886022e-02 9.974324178996005208e-02 -8.658754580464024242e-01 -2.081192491737598460e-01 -7.965370871492354066e-02 -9.748546890748942539e-01
-1.127963444667865606e-01 -5.119682547751134780e-03 -8.800231676579645113e-01 6.341790123289081649e-01 -2.694776109569192030e-02 -7.727165059020416615e-01
6.196458896026006984e-05 -1.402383724094557194e-01 -8.929883151340628489e-01 -7.527463342974154425e-01 2.313703932667908192e-01 -6.163121752175385604e-01
2.178021496527206974e-03 2.715641073249437376e-01 -9.485989928119386017e-01 -8.718461041667145972e-01 3.154569930634529840e-01 3.746615221459053680e-01
-1.048875764220593698e-01 8.501204103904357046e-02 -8.806526689878272363e-01 5.616824503894991549e-01 -3.406285377294743233e-02 -8.266514059247044299e-01
-6.705192672360670188e-03 2.968840468980472602e-01 -9.454379719500968227e-01 4.976809630230955572e-01 -4.559561537250533814e-01 -7.378466269656991372e-01
5.112426052025931256e-02 -1.494009725721827386e-02 -8.567299084798860598e-01 -5.171471270445476137e-02 -3.679652559855298155e-02 -9.979837695041789969e-01
-9.569529395648919412e-02 1.690013936956789586e-01 -8.976443649549186166e-01 4.578675760150554552e-01 -1.484314006357928539e-01 -8.765417286925900608e-01
-1.344947220474216054e-01 1.300482542216813975e-01 -9.182314402835133338e-01 7.197435992725557119e-01 -4.639832185711405960e-02 -6.926877702363672951e-01
-6.391866670762820501e-02 9.752463891554628839e-02 -8.662035349823070662e-01 2.414202543763599440e-01 -1.939263943016882319e-01 -9.508463673853940756e-01
-7.493841238549028838e-02 -1.638235849808312161e-01 -9.036976940259608959e-01 3.021150994721163441e-01 6.164797237949879438e-01 -7.271033054667050965e-01
7.201462643138115127e-02 2.164726870748533705e-01 -9.100654836385755342e-01 -4.472853071270590508e-01 -4.473533289452926720e-01 -7.744745658249967413e-01
-6.260259615347597319e-03 1.452266106059345030e-01 -8.841432314860249164e-01 9.215834101192607042e-01 1.352665034105468567e-01 3.638502318922430812e-01
-6.152444486020600123e-02 3.047680543069343842e-02 -8.554430959351584374e-01 2.740843812512007704e-01 1.209875738870982154e-01 -9.540648609602284669e-01
2.920470701289497317e-02 -1.819674952389754574e-01 -9.079434699822050980e-01 -5.749675759030876444e-03 4.853124363053757384e-01 -8.743218974702663404e-01
-1.131674755841007539e-02 2.894737887929553777e-01 -9.489209780826266538e-01 9.664041905969621427e-01 -1.051117674683862135e-01 -2.345516078314150432e-01
4.251169230935588489e-02 -2.185651870505962713e-01 -9.448950443583283842e-01 -3.588336643166792905e-01 7.537135135481736192e-01 -5.505945339793445470e-01
-5.855069176276166132e-02 1.288452687860077162e-01 -8.684422135889459105e-01 1.731204940018647997e-01 -1.463974221611148152e-01 -9.739594906058108847e-01
2.411004855261517088e-02 -4.518838034677751664e-02 -8.596253245980873814e-01 1.269849627825313243e-01 1.573210892450409987e-02 -9.917798747584600783e-01
-7.989283079458063194e-03 -7.712684765139319991e-03 -8.637539760510715148e-01 -4.330496732403709137e-01 4.337765744838901205e-01 -7.901302828872147632e-01
-4.215021404579831488e-02 1.134147375626335108e-01 -8.657168028678329241e-01 -9.310500595724070794e-02 -6.766642297818148410e-02 -9.933542736944558360e-01
3.501440999428058302e-03 2.968998707433408435e-01 -9.673814437893824003e-01 -9.046833756114722735e-01 2.943829473614932857e-01 3.080368000661481420e-01
4.174634475346832019e-02 2.331894774059464215e-01 -9.081911719210805645e-01 -1.431043671362773329e-01 -5.633621149846557152e-01 -8.137224757290049126e-01
-6.835322351466356638e-02 1.493715915623554102e-01 -8.794903942825053056e-01 2.273259602715792804e-01 -4.939941872921480015e-02 -9.725649619515502886e-01
-1.854426762307737758e-02 -8.835544995422597858e-02 -8.690029796779864535e-01 -2.993440254349515883e-01 3.966144940109899708e-01 -8.678076385794292191e-01
4.335085032868234156e-02 6.498808076458921501e-02 -8.574445411393637473e-01 -5.281551165258183134e-02 -5.143868650662888203e-02 -9.972785885896420233e-01
-1.243347604095122044e-01 1.270498354217771964e-01 -9.081268678370059133e-01 7.332410198436160043e-01 -5.463070045290463472e-02 -6.777706790550318550e-01
-2.423879006608691770e-04 -5.526381339826873240e-02 -8.727968827485933501e-01 -5.308019839699417153e-01 -1.816930608307257000e-01 8.277903632318608373e-01
3.673469395755198097e-02 -5.248907775803119541e-02 -8.592219692649463170e-01 -2.193854407747264021e-02 2.180421552945028263e-01 -9.756927379038387027e-01
-1.479297098251893677e-02 1.241143817140410721e-01 -8.744946480063950922e-01 -2.877708733056171808e-01 2.099427243959796907e-01 -9.344046109422383672e-01
2.132630211911464707e-02 -1.075281011192932429e-01 -8.752875424523052228e-01 1.509353649455915380e-01 4.550036301224896218e-01 -8.776048154973272730e-01
2.344449233398702287e-02 6.560977255342116676e-02 -8.584048923703527789e-01 1.058425170614857164e-01 -2.589745334235440399e-01 -9.600674729518476891e-01
-5.754811380745288724e-02 4.307823161727065975e-02 -8.550368736213129761e-01 6.499150801584328840e-02 -5.371186061056040795e-02 -9.964392304177801529e-01
-1.083497304862320737e-01 3.822017228619881135e-02 -8.761547762793964189e-01 5.431460313939072693e-01 8.045777776275458981e-02 -8.357744519776421077e-01
-1.655579382655522841e-03 -2.516200250166448701e-02 -8.612758717871767944e-01 -1.972408733911391876e-01 1.029175963125949916e-01 -9.749379499399631888e-01
-1.414057084918343143e-01 6.596875153841937067e-02 -9.116904380164965183e-01 6.344616519850359015e-01 4.320052830566051827e-01 -6.409600982679042325e-01
