-1.133026574459195801e-01 7.221973733042637289e-02 -8.339024110497409437e-01 1.881413973860299182e-01 -1.194692855619464561e-01 -9.748486571755381469e-01
-2.720873405760721939e-02 -6.973237680700439256e-02 -8.470222811585486067e-01 -2.651337957283187996e-01 3.544392794223426013e-01 -8.967033330847302697e-01
-1.005424261260714214e-01 1.607311802081833330e-01 -8.444091435396264833e-01 -9.841313403947940519e-02 -1.109659794901549229e-01 -9.889395362934570999e-01
-5.287625432808529258e-02 2.000331710535104834e-01 -8.865370398867341573e-01 -7.938011259813825271e-01 -1.721129253901821643e-01 5.833154492247938361e-01
5.282945073484644066e-02 1.289801810060298703e-01 -9.074368264283415586e-01 -6.343061538357303020e-01 -4.204758808954638383e-01 -6.487339491589032558e-01
-2.215732709603216236e-02 1.048990412548071599e-01 -8.675740088560484065e-01 8.404289059766463232e-01 2.968600277025223444e-01 -4.533799487751472013e-01
-9.765561359722434165e-02 -6.962139592123008092e-02 -8.463949626390840919e-01 1.843318237606083321e-01 5.279706139770466988e-01 -8.290167727650559204e-01
7.427648778731768542e-02 -3.915317321114102772e-02 -9.035180154842061828e-01 -6.432332165652721034e-01 4.531407062939001723e-02 -7.643282436951340797e-01
8.711293349693639831e-02 4.091147319636802282e-02 -9.219931845815405591e-01 -8.098450682096820508e-01 -2.548711211234264695e-01 -5.283859168389547500e-01
-1.145732916752283115e-01 -2.528521202845602708e-02 -8.411075662738465297e-01 3.134786975087886507e-01 1.003367191226719746e-01 -9.442794337503549462e-01
3.697055699979373555e-02 1.999733037515065148e-01 -9.308020269204191344e-01 -7.615208385414631298e-01 -3.203864773751652351e-01 -5.634168240141924633e-01
7.170131805851824580e-02 8.589083042733167139e-02 -9.123788353032316056e-01 -7.571933126897651967e-01 -3.306110528977953544e-01 -5.633423638603000105e-01
5.881459143339682477e-02 1.975065795504474947e-02 -8.891531353983327390e-01 -5.228472811660331843e-01 1.002363333711736582e-01 -8.465124913724483280e-01
9.482726153390733104e-02 -7.739240845949245384e-02 -9.324349598495508262e-01 -7.292514789856224811e-01 3.398284589872773154e-01 -5.938930028714048959e-01
3.010592410623206313e-03 -1.256086456767225856e-01 -8.820005417206387976e-01 -5.694919864175952418e-01 2.068128607883105707e-01 -7.955547234594839701e-01
-1.162354875569570761e-01 3.032506702078281990e-01 -9.478912938801696830e-01 4.829920536860778935e-01 -8.182712135953731369e-01 3.116903865653547490e-01
-1.563719503836654562e-02 -1.839324830542154454e-01 -9.048607543993905100e-01 -3.308713984707099542e-01 5.808749155472193726e-01 -7.437126126146086369e-01
2.989299569092377165e-02 -1.595599600079507796e-01 -9.266569437922170804e-01 1.650580827110224580e-01 4.798122609621754964e-01 -8.617052997180220109e-01
-1.156422546564515597e-01 8.827039709337142215e-02 -8.331893205498733801e-01 1.370839395258370841e-01 6.980479844229518262e-03 -9.905348385721829407e-01
6.062412233877695518e-03 8.387777665359603951e-02 -8.713371300977553746e-01 -2.329340461163521281e-01 8.853007666601001024e-02 -9.684545191620385074e-01
3.181925030364226442e-02 -1.562513284780616685e-01 -9.260724214927645859e-01 -9.862838482565534637e-01 8.029827518280900633e-02 -1.442094229615722145e-01
-8.538388707513351605e-02 -2.210606672416637331e-02 -8.346546416954813141e-01 -2.966109687074298257e-02 3.820738798064098329e-01 -9.236556553727700569e-01
8.082982553622664046e-02 1.183732464714711552e-01 -9.512458659464042565e-01 -8.223037357969201766e-01 -4.895636681448508054e-01 -2.900758192731460738e-01
-3.935342628095011425e-02 1.491333885459174557e-01 -8.746936730446045472e-01 8.926299565089436117e-01 3.343429499129074167e-01 -3.023682400424629324e-01
-9.325094596643168643e-02 4.713140929916470601e-02 -8.300318533945061361e-01 7.922282648165505925e-02 2.699705495761312024e-02 -9.964912958916765096e-01
-9.764298277915246793e-02 1.315591667662868725e-01 -8.402574926371502162e-01 -1.017290844406577993e-01 -1.024245194343572640e-01 -9.895253464148890954e-01
-9.753484924497160535e-02 2.595190920488108510e-01 -9.129596727523839883e-01 8.690094382298180209e-01 4.324580151069943312e-01 -2.404218405994242025e-01
2.911522854032987453e-02 -1.854462291362844045e-02 -8.785408310164350976e-01 -1.404758083445658556e-01 8.285653868112730080e-02 -9.866110384886859208e-01
7.503832597668520787e-02 -1.199641933815999012e-01 -9.285427921792263062e-01 -6.184324296380737662e-01 2.372045164169474807e-01 -7.491831200469954988e-01
-9.595261637200765137e-02 2.643600727330513989e-01 -9.067640886345527118e-01 7.487072802998826493e-01 1.499395860741314646e-01 -6.457209373668094665e-01
-5.712089950731957105e-02 -1.962295556728032436e-02 -8.349525121669510996e-01 -1.291052532057103963e-01 3.242892427528014099e-01 -9.371063550256736319e-01
9.198488275227541255e-02 9.029270142891564210e-02 -9.529238395580008625e-01 -9.494352988548379058e-01 1.092760058372835158e-01 -2.943320706900192651e-01
-1.100056457562941480e-02 -8.576598106741735450e-02 -8.582730318329432340e-01 -3.885237936821704374e-01 3.062901061432612426e-01 -8.690429406085546926e-01
8.174434796126069103e-02 8.792545627582699919e-02 -9.287192343467430833e-01 -8.026853617701623644e-01 -2.932134416236080177e-01 -5.193477521383361717e-01
-9.969199880781671325e-03 8.882719383582463046e-02 -8.645929137148478105e-01 -8.961806296128428384e-01 -3.026994052286248182e-01 -3.243969006956837209e-01
-9.275354715309762355e-02 2.552819357948673540e-01 -9.192178088985705209e-01 4.149850532231147970e-01 6.463806456291076863e-01 6.402963896177352732e-01
1.063281432542126786e-01 -5.346294282009754484e-02 -9.456511214881814231e-01 -8.839933251401880243e-01 2.274314864213901333e-01 -4.084491646358832107e-01
7.870825763314864831e-02 8.752831869224564354e-02 -9.233624908315173352e-01 -8.273819960783752592e-01 -2.995913217836753129e-01 -4.750621774855093293e-01
-1.083862807870726586e-01 3.102802472335886019e-01 -9.402028211413863135e-01 4.027328942836583825e-01 -8.556415362231006849e-01 3.250904141184104978e-01
-2.281009759817671442e-02 1.044384287497504837e-01 -8.711299913711151310e-01 9.347048498122937366e-01 3.237743157478941702e-01 1.466186761615321521e-01
7.436061131370821919e-02 6.854836002200608014e-02 -9.104653651016852978e-01 -7.406518552377665543e-01 -2.418378780309727583e-01 -6.268566583217650701e-01
-3.906414304959079237e-02 1.499422724823575304e-01 -8.728589186816207990e-01 8.954850921153442167e-01 3.278764198072091629e-01 -3.010041580004841899e-01
-1.212586366362257556e-01 1.381292610933871068e-01 -8.416168830350065910e-01 9.400679656415130911e-03 -2.341901492256020789e-01 -9.721453601327774141e-01
-3.799841921674510653e-02 1.622161986065080996e-01 -8.702674821003596461e-01 1.862841610096113987e-01 -5.677335420635545860e-02 -9.808542183266096837e-01
-1.292739104721985777e-01 1.253629636174442563e-01 -8.410795592904662943e-01 1.080043298169124505e-01 -2.804890518910664425e-03 -9.941464667391703980e-01
-9.776869622972103602e-02 -1.788746321854887272e-02 -8.352400015893373109e-01 5.800174370497756388e-02 3.612392112528231558e-01 -9.306675184944513957e-01
-3.884071009494813320e-02 -5.589685881488742208e-02 -8.418326160178750683e-01 -2.063650724802338077e-01 1.847894693185214710e-01 -9.608674772772812789e-01
5.646547137455752013e-02 1.820265530126264630e-01 -9.508176373879269061e-01 -8.727222167253885221e-01 -2.798422467897448418e-01 -4.000553078582902988e-01
3.886532654300725587e-02 8.796354522314962787e-02 -8.840248914338608710e-01 -5.223527235070818397e-01 -2.985834056717231455e-01 -7.987462563932358206e-01
-2.396716444239936281e-02 1.220729651397121501e-01 -8.747053262560903208e-01 -6.048183622141549698e-01 -1.424551412127254557e-01 7.835185265650389530e-01
-9.626062222186108908e-02 2.912205548120634924e-01 -9.182727895098546922e-01 -8.067734073536050321e-01 -5.464907046786031675e-01 -2.246432257757577378e-01
-9.325670733828859971e-02 2.820287990323735450e-01 -9.104595412427876067e-01 -5.561708177781474749e-01 -5.792848442456236535e-01 -5.959052698871776244e-01
-1.139614490404514957e-01 1.125576175031041126e-01 -8.373554842296931922e-01 -8.440008427009813852e-02 1.251095655037853110e-02 -9.963534020323282503e-01
-2.208945386830295579e-02 1.947123964263868523e-01 -8.850984744724456066e-01 -3.317990029488204207e-01 -1.104132461209943045e-01 -9.368662320327235671e-01
-1.217415809038149528e-03 -1.570270239610141727e-01 -8.934102580391006798e-01 -5.467677650973282732e-01 5.614398438371717148e-01 -6.211524070649367957e-01
8.080967537838618098e-02 6.184010426334110577e-02 -9.167445801540969885e-01 -8.614056153817104544e-01 -1.383683634962254438e-01 -4.887070306146955589e-01
5.584374642086006868e-02 -2.093984594250934972e-01 -9.976499213277715272e-01 -5.042206969301709085e-01 8.249024611437522081e-01 -2.555335954160098955e-01
-1.120594460638573292e-01 1.234979780545456540e-01 -8.391217270433445341e-01 -1.068098966155793528e-01 1.745250926043560857e-02 -9.941262776455934702e-01
7.034344839721784481e-02 -1.431688549348677508e-01 -9.377130335845973441e-01 -5.237536157928803782e-01 3.481755929778335146e-01 -7.774676240194299259e-01
-1.452822687869105393e-02 -1.358883401576785055e-01 -8.757046559978495237e-01 -3.892202945040756923e-01 3.704549995337598767e-01 -8.433686356905870651e-01
-7.567299346367017954e-02 -7.750615611017792894e-02 -8.449444349229379148e-01 -6.523596941847772945e-02 4.446984303551199669e-01 -8.933015024803908632e-01
-1.409450339140020173e-02 1.592224325334934409e-01 -8.776290355358193906e-01 -2.078612685704987195e-01 -2.282715747952597171e-02 -9.778919234300218477e-01
1.069981370642226343e-01 -1.310224469637453863e-02 -9.562693166493733132e-01 -9.489118178150566241e-01 6.957954192051536702e-02 -3.077743481140945425e-01
-1.069417268172083713e-01 3.451174568897723283e-02 -8.314967696757157301e-01 4.077105808759139138e-02 2.309134528867777814e-01 -9.721196932982708594e-01
-7.059053128996177484e-02 4.504009814780436660e-02 -8.313087344909388943e-01 -2.015178647549044633e-01 1.706157553889323941e-01 -9.645106604893943780e-01
-9.476028988253359930e-02 2.636399170180207113e-02 -8.320265262363827352e-01 6.723775613755718361e-02 6.376784485720711493e-02 -9.956971156490577179e-01
5.722755137123750058e-02 -7.071355749721702777e-02 -8.995860347940858315e-01 -4.102068998081699336e-01 1.853584223983180401e-01 -8.929571963962084080e-01
-7.603978003495813487e-02 2.503641049150905906e-01 -9.069642517915188495e-01 -8.511972926317973309e-01 -1.970616076284995022e-01 4.864461859395852183e-01
-5.162720151291717852e-02 -1.785796212718932831e-03 -8.331263187852380181e-01 -2.250387783572719291e-01 2.403672720413929376e-01 -9.442357347436315385e-01
7.305788317643698015e-02 1.208394974239573177e-01 -9.354834292703062548e-01 -8.774629239855212814e-01 -1.402803331470528214e-01 -4.586722633459878185e-01
7.626444428059180047e-02 1.216401394120370238e-01 -9.424681337226812339e-01 -9.099615185950774565e-01 -1.553836886088153790e-01 -3.844813961565095584e-01
-5.246280093801359429e-02 -1.856965846412020893e-01 -8.961171025806978774e-01 5.218077940355979327e-02 5.128120537140712365e-01 -8.569136268180088667e-01
-1.886964763471738068e-04 4.601830003013789028e-02 -8.722970237908459490e-01 -4.188903590869478832e-01 -1.745378950799182927e-01 8.911045899584846275e-01
3.586144706427005224e-02 -1.985219431266089796e-01 -9.529984776953260850e-01 -8.840794918559166105e-01 2.278082497258924477e-01 -4.080525130869913641e-01
7.548197283708654726e-02 2.028589746009826222e-02 -9.033463162443010619e-01 -7.200971015508367268e-01 -1.529478635184980673e-01 -6.768065568411778532e-01
8.897298402149644847e-02 6.863411725713421119e-02 -9.335861842921702181e-01 -8.061316842551244921e-01 -4.149574370481299845e-01 -4.218554646777063488e-01
3.436593971372056688e-02 1.846224839640888404e-01 -9.170761779359571930e-01 -7.749763736150098170e-01 -2.493828475490250107e-01 -5.807063076003809998e-01
2.452308330423381977e-02 1.433560619285712268e-01 -8.938808972813226950e-01 -5.661868655550281737e-01 -3.572939490318246536e-01 -7.428145577855997939e-01
3.986146041657464244e-03 1.712804410961585866e-01 -8.865037850148395071e-01 -4.347573343496474174e-01 -3.535711631330105131e-01 -8.282351675882633213e-01
6.612956977158510052e-02 1.780061400150546869e-01 -9.757311781075668211e-01 -9.050687902803149498e-01 2.262109574137250168e-01 -3.601098271451268484e-01
8.743525634788883172e-03 1.675884111511508415e-02 -8.721745558527075337e-01 1.789780150243548695e-02 -1.600418883492460143e-01 -9.869479533769685009e-01
-8.850284014280893063e-02 2.731752125282580490e-01 -9.063773556890293293e-01 -5.599560160992391733e-01 -5.725281448918279059e-01 -5.988829462766416256e-01
-6.782967047451435305e-02 1.125575513030265679e-01 -8.378030730533270187e-01 -2.405749131760482606e-01 -3.329286200246233535e-02 -9.700594293598828743e-01
-3.456312700555419504e-02 -1.198035552486968885e-01 -8.610061783648439437e-01 -2.646886022328416299e-01 3.527792815698869155e-01 -8.974891210165495403e-01
-3.572606163137649615e-02 -2.757721739867443136e-02 -8.404571979233765866e-01 -3.396785017580609134e-01 1.299689134578650429e-01 -9.315184361986513784e-01
-3.250075731212297148e-02 1.542985369954766595e-01 -8.737379649931967807e-01 -9.422008887341372096e-01 -3.249700731816991817e-01 8.155940659962473971e-02
-1.005617105487296992e-01 -3.544320856192465646e-02 -8.397537196903580581e-01 2.441261316126798198e-01 8.929819917873232579e-03 -9.697023719575315059e-01
-1.198273905035277948e-01 1.511380186789606506e-01 -8.416010572637289133e-01 2.547444006512438949e-02 -1.838191318268137808e-01 -9.826299301760580418e-01
-3.670627579233623483e-02 -6.648256866030029244e-02 -8.449964087126711210e-01 -2.198820816368954878e-01 2.248585478590487408e-01 -9.492578699330046499e-01
-3.010855555625344473e-02 1.664253983876195359e-02 -8.399544161597068959e-01 -4.613975158274264410e-01 1.418778647251225378e-01 -8.757756584247585740e-01
-1.165299541224564250e-01 1.725626829102043513e-01 -8.483299748761882197e-01 -1.153853414084285434e-02 -6.612483067205887632e-02 -9.977446411775268142e-01
-1.277069287147043208e-01 8.244375773883956537e-02 -8.353852676264689192e-01 2.894865724168397270e-01 -5.692846839869632886e-02 -9.554876628591958410e-01
-1.038111367978860611e-01 3.056607020272672504e-01 -9.301774131846909377e-01 -8.964755671266599890e-01 -4.324030399754625331e-01 9.674279593288399870e-02
-1.002890043883021831e-01 2.888580477695564253e-01 -9.337744435879403726e-01 -8.019859288805633035e-01 -8.207970537036875236e-02 5.916768474800190303e-01
5.999908589796421055e-02 -1.619376819343917862e-01 -9.414340676993075974e-01 -4.262941993682100028e-01 4.400667936802324931e-01 -7.903255485463039909e-01
2.524175720488722185e-02 5.211263137128628598e-02 -8.728911937106514918e-01 -3.223569806647536562e-01 6.173091472545164798e-02 -9.446032347943037477e-01
6.207532570238696173e-02 -5.229696385964763272e-02 -8.974179065006802070e-01 -5.242031290255427800e-01 1.232652312060407984e-01 -8.426249238513843220e-01
8.287852935859194026e-03 1.630818633905130877e-01 -8.864149387760064114e-01 -4.828255122768155827e-01 -1.753898906087028309e-01 -8.579731411687068210e-01
6.990062065962852900e-02 -1.671488724492797007e-01 -9.530620344612736883e-01 -4.778564983412176836e-01 6.115478259036531972e-01 -6.306048078040514815e-01
-9.124736972871502760e-02 2.567333744485853497e-01 -9.031272154990782619e-01 7.465818763998036678e-01 1.552605490107067665e-01 -6.469232286386400466e-01
-2.933641437511544034e-02 4.429319860007017453e-04 -8.400030256020549757e-01 -3.361407320226692530e-01 -5.711795318659225462e-02 -9.400781604202057551e-01
-2.161916079149553502e-03 6.477861860087436030e-02 -8.657918625209868324e-01 -9.541700510381777578e-01 -2.978377577922994845e-01 2.919218619864979991e-02
6.344940393356737762e-02 9.798891822427967246e-02 -9.108755719120426031e-01 -7.382482102855726369e-01 -4.067346630676905161e-01 -5.381045380494027253e-01
-6.220422558802321533e-02 -1.872409965094973816e-01 -8.973668360218686191e-01 3.558311942138044082e-02 4.313712343736307298e-01 -9.014725174774956828e-01
-1.141295750627741301e-01 2.842218722503964679e-01 -9.265986439209827896e-01 8.578404922320344017e-01 4.420225953885536518e-01 -2.621558983755042926e-01
-5.178930848774140894e-02 -1.656023267568179982e-02 -8.353416124668017195e-01 -1.601722549187891698e-01 1.714978511876316322e-02 -9.869400861372540357e-01
-5.747003192605529276e-02 1.150495311873169640e-01 -8.421469194899880994e-01 -4.447030179569762542e-01 -8.907619149034573525e-02 -8.912377112361954401e-01
-1.197841941424099832e-01 2.930395268827502564e-01 -9.426026238991008777e-01 5.453750955428143810e-01 7.072719385917005663e-01 4.498137503927638892e-01
-1.032370321091386489e-01 9.123129743123375990e-02 -8.319711150079924789e-01 6.216637826928649024e-02 -1.669054868580140405e-01 -9.840111279195825622e-01
1.080883494264104489e-01 -9.711777656372072576e-02 -9.641452399275822760e-01 -8.888252585565272756e-01 1.244692773786620632e-01 -4.410182068132291189e-01
-6.702064645219649175e-03 5.696270017295989446e-02 -8.666853749405996066e-01 8.612402926171893736e-01 2.279610980208719440e-01 -4.542013828267988940e-01
-1.420802706849688853e-02 -1.407489002131883382e-01 -8.788045397048489527e-01 -4.419914057746582858e-01 5.709962899822643712e-01 -6.918141614970246822e-01
-4.616096627510035688e-02 1.089073766867574566e-01 -8.506380101569926966e-01 -4.629960746985279929e-01 -2.793749715827621438e-01 -8.411802779826009768e-01
2.223423957683236252e-02 7.081848805406715242e-02 -8.737009846693212234e-01 -3.483347933314078770e-01 -3.198816222990921027e-02 -9.368242253656330343e-01
1.022303807202953607e-01 -1.596731158147277063e-01 -1.001384653154970161e+00 -8.336748380376464151e-01 5.214656167850130197e-01 -1.818237468922309363e-01
2.012078899511078947e-02 2.296207349634772077e-01 -9.593680335711245455e-01 -9.115777536016111959e-01 -2.882728713497699768e-01 -2.931292390438031692e-01
-4.309605263982100448e-02 1.721538810125101959e-01 -8.821978197813148403e-01 -5.424827768606603762e-01 -4.959692857383864867e-02 8.386015630116535613e-01
-2.286773125926397539e-03 1.842067600630734603e-01 -8.905157416262534653e-01 -3.885995875332513005e-01 -4.174157616149111183e-01 -8.214343811433937326e-01
8.137681075123757990e-02 4.350610326585853393e-02 -9.140206452251666835e-01 -8.352146401809781295e-01 1.529176935855575299e-02 -5.497114394091177081e-01
5.975991084581867840e-02 5.503457441585308391e-02 -8.920445574253221821e-01 -6.450012328809144879e-01 -2.090692421024772651e-01 -7.350261638804402864e-01
1.127963444452429326e-01 -6.552716300826351425e-02 -9.671231975733082242e-01 -9.164659981429521540e-01 -3.385112440711342003e-03 -4.000982570089580137e-01
-3.032878874170070321e-02 -1.278420817776415586e-01 -8.670745538962375543e-01 -3.065445910503755145e-01 5.139453454984072023e-01 -8.011807508535639943e-01
1.029406767454438681e-01 2.533675531742258721e-02 -9.462627035813172549e-01 -8.531464063776960094e-01 -3.659703463868556605e-01 -3.717619061312063544e-01
1.108848059337455838e-01 -2.724913135894367969e-02 -9.564302004232811960e-01 -9.442913564497065204e-01 1.265026025899101125e-01 -3.038271312314819728e-01
4.565945917077647576e-02 -1.215149931278836082e-02 -8.824561273067909051e-01 -3.916435021588888232e-01 2.837722212265594290e-01 -8.752649277086708146e-01
9.971400807698319047e-02 -1.301366080515478918e-01 -9.650060318884399191e-01 -8.655796957586914253e-01 3.627849917603954699e-01 -3.451939165797985321e-01
-6.460895657240989243e-02 -4.590920637163715262e-02 -8.394687585594942103e-01 -3.849070814328092033e-02 3.154069975576662688e-01 -9.481755593128766701e-01
1.090578024221078024e-01 2.217396567980293998e-02 -9.605954996499528331e-01 -9.448391570160182829e-01 6.796115228129771813e-02 -3.204063812564569846e-01
1.022480760161845331e-01 2.851290610832245623e-02 -9.454991934123641029e-01 -9.235829845197740529e-01 8.311977627731678697e-02 -3.742800736041870802e-01
-6.053671902504186714e-02 1.289352278391080880e-02 -8.326142372756757393e-01 -1.956111387102263399e-01 -4.988515909389990011e-02 -9.794119426036547171e-01
-3.472719500491679850e-02 1.370543145090376003e-01 -8.739554462519858458e-01 9.162462815393939142e-01 3.899586666251891875e-01 9.178774367603796669e-02
-5.847900226650010191e-02 1.238588136396425038e-01 -8.468845496503262238e-01 -3.867664211023689735e-01 -2.693473895313297506e-01 -8.819658265830501165e-01
-6.318202132924002901e-02 1.238636002480405646e-01 -8.449476139567374533e-01 -4.315315656109547371e-01 -1.350824773778411259e-01 -8.919266966443055722e-01
8.468208618656948225e-03 -2.455125646612034418e-01 -1.027214104200503408e+00 -1.317069055906629482e-01 9.893648840721676052e-01 6.172857672584563388e-02
8.199805146518225618e-02 -1.699061933487226173e-01 -9.685499270399867688e-01 -7.713896715377471791e-01 3.272656203203941350e-01 -5.457611092787704177e-01
-5.507886479359908050e-02 2.062149659166567506e-01 -8.874718891006465604e-01 -7.462740465365514941e-01 -1.823610961106519879e-01 6.401714442954187234e-01
8.637411304349086605e-02 -4.864764550147999272e-02 -9.167101392215901701e-01 -7.120824697245067281e-01 -1.402272408997565917e-02 -7.019557817413737411e-01
-2.699633393028580061e-02 2.019330982829812271e-01 -8.875636109058611112e-01 -1.507158205257213834e-01 -4.272076262646123390e-01 -8.915034411064344244e-01
-8.398934625764213624e-02 2.668990459185413555e-01 -9.135446369526122323e-01 -8.968746584499132091e-01 -3.132784118696336217e-01 3.122058354464111174e-01
-1.187412383325253951e-01 1.852155946223019989e-01 -8.558627512769119150e-01 9.432778126807409014e-02 -2.865670655878735928e-01 -9.534052583248099344e-01
9.865940700176650813e-02 -4.527966004517504361e-02 -9.320342486429822326e-01 -8.333602805133677460e-01 -7.662627150264118836e-02 -5.473929643120052368e-01
3.264704437628211664e-02 1.263042625325613844e-01 -8.888790228832571527e-01 -4.577150677707519932e-01 -2.769708592083254262e-01 -8.448574198555742765e-01
-8.810476874349268406e-02 1.420780471276784918e-01 -8.432626401407192773e-01 -2.252384929427519444e-01 -2.454376713668539323e-01 -9.428827980034919509e-01
-1.100984377233883427e-01 1.747082173077084688e-01 -8.489708356761451746e-01 -9.830659890675556845e-02 -1.112398915259964344e-01 -9.889193592728734439e-01
-2.585061074235868103e-02 1.366849134782646413e-01 -8.697509999747414788e-01 -9.465642852056164180e-01 -3.160666247466724643e-01 6.417119832468573537e-02
-8.074929809142360193e-02 -2.355240557640869356e-02 -8.349683409357239183e-01 1.243005943451735013e-01 1.719035846442306947e-01 -9.772402569644274006e-01
9.375719057991348249e-02 -5.945148570556034462e-02 -9.275144351864399450e-01 -8.050676835581720425e-01 1.913561968622998766e-01 -5.614702403624574067e-01
-1.453804099196824295e-01 1.654007419425950962e-02 -8.459803651103244837e-01 5.629395056515904550e-01 -3.177758574413734882e-01 -7.629663278311453745e-01
1.024306697610331135e-01 -4.047654857031823122e-02 -9.377601207735980493e-01 -8.586951914745120096e-01 1.526621488290626771e-01 -4.892206418922284694e-01
-1.475863981742475406e-01 3.567326704582492181e-02 -8.453993596888847994e-01 5.526561998895832550e-01 -5.808083037869316012e-01 -5.976895841285445599e-01
8.125859651386552196e-02 -1.677061320188742433e-01 -9.660721233683730036e-01 -6.892951995451671587e-01 4.924808013360524872e-01 -5.313518497186096035e-01
-1.142697519568597053e-01 1.532142339109927587e-01 -8.418899188351749441e-01 3.566400863919130804e-02 -2.266417316520870917e-01 -9.733250248306198893e-01
1.729469921656557468e-02 -1.124245592735048788e-01 -8.915602253041305936e-01 -8.016690571764176765e-01 2.423513674083891956e-01 -5.464362153821405998e-01
3.167252337955788616e-02 -2.330997145889844857e-01 -1.015280339136054089e+00 -3.946017577703106460e-01 9.162044907970025021e-01 -6.970497692408023083e-02
-8.826164125016040807e-02 3.678859938456158218e-02 -8.297662415239854816e-01 5.678353830160454141e-02 -6.646134007609251493e-02 -9.961719329780578391e-01
-7.472811044599289576e-02 2.506124954596121168e-01 -9.008563544035067538e-01 -8.883527663251274964e-01 -4.591551887782955310e-01 2.423877154744776517e-03
9.418953621577505486e-03 1.505822607658440226e-01 -8.851302257349291658e-01 -4.343633312604942565e-01 -3.534737180323609396e-01 -8.284834501163343967e-01
-5.316446525807130147e-02 -1.937057718759110092e-01 -9.058285576620120905e-01 -5.192957260348922757e-03 7.021208961860752051e-01 -7.120388194008490101e-01
1.098706202776982277e-01 -1.145335419669833189e-02 -9.650176684980693587e-01 -9.333368433855039337e-01 2.717016397498743241e-01 -2.346498577378918760e-01
1.045399676285902885e-01 -4.894389582967353935e-02 -9.415907797490861153e-01 -8.691908563631706164e-01 -7.534767065666134189e-02 -4.887023467728316972e-01
-3.226460774792333508e-02 -9.252518062778600227e-02 -8.519439322930031366e-01 -2.945055940068692091e-01 4.649092354728501242e-01 -8.349406313449543315e-01
-9.427966049843013174e-02 3.510034654029740159e-02 -8.301633978131081060e-01 1.180793942694311205e-01 -9.336238838522872840e-02 -9.886054425725006034e-01
1.112837495444979619e-01 -2.559098777574017602e-02 -9.568511860773166733e-01 -9.385261219794165388e-01 1.839181940184548836e-01 -2.921349281946051257e-01
-1.253614559526305960e-01 2.617512094999050257e-02 -8.365184064045105838e-01 1.955302661404020523e-02 4.452009590328715460e-01 -8.952171721020780737e-01
8.774648774762541792e-02 2.549762783312452610e-02 -9.186914737816564980e-01 -7.780633052469426714e-01 -2.794105623808894323e-02 -6.275641723397716865e-01
3.172010916221023463e-02 -5.089994438766488882e-03 -8.776938055021197282e-01 -2.450434661775568734e-01 -9.780756575144980425e-02 -9.645659022407250260e-01
-1.102355546284004284e-01 -1.121037864826766178e-02 -8.387102304350725346e-01 3.245267478967564512e-01 -9.283113905832873769e-02 -9.413101346106330647e-01
9.221163432801679494e-02 -2.635274922910769632e-02 -9.211650429085660452e-01 -7.926225237261029788e-01 -5.372001102255537924e-02 -6.073414980863727219e-01
-3.456225716878422866e-02 1.381107970656861861e-01 -8.713161059054835844e-01 9.017517364883875786e-01 3.341024710191782821e-01 -2.742614529952336344e-01
-8.163061247328755321e-02 2.343664434775266370e-01 -9.026278638782800900e-01 8.426173488915360554e-01 5.382762235016402830e-01 -1.595965412568624633e-02
-4.459077744064511573e-02 -1.537135537147686637e-01 -8.760652837724450803e-01 -1.540137605790884989e-01 6.725176796764480436e-01 -7.238782577719082845e-01
-4.122238524456006692e-02 5.134422920402734181e-02 -8.396214782759584550e-01 -3.452955258881724165e-01 -9.916051409701504005e-02 -9.332406936292620969e-01
3.688281706352791040e-02 -1.962206785962893885e-01 -9.529270223667611894e-01 -6.324499580228688522e-01 4.021420173812746968e-01 -6.620338725876417918e-01
1.010619601529499367e-01 -4.106749782573501650e-02 -9.355724465244593668e-01 -8.590444665337171326e-01 1.448256656722150815e-01 -4.909868950190023895e-01
1.064576902872803599e-01 1.975873135585747009e-02 -9.522036506116390298e-01 -8.896945215887435143e-01 -2.261587620277617783e-01 -3.966054369433767990e-01
-6.433321502349470533e-02 -2.096820216369586765e-02 -8.344586699557201559e-01 -6.730085885909510568e-02 3.704450179308749203e-02 -9.970447829880710877e-01
5.071449910246559473e-02 7.596011259545840111e-02 -8.903701677423452310e-01 -5.831491707530800372e-01 -1.099993650028408404e-01 -8.048833358623886935e-01
-1.400674822564535425e-02 8.665722028130043442e-02 -8.642557022899846064e-01 4.358952331025398030e-01 1.296185014699904603e-01 -8.906146135311030498e-01
5.331906310282622657e-02 -2.077948582017087042e-01 -9.862521813122194780e-01 -5.911801906607223600e-01 7.658944242457569329e-01 -2.528076602470983314e-01
-5.180308063643162576e-03 9.040312351476678665e-02 -8.705814386326101717e-01 4.398870094793804614e-02 -2.794472719750872303e-01 -9.591528639245124888e-01
1.457397390870861752e-03 5.229014709114591930e-02 -8.660762980722358506e-01 -9.364610513414842741e-01 -2.590128958540535709e-01 -2.365439052305064738e-01
-2.091526321762903970e-02 2.190844549787268336e-01 -8.991036455116310222e-01 -3.334600648088559272e-01 -4.426205900054888120e-01 -8.324009841902316742e-01
1.120405061342385489e-01 -4.222940440346689694e-02 -9.565682755612763266e-01 -9.181188176668853007e-01 1.393107932934603277e-01 -3.710125867378457065e-01
-7.680560948551798210e-03 1.976834630302284901e-01 -8.911036494489283921e-01 -4.551627649774653839e-01 -2.861137337804711134e-01 -8.431878727307847710e-01
3.554229220375493964e-02 -1.350043700835897587e-01 -9.181803363209343205e-01 -1.343344864248638693e-01 2.958873442668419895e-01 -9.457298373529741120e-01
2.130259968959297145e-02 -1.524782246694361132e-01 -9.137110310672196256e-01 -7.421188393591378052e-01 1.115203833144933071e-01 -6.609257389250584591e-01
-8.005441858397153998e-02 9.084836242249851035e-02 -8.341196675798431270e-01 -1.531716418285971049e-01 3.421372240670492865e-02 -9.876071432197160993e-01
-9.032781656538980963e-02 5.460850745009399390e-03 -8.329876906862909713e-01 6.746758697905808067e-02 6.366944120718574796e-02 -9.956878662329815555e-01
7.420980141273936237e-02 1.483448369821278590e-01 -9.743273430536263380e-01 -9.391689437660967199e-01 2.218667658890425831e-01 -2.621771028507465240e-01
-2.492565991916095847e-02 -6.342188777258348301e-03 -8.428916902123461119e-01 -3.918787587855514509e-01 -7.026702689017273740e-02 -9.173295936274546980e-01
-8.777056059816881750e-02 2.487458044770801957e-01 -9.155972397973379806e-01 7.039585261401012928e-02 5.439165447354514793e-01 8.361813297950356771e-01
1.012389259028426969e-01 1.962545552102936894e-02 -9.397438496578343070e-01 -8.938933261876332859e-01 4.351685319365639071e-02 -4.461625319155912428e-01
1.313896719229292256e-02 8.644588018298593468e-02 -8.729737747865753406e-01 -3.223569806647512692e-01 6.173091472545531172e-02 -9.446032347943041918e-01
-1.020600333112194891e-01 2.697517913849021287e-01 -9.131722287219025125e-01 8.207048557219659424e-01 2.701927633587015709e-01 -5.034276615592111481e-01
-7.527316916029374791e-03 8.114647441897364366e-02 -8.686550652180785592e-01 -8.554096087576589236e-01 -2.517717283669987927e-01 4.526426825213934468e-01
9.590029800876666288e-02 -8.833662227982208570e-02 -9.381044325640439663e-01 -7.548622195939728163e-01 1.293696951412674490e-01 -6.429980648561206547e-01
8.867567692021452452e-02 -6.504892099490990065e-02 -9.224173088368854412e-01 -7.990920742785723174e-01 -5.254947125930808580e-03 -6.011856970652844634e-01
-3.409385754624403436e-02 -8.169674702524007404e-02 -8.497340469612805203e-01 -2.794381779729820381e-01 4.131785936539243420e-01 -8.667166517595615849e-01
-7.166542821365386000e-03 1.000272301273818221e-01 -8.704869337492435744e-01 -9.125417050093756477e-02 4.990573067365657034e-02 -9.945763391575901391e-01
3.356855038135991842e-02 -1.819550410283640729e-01 -9.446296192988113960e-01 -5.046155470182064340e-01 9.898416444633426070e-02 -8.576510274560260605e-01
1.167356541635077988e-01 -9.236945238956109638e-02 -9.845548315821344154e-01 -9.552552443308276464e-01 -4.947242790856963557e-02 -2.916160096004365987e-01
-2.798021098566662659e-02 -5.935302571628831014e-02 -8.455912337071207485e-01 -3.726102468832214742e-01 3.157436027030301462e-01 -8.726210983409325994e-01
-1.739193338458847604e-01 1.128866077280306912e-01 -8.553709682375773005e-01 1.265583624597864110e-01 5.696205889957283164e-01 -8.121055137626247422e-01
7.420032091589744139e-02 9.949064030885605703e-02 -9.280624216236441626e-01 -8.773792633584472922e-01 -1.402695590909149304e-01 -4.588355686093096852e-01
-9.662655572564143869e-02 1.923491261241632166e-01 -8.588096999798577880e-01 -1.289977967127777791e-01 -2.186068901709966872e-01 -9.672489834644514284e-01
6.842256738260166227e-02 -5.954843025888829217e-02 -9.032047442043497076e-01 -5.231159239493278212e-01 1.039920325936711104e-01 -8.458932481511350909e-01
-1.073742538550607473e-01 2.734468580418583095e-01 -9.247321372748499302e-01 8.420578634944173579e-01 5.357342244806974074e-01 -6.266893366958453671e-02
-3.553599967160865625e-02 2.015864084077701734e-01 -8.859483315084057953e-01 -2.434474589117614496e-01 -2.617338094062801948e-02 -9.695608742516081957e-01
-5.524805069944256630e-02 -1.143051498565598734e-01 -8.618858007030044677e-01 -4.238571763885324445e-02 3.315102975569046984e-01 -9.424990045373903280e-01
2.599389407047438330e-02 1.382231031929261611e-01 -8.913710848178947321e-01 -6.156856358340505597e-01 -1.479938962370521971e-01 -7.739696405571714344e-01
1.030352446078699746e-01 -1.092235058105517354e-01 -9.563664055374394568e-01 -8.413513016402074385e-01 8.544922358675587082e-02 -5.336913128548648189e-01
-2.813517708623648056e-02 -1.566034719176122858e-01 -8.817340711285761579e-01 -3.237523788769618993e-01 5.729449598167144497e-01 -7.529398848461484883e-01
4.224215162865879725e-02 -2.073250037341708152e-01 -9.694543311870331692e-01 -4.602420403022334794e-01 8.170650468060963734e-01 -3.472491520885094829e-01
3.093047311920375103e-02 -1.354144027616278056e-01 -9.138561048728507386e-01 -6.885811389020930484e-01 2.955765921592250489e-01 -6.621861470280357986e-01
-1.685812938601765829e-02 -1.555968068349370403e-01 -8.854502390917740051e-01 -4.065296979830548829e-01 4.294813012430058752e-01 -8.063990429932444970e-01
-5.059338340411972251e-02 1.858901778886094813e-01 -8.858500714657981945e-01 -1.815308314080704977e-01 1.487648042341449817e-01 9.720676881110035250e-01
-7.020261427044555136e-02 -8.528705751616962039e-02 -8.460455951296271815e-01 -3.461766990059222948e-02 3.611899993050527446e-01 -9.318494520751028354e-01
-2.892546178956805500e-04 -1.139273095386035134e-01 -8.739509077462965791e-01 -4.673267723388069284e-01 2.517125664371803739e-01 -8.474942311030799758e-01
5.007320971244440949e-02 1.140142255530778442e-01 -9.001404714570795385e-01 -7.171836284530924699e-01 -1.333432892379899648e-01 -6.840081946103060417e-01
-3.467112040870435480e-02 -7.615593448961030520e-02 -8.468495160256473975e-01 -2.199125760519736184e-01 2.249498868551685071e-01 -9.492291647953255973e-01
-7.835848448095508734e-02 3.668362708383303417e-02 -8.310554169807169433e-01 -1.783340437618373756e-02 -4.566830740165418734e-02 -9.987974646480753949e-01
1.202079923254155414e-01 -1.105932946687590152e-01 -1.023816836282737786e+00 -8.916682279782791598e-01 4.410105387945786326e-01 1.021639656933444468e-01
4.381242334456032089e-02 5.163957693844255931e-02 -8.807749119865687648e-01 -4.832213279963665786e-01 -1.720398935405567098e-01 -8.584284613175298118e-01
-4.323656519235168083e-02 -1.077135994287352350e-01 -8.604719642533921187e-01 -1.554313191488422008e-01 4.361547855333315904e-01 -8.863464943711485411e-01
2.980397069234590884e-02 1.718709204685729408e-01 -9.042349712954156349e-01 -6.735913273431672899e-01 -4.596773774198505969e-01 -5.787671659799629165e-01
-1.025006111408792719e-01 2.662805081801142837e-01 -9.205133594526191398e-01 8.378697726571322502e-01 5.455694360771239371e-01 -1.811724278068835639e-02
8.461100694461456961e-02 9.071046789032576052e-02 -9.352388603664516520e-01 -9.083336094673982730e-01 -4.107559933022996573e-02 -4.162245176002855040e-01
-6.732871996166428508e-02 -9.167671359440471290e-02 -8.490691482958877545e-01 1.168932469876155650e-02 5.302741469567425758e-01 -8.477456509811099883e-01
-4.348432798141110139e-02 2.219347242144980095e-02 -8.359920516596929252e-01 -3.224266863484628876e-01 3.916958120723302433e-02 -9.457836834278754434e-01
4.894956535550591681e-02 -1.545332601752623936e-01 -9.316557974863725056e-01 -2.795914633903921476e-01 5.685897975669612636e-01 -7.736499568293022655e-01
-5.040842454948096796e-02 -6.725742943845380850e-02 -8.422340875203940813e-01 -1.481991467234866078e-01 3.898399903394775823e-01 -9.088794171079824791e-01
9.742862728404023953e-02 -2.512171281439544782e-02 -9.283531216787878071e-01 -8.288195091396759473e-01 -9.965252478772157474e-02 -5.505702458114669628e-01
-2.856471817239421632e-02 1.222422741062944990e-01 -8.743792052353449584e-01 7.018064705770159506e-01 3.717405402545230775e-01 6.076813709399910834e-01
1.629184775306046634e-02 -1.832139254525258221e-01 -9.284279395687810021e-01 -6.152786319054326380e-01 3.641452906640144094e-01 -6.991640811768002894e-01
1.094857370986671713e-01 2.854300259726844091e-02 -9.681428319469548294e-01 -9.755278005051158940e-01 1.331633147159451760e-02 -2.194725170899295974e-01
1.202897314931021949e-01 -7.147381954910179969e-02 -9.833960598037784218e-01 -9.229992371458297651e-01 3.324223468120304226e-01 -1.938241253513053319e-01
-1.162118154306520934e-01 1.033891138915295493e-01 -8.366615512050312731e-01 -2.920268831046157840e-03 8.531827054907032554e-04 -9.999953720439035409e-01
1.031279515138203672e-02 -1.950549008498003445e-01 -9.364464287210627624e-01 -5.027549176691311628e-01 6.103850594842220589e-01 -6.121009491235476219e-01
-7.390163297016809352e-02 2.475739216473011317e-01 -9.037480793517826960e-01 -8.969699424847614733e-01 -3.131256827810189880e-01 3.120852913256314531e-01
6.780697352695726210e-02 1.303944653117724561e-01 -9.286574738431663256e-01 -7.814322813415005564e-01 -4.284783746711676722e-01 -4.536186417207440646e-01
1.208977813889782274e-02 -2.162969317428779514e-01 -9.584977676100956412e-01 -2.115725277321331976e-01 8.454327936366583529e-01 -4.903880677104113239e-01
-7.707264327103217905e-02 -3.736512530884718991e-02 -8.358956850501656488e-01 -5.547465688667241324e-02 3.852684584264740031e-01 -9.211355912052220374e-01
5.843893003282976673e-02 -6.739882690411840016e-02 -8.990030107206267163e-01 -4.090657294556560575e-01 3.703113663173915326e-01 -8.339872426848377041e-01
-5.894919893046617759e-02 1.356166919256707459e-01 -8.524907979449826145e-01 -4.916158513900901195e-01 -1.327347132556972731e-01 -8.606365961071631432e-01
-1.409787023363038953e-02 1.819970274181641201e-01 -8.852062014736642448e-01 -2.591702189917426402e-01 -3.734592184401376858e-01 -8.907070280119346872e-01
-4.696363023754913935e-02 2.489543702942332570e-01 -9.090136162504175443e-01 -5.913205195122726021e-01 -6.022545395840078752e-01 -5.363110224060201325e-01
6.653012945195542482e-02 1.638530132674916873e-01 -9.562876306358256695e-01 -9.005161631776921194e-01 -2.838651609943227405e-01 -3.293800392091103535e-01
-1.376534689025171176e-01 1.965245856204400274e-02 -8.420921776665118985e-01 4.593686740482996744e-01 -1.270359543761599985e-01 -8.791144906090703204e-01
-5.693304926087392609e-02 4.925483821196864447e-03 -8.331028354474078190e-01 -5.213228597464454606e-02 -1.797620453397140092e-02 -9.984783827552855540e-01
-2.127877854051042281e-02 1.129338843899211769e-01 -8.647341740021997625e-01 1.902764356222567121e-01 -1.136072675569591017e-02 -9.816648164900640960e-01
-2.149732288050305515e-02 -1.580387726516741809e-01 -8.850336542130220474e-01 -2.694542343321829070e-01 4.080845086034868840e-01 -8.722737239183051550e-01
-2.317703716584981755e-02 7.667155002809231124e-02 -8.537023846221815093e-01 -6.957892291652438832e-01 -1.820550652591288246e-02 -7.180152561817683132e-01
-6.802354041740438229e-02 -3.746319656155558397e-02 -8.363116303678210794e-01 -4.897736298853946554e-03 1.738764160798876024e-01 -9.847553016411542126e-01
-7.204536896063960805e-02 -4.760592918614905272e-02 -8.398595270635949017e-01 6.187040256545654759e-02 3.149889775015097815e-01 -9.470765530509882568e-01
6.990152869477811448e-02 -1.926482895364996228e-02 -9.005130540882380075e-01 -6.169228173852123742e-01 1.785397647216462325e-01 -7.665049183160085322e-01
-4.862565672328294369e-02 1.571003452407922774e-01 -8.659220784127416026e-01 -6.041516595425235892e-01 -4.139311457899212399e-01 -6.809271464826888165e-01
7.565217898624083948e-02 -7.624036570679341984e-02 -9.140008079509361893e-01 -6.183398085422570079e-01 2.354072859659684935e-01 -7.498261737803380012e-01
-2.111372224677228113e-02 2.723203313330295472e-02 -8.461415452305253160e-01 -4.986440769996125510e-01 -1.108378691515313902e-01 -8.596912534364603564e-01
8.672600393285297138e-02 -1.473951663693108260e-01 -9.549458583150841617e-01 -6.928538350831958681e-01 5.272295226166391346e-01 -4.919172630554229375e-01
7.286015192884676139e-02 -1.538907411452204166e-01 -9.453242751826798074e-01 -6.469965097977484758e-01 3.709413597952764818e-01 -6.661816748476074856e-01
-8.137700153257083902e-02 2.561849432418324413e-01 -9.137411211606573103e-01 -8.037182002766113387e-01 -1.159609453788765648e-01 5.836009884252785218e-01
6.076885980470391607e-02 -1.215959459171551682e-01 -9.200865942071512205e-01 -4.103985857105330037e-01 2.691172409134454657e-01 -8.712915192344803383e-01
6.625340649288388728e-02 2.436512500569638256e-04 -8.952174509872907748e-01 -6.344655390728353161e-01 1.802113560964707303e-02 -7.727410422647131849e-01
-4.162612775676081955e-02 1.668378105864951012e-03 -8.352465187977199390e-01 -3.570363922697324388e-01 2.027157843926424285e-01 -9.118285613826146996e-01
5.397582690781770054e-02 1.425165141933799617e-01 -9.227846623355362432e-01 -7.485797040195097951e-01 -4.542218743583825158e-01 -4.830226864076060944e-01
9.783819795502252115e-02 5.343988117198612137e-02 -9.449634455779610809e-01 -8.565420661397833424e-01 -2.772910286989844209e-01 -4.352532301270720105e-01
-9.360834183895190563e-02 -9.954382562846819660e-02 -8.555433432046748443e-01 2.224444361877965237e-01 2.507634656341172774e-01 -9.421444459913033143e-01
-5.544108848549710380e-03 -1.490617754427428845e-02 -8.560983013990968171e-01 -6.453616246540445633e-01 1.952723521982239474e-01 -7.384965009333928077e-01
1.104755413562251709e-01 -1.160810138844913519e-01 -9.739796203000886665e-01 -8.775692926193118248e-01 2.788222839822809274e-01 -3.900388065392270676e-01
1.701146144827298673e-02 -1.865701315799943583e-01 -9.338283735486765380e-01 -6.087369857052423727e-01 6.687466134024515618e-01 -4.268691243194422391e-01
8.789676304948906144e-03 2.421907884321553711e-02 -8.676072806077627098e-01 -9.334303886490240565e-01 -1.732537118566144507e-01 -3.141510160327943280e-01
-5.086521543105138217e-03 4.970667871309920882e-02 -8.686226524858747799e-01 9.384343006876982862e-01 2.383361463032805938e-01 -2.500738784001476089e-01
-2.920571559089358074e-02 -1.387816143303432503e-01 -8.710074130109375368e-01 -3.314407053358695565e-01 5.633006194042941006e-01 -7.568615930440648620e-01
8.586358672978459949e-02 -1.156989553435312096e-01 -9.367563464139392337e-01 -6.412890241341777653e-01 2.463879213949609626e-01 -7.266645579052993797e-01
1.967439283908879732e-02 1.842623309998627501e-01 -9.025823012735910700e-01 -5.953323873268054900e-01 -2.506498480578985832e-01 -7.633832604061466798e-01
4.060658756703398181e-02 2.147869755553447335e-01 -9.593232108850742179e-01 -7.385151105292958595e-01 -6.462101393102470670e-01 -1.923743417728394356e-01
-6.270313449494219205e-02 -7.259380935176541760e-02 -8.429911276871336900e-01 -4.806656607323873259e-02 4.717556034119709807e-01 -8.804182278186507560e-01
9.340524878505492012e-02 2.432444687025936067e-02 -9.273895254049249193e-01 -8.425576730133388370e-01 -1.372405687984357414e-01 -5.208277968025794014e-01
1.023110863965144904e-02 1.795766708758174054e-02 -8.703941464893915070e-01 -9.356350890756147676e-01 -2.368857093934967073e-01 2.616718188410940837e-01
-4.346126055621755968e-02 5.571908532084134114e-02 -8.380789653846286713e-01 -3.506675746963879292e-01 -1.722715225387889126e-01 -9.205187529750388231e-01
6.244211947067991597e-02 1.215783457529207162e-01 -9.180965838339684160e-01 -8.244067757302721011e-01 -1.732913176308059910e-01 -5.388168402748707564e-01
-6.978827680081765850e-02 -1.868028700886797955e-01 -8.976622092364688887e-01 6.683316093063669527e-02 6.810198562924212329e-01 -7.292086696793103062e-01
-1.306674779039757595e-01 1.236379231322522892e-01 -8.411802014425528995e-01 1.080463431836288235e-01 -1.154931421833075844e-01 -9.874144630464311012e-01
5.628303567058068335e-02 -6.014360060018281162e-02 -8.962538438442252398e-01 -3.926394975001981091e-01 2.975133748560668256e-01 -8.702413554782061356e-01
-7.345625706347390371e-02 -2.016321934735751734e-02 -8.341171502923075964e-01 8.143187069650161154e-04 2.614358404443868911e-01 -9.652205127410941055e-01
6.474494554502503718e-02 -9.904573898363507045e-02 -9.128277685476589021e-01 -4.261690225796657683e-01 2.031619810560592043e-01 -8.815356905122272435e-01
9.838708875568358270e-02 -1.926051029833881698e-02 -9.296452121107474653e-01 -8.584595970857070713e-01 1.528546989028392034e-01 -4.895738567313085987e-01
1.024938229720198136e-02 -1.499079884952847774e-01 -8.986373834198129185e-01 -6.524318800993897938e-01 5.477965966144281440e-01 -5.236903002420656428e-01
6.525964718015856390e-03 2.407165979353663096e-02 -8.656250534249574358e-01 1.291256069321985167e-01 1.553410322296634449e-01 -9.793853895889063077e-01
1.533833659806581838e-02 1.530162882367834543e-01 -8.891712760637102697e-01 -5.149156051996480743e-01 -3.201471956777638961e-01 -7.952155007427504918e-01
7.368452564752228651e-02 -1.619195532769505397e-01 -9.515980473285461372e-01 -6.410459416460657645e-01 3.990250678123135608e-01 -6.556211527677302531e-01
-3.793760503202781714e-02 -2.845124113622125167e-02 -8.398950283891960522e-01 -3.471946466808500387e-01 1.278457563049397450e-01 -9.290378570924746615e-01
2.563167214510993219e-02 -1.895462260710975566e-01 -9.417882429181914095e-01 -7.877902572633505018e-01 2.121447646940904652e-01 -5.782569579121659142e-01
-1.485206231468258822e-02 -1.811856701768203848e-02 -8.492315408150811207e-01 -5.949934793718207882e-01 1.759052120626276861e-01 -7.842449335980543612e-01
6.629762230206169560e-02 6.811500919634148887e-02 -9.009226255177109621e-01 -7.098279832918276133e-01 -1.974161015553641263e-01 -6.761443018931234672e-01
3.341079874019386303e-02 2.154656879971221239e-01 -9.441307964085865478e-01 -7.038414981651818225e-01 -5.764929973073111835e-01 -4.150457438840020608e-01
3.744965744547545244e-02 1.653399245976419074e-01 -9.090912119091520971e-01 -6.465767148100127759e-01 -4.228704639452839364e-01 -6.349166264858651099e-01
2.511360158298469453e-02 5.926831287418539429e-02 -8.726838677249260101e-01 -3.148857857738720512e-01 -1.812174392342324747e-01 -9.316690300932827240e-01
5.572333982700317101e-02 9.095411478761702972e-02 -8.975380041788616481e-01 -6.787566360558229261e-01 -3.054353456519745547e-01 -6.678313249890588388e-01
-1.227772652656913960e-01 4.562953721523745759e-02 -8.356552955208934597e-01 3.026701940327384821e-01 -5.224936083476056092e-02 -9.516621028161955653e-01
-7.630019800825330045e-02 2.964401457877900367e-02 -8.309779033900391854e-01 4.734812045001449143e-02 -5.126181576317495603e-02 -9.975622194803255294e-01
1.078971211280308901e-01 -1.548066489965659320e-01 -1.025656234808889566e+00 -9.852159489394279879e-01 -3.718890699385880676e-03 -1.712766878689224725e-01
-1.166718193055408109e-01 5.043499872599101902e-02 -8.338984979302539458e-01 1.581066549659881915e-01 2.370135965801945799e-01 -9.585545580151327849e-01
3.117340420529033512e-02 -1.561676050218792078e-01 -9.291904342443355613e-01 -9.556497554536709238e-01 -1.432725428650505617e-01 2.573062831769196146e-01
4.220112551180765087e-02 4.572417586010101009e-02 -8.790049276180891269e-01 -5.162830606211216145e-01 3.054166886106483500e-02 -8.558732428221296207e-01
6.908205716622928261e-02 -1.784910708600342122e-01 -9.648717481021121811e-01 -6.788909889671165265e-01 3.882388592393973270e-01 -6.231994971722472076e-01
3.226185759692701965e-02 -1.608699362087480378e-01 -9.318472709202753057e-01 -1.309258886997125837e-01 1.081619680173521725e-01 -9.854742007494683431e-01
-6.965326332452036195e-02 -6.604322742883704522e-02 -8.415445067226406950e-01 1.247395526779961905e-01 1.718090160644531461e-01 -9.772009547665503337e-01
2.742014770392224229e-02 -1.397010252444994827e-01 -9.214798569096164238e-01 6.893054303983893183e-01 -3.128292023045795567e-01 6.534492434832039898e-01
3.524852209894587668e-02 -1.242012635400988468e-01 -9.130105698144180826e-01 -9.438601513360592166e-02 1.319994777935367958e-01 -9.867458730643021703e-01
-3.633704441401226781e-02 7.244096042218872711e-02 -8.434675754571563377e-01 -5.394183026870956743e-01 4.106075884143570165e-02 -8.410362113545040152e-01
