-4.927941052557109625e-02 7.120205880198935766e-04 -7.173158995744023381e-01 9.331283557160722220e-01 -3.380195766396751345e-01 -1.225325979768408513e-01
7.861970270805369865e-02 1.392010306312175816e-01 -7.598798967665931769e-01 5.515976929018373554e-01 -8.075919046859784123e-01 2.086511458656382934e-01
6.751461914514958473e-02 6.714123333051169595e-02 -8.754254749255544477e-01 3.659403536678881297e-01 -4.668193200148725297e-01 8.050884299369064356e-01
-8.404648419461578993e-03 -2.688295782740244069e-02 -9.096533972445088878e-01 6.401231537715290631e-01 -5.035801519641542878e-01 5.802149416839852414e-01
1.235730580376254682e-02 8.354658345719609414e-02 -6.761444704938348593e-01 7.825296913878299065e-01 -6.211366448497519510e-01 4.285499412274598741e-02
6.666432818014744743e-02 1.273756982403248805e-01 -7.008184093287315175e-01 6.551618483389098913e-01 -6.287099191499441186e-01 -4.189114346059487626e-01
6.286098589857920527e-02 1.304967711094788818e-01 -6.578679230955453150e-01 4.879401102941954282e-01 -8.717873293976583504e-01 4.360391115240620091e-02
-5.564921977666636294e-02 -6.323344983601323493e-03 -7.490974323977361848e-01 9.506737336727135723e-01 -3.100699095921892190e-01 8.723718832817091429e-03
1.241473143341650515e-01 1.733844144954687916e-01 -6.897465424129881617e-01 5.105604089399182755e-01 -8.160870685330393615e-01 2.707950616171822533e-01
-1.842224715332255527e-02 3.029235091621307677e-02 -6.594424382905663684e-01 8.222148228119827706e-01 -4.005107839498481814e-01 -4.044179732506185121e-01
-1.925013927304827788e-02 -9.507849339908444608e-02 -9.431993203103362644e-01 6.953730682763059612e-01 -9.935021473363798983e-02 7.117484322064754343e-01
-2.069111913279835999e-02 4.040862633885748678e-02 -6.838860515623832459e-01 7.921126208211677344e-01 -5.049943204241140737e-01 -3.428386388305848520e-01
-7.289472347002801111e-02 -4.890882131126375598e-02 -7.629854729734301122e-01 9.388519519009856928e-01 -3.385225192356123292e-01 -6.292468817629090494e-02
4.997242302275521630e-02 4.981708871257729127e-02 -8.875775604581755962e-01 4.067539300083865550e-01 -5.433181059122322853e-01 7.344090659916153729e-01
3.463219715154945699e-02 1.053543631873615216e-01 -6.820734034459796646e-01 6.514901186944642708e-01 -7.286797131088303958e-01 2.111551584667198667e-01
8.879463001182096027e-02 1.409329742102397864e-01 -6.167299797628947866e-01 6.051730733657391115e-01 -7.505354352363080572e-01 -2.654470036141143297e-01
-7.390010422162353321e-02 -7.562336706006045350e-02 -8.173036400984525773e-01 8.959200006809970862e-01 -2.488220642543653160e-01 3.679876801198088687e-01
-2.835120626846685671e-02 3.791742374340376087e-02 -7.129076795716221548e-01 7.229897261378563922e-01 -6.764590632041080909e-01 -1.403174675802262572e-01
4.737865364864885659e-02 1.074583375807324492e-01 -7.061228702749416941e-01 5.633059071939521267e-01 2.763336679082584735e-01 -7.786694798826822028e-01
1.115190641313391039e-02 6.537475465108701089e-02 -8.291498567696535815e-01 6.483617197538676935e-01 -6.741805219899639212e-01 3.537056744344752035e-01
-5.957212399341269005e-02 -1.558572414270183171e-02 -7.381072051532179268e-01 9.483758312607526442e-01 -3.145909207508625904e-01 -4.019745342183921738e-02
-8.148455821573503954e-02 -1.772740923502976185e-01 -8.424656697772550107e-01 9.863491089238227705e-01 8.636114077037022885e-03 1.644410315548687496e-01
8.876285773042180542e-06 6.017011661313717563e-02 -8.106235191348066804e-01 8.458101862409288518e-01 -4.811577864522483816e-01 2.304176933038301900e-01
-8.031596331732765437e-02 -1.402561483323711833e-01 -7.473730017611008858e-01 9.033201696571334649e-01 -6.867432410013545041e-02 -4.234341841419955177e-01
7.502068054118055107e-02 1.323159744925549164e-01 -6.216882694311951507e-01 7.409450288016116160e-01 -6.595742958595188776e-01 -1.263416500430434297e-01
1.446671597561859368e-01 1.566935864614720786e-01 -6.267467517035454350e-01 1.610353213145222229e-01 8.261131870391270615e-01 -5.400042846952093356e-01
-6.839465314497014670e-02 -3.840450595547540563e-02 -7.744810706405220735e-01 9.202230941176738899e-01 -3.827240314955165368e-01 8.192540978422732656e-02
-4.164422544665192377e-02 -2.707719634692718966e-02 -6.687566679038690065e-01 7.079833172790084284e-01 -2.301735225990465539e-01 -6.676674111778686527e-01
9.019093599620869872e-02 1.447464187601879559e-01 -6.639209904382810112e-01 5.317939161213030008e-01 2.529795056900504546e-01 -8.082057909203486101e-01
1.544233600894698299e-01 1.560069139498187485e-01 -7.886634275056643162e-01 3.093018786670677645e-01 -6.261823527314543947e-01 7.157010611845723291e-01
1.718767507400223715e-01 1.707620441582636817e-01 -7.220709316392543986e-01 2.885204906179954926e-02 -7.779881746754571115e-01 6.276160923128770719e-01
4.500577260044821837e-02 1.043283658334176328e-01 -8.072908216634869794e-01 6.390463704850138926e-01 -6.382693066666739190e-01 4.292225862383915458e-01
-5.759456144246149351e-02 -4.234447982859837478e-02 -8.151605886837294257e-01 7.462088161076841919e-01 -3.963738956486618226e-01 5.348459008083281674e-01
-5.245046390624069632e-02 -9.732084253870209797e-03 -7.117884499529100184e-01 8.384863263764014141e-01 -4.249157896778402721e-01 -3.411557593860378712e-01
-6.990998923771014895e-02 -4.123004491909583458e-02 -7.683868896479689736e-01 8.968284937953525660e-01 -4.305035681941093428e-01 1.018102671094583273e-01
1.046853497272350053e-01 1.586922672919109656e-01 -6.538130778935922205e-01 5.816712307436897600e-01 -7.801513286756140975e-01 -2.302661149426792342e-01
1.584456913112789189e-01 1.594781662258292210e-01 -6.183821231431833043e-01 8.486703048115992742e-02 8.983458335490251967e-01 -4.310131674118745648e-01
-7.151159424350979343e-02 -4.703889274020160022e-02 -7.792630770706122645e-01 9.166814158910382426e-01 -3.975281538897846301e-01 -4.082338331129829051e-02
1.992508251634571570e-01 1.677133198107219336e-01 -5.906668734236948382e-01 1.050948969388811466e-01 9.193581383083797576e-01 -3.791248820158811816e-01
1.192780902578161051e-02 7.448810761258085889e-02 -8.114109144963451703e-01 8.069695948902247951e-01 -5.418263864963472898e-01 2.349983825880875288e-01
-1.790738719378412447e-02 1.597778073390190845e-02 -7.905625384511264508e-01 -3.793092661462025283e-01 7.047036896669218731e-01 -5.995975236652132390e-01
-3.838414517644730267e-02 -2.052861372669512532e-02 -8.412064210996816893e-01 9.783966145301702388e-01 -2.042758017912479074e-01 -3.180348217482378143e-02
-4.080411486733194698e-04 6.959932456233394737e-02 -7.151070605391426360e-01 6.500274053655999973e-01 -7.510907411772050901e-01 1.154429330515411578e-01
-2.379120957019880203e-02 2.162458484331587077e-02 -7.917230330407463157e-01 8.929200808482534724e-01 -4.495919165511255144e-01 2.368201405781185376e-02
4.824304438587615623e-02 1.189238238328885339e-01 -6.653550582919253165e-01 6.192612788433962123e-01 -7.813808510119123474e-01 7.719737169840239221e-02
4.296426764252185559e-02 7.904572589696358398e-02 -8.496779339010082088e-01 4.233700416367099373e-01 -8.161284732948577147e-01 3.933091950640556500e-01
2.890431932332271012e-02 4.185002182650614938e-02 -8.845050339974189768e-01 4.226876948998541383e-01 -6.269987180407599059e-01 6.543758248556338364e-01
7.414912599044239105e-02 1.414040025706535253e-01 -7.197366325259377806e-01 7.394798877527412051e-01 -6.649201501902768374e-01 1.051222596795411413e-01
5.790185567580688475e-02 1.234277581021276382e-01 -6.283614153115664180e-01 5.756860016561298199e-01 -8.096635179696383133e-01 -1.141517199441487163e-01
8.455056630410035662e-03 2.814094954797727657e-02 -6.143519628653046905e-01 8.974390091123195523e-01 -1.541182464368859306e-01 -4.133410105938163936e-01
-8.535268124154869740e-02 -1.034556459991010230e-01 -7.907784295840705191e-01 9.949999859575429095e-01 -9.864579706033944906e-03 9.938670943196054042e-02
8.457739464069316537e-03 6.811283207677257256e-02 -8.134991806114207913e-01 6.830843949658235159e-01 -6.895147606039990773e-01 2.407594323456191121e-01
4.446699353873650312e-02 5.018508109030000996e-02 -8.842630513068480136e-01 5.056616200706959274e-01 -4.969567514506761374e-01 7.052235909093442778e-01
-5.264035053503120232e-02 -1.232117018970578168e-02 -7.090803574667187137e-01 8.622156669593552536e-01 -3.590388721111867909e-01 -3.573167110043431460e-01
1.007555389976682453e-01 9.414913230418422985e-02 -8.571420975755811300e-01 4.560623740966169432e-02 -7.762603444547859777e-01 6.287606450281938431e-01
-6.340849528693849602e-02 -1.073026285280745118e-01 -8.589019328383582508e-01 7.515009211321713734e-01 -4.173896291558685245e-01 5.109131658223582395e-01
1.586641458572692065e-01 1.755522324736070172e-01 -6.081043225895862436e-01 6.094940071921346458e-01 8.652728064489325494e-03 -7.927434550306399208e-01
-6.168058146762703947e-02 -6.664193252766169306e-02 -7.063088830272897800e-01 9.329202320397763648e-01 -3.254925146783871348e-02 -3.586089609584974247e-01
1.196386635124394859e-01 1.653559791898582543e-01 -6.420864978314199112e-01 5.107917772923370459e-01 -8.380739432170173364e-01 -1.916346157436470687e-01
1.401027332159187483e-02 7.090510875445941996e-02 -8.214517720946389323e-01 6.990647038239112820e-01 -6.661142853158693589e-01 2.600005745488186415e-01
1.559903925870868013e-01 1.578233299574189064e-01 -6.243555826501344663e-01 -1.999945421614760244e-01 9.783038242920867322e-01 -5.407227090755045706e-02
3.425454708450755004e-02 9.185430297955475554e-02 -7.297999431648446444e-01 -6.832751350582978445e-01 -3.168833807228614574e-02 7.294730557335762366e-01
1.759025888293916720e-02 8.214980320998171992e-02 -7.558765591312374132e-01 9.462503867764980869e-01 -3.146604558403011120e-01 -7.482648632470649541e-02
-8.131760472657564853e-02 -8.534932683792685604e-02 -8.000119575367379277e-01 9.829131469945259214e-01 -1.041130853174390414e-01 1.517966104068241839e-01
9.274126356439475749e-02 1.478095440563076679e-01 -6.378000437656635713e-01 4.927438110930524306e-01 -8.670527674344474800e-01 -7.364125958835827934e-02
-1.047572965500560664e-02 5.518537887267609826e-02 -6.722007290178501071e-01 7.829971350315622081e-01 -5.492991254282763025e-01 -2.918663347083663151e-01
1.651585734362469859e-01 1.505984332678619864e-01 -7.969544429279469266e-01 2.732976094655683585e-01 -5.171896359952210531e-01 8.110630660309567919e-01
5.335166575117720328e-02 9.193222758420389884e-02 -8.367139217133257034e-01 4.809390035012467424e-01 -6.552541736242284420e-01 5.825286626933110501e-01
1.737688297964512518e-01 1.673838038856785559e-01 -6.018934376836372335e-01 3.635275575218016586e-01 6.233201237627481461e-01 -6.923292123221621575e-01
-6.365351891355365554e-02 -5.856799556012246694e-02 -7.137192249334268768e-01 8.971498573829674861e-01 -2.388731863950507850e-01 -3.715665945953650628e-01
-7.498435026721747554e-02 -7.283363867356909549e-02 -8.060907281853540995e-01 9.423800640404015327e-01 -2.374913701602174576e-01 2.356218665545100344e-01
7.738945141432873598e-02 1.401227556511788486e-01 -7.544334737873813479e-01 6.962224246842602104e-01 -6.705704916112633640e-01 2.561436143006465271e-01
-3.412545121509118207e-02 3.128289292586015902e-02 -7.153759273913743444e-01 7.803755369452084478e-01 -6.050492731113142897e-01 -1.578904634388915151e-01
-7.382949390477550056e-02 -7.277352823129640269e-02 -8.109703196683224480e-01 8.682441068807605911e-01 -4.474786807144393030e-01 2.142778597356600478e-01
5.417852451417745629e-02 1.179659404601662992e-01 -6.979959362544186918e-01 7.163250461897618937e-01 -8.014572097075851886e-02 -6.931486792970992239e-01
-2.667192715896037850e-03 -5.370365805517923058e-02 -9.404409361297525471e-01 5.576709901097143263e-01 -1.830432017442161219e-01 8.096284660789029308e-01
2.024425598220344347e-01 1.676048148631989754e-01 -5.959771422488310266e-01 -2.677330234321784186e-01 9.444636125592399400e-01 1.905453035774294923e-01
-3.209581576055167956e-03 4.586796973536395872e-02 -6.465536317010979195e-01 7.737772203630618462e-01 -4.375826580339013394e-01 -4.580286351694612401e-01
-6.735422297555597460e-02 -7.873386865876533247e-02 -8.329248208188790858e-01 8.265307326633769547e-01 -2.546561613535522905e-01 5.019932145433985138e-01
-4.777373338871271358e-02 -1.444436399334799066e-02 -6.880981962163337240e-01 9.647323839714998517e-01 -1.682789352655224835e-01 -2.024194340041706452e-01
6.117832738230358919e-02 1.245951320189696010e-01 -7.729302040173653410e-01 6.637465503767850938e-01 -6.839106257163501956e-01 3.028312614232350763e-01
-2.911151723780754097e-02 2.874967724512508122e-02 -6.816337929191622624e-01 9.215437696492805308e-01 -3.589467536677223847e-01 -1.480348224303902616e-01
5.450305901999828034e-02 1.243061933095566812e-01 -7.394917610013890252e-01 6.278099881882378552e-01 -7.713866636801001153e-01 -1.040059316941526896e-01
-3.589818284016255828e-02 -3.707256991212088673e-04 -6.762245886521841554e-01 8.434435881059537676e-01 -3.430786702451235071e-01 -4.134004592471952066e-01
3.821232881007687737e-02 9.549482527862011849e-02 -7.176851044891913167e-01 1.014977447568815583e-01 6.568325064933739910e-01 -7.471741873371287035e-01
5.477584387821013423e-02 1.890678884892543765e-02 -9.174599111923164019e-01 3.423483604130438951e-01 -1.741326995254554033e-01 9.232959455550956429e-01
4.484020982777282838e-02 9.996287141601020720e-02 -7.191893860283983253e-01 -7.673613440034021682e-01 8.362672522316035029e-02 6.357382626189354013e-01
1.209302117896132733e-01 1.516030816556934724e-01 -6.526631516377898734e-01 -5.647561352271284196e-01 2.487726332079102376e-01 7.868689120114734648e-01
-8.114348145960803560e-02 -8.541151720585270224e-02 -7.870019239659549193e-01 9.961856089182916651e-01 -6.366924713934148106e-02 5.966958649765931322e-02
4.552062569695947830e-02 1.087429106027805736e-01 -7.069466725610041857e-01 6.879823655058049381e-01 9.171157534742642448e-02 -7.199091968438312561e-01
4.469065752768337091e-02 6.953890433462968368e-02 -8.609773692981668169e-01 5.098860536720424275e-01 -6.017797727777790540e-01 6.147172661852563502e-01
-7.774241671021019096e-02 -2.015563454735356808e-01 -7.890345284619465493e-01 9.281507374600556082e-01 3.336269290293198964e-01 -1.650129715471493064e-01
-3.471698297925347731e-02 2.536525220713166037e-02 -7.513925694291240243e-01 7.405717230896984304e-01 -6.601063483193134740e-01 1.257502758187670211e-01
4.120233081334376962e-02 7.690529732545421659e-02 -8.485557004069448350e-01 5.174738955790804118e-01 -5.866134973136637454e-01 6.229810367608656918e-01
-1.418862323151331116e-02 3.684647889516910052e-02 -8.092628705322465477e-01 8.876706366849141938e-01 -4.536252469768108364e-01 -7.915160183234754010e-02
-6.144350586198529113e-02 -1.903633053618042081e-01 -8.844605729659194004e-01 7.483928919828229942e-01 2.916280134784312583e-01 5.957022586697239275e-01
1.959362151426101428e-01 1.853541031994271615e-01 -6.024254004325084733e-01 -3.633777178431555899e-01 -4.594779173502369640e-01 8.104546117103590408e-01
1.688952018618068707e-01 1.799626098479036040e-01 -6.172368729817152566e-01 -2.518486494493424321e-01 -6.487691123852518116e-01 7.181022883861286621e-01
3.411015966799844229e-02 8.964933201915668837e-02 -8.189479180670240499e-01 6.983297163595352242e-01 -5.694720560711563628e-01 4.336325455997283584e-01
1.666783175090844338e-01 1.848508461670881897e-01 -6.081502750659574241e-01 3.275807361352601199e-01 -9.440064420728950800e-01 3.927720252201279127e-02
1.952293844492280772e-01 1.860547978235862487e-01 -5.941347481518960416e-01 -7.319851364933074311e-01 -3.678263909120543240e-01 -5.734993514394649550e-01
-5.237906457793047726e-02 -9.232165678573509005e-02 -8.611827171462408392e-01 6.259908028276166547e-01 -5.692699062802292209e-01 5.329796324241055094e-01
-4.545497007932168543e-02 -5.304088762921856798e-02 -8.753456011870950348e-01 8.965689488976484878e-01 -3.715390735092223284e-01 2.410867825669300302e-01
-6.571765066164154956e-02 -5.052011756552453325e-02 -7.233819194319536239e-01 8.732764856059899161e-01 -2.410919115826889447e-01 -4.233944612970935717e-01
6.166347189106323456e-02 1.300555411054642452e-01 -7.683551150157282850e-01 6.643936643358072658e-01 -6.835077404164376924e-01 3.023213978223407983e-01
7.987936446570531590e-02 1.386072948179468967e-01 -7.654011490621793756e-01 4.079228186556351221e-01 -8.606453741952831971e-01 3.047761701582042959e-01
-5.299710358423385947e-02 -2.276864162282084009e-03 -7.432260798057676032e-01 8.753011609972058960e-01 -4.694551023026897196e-01 -1.160163112623155690e-01
-3.414304655177809872e-02 -8.227221221518555075e-03 -8.068837089248893646e-01 4.847617926637331487e-01 -7.086215227800111149e-01 5.127002455883769017e-01
-4.558452068702408683e-02 -2.158416102540168524e-01 -9.026659683306277326e-01 8.698638440777529679e-01 4.699085641275302927e-01 1.500760944517054718e-01
-7.028964982543679796e-02 -1.624869144879605709e-01 -8.699162598817892222e-01 9.493842098602572888e-01 -1.564114112423534986e-01 2.724061168571477176e-01
3.266979242914379300e-03 4.617420834719040273e-02 -8.480026850250342862e-01 7.865413521861385204e-01 -4.867649878360496563e-01 3.800165100599858792e-01
3.122679742636955830e-02 -1.738263533516929294e-03 -9.249387908065712649e-01 3.836802191237888016e-01 -2.808519728907742929e-01 8.797224896389093107e-01
-7.946149266302823810e-02 -1.659941560071088729e-01 -8.517308692293297234e-01 9.447348129838654129e-01 1.444712328640473074e-02 3.275170434726840663e-01
-2.626399781959921215e-02 -1.434249530629495006e-01 -9.361826682835960867e-01 5.553599235890864794e-01 -1.711013476234839181e-01 8.138179674304024669e-01
-4.625930778161756185e-02 -7.589689151751750906e-02 -8.554337698952646507e-01 -8.395887879515498975e-01 -1.613385601763649979e-01 5.187104550192376262e-01
-8.222865604337471768e-02 -9.132353685493284357e-02 -7.804643167911309298e-01 9.962683151023510320e-01 -5.123863338845607851e-02 6.945535812020514621e-02
1.118475252971367490e-01 1.669003975659819894e-01 -7.047519929840788677e-01 5.367609013783894989e-01 -8.388546965757044394e-01 9.061199029014704864e-02
-5.610611839091710767e-02 -2.121001780154014305e-01 -8.776387466312118857e-01 6.829026655836555326e-01 4.540156841499885521e-01 5.722881336220032589e-01
1.268464356849413333e-01 1.528862035229981153e-01 -6.487630703297111445e-01 -5.683377387446043594e-01 3.343168864924300765e-01 7.518140954549052957e-01
8.467169863424803961e-03 5.680409355157451518e-02 -7.581106960914419934e-01 -8.414344409399665548e-01 5.338468316466310482e-01 8.363995421387852847e-02
-3.206997825660812262e-02 -3.117906791928832383e-02 -8.781226296218048732e-01 7.773531668706245013e-01 -4.724316677657923735e-01 4.153677566304862512e-01
-5.070134578119670637e-02 -1.090027756251961064e-02 -7.035962983684260763e-01 9.606955389538707202e-01 -2.420943309095471285e-01 -1.358470330025303985e-01
-5.242498017592209930e-02 -2.297797286105708950e-02 -6.983355733045423230e-01 8.607645710904232583e-01 -2.853916636741959945e-01 -4.214688024762854868e-01
-7.433665253757382185e-02 -5.833781003661488163e-02 -7.485926294610663057e-01 9.481296427889454037e-01 -2.468296024886980355e-01 -2.003130744613991210e-01
-2.792450902629255508e-02 4.044246510995046229e-02 -7.257957494749354144e-01 7.462848722797457146e-01 -6.655492306673516101e-01 -1.015435692202874482e-02
-6.044670409738462508e-02 -1.916324623824911533e-01 -8.857634216502263680e-01 9.068003451009499782e-01 2.556182853282378264e-01 3.352199670822875177e-01
-5.393938667380123592e-02 -3.922656067854496387e-03 -7.544683797939243375e-01 9.076857309147587927e-01 -4.195351957166050250e-01 -9.840398811526637757e-03
-5.218347813106492816e-02 -5.375738051827138458e-02 -8.335998285888750470e-01 6.148845506658677795e-01 -4.246910347509224581e-01 6.644956842257329077e-01
-7.955275508487778813e-02 -1.997275352342730015e-01 -8.138986616333979685e-01 9.110251388413223017e-01 3.966862317899264023e-01 1.125754409605313755e-01
3.791381024689801510e-02 9.596671772880499551e-02 -7.258877537281376302e-01 -4.477391756173903503e-01 -4.041428346534729488e-01 7.976203356332606242e-01
1.755613219375054546e-02 8.932895252020317534e-02 -6.850218445538761580e-01 7.780543562055909357e-01 -6.234094240654211028e-01 7.740871253239739458e-02
-5.069127389170489245e-02 -1.013508547713347224e-01 -8.677666057712732917e-01 5.565507135558130924e-01 -4.871222295583391704e-01 6.730254354113430759e-01
-8.627199479399570714e-02 -1.762230905490131949e-01 -8.043583448188764695e-01 9.684968573438184070e-01 2.286670205653255350e-01 9.861658593220705427e-02
-8.199308954215471512e-02 -1.934191523506271215e-01 -8.024106025523645158e-01 9.719372837666383491e-01 5.061948316437016315e-02 -2.297293719760297726e-01
5.093039644587079619e-03 7.886819286671470364e-02 -7.010218448100353772e-01 6.495273459776462754e-01 -7.601218938415130744e-01 -1.813651923678778755e-02
3.963480074149999116e-02 1.046885057691552129e-01 -7.906639050098833721e-01 6.220509483324353495e-01 -7.630983365726269341e-01 1.753098582476399769e-01
3.517428675712231528e-02 7.372520015274747207e-02 -5.943023495708280590e-01 8.999304527595263226e-01 -2.480247507741898949e-01 -3.586208348652305533e-01
6.417811451930599542e-02 1.314307955078014567e-01 -7.559819670683698423e-01 4.917056207830649006e-01 -8.578575573223184980e-01 1.493519127273757185e-01
-1.334337127271213209e-02 5.532790291170152502e-02 -6.971857724922878585e-01 7.475360627984518613e-01 -6.557622822084366865e-01 -1.056677057978062384e-01
2.561385640544855402e-02 -2.444660643836605099e-02 -9.323374089784935981e-01 4.808891355166459713e-01 -3.257803319185126334e-01 8.140103283602222461e-01
9.175545899287704255e-02 1.458083425649656650e-01 -7.637688156710930043e-01 5.036106003418693300e-01 -7.765483272963983330e-01 3.786146571336980182e-01
1.185953272456918006e-01 1.511861399955970187e-01 -6.542322351822343895e-01 -5.668067704816528440e-01 3.351402159015923754e-01 7.526028970324211143e-01
-7.848335711004748860e-02 -6.909375194510709861e-02 -7.769173090539425175e-01 9.553817060473400735e-01 -2.946659795303707141e-01 2.043908651288347048e-02
1.850338390440208203e-01 1.873931236891773211e-01 -5.885142263233302806e-01 6.403440962642353851e-01 -3.218040373498093354e-01 -6.974249779903943791e-01
-6.165675478096642459e-02 -2.155412721374270202e-01 -8.448691099183454067e-01 9.143886822188380670e-01 3.916529543466943930e-01 1.024758565790154230e-01
7.138298221450155301e-02 1.285926557138341308e-01 -6.207641959580918467e-01 6.129324626120172814e-01 -7.388021531745716519e-01 -2.801520564639582433e-01
3.981449700269252927e-03 5.512412727573672011e-02 -8.367538919583759061e-01 6.957652939429664896e-01 -6.679658838322588554e-01 2.640686156676834151e-01
5.773605429000999711e-02 1.225853699266437891e-01 -6.263308184298793657e-01 6.226033656730480814e-01 -7.335946271464833801e-01 -2.724040603118915160e-01
5.497618186182198774e-02 6.993610735688256252e-02 -8.671663390171432395e-01 3.765451440131439287e-01 -5.322089100916053139e-01 7.582660684345740032e-01
7.616979854981292819e-02 1.364041084254545566e-01 -6.934109923814344434e-01 8.007487938384736381e-01 -5.277959216015559729e-01 -2.832540102222629308e-01
-8.275609266827109456e-02 -9.531370830871470357e-02 -7.823938480559002873e-01 9.657906450266666720e-01 -2.415497803309511471e-01 -9.435111870584578231e-02
-2.800492409338208727e-02 -1.456338065221321303e-02 -8.811388113857466786e-01 8.258013536269653843e-01 -3.250640360460895217e-01 4.608530099904936672e-01
-4.193541699524463290e-02 -2.570157438493871072e-02 -6.698793924755377382e-01 7.871753996145670618e-01 -2.904329038386693762e-01 -5.440621459075101196e-01
-8.159550520925927530e-02 -1.908646637359010523e-01 -7.863844272703615079e-01 9.570121730510204872e-01 6.725028163955350247e-02 -2.821437581297242536e-01
-8.595236603030644018e-02 -1.177546042982183933e-01 -7.964891473928757959e-01 9.919418171306891852e-01 1.554068855084356215e-02 1.257374980935760944e-01
-3.903917642927126619e-02 1.875416116141121262e-02 -7.561587051372919976e-01 8.335253579205393892e-01 -5.364897020769613389e-01 1.319631663336766902e-01
1.100486071876146110e-01 1.647376290587453385e-01 -6.770399371396421673e-01 8.032224957931386466e-01 -5.954555912738219714e-01 1.631750816099932291e-02
-1.988274487504328170e-02 -4.747972687093966054e-02 -9.178995955092641434e-01 7.143898984056025192e-01 -4.719130378682498406e-01 5.166673569580263470e-01
1.802742963820831365e-02 8.565633795266909545e-02 -7.785140955245714034e-01 7.577691311735313962e-01 -6.523431389382867707e-01 1.530924298110757434e-02
-3.563389858028990359e-02 -3.146922465042532868e-02 -6.588644263199888718e-01 7.685739152938848573e-01 -1.551899809108028272e-01 -6.206530484535889292e-01
-6.786239246952699422e-02 -1.468500195979623169e-01 -8.712538396088556070e-01 8.533326931052431785e-01 -3.128959617268660676e-01 4.170364876276083654e-01
-8.509653604501736524e-02 -1.460515529426907599e-01 -8.280570534375556457e-01 9.800779494706035599e-01 -1.609621350702819531e-01 1.163546476730230456e-01
3.344069748305115997e-02 8.802526850509694023e-02 -8.205575876053551321e-01 5.267647610740978648e-01 -7.659959494357542198e-01 3.684685765958423120e-01
1.271277289895225704e-01 1.519603722290745196e-01 -7.813262876109554611e-01 1.476500002912982390e-01 -9.056847803376855133e-01 3.974098087348348907e-01
-8.888042526189065054e-03 4.635630666423492391e-02 -6.502671400171224914e-01 7.408194012409700102e-01 -4.598052067189661862e-01 -4.896588471773992146e-01
-1.017070443103675753e-02 4.226097438536858403e-02 -7.713933388164339044e-01 5.812318294791219975e-01 2.537729347966174442e-01 -7.731551318882030621e-01
1.461727709863639146e-01 1.650641070931289645e-01 -6.190610181003741719e-01 4.959023403361559890e-01 3.551720801628200364e-01 -7.924226538419624211e-01
-8.013246614663019352e-02 -1.553435225740118497e-01 -8.511552391392278594e-01 9.548036460536721837e-01 -1.662733587251438994e-01 2.463801283806661691e-01
1.391794165217850043e-01 1.716349413991069550e-01 -7.297085691332479973e-01 2.861858704292590261e-01 -8.602477152898563295e-01 4.219852081592783133e-01
2.848249876692683299e-02 1.175567451383714886e-02 -9.133063976180941790e-01 3.516101908891665073e-01 -6.193830645661042578e-01 7.019507767583028635e-01
1.561941917886139064e-01 1.797981787312354085e-01 -6.198213876757815433e-01 8.518204834220645394e-02 -9.151554380189709237e-01 3.939981508897362206e-01
-4.479061977202737632e-02 1.331582241840874488e-02 -7.362570416022511388e-01 7.573108234443787223e-01 -6.530300424719822638e-01 5.663949420506356018e-03
-2.674401831616908184e-02 3.982258936915895192e-02 -7.371627999326868519e-01 7.842669792760484926e-01 -5.224199641578318731e-01 3.346680239678593294e-01
-4.916875572053615306e-02 -7.891502925056519124e-02 -8.592081684145929099e-01 -3.719846271863850307e-01 -4.062545503944578473e-01 8.346164852318715965e-01
-2.802176425793710332e-02 3.397929843813634471e-02 -6.878287467315346015e-01 9.102393345428261284e-01 -4.105763132293815953e-01 -5.377215697739493733e-02
-2.795301444889052023e-02 3.044999998992272902e-02 -7.589253886633248181e-01 6.682953140760149457e-01 -6.416769861662326990e-01 3.763402962860354362e-01
-4.567046072389581261e-03 3.207927916298226184e-02 -8.579603147012259123e-01 7.328696233207487865e-01 -4.595487348058627797e-01 5.017141372854013737e-01
-5.738928363936478955e-02 -2.297905597344685955e-02 -7.832135632914448697e-01 7.845065071385698419e-01 -6.001506121201435340e-01 1.561050384486618869e-01
3.088986254452807945e-02 -3.684551374764263344e-03 -9.259705256430558196e-01 2.786382948269058857e-01 -7.102566006337394100e-01 6.464489631147682935e-01
6.873351212055889281e-02 1.344292329630247806e-01 -7.450670513766609604e-01 6.899796325856425439e-01 -7.235515378205182868e-01 2.003194285496725374e-02
1.105737228719640419e-01 9.727702080411446128e-02 -8.541992892281117244e-01 -1.803949262288202793e-01 -9.215448330923636799e-01 3.438208707912687179e-01
4.469409895713406800e-02 1.104880846820709139e-01 -7.798735492150399295e-01 7.470401675278511844e-01 -6.200512237746481636e-01 2.397237326497340393e-01
-3.794749872535194135e-02 -1.465789952202927252e-02 -8.307602800687099442e-01 9.903819636958023365e-01 -5.518718101387075532e-03 1.382501708373757576e-01
1.893385505527790669e-01 1.664951545814980782e-01 -5.962051392360891988e-01 2.022939419716278664e-01 8.396768836633471400e-01 -5.040038611786513689e-01
-7.317389456237480272e-02 -5.050478291048338120e-02 -7.592349274524751168e-01 9.177787506076677815e-01 -3.755541114257828217e-01 -1.290010632677854319e-01
1.845424344613073864e-01 1.746248289646109009e-01 -5.905428299986269502e-01 4.787003159085138626e-01 4.230811918119802284e-01 -7.693167830510675431e-01
-4.430847433514040895e-02 -2.058719044642133827e-03 -6.901001003735441897e-01 8.650260084986763909e-01 -3.551626616618377974e-01 -3.543860725002137557e-01
1.165301882713043469e-02 6.095659973689510069e-02 -8.412878098928745496e-01 7.160267082351938761e-01 -5.194672524597762076e-01 4.663255587202608243e-01
3.479667484679315609e-02 6.625821457880315402e-02 -5.900401627135517524e-01 9.155154027222665025e-01 -2.554488590274411330e-01 -3.107690908051587431e-01
2.255697370040998795e-02 7.702451645126923152e-02 -8.293691917444124817e-01 5.610137169442038774e-01 -7.512437977539535572e-01 3.477015469287784710e-01
5.889281561073454047e-02 1.780421671600082231e-02 -9.192358332795720344e-01 3.251235020319592217e-01 -3.122984076746682103e-01 8.926166103038533084e-01
-8.613021912717752637e-02 -1.199073344453570888e-01 -8.108031361970942097e-01 9.689517826264889555e-01 -8.646003448918733458e-02 2.316400340637985444e-01
-6.165178773181237241e-03 -8.485957771606543465e-02 -9.508115822305887033e-01 5.367871695717726377e-01 -1.728374693691677733e-01 8.258248868647559693e-01
-7.421516918314978450e-02 -1.093923581603028772e-01 -7.260916915286259599e-01 9.541235311022719934e-01 2.303581324259039165e-01 -1.912679226168922941e-01
4.393630370390651241e-02 1.134004860487070748e-01 -6.475806087592798077e-01 6.105777527297155949e-01 -7.803253850114976187e-01 -1.352298095028914016e-01
-6.903270545563201799e-02 -1.297267816182216815e-01 -7.177075451208529966e-01 7.045593510993644060e-01 -2.470948120592727226e-01 -6.652370063607669914e-01
2.249787550538642766e-02 7.930963664101377264e-02 -7.423818302741037600e-01 -4.215307559369610435e-01 -3.758368372468854357e-01 8.252626815550744288e-01
-2.834505678903002576e-02 -6.545527185040580717e-03 -8.114800869676089823e-01 -8.117148072560138594e-01 -8.633454524808992225e-02 5.776377913347930937e-01
9.272272247691250302e-02 1.515121997294057166e-01 -7.498712740464360538e-01 5.698281577394974651e-01 -7.403472080642973241e-01 3.566256891456507927e-01
-8.686166588125338733e-03 4.261540545848555711e-02 -6.461063086797874666e-01 7.614808889725800389e-01 -4.922487312472626497e-01 -4.217084802502666374e-01
-3.925569014486953584e-02 -1.378876249358925755e-02 -6.708105866013486240e-01 9.276592808588691730e-01 -1.202333620350445470e-01 -3.535423557229817049e-01
-6.225000523579455464e-02 -4.479395035184213780e-02 -8.092978937912695958e-01 8.234767185394822331e-01 -3.257721723150017179e-01 4.644982085741677924e-01
8.380564020399469682e-02 1.322750391947296322e-01 -6.750207669400936084e-01 -5.545592581178741820e-02 7.987009020440617446e-01 -5.991673467123853625e-01
1.682887128373662944e-01 1.831832227971182947e-01 -6.022648982754649216e-01 6.371556019292472506e-01 -4.592100813810155446e-01 -6.189982553192048265e-01
-4.935549038630054203e-02 -9.575161487100187011e-03 -6.968339228308280120e-01 8.649253548367140665e-01 -3.552854621273932034e-01 -3.545086331269086122e-01
-3.116685595368962145e-03 6.893961787300298405e-02 -6.838152256520105832e-01 7.498980694245366285e-01 -6.520827540165724523e-01 -1.115390845735942799e-01
-7.004240240472105888e-03 4.963597474999559278e-02 -6.501796549950349391e-01 8.692860758259784992e-01 -3.569012198428238025e-01 -3.419988854510718213e-01
3.963935954162441100e-02 -6.810021750510410199e-02 -9.680663949201950835e-01 3.516709791982268185e-01 2.055473702799464342e-01 9.132785998591880228e-01
3.528960381130169521e-02 1.029326485628454801e-01 -7.818723329266633604e-01 7.150952632000109332e-01 -6.855239786266014157e-01 1.367319979992325241e-01
1.116980492898172160e-02 -5.743260917011707573e-02 -9.509675645808127742e-01 4.585858196155954136e-01 -4.177499297585661187e-01 7.843366893332259782e-01
-2.232595575834095056e-02 2.439927766510771590e-02 -7.890531462235230720e-01 9.344747845270057196e-01 -2.786008082057049862e-01 -2.216719800749169800e-01
-1.901639406922743872e-02 4.988400392263576261e-02 -7.267488797549119806e-01 6.747163795389782281e-01 -7.366078668178760447e-01 4.654737075100592175e-02
-6.476237493345161911e-02 -4.972700923953349977e-02 -8.094026682126974626e-01 8.376924011631330380e-01 -5.116800558745437932e-01 1.909318240989918702e-01
9.005685334571038661e-03 -4.648531854060331675e-02 -9.402303990903839725e-01 5.069511492851885848e-01 -4.137042149094972143e-01 7.562072168424094354e-01
-5.102386132223592913e-02 -1.184796135998252703e-01 -8.753194303265994236e-01 -7.644825246304749744e-02 4.510831660371050766e-01 -8.892016880400575030e-01
9.778119207169864990e-02 1.427479682952684237e-01 -7.811330103759853705e-01 5.924210966053503613e-01 -6.825028986323631308e-01 4.280502746820006865e-01
7.451740569979105333e-02 1.417002836636351293e-01 -7.210683037074049340e-01 7.814504936863535534e-01 -6.239593942251309144e-01 3.130539180704358052e-03
9.089352929943192438e-02 1.449854036441710625e-01 -7.648391603081751144e-01 4.080301037805219022e-01 -8.606336634973688060e-01 3.046656063029665185e-01
-2.731452606241588279e-03 -4.386714521748268786e-02 -9.311426053563203187e-01 5.460297645069764894e-01 -2.527494212715267197e-01 7.987297580028955846e-01
4.942177104177368496e-02 1.888945975229754798e-02 -9.158639665086945048e-01 1.120430342896782533e-01 -8.262507956651125030e-01 5.520470823488975443e-01
1.850333308188629178e-01 1.817582187312366260e-01 -6.093552750457182920e-01 -3.619273397184445407e-01 -4.661133248105328031e-01 8.073084721458089197e-01
3.450711874614153379e-02 5.283751051138182303e-02 -5.840103877603085580e-01 6.438709460181565314e-01 -2.573870636025586967e-01 -7.205429233319390336e-01
1.923503028566097839e-01 1.895896646240501915e-01 -5.927665656949362427e-01 -7.641091440546076141e-01 -3.845884977392561854e-01 -5.179081997601475695e-01
-3.855753708274747837e-02 -3.689557723068462303e-02 -8.322132894655723812e-01 -6.501726732500093808e-01 -2.985817832148102702e-01 6.986590110284132127e-01
7.027499419745902864e-02 1.113208412176098228e-01 -8.157828610392624524e-01 3.730933186611849472e-01 -8.055738089645193556e-01 4.602740638801835482e-01
-7.558794678069021000e-02 -6.157156883422122695e-02 -7.861034242231225155e-01 9.454226752385730403e-01 -2.826962624085977427e-01 1.620456366735896492e-01
6.177943080554205990e-02 1.206426321353738784e-01 -7.009377613205755031e-01 -3.050912882326912157e-01 -5.762634617000615966e-01 7.581818571780639671e-01
-3.538121162055890556e-02 -2.512575049655445605e-02 -8.248263050370716609e-01 -8.155444956175302851e-01 -9.567277726204166666e-02 5.707310183956325611e-01
4.948567950310564512e-02 4.085457861082223557e-02 -8.975347031568672307e-01 3.320117341458768689e-01 -5.575529342442826497e-01 7.608567104948460447e-01
1.415470460932049812e-01 1.721362291354083807e-01 -6.222733196813414747e-01 6.555611807803896074e-01 -4.063420632756657436e-01 -6.364948278397052350e-01
-1.977028094254671894e-02 -5.659424663349440360e-02 -9.253801786319337808e-01 7.422670085886389213e-01 -3.571857968573379782e-01 5.669726576160987186e-01
-5.904256950088797654e-03 -8.950517902663393532e-03 -9.065930682142676611e-01 6.860546166842951266e-01 -3.101901252393545749e-01 6.581118059495350003e-01
3.393002232678665742e-02 5.384016387464109210e-02 -5.850444594409748289e-01 5.585552558986669469e-01 -3.547509711183722825e-01 -7.497784836860460489e-01
5.645135097387535966e-02 1.218437637079490959e-01 -7.011600570128099230e-01 1.366682312770886865e-01 -8.156608315052055191e-01 5.621558525069616508e-01
5.664710995830074536e-02 1.136400468691707716e-01 -7.069945623391613587e-01 -5.361839562675351223e-01 -2.562129456202418831e-01 8.042771235947799857e-01
4.573531672373400137e-02 4.252476251494466397e-02 -8.945220489229197547e-01 4.152381657856063502e-01 -4.543108896450092637e-01 7.881490222191266382e-01
-3.657335376560537366e-02 -6.103512006754565483e-02 -9.034754337442960637e-01 8.855471516900846884e-01 -2.960847508691593077e-01 3.579665660872896060e-01
1.586354494533358597e-02 7.557254547073073703e-02 -8.192954408378190223e-01 6.632791100014410191e-01 -6.845485560010704518e-01 3.024137839327853960e-01
1.683492002748999267e-02 -1.251832890758377767e-02 -9.263267613197510020e-01 4.297997026676911858e-01 -6.634006704817098088e-01 6.125126659842897725e-01
-4.932101201353995129e-02 -1.234104261641353895e-01 -8.787702989046259905e-01 -7.590945464809256693e-01 2.945081591287415645e-01 -5.805518182811225669e-01
-2.815361349210387248e-02 -3.561650094407491779e-03 -8.105689641078572816e-01 -6.255761881401055158e-01 -2.711091023566489233e-01 7.315424030440528247e-01
6.432101783213502177e-02 9.645434733452157294e-02 -8.402159805882040144e-01 3.677930327902002028e-01 -7.681799176592954970e-01 5.240495197363934654e-01
2.951299707727722890e-02 9.821138323226967504e-02 -7.861738275194271042e-01 7.056708760869095931e-01 -6.521411078076021495e-01 2.770209200587692155e-01
-8.020254439811534686e-02 -8.281977107882362854e-02 -7.551152514954870831e-01 9.970735502937319028e-01 3.458573316769839034e-02 -6.817743296652996332e-02
-2.248159273644442097e-02 -1.334852566507492566e-02 -8.894538980448328802e-01 7.480497520862936511e-01 -3.565884576566669684e-01 5.597019209094015180e-01
5.443605726991763288e-02 1.142406029426964037e-01 -6.139080391124951408e-01 6.409495142246538490e-01 -6.770534602348833308e-01 -3.616383997851330134e-01
2.818334191353277091e-02 -2.414347377042544082e-02 -9.335458924431333516e-01 4.096688020072705161e-01 -2.342060085693289107e-01 8.816569730977865671e-01
-3.482207064723503998e-02 -1.127712360496553080e-03 -7.992470568192057145e-01 5.576723726121033398e-01 -6.354932161571725802e-01 5.339942855905860375e-01
1.449609164897688041e-01 1.633274892918259447e-01 -6.373416757917477193e-01 -4.847545339240392770e-01 -2.187042596128960237e-01 8.468656851397761143e-01
-8.222813422691604979e-02 -1.496751400907707641e-01 -8.444022467475327254e-01 9.398077259287159757e-01 -2.108260476256103300e-01 2.689122829609305598e-01
3.435615579989270696e-02 7.005785745806411557e-02 -5.932807654082214999e-01 8.290010594055097215e-01 -3.180066384151746806e-01 -4.600315439493502523e-01
6.337370778289196094e-02 1.169103749577069390e-01 -7.008457773638869792e-01 -6.731338242988591514e-01 -1.813910958337294765e-02 7.392981991647989970e-01
-2.738900182935743652e-02 -2.310249722355856572e-01 -9.162751401495046188e-01 7.234778477241614603e-01 6.587275698261982892e-01 2.065376299933895654e-01
1.307743640434024524e-01 1.627688045072349099e-01 -6.450820300479378488e-01 -3.688687815370665923e-01 -4.543433374883860676e-01 8.108686414501885542e-01
-6.149720038255859084e-02 -3.986318748482449437e-02 -8.043833614234305873e-01 8.115532663690735449e-01 -4.764454047429494965e-01 3.382027086600790100e-01
-6.094368190642610733e-02 -2.146400008215711488e-02 -7.299583625376299123e-01 9.523590018975398586e-01 -3.035841041990088862e-01 -2.913800237502492743e-02
-1.118359030800792492e-02 -1.280348505274775672e-01 -9.534563376801570289e-01 6.311130179573403165e-01 8.108885462639641578e-03 7.756485057945587958e-01
-6.054838193815102049e-02 -2.075935690814950940e-01 -8.715508881910256633e-01 9.004842290694003992e-01 3.051497228348825641e-01 3.098577090392976574e-01
-4.562999972278332372e-02 -7.103091245730080994e-02 -8.528256933265554451e-01 -8.543292609902402024e-01 -1.466856607085490483e-01 4.986028788107490506e-01
3.841368020768570063e-02 5.528627688268600987e-02 -8.751766207889812854e-01 5.549635774876132688e-01 -4.757706951606664458e-01 6.823911439112362309e-01
-6.202808162812818715e-02 -2.846428865862289312e-02 -7.235201184896289384e-01 9.625558299333161205e-01 -2.105323163755842830e-01 -1.707700735577402373e-01
-5.200747018768856617e-03 -6.737354029079678508e-02 -9.439393049953010983e-01 5.890907492805831369e-01 -4.002251671795870047e-01 7.019913850383867615e-01
-9.922493608722481387e-03 5.986966001570344365e-02 -6.991433264315711771e-01 8.310092294820661252e-01 -5.494672952582085879e-01 -8.665651710778250749e-02
1.428315084455517581e-01 1.326656465619579783e-01 -8.131539346492769882e-01 -1.628744643621745647e-01 -9.305713339788970195e-01 3.278855001909521394e-01
1.361896373739953335e-02 6.362530131096899577e-02 -7.521996975973770372e-01 -8.374058866841135318e-01 5.250522179398715572e-01 1.518932170414977190e-01
4.593767458354674343e-02 2.125564308936288629e-02 -9.130052237885809552e-01 3.380548848275999885e-01 -3.617035192480081984e-01 8.688437483275137652e-01
8.137247915512693663e-03 5.344965756736575618e-02 -6.297814144446194362e-01 9.000477930063647269e-01 -2.912482434942007536e-01 -3.241734581453499797e-01
6.306459435184387508e-02 7.265846413665737191e-02 -8.675279864481940661e-01 3.059116831808412762e-01 -7.706991445417564757e-01 5.589641050157599933e-01
-6.972107523750646629e-02 -1.095426487971406515e-01 -8.516322579003144932e-01 8.201977270967448774e-01 -1.458365166113744504e-01 5.531793550811472393e-01
7.964871626331980481e-02 1.095617878942810874e-01 -8.254005652208957766e-01 2.283029985660750272e-01 -8.546715378548682684e-01 4.662770670175975241e-01
7.804451962677118326e-02 1.261321150624200860e-01 -6.837766652198034034e-01 -5.612523971950583723e-01 8.207758462386475218e-01 -1.064084436218874774e-01
3.932468454138157710e-02 5.469471475467290594e-02 -8.762586862647793184e-01 5.229010245209946284e-01 -5.421240584487001524e-01 6.577811367058226111e-01
-6.777611166737772252e-02 -4.221934652395042953e-02 -7.315263651217434049e-01 9.868526102642483089e-01 -1.144349776573884148e-01 -1.141339629698034652e-01
2.410253923556607974e-02 9.350691805494096287e-02 -6.418954327086940914e-01 6.994357363945773454e-01 -6.319551693144098703e-01 -3.337998122093105424e-01
1.022161206881085221e-01 1.396528018199403309e-01 -7.902814178853361238e-01 2.774728398994515954e-01 -8.546267109020755370e-01 4.388872385144426125e-01
2.978125141895326261e-02 8.974364560351941189e-02 -8.088324554960880652e-01 5.925151464629930809e-01 -7.568374174812549926e-01 2.759038323623697608e-01
-4.367539202773286153e-03 3.126997027322177790e-03 -6.181335996954893108e-01 6.402471333705550549e-01 -2.478517753445847738e-01 -7.270853496456410880e-01
1.326148972978105078e-01 1.728920597204148812e-01 -7.216316817639586434e-01 2.993260994041029854e-01 -8.069471492324704620e-01 5.091563458910376427e-01
-7.398351353650689521e-02 -7.144343113129097977e-02 -7.338676283291331037e-01 9.215299345746190696e-01 -2.291281221602927964e-01 -3.135010100752407824e-01
1.177621397397091429e-01 1.646609968874968022e-01 -6.441370654873838086e-01 4.796058683716045712e-01 -8.665589275942128245e-01 -1.380356331904435685e-01
-7.202904146838627619e-02 -1.338268908682896385e-01 -8.609590783448968221e-01 8.133747068254847390e-01 -1.525116676790841119e-01 5.613927123843888145e-01
-3.974181195440718017e-02 -1.103724371436382370e-02 -6.732719005099476739e-01 8.691003760199581540e-01 -2.045962029050940600e-01 -4.503386838356048250e-01
-4.661330966396753234e-02 -6.528659216449547720e-02 -8.732651126649576545e-01 9.356851856894424779e-01 -3.491597529799200239e-01 5.080059232247879225e-02
-8.589054353441720469e-02 -1.200512368866000212e-01 -7.972109104559218506e-01 9.953471541977342296e-01 -2.249899097324354821e-02 9.369011706502539116e-02
8.362316173943047659e-02 4.215701360282902294e-02 -9.038941731668864721e-01 -1.359579657086027182e-01 -9.197397211529785288e-01 3.682312817969431995e-01
3.683000076396097250e-02 1.103009572461926130e-01 -6.729593216140619116e-01 6.886525159132877993e-01 -7.051561285279691615e-01 1.688565862670007856e-01
1.429155845311205486e-01 1.731281875793031499e-01 -6.317075451439910783e-01 -4.165416737068788726e-03 -8.683273038470105121e-01 4.959741351090676820e-01
-8.202867404007987973e-02 -1.276911835589378263e-01 -7.524000748113919279e-01 9.310372129114521389e-01 -4.732373187288965721e-02 -3.618427456447044221e-01
4.441988723123937999e-02 5.276904845138950806e-02 -8.813790068302483904e-01 3.191895986004392727e-01 -7.928346696465904397e-01 5.191639305187447651e-01
-7.249833040150553687e-02 -7.090242759136261563e-02 -8.128707670753917425e-01 9.130249372145875508e-01 -3.996928683587068765e-01 8.143141290367124363e-02
-6.915716288812726043e-02 -5.375080617161125118e-02 -8.027317090652246190e-01 8.558480048360441739e-01 -4.594125722520042698e-01 2.376221392778033736e-01
-5.555236695428983351e-02 -3.029388587850374501e-02 -6.988805653244197780e-01 9.147990982315994390e-01 -2.406361571204985728e-01 -3.244022961708677433e-01
-8.158301237269155459e-02 -8.151448448299786209e-02 -7.798388682972333674e-01 9.583425119669289893e-01 -2.739459426976684764e-01 -8.082852365596027155e-02
1.683672381461719658e-01 1.822359862404813180e-01 -6.150885624087495396e-01 -6.820679976482771356e-02 -8.269861281830191979e-01 5.580696876364991121e-01
1.032595422476487723e-01 9.339959577476286690e-02 -8.584373652330330451e-01 3.162233471903362347e-01 -4.291917381013060639e-01 8.460480167445106892e-01
1.110446696642717612e-01 1.377266993918562499e-01 -7.996964101766048660e-01 1.901560218338046726e-01 -8.803717357284992495e-01 4.344954479516798251e-01
4.720765876990287713e-02 1.029056906024022611e-01 -8.129518317677690842e-01 4.488024576932055920e-01 -8.127979421609720090e-01 3.713971717547506768e-01
-4.046381015749245941e-02 -1.741957581102734354e-01 -9.187804936543341183e-01 7.038472094046193117e-01 1.747278312214002038e-01 6.885268991186878074e-01
1.384748553597875687e-01 1.593463046492974988e-01 -6.268225026097792307e-01 3.774031078244594051e-01 5.735450340741693465e-01 -7.270577611808427543e-01
3.380258024314893028e-02 1.078256550507249306e-01 -6.561514164545517724e-01 7.285299125479139937e-01 -6.841831751352047686e-01 -3.372757602969139734e-02
-5.754232152329952221e-02 -4.915833111968224978e-02 -6.958656190353471604e-01 7.913001080805671661e-01 -2.623207873592213191e-01 -5.522969703618887394e-01
-1.375317997697420025e-02 -9.237808851185776507e-03 -6.317944958620178575e-01 9.749144842558380430e-01 1.420857596651158017e-01 -1.713282968121730976e-01
-1.043272519996856808e-02 2.363711089713789893e-03 -6.294944134171797101e-01 9.094899623564360880e-01 1.068345455820034727e-02 -4.155885852277360071e-01
-5.091786686834830905e-02 -1.480292198579523655e-01 -8.945677430381315798e-01 6.257724035018583653e-01 -6.619763211375482292e-01 4.125484811130745721e-01
1.769810529345074990e-01 1.733129714937743093e-01 -5.959227348632398780e-01 4.732932362185634512e-01 4.199054269933702455e-01 -7.743855273255527694e-01
-5.296203124822726482e-02 -1.139669892382202399e-01 -8.730539688507408247e-01 6.257634454419064296e-01 -5.698396370853574533e-01 5.326376801871061106e-01
-4.879076065521942458e-03 5.743643227558449527e-02 -6.551837342091493266e-01 8.788372805763708939e-01 -4.479926749175039968e-01 -1.641572340452554513e-01
1.239812476450439654e-01 1.614769185993175926e-01 -7.660032891080376105e-01 2.632178574905951751e-01 -9.352444227283387423e-01 2.367155027741044415e-01
3.793282621530473173e-03 5.867669095493212306e-02 -8.304836146758886040e-01 8.016201510868615765e-01 -4.385662063408967137e-01 4.062816954124700564e-01
-8.376951922069572620e-02 -1.613667359732124940e-01 -8.388675918232183504e-01 9.716728381274911674e-01 7.593592002212629088e-02 2.237981941295762722e-01
-8.113500702979642432e-02 -8.744117392218188345e-02 -7.915309013375181335e-01 9.551840255234139709e-01 -2.830547185310307023e-01 -8.662276665060368586e-02
-2.651606815366915407e-02 2.012905317748850745e-02 -7.793818131176456498e-01 5.982942537536917182e-01 -7.290580281979703869e-01 3.324430439118865044e-01
1.077373651561177315e-01 1.506492153946792090e-01 -7.709654762012195794e-01 4.455318749365367870e-01 -7.542299190218609839e-01 4.823262149912767027e-01
