-7.197127241572880141e-02 -1.343862195857146308e-02 -1.033707417503796355e+00 9.871843443224768144e-01 -1.053608225921400937e-01 1.198589478817028153e-01
1.300638492397406809e-01 1.990451399221547235e-01 -8.864712255428526255e-01 -4.284599669277067702e-01 6.811166358935819565e-01 -5.937189444925250470e-01
-4.921113430921717630e-02 4.646118181822078003e-02 -1.024712612748091223e+00 9.049752357488191068e-01 -4.250021570034243634e-01 1.982395580618468919e-02
1.140271784125815452e-01 1.159611553956310104e-01 -8.117455514526261684e-01 5.526331296570262674e-01 -1.360419837646304475e-01 -8.222464366957539239e-01
1.374093839048604604e-01 1.461111155576833021e-01 -8.217440825538123716e-01 3.986956347630827291e-01 -2.058355032859922051e-01 -8.936853676814143776e-01
-2.573094246071387821e-03 1.100044415105567303e-01 -9.431354313858064664e-01 8.523890205843137613e-01 -3.197518392585204094e-01 -4.137532101121481065e-01
-2.076702007023020075e-02 -2.696498137190136632e-02 -8.870470278502197159e-01 7.414991515405754408e-01 -2.146648782866925897e-01 -6.356870285720529479e-01
-4.966886385666755693e-02 -1.888529706179255530e-01 -1.068410876010507549e+00 7.050657597227414364e-01 6.541994897490800431e-01 2.736883301835073556e-01
1.151322551758774126e-01 2.235504686447939982e-01 -9.223193095264412555e-01 3.876221113462434142e-01 -9.033751942328800411e-01 -1.834730422710277031e-01
4.965662765342234580e-02 1.191464663276765729e-01 -8.912319493961807781e-01 9.266135768560876951e-01 -3.636853746743857752e-01 -9.549988185290463061e-02
3.799043728848769397e-02 -1.768925531943507656e-01 -8.785451108127518838e-01 3.376234203144631296e-01 9.404912097917956793e-01 3.855788323453118727e-02
-3.685317524727100332e-03 4.617440143440857542e-02 -9.207242489229136018e-01 -8.560369825123889664e-02 -2.266973881037976091e-01 9.701960116763144182e-01
1.459984277603665337e-01 2.267740079708761014e-01 -8.916786936928754459e-01 5.208602784378597583e-01 -6.496811930765372667e-01 5.537318102730619529e-01
-1.592416344474055848e-02 -2.629700312221170538e-02 -8.805154868857373307e-01 8.459329078744434183e-01 -2.729751601209895462e-02 -5.325902374195919942e-01
-7.425150359179311099e-02 -1.469226344420863639e-01 -1.055601716518503208e+00 9.735061513847930170e-01 1.978786108779386210e-01 1.145854640562476434e-01
1.012289538679536638e-02 1.478653447798066178e-01 -9.840348646364351914e-01 7.509504024039239667e-01 -6.598911842246989456e-01 2.484186208618532204e-02
4.139587448279557352e-02 1.763320101159471243e-01 -9.489292715265805755e-01 8.643176693689347267e-01 -4.234755430425962697e-01 -2.713363795391819377e-01
9.272311736409037664e-02 1.850678541620691120e-01 -8.869626414471638576e-01 7.358986534038179927e-01 -6.762099582111656959e-01 -3.454365838327916327e-02
-3.126496644254647683e-02 1.492638159811916602e-02 -9.386284595989463631e-01 7.079630945491882654e-01 -6.266703355035180278e-02 -7.034636448760775984e-01
9.841340931181531693e-02 1.033673966533101563e-01 -8.169244657838934387e-01 4.318571248724088485e-01 -3.186794220534727717e-01 -8.437670588833159346e-01
8.198326609311028246e-02 1.586242480331646332e-01 -8.905770964058412620e-01 -6.446085010157711626e-01 6.136645248740760783e-01 -4.559558436178603458e-01
1.050788461691538021e-02 1.052713918375870611e-01 -9.227932978198338798e-01 6.191112018660630545e-01 -4.479479439690831621e-01 -6.450146969006443909e-01
-4.559398397169853873e-02 5.609647476078526845e-02 -9.874465796629734449e-01 9.683484105040199852e-01 -2.169856736414001730e-01 -1.233635817764956177e-01
-8.097845936402536804e-02 -1.134848529626265035e-01 -1.061701644706217085e+00 9.662893693677875318e-01 1.596807771219907746e-01 2.019576788946645107e-01
1.156669220549774897e-02 -2.064947752979031936e-01 -9.066899955242697651e-01 3.764071147929493599e-01 7.444595809257709140e-01 -5.514504658635015488e-01
-1.096179392775362658e-02 2.429321512065799396e-02 -8.965534532528030010e-01 9.444430562221008962e-01 -1.651268590473269904e-01 -2.841838031539121179e-01
4.352853764811161837e-04 -3.819882229966697906e-02 -8.595729992833778255e-01 6.051025551992348372e-01 -4.453590902449233030e-02 -7.949009060874943078e-01
1.199089674696633516e-02 7.142205598356790586e-02 -9.075388574419809284e-01 -4.718982000104662289e-01 4.882391057021196468e-01 -7.341216959674169429e-01
4.578036276273116968e-03 1.373160480551983698e-01 -9.820520911133567843e-01 8.735916112464192640e-01 -4.678149306239987038e-01 -1.341152021403553551e-01
-5.096727948184636564e-02 4.253116270693189233e-02 -9.944471073043068543e-01 9.718325929175363198e-01 -2.026413014956466307e-01 -1.203242048439480405e-01
-5.643635942081722673e-02 -1.935119236746036808e-01 -1.022400586286153157e+00 9.370619190845608237e-01 3.054348030181046614e-01 -1.691878864069512045e-01
-3.518717155548911624e-03 -1.310538547446785107e-01 -8.810495128039665946e-01 5.176430808731600219e-01 1.182257125409665877e-01 -8.473891206041790358e-01
-8.156333580081538692e-02 -1.105389461609767171e-01 -1.034944596079598211e+00 9.720463320785867056e-01 1.476414227474921181e-01 -1.825594111013237597e-01
-1.554268073815897114e-02 -2.884133500272486814e-02 -8.796904506881314534e-01 8.070214837615813375e-01 -1.079234014891634758e-01 -5.805763207006161553e-01
3.899146714147986442e-02 1.074285865392234918e-01 -9.046676225979433106e-01 -5.314400077950681700e-01 2.319133562195090370e-01 8.147316817957804824e-01
-5.121232504170196431e-02 -1.093982625424298610e-01 -9.775439335919332562e-01 -9.926208572287481546e-01 5.008778545939367166e-02 1.104311891733439632e-01
5.112020401433082367e-02 1.059484135052203291e-01 -8.646311319876970325e-01 6.827332984472529454e-01 -5.820837805977024937e-01 -4.416488600193821945e-01
2.592010747169996854e-02 -1.507555786657826802e-01 -8.694062120923325976e-01 2.316084555385612420e-01 1.512471433973504864e-01 -9.609796173370086514e-01
-5.282055829399731617e-02 -1.374135335932119006e-01 -9.906620046286059855e-01 -9.262185203492109276e-01 1.714071706937827511e-01 -3.357660411609114659e-01
1.155201351074493371e-01 1.891020632883771424e-01 -8.918759200530421705e-01 -4.053828358173363622e-01 7.040666332463947352e-01 5.830565430331615673e-01
-4.828812612332635673e-02 -1.743377287962511735e-01 -9.568384075444152925e-01 8.750621843587428339e-01 4.043101467841084262e-01 -2.660817143524112915e-01
-4.664925534285870729e-02 -1.084551978210286094e-01 -9.271420869176953961e-01 9.489278150168560799e-01 1.434473815277312048e-01 -2.809961754547074531e-01
-2.218611176626440404e-02 6.022829277524913844e-02 -9.358324423106941792e-01 7.931800861614768383e-01 -3.026413401472209941e-01 -5.284634047412992697e-01
1.432834970205498493e-01 2.252811294558182964e-01 -8.831783948353263414e-01 4.229084249106345728e-01 -5.466241227486232646e-01 -7.227382185611219700e-01
-2.234496475045930769e-02 -8.708339959844094147e-02 -8.854022153197796952e-01 7.461702805717504994e-01 4.348578767289473790e-03 -6.657409422997654369e-01
-2.218204719466009001e-03 1.254555402279161624e-01 -9.760647165879651199e-01 9.164368720392879197e-01 -4.001514559203084298e-01 -4.719310511422006305e-03
-2.719994162700892920e-02 -5.704613862495871296e-02 -8.906673095063479817e-01 8.278267876424139082e-01 -6.790445511013519508e-02 -5.568588641997518351e-01
-5.481925987244318926e-02 -1.626189161078532008e-01 -9.857118451504854884e-01 9.872762742023116767e-01 1.554627768315176573e-01 3.341980575999703440e-02
3.411583500971946542e-02 1.152439106809841421e-02 -8.388734213103021808e-01 4.939819470669381540e-01 -1.943215856913906026e-01 -8.474791780960404530e-01
-3.047112797609546203e-02 -3.604919219822529108e-02 -9.049924211392954554e-01 9.063457093009773535e-01 -1.175543910038306383e-01 -4.058551716898854966e-01
-7.039321604031785473e-02 -8.444297518729004803e-02 -1.094498650792158356e+00 9.282374567352855710e-01 -1.113903827100778815e-01 3.549188731996527624e-01
1.016793311209167848e-02 -4.646768796836635296e-02 -8.518464156834887335e-01 4.849487765502563663e-01 -3.321850355226295404e-02 -8.739114458251235895e-01
-6.588158353383948007e-02 -4.605232516779428180e-03 -9.858045207838962432e-01 9.757176985443440920e-01 -5.926072808642424833e-02 -2.108628437017656121e-01
-4.509642906123417089e-02 -2.170019364650006555e-01 -1.016897994137591965e+00 7.826039264173902943e-01 5.775387356547545537e-01 -2.323361856758253130e-01
3.747684463862344800e-02 4.161638442096844692e-02 -8.402089214570468423e-01 7.067260848398129180e-01 -9.509022844925646423e-02 -7.010678208707468162e-01
1.966181824575120862e-01 2.506076751836713301e-01 -9.022843109512459492e-01 2.306836340010841868e-01 -1.537072944121266882e-01 9.608117030139453618e-01
-1.277414479112494970e-02 4.538228012462396793e-02 -9.234515376634903072e-01 5.560187115983408201e-01 -2.718452485391864570e-01 -7.854574165409535791e-01
-4.476113851526356685e-02 -1.233927992117009459e-01 -9.273377875566765072e-01 9.083996830653101595e-01 2.326751003490566405e-01 -3.473792070409516541e-01
2.043222834224881490e-01 2.524365733408029944e-01 -9.036891643294369114e-01 1.340234063912727203e-01 4.196057318430273901e-03 9.909692828954186350e-01
1.027843985217630728e-02 -1.440200619811586313e-01 -8.744655209502530946e-01 4.100980866455533058e-01 2.352500990860978691e-01 -8.811792951548722552e-01
-7.064072305185639666e-02 -1.353713747920168298e-02 -9.944414648706575433e-01 9.824588737417453421e-01 2.234697418303363472e-04 -1.864792521096533817e-01
4.400207120419081380e-02 1.538788258992708491e-01 -9.173534681397621515e-01 6.112726961466802278e-01 -5.497650778160497742e-01 -5.693013702420547384e-01
-4.916861866892602295e-02 -1.835780742478122229e-01 -9.758047115535789517e-01 8.810475785083973221e-01 4.205817933861500379e-01 -2.164858412843178037e-01
7.343975380499624846e-03 -8.663080983626446352e-02 -8.592588147978663660e-01 5.132602449962064828e-01 1.768979473103242384e-02 -8.580506931812409421e-01
-6.004915434291605708e-02 1.904919377158952737e-02 -1.001742299346657816e+00 9.265635668116406487e-01 -3.737899796165015109e-01 -4.196436340022057648e-02
3.354120066316564064e-02 -1.879542857829083827e-02 -8.356873973566091296e-01 5.624859872720199272e-01 1.604755500208753793e-01 -8.110839117921885277e-01
-5.663460491758873228e-02 3.304234646038749224e-02 -1.015854684171066058e+00 8.979386529137606265e-01 -4.385481617292746326e-01 -3.717102967762440924e-02
-1.692998624785393286e-02 7.263182411536574234e-02 -9.369373915717555956e-01 7.511510914744491396e-01 -3.727635908083182237e-01 -5.448112913151049730e-01
1.530551709062323400e-02 1.327816964860236149e-01 -9.394753873901853236e-01 7.542680320844336039e-01 -4.878934844424785977e-01 -4.393628154658203444e-01
-7.506757978027460421e-02 -1.155435332025268186e-01 -1.010904081417043132e+00 9.398853017136538091e-01 1.330816416641127653e-01 -3.144914883977286135e-01
6.495106747705869932e-02 1.949501530612862688e-01 -9.324900582975513830e-01 7.264141685535472348e-01 -5.309374272689357799e-01 -4.363804579145382223e-01
6.150585117127906065e-02 1.643932139364088496e-01 -9.066377309785741412e-01 7.606996513785690972e-01 -1.957974295642627982e-01 -6.188694587459869778e-01
6.894722375477022047e-02 1.556366894699663106e-01 -8.953167173605115492e-01 4.918745651519576545e-01 -5.067333022360356320e-01 7.080118449302489347e-01
-3.942348762538578494e-02 -1.770637047225231686e-01 -9.388423154693538164e-01 8.258337179255430538e-01 4.106775602113337809e-01 -3.864487183005535509e-01
-3.464637383650773922e-02 7.535433117709731954e-02 -9.842088060827896001e-01 9.517198838368075009e-01 -3.035161856555525506e-01 -4.590411479113550020e-02
-6.785333151994515921e-02 -1.809056514608253655e-03 -9.965205842032085481e-01 9.805560025632571453e-01 1.041023582529455697e-02 -1.959631415017306366e-01
-3.260892379894427678e-02 -1.039058238861755024e-01 -9.025232845351575106e-01 8.205800585466368480e-01 2.167154619884565647e-01 -5.288504288083047955e-01
-6.690573624882825698e-02 -9.278064787583133188e-02 -1.107550603769634767e+00 8.965481161973308799e-01 -8.416337956114185170e-02 4.348769951191539529e-01
-7.294106592984325732e-02 -1.773226473739953832e-02 -1.010758415365831109e+00 9.961784311043393458e-01 -2.935220761810626577e-02 -8.226166367415964353e-02
-5.456158314213084559e-02 3.075891309357088599e-02 -9.860050025716315947e-01 9.504302625021274764e-01 -1.659536250165684623e-01 -2.629481136346049630e-01
4.914714406466443725e-02 1.810060088269461187e-01 -9.397845677220022509e-01 8.227547118064534315e-01 -4.551566935030643135e-01 -3.404512719312960956e-01
-3.683575730540522564e-02 -7.516592244592054661e-02 -9.051861994663551458e-01 8.939960449663791886e-01 8.610793112739166533e-02 -4.397232035967988395e-01
5.247438773050738976e-03 -1.648960642370513041e-01 -8.879933266049337970e-01 4.456302717372970790e-01 2.122522361233908084e-01 -8.696911228545242123e-01
-4.792629591432458896e-02 4.553271998171484064e-02 -9.817087442939819164e-01 9.528386117772299491e-01 -1.964792187681209390e-01 -2.312887729629571065e-01
4.908745051716143643e-02 -4.088764737393932314e-03 -8.299501244751625872e-01 4.289657218833592967e-01 -5.374864203425685355e-02 -9.017202963938217852e-01
-2.346596179931561763e-02 -1.166530317932659155e-01 -8.943817791326401645e-01 7.182604476978312613e-01 1.166929421243828729e-01 -6.859188629358914380e-01
7.288943385292541433e-02 1.371965772760208591e-01 -8.572383133568752811e-01 6.387937177313388615e-01 -6.163204885296817981e-01 -4.605340830009314046e-01
-3.634935792251053899e-02 7.328364544959896365e-02 -9.946063942764670207e-01 8.566608390909127291e-01 -5.157634041095678912e-01 -1.096894476982822331e-02
5.181649873213536872e-02 -2.494466639007468511e-02 -8.266771515988574626e-01 2.829935649330942993e-01 -6.860209988567358974e-02 -9.566652466237783869e-01
6.879728057985192921e-03 -2.245772397841195867e-01 -9.296254789223670212e-01 4.521700149788546175e-01 7.225663076278214803e-01 -5.229151065279321609e-01
9.899960900180292123e-02 4.287250645988799347e-02 -8.117944756342715396e-01 1.613412944661258563e-01 -1.131532402098400086e-01 -9.803903972040981518e-01
6.243190893703305655e-02 1.433153859909088446e-01 -8.904686851115297674e-01 -1.895466963120622794e-01 3.037728927563361769e-01 -9.336991375939202031e-01
-2.274167135409653831e-02 -1.987945022209084214e-02 -8.931540865620148928e-01 8.390312555634640290e-01 -2.616950250746886697e-01 -4.770139054983149607e-01
-6.858630719323999259e-02 -7.501791814944538950e-02 -1.103235558526635351e+00 8.119462056177036979e-01 -5.001575738381973668e-01 3.009746841767619308e-01
1.527107144205031852e-01 2.116378358208308164e-01 -8.892579651155427811e-01 -5.063285033350888309e-01 7.965139479938339040e-01 -3.304496593457539322e-01
-5.263949877940397870e-02 -1.894759371546329008e-01 -9.988806886187669987e-01 9.702303639936228352e-01 2.334960869405308392e-01 -6.428544289543454415e-02
-2.080613211669506829e-02 1.000482636224429706e-01 -1.005350208200615603e+00 8.016491848869885528e-01 -5.789458554509426813e-01 1.489304563418871463e-01
-6.000266184252361218e-02 -5.621901826596355234e-02 -9.722170340685407641e-01 8.055340465059331878e-01 -6.733288782177750120e-02 -5.887114591524076346e-01
7.538721631101601151e-02 3.543928842119405120e-02 -8.174600583120383845e-01 5.842370938931278346e-01 1.308815920315851700e-01 -8.009600657876709828e-01
-8.024021377057559412e-02 -9.878815051215267262e-02 -1.023409230504105594e+00 9.760615375311072484e-01 1.414895356287157457e-01 -1.651804657336368998e-01
6.129210798735341276e-02 1.992846839349751362e-02 -8.250887771369750379e-01 5.743814878903352739e-01 7.192277007477761164e-02 -8.154219898394053923e-01
3.466854280561407209e-02 8.580023474886333545e-02 -8.650180945899604845e-01 7.070309666848564323e-01 -5.064001340157698872e-01 -4.936254819369512714e-01
1.034969705586252370e-01 9.581422443030188085e-02 -8.123884914028167703e-01 4.247360019754477523e-01 -1.903554516469578850e-01 -8.850786013988785061e-01
-5.971357867344685710e-02 2.110452191031131006e-02 -1.008274283395327542e+00 9.121945234613055842e-01 -4.065827980347937465e-01 -5.090756043457545649e-02
-9.533730797901575349e-03 2.147181288168152971e-02 -8.899498448085423341e-01 9.250723776127285358e-01 -2.082510963392373848e-01 -3.176044348736947742e-01
4.883151621063082370e-02 7.794246127437616523e-02 -8.424282852027095148e-01 5.884897132320754398e-01 -3.968363320609583633e-01 -7.044152063779105521e-01
-7.579925042520241352e-02 -2.394630695956168412e-02 -1.034787817580941072e+00 9.902885947098382102e-01 -3.685939200852091091e-02 1.340517974828233927e-01
1.015381537997740446e-01 1.546583554225293700e-01 -8.411598622286219351e-01 4.607704739792886084e-01 -5.587224862703048522e-01 -6.895794034372190184e-01
-5.555092467490672231e-02 1.850857105606626765e-02 -1.058000292456736435e+00 8.570593525033199933e-01 -4.467233384028183596e-01 2.566856544741661361e-01
3.630109287785052152e-02 1.061846073350205255e-01 -8.940199005238051999e-01 9.544117980592469186e-01 -2.925904945330246032e-01 5.906709942290453569e-02
1.169423848547804512e-01 1.357014157577146329e-01 -8.195467593900602754e-01 3.943789507020634688e-01 -4.612791462268900355e-01 -7.947872624163844213e-01
9.694881165313838645e-02 2.215699518114979671e-01 -9.508629196562389252e-01 4.546529460554412094e-01 -8.899752055963513486e-01 3.514017738771398752e-02
-4.580992821193136805e-02 -1.895925717837755597e-01 -9.715704679924765941e-01 9.283804875409875645e-01 3.594133042670972777e-01 -9.450792066787393197e-02
-3.704375237553487327e-02 -3.693831442252585445e-02 -9.468519853599514091e-01 -9.550615768931541849e-01 2.228630436870534526e-01 1.954212068863152296e-01
-2.875511439834434191e-02 -4.273401144829076792e-02 -8.992416734002625089e-01 8.292948013156171694e-01 -2.480493501002616619e-01 -5.007411031917879951e-01
-6.233051253423887300e-02 -1.773413294606030199e-01 -1.035816039276008516e+00 8.425673932481656525e-01 5.274078617505901789e-01 -1.091839511954990211e-01
-6.640437921315457681e-02 2.882864844322573835e-03 -1.041026731909724168e+00 9.040726814344679507e-01 -3.981378602350369444e-01 1.553667626339584884e-01
6.527569209331933464e-02 1.961880227652040565e-01 -9.339242371929190600e-01 7.692818520376842883e-01 -5.302100058770871094e-01 -3.564867203603652723e-01
6.338680576199201382e-03 1.385100493494140217e-01 -1.003043637171317171e+00 8.362723652491808046e-01 -5.427240044506249639e-01 7.809728621161285411e-02
1.955215637246165428e-01 2.544240703780557555e-01 -9.008332802026497443e-01 3.311447811639240957e-01 -3.368503645516479628e-01 8.814051087946556118e-01
-4.986903571084894127e-02 4.590194765505899166e-02 -1.020202720670438268e+00 9.133768278956303499e-01 -4.062764312993875082e-01 2.611956419908715091e-02
1.126380544680277360e-02 8.260857599423532260e-02 -9.060106738043314234e-01 8.146538707854754646e-01 -4.853666726732241421e-01 -3.174244222998048315e-01
1.271012138969520588e-01 9.821999031274898651e-02 -8.027929116685612598e-01 5.496098890528507974e-01 4.804936908133477375e-02 -8.340385050980552162e-01
-8.887790739046129429e-03 3.606838547520554994e-02 -9.064569566309563786e-01 8.153678223003416603e-01 -5.414647374281005288e-01 -2.049176724421706286e-01
8.573053157248591849e-02 1.647038275387415485e-01 -8.951780595412890396e-01 -3.019555179445700954e-01 1.604755250016760282e-01 9.397182934572800850e-01
-1.169666796558125992e-02 -2.298229648239138653e-02 -8.739389727269218922e-01 7.356345100129557668e-01 -1.099212653649962734e-01 -6.684004661118636559e-01
-6.924734958316910993e-02 -1.431280499838163967e-01 -1.082551768647358692e+00 8.677119055697092298e-01 3.929904625540576180e-01 3.043592372084862885e-01
1.655925334541338487e-02 8.437711353035576983e-03 -8.497673012381731228e-01 6.636320575792583609e-01 -1.449682215424818454e-01 -7.338778555699373429e-01
1.487123572356061907e-01 2.086984133028379484e-01 -8.905604193062827134e-01 -5.181261518886088879e-01 8.321079302900237229e-01 -1.978425714490057719e-01
2.247166214522968233e-02 1.599149707462946546e-01 -9.792388144971345687e-01 8.733470391819876388e-01 -4.860296115840643805e-01 3.225160175091222603e-02
6.800069617089872856e-03 5.329821640875277017e-02 -8.845362826657916511e-01 6.508752301895371906e-01 -5.578170837981997199e-01 -5.149772186695147358e-01
3.682575654213628841e-02 1.727779514253969806e-01 -1.006775575155570035e+00 8.834681002851922926e-01 -3.821096672388550330e-01 2.710651544944215341e-01
1.345584823752810251e-02 -2.272338657600886380e-01 -9.279287909578237681e-01 3.764073117716597583e-01 7.444325047055579958e-01 -5.514868825118524054e-01
1.864889623587238920e-02 1.488669495780001184e-01 -1.026871893766263533e+00 8.601956328339634972e-01 -3.802785084431474227e-01 3.397818848461935382e-01
-5.688818043690711118e-02 -1.315498058664117953e-01 -9.851921062671875617e-01 -7.592462665811465505e-02 4.533641251107936587e-01 -8.880858185611064659e-01
4.243681615388322781e-02 1.733762862714296471e-01 -9.407390028443923802e-01 8.235469449789665219e-01 -4.562643217623258418e-01 -3.370360486692416946e-01
-6.356558153693265580e-03 5.352465428441030570e-02 -9.137793140654802970e-01 7.793866407302906252e-01 -3.273801574061106501e-01 -5.342084768963358821e-01
-1.342963324086841534e-02 -2.215216766331354337e-01 -9.534369645254880954e-01 6.133028690308645059e-01 6.483038192179592096e-01 -4.511781785790597854e-01
-6.323980225043723813e-02 -1.548095432060818955e-01 -1.012723951761182795e+00 9.044233456097112711e-01 1.740175695592852123e-01 -3.895334355364321599e-01
1.875923458030607019e-02 -3.925218597578546825e-02 -8.462010081442916665e-01 6.029134349607452315e-01 6.996940608031965159e-02 -7.947324531920174628e-01
1.306691323165106583e-02 1.487409208884830081e-01 -9.613180326858857816e-01 8.936600967993542088e-01 -4.342311030490819124e-01 -1.132032708597506404e-01
-2.688368675587493248e-02 -7.918925259292355912e-02 -8.903144307921582179e-01 8.064378091980249907e-01 1.176143172814502202e-01 -5.795040399050797042e-01
-2.626373259175697819e-02 -1.211084777235486021e-01 -8.965544325422015737e-01 7.231364174711917281e-01 1.282268967842299656e-01 -6.786984489948513222e-01
-5.075638032500278535e-02 -2.091410576222644535e-01 -1.036942547084348965e+00 8.199376429861002791e-01 5.715529645632088096e-01 -3.208535979860237947e-02
3.585022409085950046e-02 1.002866641669927367e-01 -8.789092251284822410e-01 7.050657597227482087e-01 -6.053792180729150596e-01 -3.693213733214064654e-01
6.177128145863248175e-03 1.302771241936933611e-01 -9.522845735336151751e-01 8.428618858813068382e-01 -4.230582049117883603e-01 -3.325741971130988239e-01
2.219165756744221826e-02 1.522441205914462914e-01 -9.510189519100463729e-01 7.728388707556753667e-01 -5.742156381333816118e-01 -2.701786090203398549e-01
6.109753010517457450e-02 1.701792852886209809e-02 -8.251170056732198832e-01 4.284240318883739129e-01 -5.379033080698248509e-02 -9.019753041032692042e-01
6.191328357283256562e-02 1.497042046122218362e-01 -8.945833589803601216e-01 6.361069234242204828e-01 -6.224766116887364698e-01 4.559504905933127739e-01
-2.588325634860655367e-02 -8.755293162827718079e-02 -8.895743266356264112e-01 8.041228860487507069e-01 1.087909320482568498e-01 -5.844235769000934999e-01
9.329863297285576063e-02 6.639293600799278661e-02 -8.145067911521673976e-01 5.573512356010259516e-01 1.134820180008090131e-02 -8.301992643274952455e-01
-3.339735784764151505e-02 -1.237628271049877743e-01 -9.065859818447693508e-01 8.311081318759900860e-01 1.125034153409477378e-01 -5.446120221462467104e-01
-6.361166991844695306e-02 -1.278590086927019198e-01 -9.964185778747344235e-01 6.805416842685189094e-01 4.460594861643137898e-01 -5.812864618893127666e-01
-2.293830230053117702e-02 1.937241536321585716e-02 -9.231207291482770305e-01 5.121050936676688758e-01 4.666892223324475147e-02 -8.576540005953539048e-01
-6.735641225697701351e-02 -8.305294465109412660e-02 -1.100819612621173560e+00 8.299879482034339118e-01 -4.581638755303555355e-01 3.181286987935209587e-01
-5.258341853344109668e-02 -1.675094307161382468e-01 -1.007377830133869168e+00 -6.477996399553735962e-01 -4.050217757461877510e-01 6.452232076150803408e-01
-7.164347669751723602e-02 -4.579958169399278578e-02 -1.000796527289711912e+00 9.803409485140652802e-01 7.389948925848714711e-02 -1.829494196598534794e-01
-3.419756854716025918e-02 -8.405913207876612725e-02 -9.007726950333945215e-01 8.278589970247280938e-01 -1.234910260685057742e-01 -5.471740559691757877e-01
4.082362314610833709e-02 -1.291052355165252241e-01 -8.546817025801330958e-01 3.998579423239476127e-01 9.148700297709151386e-01 -5.591470814931658734e-02
-2.970538305080059824e-02 -1.407992480025593018e-01 -9.092351997435135225e-01 7.469499203738645399e-01 2.040957152786649353e-01 -6.327801794133310898e-01
3.514622178052264484e-02 1.690002946441532539e-01 -9.525940388450196972e-01 8.724366690328070328e-01 -4.389717119438026338e-01 -2.148443497978645700e-01
-1.482032974881043047e-02 -7.937218771169145259e-02 -8.767147460695314809e-01 7.342905886150815631e-01 1.610985897137038048e-01 -6.594426251491276592e-01
3.411452520359282287e-02 -1.127170961921466624e-01 -8.530676133007637496e-01 2.655139788251655308e-01 6.321377130402219824e-02 -9.620324039064133137e-01
-6.192232317014959020e-02 -1.685211398729329346e-01 -1.030690089675122323e+00 9.607712485649880785e-01 2.750893787164013227e-01 3.527664451585794253e-02
-1.554114624488677626e-02 1.110066727182859939e-02 -8.948782941908350885e-01 8.558154025964812561e-01 -3.643466761318400748e-01 -3.671940852877433881e-01
4.273767337337259359e-02 3.707146713572574866e-03 -8.333669192232541212e-01 4.554683054380946339e-01 -8.700328794464788629e-02 -8.859904348401120844e-01
-6.785846008974390220e-02 -1.013584875397392782e-01 -1.106448406833209663e+00 8.822646716081161689e-01 5.395995287860649858e-02 4.676509090310438377e-01
-5.034568349431536860e-02 2.083582544028738780e-03 -1.089159025610507703e+00 7.150200719455321874e-01 -5.767792165453603515e-01 3.950595297880131196e-01
-7.334112406843451559e-02 -3.908179668604717938e-02 -1.038176085141243821e+00 9.793982624807129334e-01 -1.702072737004108327e-01 1.086670484978493473e-01
9.227359001651128101e-02 2.081581059248068521e-01 -9.145258176388282312e-01 6.504283269205909379e-01 -6.438884968540056208e-01 -4.029275309014884177e-01
1.678490499350446252e-02 1.189327453062414830e-01 -9.224706956435154703e-01 8.271765143722863423e-01 -2.348743711123639777e-01 -5.105027363937300056e-01
9.386259447176974191e-02 2.183269242712798097e-01 -9.369789810643760486e-01 5.425939924659358704e-01 -8.306388985611619091e-01 -1.250231160105028383e-01
8.915556129704906019e-02 1.694121890665305774e-01 -8.869917974435703734e-01 -4.031495435714387843e-01 5.304822405603863977e-01 -7.456936622824233973e-01
-7.755813590183066597e-02 -4.393938693519396782e-02 -1.059175202452893094e+00 9.785331251937713359e-01 -5.059263851793717459e-02 1.997831520081318202e-01
-8.434517642921664574e-03 -2.185580205233508266e-01 -9.359488262545037074e-01 5.501505948127853873e-01 4.555952382753274965e-01 -6.998337673247739810e-01
-5.355911760161756463e-02 6.602805202653996668e-03 -9.646821763458883758e-01 8.682986255315039426e-01 -2.280168288630258500e-01 -4.405290258942652359e-01
1.663329185333229862e-02 1.359673535326098304e-01 -9.324162078867298531e-01 7.248487756404894400e-01 -5.273913085635334452e-01 -4.432298050719592486e-01
-4.861211512951352232e-03 -2.082698808893857501e-01 -9.213599870750249776e-01 5.623569583496732527e-01 6.167453170411935082e-01 -5.507992967528747563e-01
9.166227608346633193e-02 9.911192279784988846e-02 -8.188387999852516641e-01 5.134750476032150512e-01 -9.633027245249978221e-02 -8.526803938745768363e-01
-5.514429242577848812e-03 1.164419783044766676e-01 -9.577318762102869920e-01 9.040924251025784786e-01 -3.396658333838896149e-01 -2.593144972880736532e-01
6.684498037112343582e-02 2.065303670175438755e-01 -9.848090303669917445e-01 8.254019850725974328e-01 -5.520243755469634861e-01 1.182398064959538780e-01
-4.043819298290263903e-02 -3.662357501107226659e-02 -9.416699079506498649e-01 9.774633596429301852e-01 2.063065045277375290e-02 2.100946377646294994e-01
-3.868360470652340566e-02 -3.708820263747792528e-02 -9.435076734071737858e-01 -3.905805603524802883e-01 4.053176456712728748e-01 -8.265376167980733602e-01
-5.536780184928780796e-02 -1.310007851398891088e-01 -9.849455149038557344e-01 -5.146515865617270480e-01 4.097155484388945723e-01 -7.531712380441203392e-01
-9.492327544992469612e-03 -1.304997933447519243e-01 -8.827810980390806694e-01 6.629027641871726440e-01 3.870037208583229638e-01 -6.409274883126943045e-01
2.733651623321255511e-02 6.352822072544010712e-02 -8.615764248065531650e-01 6.495985175244557430e-01 -4.814169081530495498e-01 -5.884382096485468727e-01
1.116192982987191350e-02 1.417182898646615341e-01 -9.642528296188329628e-01 8.914599572004943129e-01 -4.220788890587921505e-01 -1.647681890383830561e-01
9.638038439974497273e-02 6.371957844786983738e-02 -8.128004291487402888e-01 5.206147016643833947e-01 9.352486631488196589e-02 -8.486538939942999127e-01
8.935629910237018192e-02 1.158693441051739936e-01 -8.269661240138101999e-01 4.477950716392779529e-01 -3.162234784309110869e-01 -8.363505757184775957e-01
3.224151351745502964e-02 1.106258760486388132e-01 -8.977138250128190444e-01 3.309373470300023268e-01 7.593844391846640840e-03 -9.436221732600904577e-01
-2.974078333388992593e-02 -6.170244625625026513e-02 -8.934073346887895228e-01 8.498269954926661596e-01 6.792813723956581118e-02 -5.226660940821303836e-01
-7.442964801001115960e-02 -1.472014797815476561e-01 -1.045633333027693679e+00 9.723069808621314092e-01 2.246119419991454702e-01 -6.456477738007898592e-02
-5.559741371148361339e-02 3.294840428968318080e-02 -9.960733634639610257e-01 9.828442972520464727e-01 -1.843738099524680762e-01 4.835862150867386092e-03
-1.751275049587334987e-02 1.000142962953820547e-01 -1.025038915607392020e+00 8.980404382455280388e-01 -3.459223200947618149e-01 2.717740232914785392e-01
-4.678678643755327521e-02 -6.108406565704645880e-02 -9.581563659501496355e-01 7.583042156133855405e-02 -4.084472332793631644e-01 9.096266293333014064e-01
4.749616316025841688e-03 5.932485474728145525e-02 -9.168632547589887771e-01 -4.725202086597504736e-01 1.870076967461098763e-02 8.811214068570362157e-01
1.040839639287834545e-01 1.516928660698069475e-01 -8.367229566905050042e-01 5.207887900503888057e-01 -5.042781532530324906e-01 -6.888269596274254614e-01
2.726409147834359462e-02 9.364273141855930516e-02 -9.020331340369995843e-01 -3.150174966843651836e-01 4.313429476962916675e-01 -8.454035948914520038e-01
-8.058715179836509201e-02 -8.178892058810137422e-02 -1.064671060454173146e+00 9.907893724294879467e-01 -2.900429042772048605e-02 1.322693109438689840e-01
1.034425892473788203e-02 1.390487150650759895e-01 -9.613405141665812836e-01 8.035207173788503354e-01 -5.216280476878012440e-01 -2.868076648354965785e-01
1.134245552263570544e-01 1.170025401231107876e-01 -8.123225714079415072e-01 5.528045158294976336e-01 -1.358702643929580456e-01 -8.221596186461010980e-01
2.778502689732630440e-02 1.655298627457449934e-01 -9.973890136518972493e-01 8.692228947008712181e-01 -4.884744957034085067e-01 7.644754002019062133e-02
-7.098655669694754755e-02 -1.051568274745249554e-01 -9.979067378066239780e-01 8.341947340640109010e-01 2.015334728864777158e-01 -5.133258272931428001e-01
9.810627354024626171e-03 6.151074150988715405e-02 -8.865588433039197636e-01 6.865314957434919263e-01 -5.831494992768381236e-01 -4.342938715263851557e-01
8.663287999437278841e-02 1.394570421545377192e-01 -8.445583650275144683e-01 7.134128189577715329e-01 -3.251343927036923209e-01 -6.207493668365093864e-01
1.616747434707757614e-02 8.145341074260513403e-02 -9.041658383991253434e-01 -1.845378968191509761e-01 3.462269528084392922e-01 -9.198220815932540706e-01
-9.537545184960159739e-03 1.164173966488176726e-01 -9.765552186957431324e-01 7.705238187812812889e-01 -6.362399202487990513e-01 -3.862393781727539721e-02
8.232881340280504001e-02 1.257056162674627386e-01 -8.376183248981705631e-01 5.551461060630428213e-01 -4.287999837394660951e-01 -7.127014626532448549e-01
1.790409533365024466e-02 7.896538351669460387e-02 -9.116981365679455163e-01 -5.313135047197752314e-01 2.320763488529968555e-01 8.147677755075072303e-01
-4.099114545862524855e-02 -2.282420564244448391e-01 -1.038884829282077593e+00 6.021806073438187301e-01 7.763405733913117945e-01 -1.862091035515676118e-01
-2.140362109472782742e-02 9.729863990034125221e-02 -1.012524404516185639e+00 9.040805318630423804e-01 -3.980246231849997596e-01 1.556110254598862819e-01
4.772048020361177589e-02 1.273331657579466203e-01 -8.935261199966361145e-01 -7.669174850419778824e-03 2.319371746601084083e-01 -9.727005349889554786e-01
-4.469921686264027166e-02 4.553295767791062931e-02 -9.681891334869834331e-01 8.715860213695982850e-01 -3.713309161161535976e-01 -3.200799245336266030e-01
-2.404928997113417455e-02 -4.099771227528206663e-03 -9.044299742378629769e-01 9.111276089795274924e-01 -3.302786975760084176e-01 -2.465004301877476989e-01
4.871793102161140789e-03 -1.430070354296158856e-02 -8.570968615515219824e-01 7.463423742749413226e-01 4.093156515575497797e-03 -6.655496273242007543e-01
-2.726053084657410405e-02 -1.309856043556720806e-01 -9.006887040918670762e-01 6.810042829845001089e-01 1.573310503552181883e-01 -7.151783743590760523e-01
1.092514265137392582e-02 1.456605121002015890e-01 -9.808207295798506697e-01 9.163569488967968635e-01 -4.003381613382272497e-01 -4.393038228905396525e-03
3.802058105594478127e-02 1.716574786489252491e-01 -1.013995081924602193e+00 8.979002398037531085e-01 -3.641101152750653158e-01 2.473842826752357948e-01
-4.766574560657615978e-02 -4.858770659720371837e-02 -9.492954657208748648e-01 9.673737595289886304e-01 -1.824118028637488897e-01 -1.758236148836300750e-01
-4.635704387491299677e-02 -6.586796860976626422e-02 -9.600201827431897872e-01 -2.412743294264248495e-01 -3.403882158978701611e-01 9.088028171378508269e-01
-1.701479862489070280e-02 1.005763976136159338e-01 -9.613850676331613387e-01 9.259954356905044648e-01 -3.421980203919066654e-01 -1.594771705298691222e-01
2.806293346183916237e-02 -2.928707716501305000e-02 -8.405633967488769231e-01 3.774502414551148544e-01 -1.090008477463286956e-03 -9.260292258384692499e-01
2.152134293850713892e-02 7.914427179433586312e-02 -8.866260223988076117e-01 8.944738851949735059e-01 -3.871435714987704335e-01 -2.236880053811232394e-01
-1.403108980500522920e-02 -1.945522549784415856e-01 -9.179348906739394076e-01 6.684421698439325654e-01 5.258306730069560730e-01 -5.260106167173685954e-01
-1.425990975956561123e-02 -6.695373898615383790e-02 -8.745889547475979020e-01 7.821787787770462241e-01 8.993280236240568104e-02 -6.165293578493186155e-01
-5.190199511089684664e-02 -1.034261448003708922e-01 -9.723814982517725580e-01 -7.504604285145742848e-01 3.303552771109684039e-01 -5.724286297161041981e-01
-3.466290056026186117e-02 8.000685902359165602e-02 -1.000586818268947908e+00 8.104346686994956528e-01 -5.825971082802045009e-01 6.145125868102259414e-02
3.727657698808298919e-02 1.191310439170893340e-02 -8.370396938782577179e-01 5.595753370813595362e-01 -4.165131476407269578e-02 -8.277322091768006818e-01
2.531351098875539093e-02 1.459803060970071842e-01 -1.045698310718212509e+00 9.242583263772919944e-01 -1.131297956054372333e-01 3.646206185455219129e-01
-4.057882213708041697e-02 -9.970697346047494025e-02 -9.144685424937996077e-01 8.416154682897124539e-01 -3.723476631787694252e-02 -5.387921451847091925e-01
6.260776798216030614e-02 1.957348717970382734e-01 -9.388225650960317914e-01 6.676328557700775823e-01 -6.434368524390858823e-01 -3.745068581742832525e-01
4.744007454954458219e-02 1.540253023101435248e-01 -9.133917087360577947e-01 7.918274289719037240e-01 -2.451771630731083562e-01 -5.593723996008089783e-01
-3.397723978472082934e-02 -2.243256275570619795e-01 -1.011662598314830408e+00 7.059566969799158098e-01 6.883852422533560667e-01 1.665860145300181172e-01
-7.200205117815280942e-02 -1.244671101686295744e-01 -1.008720399210603302e+00 8.548093085238536171e-01 3.990637670246572344e-01 -3.317365760796677221e-01
-4.885467852190535781e-02 -7.535611682026718827e-02 -9.463494780952430574e-01 9.488837798813105628e-01 -2.907172432979308052e-01 -1.228944942924952294e-01
-1.073176842106912839e-02 -2.079270323423497990e-01 -9.261071553199928807e-01 5.920115883979090166e-01 3.759172704966782796e-01 -7.128874279610433184e-01
-8.196034559657532081e-02 -8.337141273689128995e-02 -1.052444080138237315e+00 9.974966719099943591e-01 -6.852785111079202907e-02 1.744486029242573941e-02
-4.904758697711363025e-02 4.245658778018160384e-02 -1.044249712235264083e+00 9.342851854844390624e-01 -2.032024939327950752e-01 2.929504030442690587e-01
8.480339178210477558e-02 4.851038585813566284e-02 -8.170479557518391944e-01 5.099572194470796127e-01 8.235446722729521107e-02 -8.562484312753581017e-01
-7.667747030920651387e-03 4.461482321048600846e-02 -9.142911954427836996e-01 8.788984418212653082e-02 2.298907842763840137e-01 -9.692397033729224232e-01
-7.936285107085720714e-02 -7.728993028943502430e-02 -1.072043565420219613e+00 9.793500672811649155e-01 1.479690909177647784e-01 1.377628173686484270e-01
8.563269543549173468e-02 9.498506103258937128e-02 -8.211115501591801369e-01 6.135454788824740158e-01 -1.513624840225276103e-01 -7.750169957964831990e-01
7.925639694809186175e-02 1.546705330009734425e-01 -8.948374559632367164e-01 -6.577446823644900187e-01 5.422084412242864637e-01 5.228593874899497562e-01
6.596574304833936753e-02 1.999281349336605451e-01 -9.389942326148266183e-01 7.819732355585232719e-01 -5.632581450410567570e-01 -2.669421677349642641e-01
-3.950686531937038642e-02 5.648821227732065547e-02 -1.046790801764464041e+00 9.155480006319548503e-01 -2.271982189980646105e-01 3.318927956779680888e-01
8.044034518600017003e-02 1.320340016111021531e-01 -8.434675428176605649e-01 7.690281527811965168e-01 -3.415332151462731058e-01 -5.403246831135795070e-01
1.151826615143893423e-01 1.997302125784905513e-01 -8.822042349258258920e-01 7.806915470018474523e-02 -5.136333730790881846e-02 -9.956239323484510351e-01
-5.490401776039256776e-02 -1.643016564825708348e-01 -9.863734999545038518e-01 9.817630879616234818e-01 -6.730586077246954180e-02 -1.777952761513480751e-01
3.828231240970223631e-02 1.775410391565288293e-01 -9.724914693663331278e-01 7.205425228455973885e-01 -6.932315298102694756e-01 -1.576448058818812059e-02
-4.997596383567261963e-02 -1.944722150473163491e-01 -9.945162186292338946e-01 9.076089272737005720e-01 2.794964811217011680e-01 -3.132534950701573728e-01
-4.732578933018007084e-02 -1.688391241048807501e-01 -9.496566863391155966e-01 8.823331964603363664e-01 3.598563124288983728e-01 -3.033011124759690813e-01
6.354309117416387376e-02 7.728864477294968005e-02 -8.340119449209680846e-01 7.022013924983775413e-01 -2.021819356921680244e-01 -6.826680520231686033e-01
-6.459565715699804034e-02 -1.113972558952414701e-03 -1.058890733708600429e+00 9.469243503906432657e-01 -1.061819121984977771e-01 3.034133750498302362e-01
-2.794962302496978995e-02 -2.033018838276911266e-01 -9.440109905184230765e-01 6.740804166142672083e-01 5.541253320290477902e-01 -4.884267686571177047e-01
-7.648764929799130308e-02 -8.098863085371423021e-02 -1.003657144601109552e+00 9.387520098094513932e-01 1.477637508792879750e-01 -3.113045743396641862e-01
1.161733849132503132e-01 1.932797119351898907e-01 -8.938225222791759128e-01 -5.130284663768580611e-02 2.020888501955435956e-01 9.780225531926721727e-01
-5.209598794658742982e-02 -9.487487514082865170e-02 -9.518920029117785564e-01 9.971135597647972082e-01 3.452114516157944735e-02 -6.762277330831124866e-02
1.045304183702367752e-02 1.448685554144946985e-01 -9.823488041997902043e-01 9.057521989596931666e-01 -4.237334957208291897e-01 -7.929608053774626561e-03
1.255531641857888792e-01 1.833371455969370345e-01 -8.494802518589887885e-01 5.690524789130884109e-01 -4.555264249952860056e-01 -6.845983876506598342e-01
-7.890324458373605687e-02 -5.661646078948078670e-02 -1.008599482208198062e+00 9.463155403484432293e-01 -3.787060770425930423e-02 -3.210182474052588053e-01
-3.636829703747859049e-02 6.935619791698249825e-02 -9.788332441058695821e-01 8.542046828793278257e-01 -4.598924014680944028e-01 -2.425558468042691429e-01
1.556800691892435140e-01 2.164913611258130477e-01 -8.856660109210119369e-01 -3.909262943515008915e-01 6.016000355864760119e-01 -6.966017725838444807e-01
4.904028854277499988e-02 1.526952322606536239e-01 -9.108088935315936663e-01 7.599899315554657919e-01 -1.359721631739098102e-01 -6.355524170169803977e-01
-7.018009379180149832e-02 -1.093910680931243877e-02 -1.043868533413325306e+00 9.722970756006891202e-01 -6.273276383919831889e-02 2.251732602229742086e-01
1.052925143150364520e-02 1.453460384225457591e-01 -9.639463834647160612e-01 7.747880447529836845e-01 -6.007231445617756682e-01 -1.970664590833780816e-01
-3.526290883383432356e-02 -1.156623611860640825e-02 -9.335644760544088427e-01 5.440015032659331062e-01 1.045213655636635097e-01 -8.325488866037309421e-01
-1.278187225576698886e-03 1.202700550107577981e-01 -1.032853847001292014e+00 6.094387716456000081e-01 -7.505284681684916137e-01 2.555218231066763157e-01
-1.651600757937712947e-04 1.144298565399417822e-01 -9.464683786814851452e-01 7.657464249903773723e-01 -5.251582274119760418e-01 -3.712697789963084194e-01
-1.794769477832320118e-02 1.913915591534915209e-03 -8.951514920544879628e-01 8.422903280262679093e-01 -3.424171515990974135e-01 -4.162901603499205017e-01
-8.196328331955393676e-02 -1.109257522908379395e-01 -1.039015561997702841e+00 9.959195936728919563e-01 -3.444183390711527681e-02 -8.341416555679538603e-02
-1.905498988271736235e-02 -2.132347819030708524e-01 -9.417497464135962115e-01 6.514407030618274419e-01 3.452706274458394731e-01 -6.755836026854621368e-01
1.606448462017664447e-01 2.281463773888344204e-01 -8.978384738068979631e-01 2.274833049457789524e-01 -1.994714456964019333e-01 9.531329856440459158e-01
-6.438066653318555432e-02 -2.119742691955149583e-02 -9.732696232050077612e-01 9.052026529305882141e-01 6.489003898023849859e-02 -4.199969523324760812e-01
-3.871126589663507599e-03 -1.900666265151446932e-01 -9.083764174869917163e-01 5.925761433179397297e-01 3.000983607103984152e-01 -7.475255770001238975e-01
4.214551151599670031e-02 -4.024651489184666309e-02 -8.343559023701637711e-01 3.444948636089564253e-01 -3.533021755607526626e-02 -9.381231607174437270e-01
1.323689680460016227e-02 1.442307827788396335e-01 -9.514110952497087936e-01 8.520754721623892136e-01 -4.445602242787089486e-01 -2.762853538074449000e-01
-1.694526978897833297e-02 -4.313372448376216056e-02 -8.777100538919740957e-01 6.844849699845415580e-01 -1.113797094734276516e-01 -7.204685185231038957e-01
-4.776036736934811261e-02 -1.903847791918166776e-01 -9.836653921292868308e-01 9.346784378661010528e-01 3.388194756244312100e-01 -1.075991669380863963e-01
7.494249898222567208e-02 1.946203799057221601e-02 -8.175118561631757874e-01 3.018571058958009479e-01 -1.363664563037731980e-01 -9.435499336099612000e-01
-3.346783322610173000e-02 -1.836244079269880869e-01 -9.338771718720456638e-01 7.800082111817830954e-01 3.998059434758470254e-01 -4.813963004120228595e-01
4.662264235608946233e-02 1.793732030022731141e-02 -8.292608504232724664e-01 5.416638933559181357e-01 2.639930777215166585e-02 -8.401805182124015836e-01
-5.621021331700737367e-02 -1.909049360104374260e-01 -1.035555453640813806e+00 8.737717045117155967e-01 4.755707224887177897e-01 1.017619590330787055e-01
8.398997080092063250e-03 -1.847770194145765821e-01 -8.931667192507289910e-01 4.820358283898578677e-01 3.273653217278388872e-01 -8.126951496585493873e-01
-5.450147535790421383e-02 -1.579658762767804925e-01 -9.688936061209120210e-01 9.758319141318702039e-01 9.512462831803580616e-04 -2.185204120722798737e-01
6.017098914209129124e-02 -1.231119249675576705e-02 -8.254618265200777127e-01 4.752481735481152159e-01 2.093186740370653887e-01 -8.545904669714876611e-01
-8.798426080633848373e-03 1.190919569354604718e-01 -9.856857753076702089e-01 8.402279010692025318e-01 -5.395071363261426667e-01 -5.430583871009950214e-02
-7.155453753145418760e-02 -3.696610576343141441e-02 -9.871418107499809746e-01 9.477923521261698570e-01 4.643570714583425407e-02 -3.154891160610911460e-01
2.540188617610474996e-03 4.806144722504050726e-02 -8.863514411061627074e-01 9.193627957915753157e-01 -2.702392769077530121e-01 -2.859069480279778364e-01
6.580345768173682247e-03 7.424898976070570811e-02 -9.071088234178213972e-01 7.661330795202172528e-01 -3.495723019335176263e-01 -5.392951976290628613e-01
1.905138812434989046e-02 -6.355466755305153037e-02 -8.502523784176962973e-01 5.464830618413328844e-01 2.944585185656655724e-01 -7.839964566020916070e-01
9.031097892742302735e-02 1.707007779399739855e-01 -8.867409816659630462e-01 -3.309724592426146472e-01 4.133168263048282998e-01 -8.483079819948650124e-01
-7.582361287067500288e-02 -1.348575098379206361e-01 -1.029061446939021129e+00 9.774663284527982388e-01 7.349817139591589832e-02 -1.978827823294967703e-01
-8.186503351353011104e-02 -8.150258941156890424e-02 -1.054923046927995545e+00 9.740722926234193224e-01 1.174515211093905137e-01 1.933605671600239495e-01
-5.216722453634305146e-02 -1.794360652358708286e-01 -9.883841229242728010e-01 9.756657567940431042e-01 2.167711687431317369e-01 -3.296348618158779359e-02
-2.327708802061343243e-02 -2.205002132199204712e-02 -8.927868882142081519e-01 8.001225041846676822e-01 -3.247439213478070519e-01 -5.043266439966322956e-01
-2.256244190770691910e-02 7.873714697051947820e-02 -9.508015977649267869e-01 8.253116377621668720e-01 -4.515356872339473804e-01 -3.390814411443018872e-01
3.379329945539136237e-02 4.007116629847327222e-02 -8.432152784328922346e-01 5.580525509214588897e-01 -2.038489320972100560e-01 -8.043773761692204483e-01
9.036533187847405058e-02 6.481770698158853539e-02 -8.156623187426619292e-01 3.256293301403232476e-01 -1.585730904206157921e-01 -9.321052056215648474e-01
-2.197486029199659241e-02 -2.299937112452830890e-01 -9.886102980510722560e-01 6.751389583116753634e-01 7.370141251140338579e-01 -3.158427381183229882e-02
7.987078054614034361e-02 6.374675869137717832e-02 -8.217027576637403463e-01 3.620269363403066376e-01 -2.510680236133699950e-01 -8.977200815860855165e-01
4.426804726216831271e-02 1.116409924219573940e-01 -8.834379717955717082e-01 8.890757218239153659e-01 -4.180556426005426762e-01 -1.864774532031444609e-01
2.088146649372320598e-02 1.503480638077181186e-01 -9.505707469394263365e-01 7.477216675326975315e-01 -6.324391530054965793e-01 -2.023191183447871633e-01
4.014349325665632351e-02 1.210722832763273388e-01 -8.954183410236488116e-01 4.613103016735485284e-01 -1.296905863906590850e-01 -8.777090391305690797e-01
-2.642679991866885708e-02 -1.323795031498397889e-01 -9.000633563245369340e-01 7.102858608073837621e-01 9.453906597601094419e-02 -6.975359208969079683e-01
-2.559996170847429059e-02 8.599970363479116087e-02 -1.037270127617019311e+00 9.075531912645680155e-01 -3.373265023527106110e-01 2.501160447392067332e-01
-5.786284920950372779e-02 -1.702268309814231398e-02 -9.639772073249224249e-01 8.565755287746520397e-01 -1.804803940345692803e-01 -4.834306474289273847e-01
4.625615452304052133e-02 1.862425380991374335e-01 -9.645692552089774052e-01 8.501809104092016289e-01 -5.129468570527500049e-01 -1.186505011177229479e-01
6.085700267312367517e-02 1.301211371602336020e-01 -8.684912301922383948e-01 8.421711270833992513e-01 -4.265050848446660936e-01 -3.299109051073049748e-01
-1.889824463206260866e-02 1.062413454169989641e-01 -9.991194844230104621e-01 9.465691142786423207e-01 -3.203457972050542946e-01 3.722206478427265985e-02
6.206401829324194319e-02 1.507157792425924125e-01 -8.929080737832637560e-01 6.563811452608877550e-01 -6.544711985936509935e-01 3.752748890578678775e-01
1.851628132654891193e-02 -1.023116747178326180e-01 -8.569591766139723621e-01 5.565298384714245650e-01 3.967459337444557144e-01 -7.299775359202567149e-01
-1.097651307406299903e-02 1.023502224282894085e-01 -1.041703316953980663e+00 6.442922986551613551e-01 -6.968525287861564443e-01 3.150936162761592829e-01
