-1.705849129893369448e-03 8.352369646474716580e-02 -6.496342090698771221e-01 4.272022060700420010e-02 -9.435827487012468096e-01 3.283695770084198440e-01
8.533914255403697580e-02 -9.074193007567916969e-02 -8.279224013629267187e-01 -5.634708382296788054e-01 -4.691607127839939606e-01 6.799917941010448219e-01
-7.477159073793479549e-02 1.228712534421722014e-01 -4.607563099374436533e-01 -9.362956277035592301e-01 1.229002753225599820e-01 -3.290076288915451674e-01
-3.991715051438373546e-02 1.122326429400356540e-01 -5.680678948144722851e-01 -5.998812235955315320e-01 6.869068260180413166e-01 -4.102456946115927705e-01
1.467709061366039187e-02 1.766241110924088656e-02 -7.665076339781295989e-01 3.482213153981010278e-01 -6.785579890278198301e-01 6.467619121662449011e-01
-8.031074391357663489e-02 1.339217581555888492e-01 -5.660090079715188738e-01 -2.243830166482580213e-01 -9.701438549180309012e-01 9.204978329474930443e-02
2.945115529712168112e-02 7.904829290986060963e-02 -6.429316073749132832e-01 -3.249939114176235155e-01 -8.887757873288316679e-01 3.231973969565494764e-01
-1.177796457272764080e-01 8.733360725799220459e-02 -6.971227802239544635e-01 3.477625018442706550e-01 -8.692890127188093174e-01 3.512803078417170433e-01
1.133775142579406259e-01 -3.960194850457509491e-02 -7.355261339358191153e-01 -9.057808012638796091e-01 -3.022415873659969332e-01 2.970036412710229112e-01
2.837230817784814133e-02 -5.866405823517130413e-02 -8.297249165322485576e-01 1.819279784481937778e-02 -9.029408362864861370e-01 4.293796318793411393e-01
-9.615939600158945888e-02 3.609557177067612005e-02 -7.853369390852118492e-01 2.267690468932592462e-01 -8.356998818435563692e-01 5.001814739250031172e-01
-4.204142122738485643e-02 1.119066802903169872e-01 -6.165768400300146723e-01 -5.842039635414379983e-01 -8.113904211249838294e-01 -1.874335853297738608e-02
3.156068796257761183e-02 8.590495787575472275e-02 -6.142311442310888214e-01 -4.671361950447313616e-01 -8.649253573165176512e-01 1.835426423205925306e-01
8.968347204575698173e-02 2.928246753913827521e-02 -6.474730584993002580e-01 -8.274481819512707892e-01 -4.742497091479931925e-01 3.006937304943028133e-01
8.866289945713438925e-02 4.820035028728665029e-04 -7.286139927149776208e-01 -6.908007818977758285e-01 -6.621721255850394616e-01 2.903831190472547230e-01
-1.554229604857448876e-01 1.098880304940354768e-01 -5.981693368906452202e-01 4.430865324790200788e-01 -7.822167970244701118e-01 4.379625636838119784e-01
3.314477336877948849e-02 8.909643269401865129e-02 -5.995182534324335899e-01 -5.564289281712557766e-01 -7.807544345239337824e-01 2.842698732989478727e-01
-1.533789233786167494e-01 9.149121841597666893e-02 -6.693964311439809522e-01 5.892973054356324125e-01 -8.044844766791880986e-01 7.438691140594304307e-02
9.941816859757916791e-02 -7.459028933409550532e-03 -7.163064855954095478e-01 -8.122705826737672830e-01 -4.223471380496676142e-01 4.022926739378600569e-01
-4.568676706304217183e-02 -3.544963249449174791e-02 -8.581913169828569998e-01 -6.927595529594360313e-02 -4.927057902649201737e-01 8.674340587371783817e-01
-9.736752671537260428e-02 1.273613240160588189e-01 -6.257675602960124372e-01 3.651476602206983613e-02 -9.694097953221708641e-01 2.427165437208191057e-01
8.316602109131009113e-02 -3.843354877655284080e-02 -7.923048290166544438e-01 -6.501693348560986241e-01 -4.203329577166584063e-01 6.329297280661921876e-01
1.134316528752386116e-01 -6.595946115332694537e-02 -7.714536475993287734e-01 -8.469647710094561077e-01 -4.559117966975125835e-01 2.734869472222493658e-01
-6.695287518212109101e-02 1.293937026945892188e-01 -4.845157234275196956e-01 -8.946986860313308476e-01 -3.317765748497799039e-01 -2.990628121227353331e-01
-4.735608199652685535e-02 9.604741892079057819e-02 -6.841891401346646973e-01 -4.143390118743021100e-01 -8.021085769917035702e-01 4.300523386233019441e-01
7.746627718797172157e-02 4.623829660748775272e-02 -5.852495473544867544e-01 -8.578447710396192027e-01 -4.632529541853442900e-01 2.224838179251120707e-01
3.891426845911132720e-02 5.413242897751490562e-02 -6.991141290107639739e-01 -4.146860767527738023e-01 -7.569281099213560626e-01 5.050695933812251459e-01
-9.566075421109386523e-02 1.239875448204630359e-01 -4.518766586098117988e-01 3.368565603507558959e-01 -1.051199954999222225e-01 -9.356695166001476327e-01
5.352305392214404267e-02 7.501845415866389977e-02 -5.702346162615260505e-01 -7.851838719155060931e-01 -5.937700523739435354e-01 1.758505393441215092e-01
4.237840955420674183e-02 7.381606535845357253e-02 -6.436777297095314099e-01 -5.310915265301858756e-01 -7.277219751912118451e-01 4.340075083125153887e-01
-1.394005676287061457e-01 3.269365670725454809e-02 -7.632760079488341010e-01 8.880311044493871542e-02 -5.612304149159045435e-02 9.944667977308430107e-01
-4.255630799039183954e-02 9.989556406094590724e-02 -6.551915588121476341e-01 -4.356469234738851171e-01 -8.538113752925634570e-01 2.849875321637073688e-01
2.353845410613995132e-02 -1.814881386242415962e-02 -8.001179325563122502e-01 -9.859691487126157616e-01 -1.664711654717011546e-01 1.233648464567896688e-02
7.342221314652447317e-02 -1.397024909997990685e-02 -7.749032282444392461e-01 -5.571101601440945350e-01 -5.719246199601224490e-01 6.021050560721863398e-01
1.292026248956540113e-01 -7.906966141267234016e-02 -7.311088844952282617e-01 -8.831141555289017120e-01 -4.597452934059503837e-01 -9.350750502259828900e-02
-8.979461887590982350e-02 1.140822686701833816e-01 -4.482733902908224710e-01 3.505214110251498871e-01 -1.434282655076396795e-01 -9.255069276166484338e-01
4.188739156244774414e-02 -3.635293578410965509e-02 -8.101712975533433836e-01 -2.015729836317665391e-01 -7.565811293831206097e-01 6.220557265479912390e-01
-1.359362247811453893e-02 -1.984499949643096436e-02 -8.352482752386927167e-01 -4.145211164204327670e-01 -5.525018983696907693e-01 7.231278561495509960e-01
-1.050520733113830818e-01 -8.579601985875822887e-03 -8.198366951662566793e-01 4.017356498332982917e-01 -6.782494613194246513e-01 6.152935363490565912e-01
-3.021886653882749699e-03 7.107818149626035642e-02 -6.908815280494450262e-01 -8.847977405249871086e-02 -8.741731875166572907e-01 4.774856728851516463e-01
1.924214422919925255e-03 -8.957852309163037707e-02 -8.752001743666730782e-01 -4.316154061519167362e-01 -5.157278646229255248e-01 7.400897991620971617e-01
-8.376472642726541518e-02 5.937131629756126766e-02 -7.592260506307434431e-01 5.834534424196460151e-02 -7.650213345532282938e-01 6.413565143379180711e-01
9.197917942789160875e-03 -4.957306011014003810e-03 -8.008683590435028421e-01 -7.133148731388350150e-01 -3.495126617291688387e-01 6.074724611452927414e-01
-9.682899793873933625e-02 1.222961652722587972e-01 -4.569224886212467918e-01 9.030974211964262199e-01 -4.074009955300720437e-02 4.274988796672752889e-01
-6.701495137110025091e-02 1.855938662382912441e-02 -8.105027712545839202e-01 3.555679162780011476e-02 -7.959556587905668446e-01 6.043097747086437765e-01
-2.058167820525071828e-02 5.121370008845266969e-02 -7.529998056879750878e-01 -4.998708246655245158e-01 -7.322093682837110817e-01 4.625998266815253834e-01
-7.509851250063098727e-02 1.118075541182198401e-01 -4.906590926617593329e-01 2.315059662800783569e-01 9.658119824444636459e-01 1.166713424257317250e-01
2.353610390518237616e-02 -8.485065064110938748e-02 -8.468112563244604152e-01 9.951548027037537825e-01 7.516863240307884719e-02 -6.337661523230547767e-02
-1.203653601556633618e-01 -1.403997074614550186e-02 -8.218151716918939975e-01 3.691170319176667047e-01 -4.469152031521071433e-01 8.148738662761267904e-01
-6.173496916319846928e-02 1.247216470176731457e-01 -5.316439756809883121e-01 7.911902690516868786e-01 -4.762107007204802178e-01 3.837203756346909134e-01
5.420083508781693704e-02 -1.947429566291435377e-01 -8.650347036324075312e-01 -6.520957520358282578e-01 2.859797165682894660e-01 7.021301388548625289e-01
-8.572185897827486190e-02 1.189982731256896270e-01 -6.477938418720673441e-01 -5.037978471704401828e-02 -9.319542647173378880e-01 3.590586661912373301e-01
-8.445710555417280940e-02 1.160125529722641768e-01 -6.545835789617856504e-01 -1.309393848636064561e-01 -9.006147523920281506e-01 4.144248366898226621e-01
-4.069672070734178804e-02 1.148009133505165508e-01 -5.627051193298144849e-01 -8.604438714084227113e-01 3.904263018395154883e-01 -3.274196802081469349e-01
8.951063755210718342e-02 -2.476293877611192989e-02 -7.680717804964548590e-01 -6.652943934549280236e-01 -5.988641854218330618e-01 4.458083191871633488e-01
8.154486657250948831e-03 4.396884822908096735e-02 -7.240457960653347014e-01 -9.055105703373871329e-01 2.220827754684593924e-01 -3.615658278204475495e-01
9.839056571960054509e-02 -1.875450133505025471e-02 -7.371222614849181065e-01 -7.781660342595680957e-01 -5.758804059592773639e-01 2.506379483576151035e-01
-6.437390098195534816e-02 1.319922245439779929e-01 -5.108406568383289104e-01 9.920694366747319359e-02 -9.830742635851896782e-01 1.540226431554646835e-01
-1.237168878746846140e-01 2.583438292512730758e-02 -7.801494712325260927e-01 4.960659323010086497e-01 -8.432000855948587059e-01 2.072008843203964890e-01
1.249838373262026070e-01 -1.301532621351131902e-01 -7.905310762799561131e-01 -8.361542128786294548e-01 1.062175068750296492e-01 5.381114880009277845e-01
-6.206703820863987420e-02 1.267316854461031650e-01 -4.968693278501674637e-01 -9.201225215080521824e-01 -2.391868069501069116e-01 -3.101035581780324790e-01
1.878268218853322569e-02 8.280551018514101247e-02 -6.434381876018880897e-01 -3.870276228705054611e-01 -8.288685240318581782e-01 4.039635986131108747e-01
1.238578092174908024e-01 -1.154888396299946635e-01 -7.758624268255385203e-01 -9.306233424293752776e-01 -3.531385080390657683e-01 9.609052328674393129e-02
-8.229229148791979143e-02 1.084863718219973155e-01 -6.668504131478094621e-01 -7.292380252313286626e-02 -9.556951307019374564e-01 2.851822858772508074e-01
-2.461530571054438427e-02 7.048750244610624272e-02 -7.200242987982512499e-01 -4.071056203685796127e-01 -8.871417475831281374e-01 2.173580768213304315e-01
-6.725999078297478784e-02 5.599237115135070192e-02 -7.661248809788331338e-01 5.801781389294567021e-02 -8.643337234250912937e-01 4.995609550607425509e-01
5.171179432156609683e-03 -8.860254651858914809e-02 -8.725153325606554988e-01 -5.359228576847341330e-01 -3.049405133818403058e-01 7.872724902531826885e-01
-8.352478910692051617e-02 5.802615595543542115e-02 -7.615520027579296691e-01 1.241550123748845907e-01 -8.689408475944289112e-01 4.790901129057746344e-01
-5.212155222174481850e-02 -1.415807264471988514e-01 -9.035937026488698454e-01 6.405811883750699154e-02 -1.568006874513777626e-02 9.978229767123764082e-01
-5.833436927617204060e-02 -3.088068884762087615e-02 -8.533872082977097540e-01 9.177218828521967187e-02 -4.788437822510703823e-01 8.730902001837104187e-01
-1.593750873407256963e-02 8.866291999069127183e-02 -6.386468010414700913e-01 -8.310247031996166323e-01 3.988002490930003252e-01 -3.877580482663766093e-01
1.721658017595052714e-02 8.017016626688073036e-03 -7.678965887976698657e-01 -7.849145986859918933e-01 3.752541683343669776e-01 -4.930450100318335416e-01
-5.547115736299498834e-02 -2.220577578835669988e-02 -8.482443576432366905e-01 -7.765421542791841204e-04 -7.196204746673856567e-01 6.943671719067436854e-01
-9.290381346676775121e-02 -1.234321691926716646e-01 -8.969276694812893247e-01 3.361802402751383201e-01 -5.252630074204723831e-01 7.817170965791595538e-01
-7.652174803346125168e-03 5.960884960741139743e-02 -7.189257486678359843e-01 -5.765735912310006039e-01 -8.112089347646069815e-01 9.748311675904874907e-02
7.215672292405828081e-02 -4.804185389893263908e-02 -8.037868450934713138e-01 -5.766524917247890514e-01 -5.661227673402793314e-01 5.890474650540274970e-01
2.744112979858410323e-02 -6.215683238051115250e-02 -8.350465031773234292e-01 -9.952192726957721503e-01 -7.352674205841575050e-02 6.428388178364191630e-02
5.361066627659179934e-02 5.430335272506910116e-02 -6.824901634081966817e-01 -5.590914504320415590e-01 -7.808005046016622819e-01 2.788679294353966220e-01
1.176138319802188387e-01 -6.469215283639868919e-02 -7.559024131226115273e-01 -8.849480428568045065e-01 -3.915084732510452636e-01 2.521667639014834594e-01
3.601580785701592735e-02 8.473131744228734608e-02 -6.089052345275658418e-01 -5.214832819208772285e-01 -7.613589731751294609e-01 3.852112415840733828e-01
2.670425956919549731e-02 8.779972719826095728e-02 -6.166577426201771406e-01 -3.798462404168000406e-01 -9.085547429259944741e-01 1.739112208797989612e-01
-4.588378850549763854e-02 1.360682229812308110e-02 -8.110092775381309016e-01 -1.279514099170919739e-01 -6.231592149622157129e-01 7.715575348008100187e-01
2.961722777815330165e-02 2.145791432764068349e-02 -7.520581331496952737e-01 -1.775788680771798744e-01 -6.989517752463471068e-01 6.927713630718346227e-01
-6.603130638127861773e-02 -1.113420969618192369e-02 -8.382483691877263832e-01 6.228599581839167759e-02 -6.596765720797694854e-01 7.489641346379650733e-01
7.301737385659469448e-02 4.960001604239987899e-02 -5.426838543756480338e-01 -8.869215947782019827e-01 -4.445379889814561891e-01 1.255231495319225343e-01
-7.220667744574335578e-02 -1.313008450455179221e-01 -9.029927342023341685e-01 1.646798373491132061e-01 -1.552247291137139606e-01 9.740563816546985443e-01
-6.320687379750708490e-02 1.141442809809301018e-01 -5.043806285830098046e-01 -6.932049681784279160e-01 6.706852584219411550e-01 -2.639093712398982716e-01
5.841764104132006474e-02 -2.219599639101197536e-02 -7.939300110383606945e-01 -4.304653454364706922e-01 -5.358925731323216368e-01 7.263048508993168451e-01
-2.899875679173934823e-02 -4.423131511860896314e-02 -8.611844205283422093e-01 -2.008041034350951937e-01 -6.391477290061478023e-01 7.424068241536521118e-01
-1.057672293214072107e-01 6.775990263476719400e-02 -7.408647212507385449e-01 2.976740146824476407e-01 -8.613859354107022970e-01 4.115877200056669016e-01
8.648545655950015329e-03 6.266622662428748824e-02 -6.946959888307669972e-01 2.642104209919412042e-02 -9.099032348532135606e-01 4.139782986317639413e-01
-1.087915008569305744e-02 8.681422413661347981e-02 -6.539935792289247596e-01 -9.618593787615312696e-01 -1.801797528377043767e-01 -2.058198050621581621e-01
-4.004507080731754820e-02 1.219725141127054602e-01 -5.619935751945278612e-01 -9.006029564510898977e-01 -3.666646249962524640e-01 -2.333910186959078092e-01
6.723649304675188842e-02 1.432029269964855099e-02 -7.392110780410325876e-01 -5.391730520371589286e-01 -6.834455831279798721e-01 4.921326598182552692e-01
1.503173141029377638e-03 -5.506600835774324437e-02 -8.530144290205869950e-01 -5.518861700567668782e-01 -3.836035763720309633e-01 7.404525315607076719e-01
9.800194558290709068e-02 9.479485580656788445e-04 -7.052174472055172672e-01 -8.125340601723595180e-01 -4.779310020300120421e-01 3.337219776376874614e-01
-7.096449079801821214e-02 1.162169865802842733e-01 -4.784197346833798381e-01 -8.095494947611795444e-01 5.142183643174285113e-01 -2.832120924865795808e-01
9.051741620949428635e-02 -7.395476360909643276e-02 -8.117954217435479070e-01 -6.500211873444078359e-01 -4.195620338151006545e-01 6.335930521906807389e-01
-4.355840714434372485e-02 1.117419345979385886e-01 -5.658309608619883635e-01 1.057183192497723918e-02 9.537027718293016321e-01 -3.005649004372547006e-01
-3.312739572254678327e-02 5.791384511488117254e-02 -7.540057021202588583e-01 -3.068502039410167526e-01 -8.810259936908877432e-01 3.600502059190360260e-01
-1.329176661030677664e-01 7.946086727491244450e-02 -6.996560993695426500e-01 4.518171796304447096e-01 -7.936436718282071645e-01 4.074198796792213306e-01
-7.651788719060743926e-02 -7.464989292283354637e-03 -8.333554334957987697e-01 1.563395975315136910e-01 -7.517607314286558484e-01 6.406354134182221660e-01
-8.845440167364156114e-02 1.132659587019795161e-01 -4.476285994930507828e-01 3.628450402766075222e-01 -1.425329580927614248e-01 -9.208842666719820880e-01
-4.411125238623851003e-02 1.164399320978462271e-01 -5.951463777389692789e-01 -6.589589911626549945e-01 -7.123099413064233332e-01 2.416352529784006054e-01
-9.525309602912776508e-02 1.235726003459948069e-01 -6.305459425572057519e-01 -9.211307573789039027e-02 -8.857952194847328320e-01 4.548428414475703674e-01
3.215586221307274468e-03 1.101582380859216920e-01 -5.697676791701323795e-01 -4.167721287334859581e-01 -8.689135954747210233e-01 2.670021653660348271e-01
-1.187274272371365846e-01 1.518463471086804566e-02 -7.967464966128414705e-01 2.608421458869321086e-01 -3.413938304833022408e-01 9.030014548366125382e-01
7.061296531842987945e-03 5.812385195920630188e-02 -7.007536668797298418e-01 1.998994409484043319e-02 -9.110224511583094875e-01 4.118719408027096684e-01
6.597850481206221640e-02 3.596575735617150993e-02 -7.036775884384116608e-01 -5.430187224467424301e-01 -6.569205538749651740e-01 5.230545411034269732e-01
-1.400807896895888138e-01 1.059856874879999689e-01 -6.556684705781979927e-01 2.597837238536369053e-01 -8.087533384249291357e-01 5.276650968249358975e-01
-1.324186777963975645e-02 5.847395098392543095e-02 -7.308488311044708530e-01 -6.330984919861143423e-01 -6.170032043807525124e-01 4.674327173281641601e-01
-4.806461211770121644e-02 1.167650712134373076e-01 -5.395414200892861833e-01 -8.230212258790841062e-01 4.824719125832914179e-01 -2.997614306756463121e-01
-5.373694121924191269e-02 8.894927577510551922e-03 -8.162582067133010710e-01 5.050318988854575475e-02 -7.504143700375079939e-01 6.590354323193037267e-01
-9.468500871986178236e-02 8.938604855039747332e-02 -7.079709653173258399e-01 1.453266243796268176e-01 -9.000272168475802470e-01 4.108907168335900750e-01
-5.215885224389903325e-03 -3.002593505796729775e-02 -8.383500721927823474e-01 -5.068810100976597344e-01 -6.234753416893977773e-01 5.952731641084325620e-01
9.482047236442829596e-02 -7.431443882671100176e-02 -8.074316768269996780e-01 -6.096244224338297490e-01 -2.659733429446124453e-01 7.467370651140110560e-01
2.412466755978701430e-02 -7.368117858542937160e-02 -8.378142338796893407e-01 -9.156484776269513404e-02 5.366668851944620400e-01 -8.388113810564736816e-01
5.547081724580409795e-02 -8.171380826961595345e-02 -8.421751988395939081e-01 -3.024348770378897377e-01 -3.590706051090646334e-01 8.829504208604730398e-01
1.009676554335170277e-02 -4.014164985742372377e-02 -8.350919899316840977e-01 -6.342667935315283723e-01 -4.759766061549477456e-01 6.092223773109874951e-01
2.404788133789247107e-02 7.516785276368766200e-02 -6.623168692666330237e-01 -3.013706049131099629e-01 -7.668302382265150818e-01 5.666984597083110087e-01
8.864462098816322522e-02 -5.863112512926482722e-02 -8.046222000740976821e-01 -5.434099519216480934e-01 -4.242751368745769636e-01 7.243591874081334314e-01
7.201453154591008765e-02 -6.837452322792004654e-04 -7.564785884507891911e-01 -6.247551773120822993e-01 -6.692902851215813964e-01 4.021585292687711588e-01
-1.928826531375553086e-02 -9.688989297934627598e-02 -8.902024246692890053e-01 -3.249031448723458393e-01 -2.879379187401027163e-01 9.008494332593419696e-01
1.141773846142920129e-01 -9.546297204414488924e-02 -7.900748150055149077e-01 -7.710062368185546244e-01 -8.289966198502181360e-02 6.314087652461437550e-01
6.847027810491423949e-02 5.757483404076098321e-02 -6.000006058645807050e-01 -7.583218737742756232e-01 -6.365445633285644611e-01 1.405665488383298911e-01
-2.692127308218443191e-02 -1.474738846311390572e-01 -9.016385638025613547e-01 -4.896990638905960452e-02 -7.287026359756420667e-04 9.987999886166973873e-01
2.296665102821552739e-03 4.219794868349802802e-02 -7.258658361017236160e-01 9.764709222331404703e-01 1.829989881767101201e-01 1.140872839516326176e-01
6.520914871262505075e-02 2.124968268780967617e-02 -7.325169636221793290e-01 -5.463499363415050825e-01 -6.284375750910180525e-01 5.536857965248466185e-01
-1.345502614049736423e-01 8.001922196971435197e-02 -6.981460121597283797e-01 2.400757725229375195e-01 -6.439041920069179525e-01 7.264647375911873484e-01
-6.516937990398126435e-02 1.146815913387867203e-01 -4.977407293942058275e-01 -6.951172875184460365e-01 6.718337895216114353e-01 -2.558345478039054655e-01
-5.183087611227005925e-02 -4.577661615631004738e-02 -8.658645546733663156e-01 -4.446016847913038944e-02 -6.716115995240117265e-01 7.395682205203287785e-01
4.300674687416606440e-02 3.335357607233020716e-02 -7.344410115423485319e-01 -3.127069770651589864e-01 -6.991569872165467325e-01 6.429571165490366447e-01
-8.841271527654222251e-02 1.348345103412526558e-01 -4.510779523246522538e-01 3.299841133143550098e-01 -1.653112871258500816e-01 -9.293990872111580481e-01
-8.051679495233779460e-02 1.203285221183034298e-01 -4.920764581185455011e-01 9.104553298069865130e-01 3.014479468475499482e-02 4.125074348171984817e-01
-2.569001816124446072e-02 7.187047663557852295e-02 -7.180816986115926559e-01 -4.109516465356301551e-01 -7.687855597136509234e-01 4.899872522682837683e-01
-5.671757889435441458e-02 1.249498833479674859e-01 -5.117169047213444566e-01 -9.431006410362144932e-01 -6.729407235780306140e-02 -3.256266093282059182e-01
-9.149812634204648742e-02 8.633453730134128812e-02 -7.131594836480613653e-01 1.910149429397691168e-01 -8.669219570867279234e-01 4.603907165600042428e-01
-1.406653519369349126e-01 8.094241975605243056e-02 -6.912870590118449510e-01 1.992818814998268406e-01 -6.008455780443991978e-01 7.741261673980416314e-01
-3.868218191460367356e-02 1.095665943881598547e-01 -5.910759544901109663e-01 9.385782218053625447e-01 1.212609018186183545e-02 3.448534173958331950e-01
6.369097434466837460e-02 6.138502677088703008e-02 -6.217735622056961287e-01 -7.854608410262206020e-01 -5.935785785359856126e-01 1.752590605862668627e-01
1.137479096980293369e-01 -1.470999138523982064e-01 -8.158901212038516260e-01 -9.000419128408171376e-01 -2.559548404111727793e-01 3.527203918118909098e-01
2.043141686376143476e-02 -1.215795795778205624e-01 -8.736493868211054892e-01 -6.200430970554540178e-01 -5.719062059160523459e-01 5.370938925631035810e-01
-1.343210967424106062e-01 6.574118366907139022e-02 -7.233600239246378294e-01 5.096299465987707000e-01 -7.923671035334939328e-01 3.353083517714333106e-01
-2.591010050818637334e-02 3.452362928935494291e-02 -7.828420040607999564e-01 -3.417471084703628814e-01 -7.835578695514999747e-01 5.188891778752570128e-01
7.212614670547401463e-02 -1.023314288193528793e-01 -8.457407750965385551e-01 -5.542121977774230324e-01 -4.721575147060614319e-01 6.855042823654086126e-01
-6.649410442481826222e-02 7.018777461920892857e-02 -7.445434756933360099e-01 -5.802795276418074716e-02 -7.956227611765865904e-01 6.030067815503754591e-01
4.017175273714863187e-02 8.044253146777981256e-02 -6.329809520223530495e-01 -4.800177404075252618e-01 -8.479210917062396380e-01 2.249728675501837805e-01
2.371599986342987076e-02 8.221782539317377958e-02 -6.410331676394512845e-01 -3.867519678409052086e-01 -7.829920467361877190e-01 4.871820708103518083e-01
-7.392820979375652746e-02 -2.492116137768641063e-02 -8.488550988716986323e-01 1.344443513252318867e-01 -6.606551847087920315e-01 7.385522617351660823e-01
-3.191612266959324706e-02 1.151242825341450698e-01 -5.909711960301693434e-01 -7.908694094141931474e-01 -6.092210377861441151e-01 -5.809736974785364300e-02
-5.231273330517641901e-02 6.075747923485436824e-02 -7.573921306662971809e-01 -1.383146012847729922e-01 -7.482029839111601355e-01 6.488924147637038509e-01
8.476344336126130641e-02 -1.349659151929980816e-01 -8.476956950611308494e-01 -7.266551758941877104e-01 -3.140835982132298976e-01 6.110022493245151898e-01
-2.323714482281437343e-02 -7.384929334323457606e-02 -8.791760199221440031e-01 -3.307040299350217927e-01 -4.333535408065479211e-01 8.383552667307363482e-01
-3.355077503883292789e-02 1.070999124069110936e-01 -5.859070923602912595e-01 -7.231479953247468284e-01 5.571541267761263017e-01 -4.082110433025200602e-01
-5.882977323637018918e-02 -1.093692522065686616e-02 -8.386971802538100151e-01 1.129661181677616734e-02 -7.519504601444012559e-01 6.591228201557617350e-01
-8.255696651847257983e-02 1.315809712845975588e-01 -5.995046021339932585e-01 -1.211599784882653741e-01 -9.442286113735374187e-01 3.061904457626398735e-01
-6.695539659612378958e-02 1.210403031450408839e-01 -6.286403011614504210e-01 -3.069357326527966112e-01 -8.809151294916122144e-01 3.602485123545511314e-01
6.443685076153184144e-02 -1.178611616637045556e-01 -8.566964350635938308e-01 -3.738849535203594976e-01 -3.485688542837456216e-01 8.594822833278157326e-01
-7.434879468454325124e-02 1.189922579111761386e-01 -5.055501663822901115e-01 9.105790374110331875e-01 8.684986378700773613e-02 4.041075572020080275e-01
1.208993239807087394e-01 -6.971516532582885950e-02 -7.514643632680201302e-01 -9.282358038611843165e-01 -3.463258502603673850e-01 1.357818024317495043e-01
-1.162571952838496042e-02 -1.687280395178636649e-01 -9.024590838564291451e-01 -2.850658810020862965e-01 1.924131892137607713e-01 9.389965964289188616e-01
-1.006770645683977838e-01 4.037374681722826625e-02 -7.767151542740653447e-01 1.835781321489442508e-01 -6.282271194807735881e-01 7.560620052254937162e-01
-7.010184927741217042e-02 1.131152251898386030e-01 -5.081148134783138870e-01 4.978246719128722186e-01 8.424909861821062718e-01 2.058629015552416730e-01
-1.275561165565337607e-01 4.381113016423480305e-02 -7.581816075654702614e-01 4.458982931927146787e-01 -8.134189378443665852e-01 3.735295753805398800e-01
-6.710063615060832265e-02 1.327380842315023235e-01 -5.041859245411814960e-01 1.505404622586803132e-01 -9.745105441783379341e-01 1.663333054688153068e-01
-1.042432288439616717e-01 8.221217299583996607e-02 -7.163049468721163215e-01 2.332273726751228349e-01 -7.805752386498915341e-01 5.799200715975642018e-01
-1.010378394713707662e-01 3.688475352572735677e-02 -7.827526750088242835e-01 1.525681895299912938e-01 -5.790586920507319046e-01 8.008832491094043382e-01
-6.873450999586104559e-02 1.145121963875153082e-01 -5.144882205182671475e-01 7.588100660467882452e-01 5.643548122305840353e-01 3.251321724749043907e-01
-1.101238477301817453e-01 9.341359554655291608e-02 -6.910230601544825602e-01 1.045999054820966612e-01 -7.183067253932367002e-01 6.878185138741045312e-01
4.309804473243842443e-02 6.548272261551686679e-02 -6.673808142636018514e-01 -4.619069466570713822e-01 -8.671471639167875889e-01 1.862733709927789361e-01
-9.494342865595921388e-02 1.292405196752615393e-01 -6.200706378300717692e-01 -7.578367177423557532e-02 -9.050873088234112629e-01 4.184182100473279320e-01
-2.336462277261759646e-02 1.297926428477040595e-02 -8.045386217088942304e-01 -3.233104990229210274e-01 -7.378319075034105445e-01 5.925153141408483481e-01
-2.588779813435712618e-02 1.065552037644878769e-01 -6.044881542134099561e-01 -9.596548931151379636e-01 -1.049068851061761981e-01 -2.608774263471116406e-01
-6.021520466462321197e-02 1.279498914015249900e-01 -5.034337111793214525e-01 -8.995907426602461898e-01 -3.239175710946184394e-01 -2.929401011404030863e-01
-7.108394314257988900e-02 5.060616101914382214e-02 -7.712884046445310782e-01 3.648681160181410643e-02 -7.241612296912516289e-01 6.886648139633591015e-01
-1.276566682136189013e-01 1.110331727170209282e-01 -6.546102861963331021e-01 2.767676876346176207e-01 -9.295199569265681916e-01 2.437053482314606168e-01
2.068468972882122475e-02 -2.627262770659976373e-03 -7.872863814193961085e-01 -6.840549511877278555e-01 -5.951726854398782240e-01 4.217087837143529416e-01
-5.675978897480626895e-02 1.135939325562626556e-01 -6.451229281331541943e-01 -3.594706489816653083e-01 -9.261119002047707438e-01 1.144447500753485308e-01
1.115044193134543671e-01 -6.253105863127843278e-02 -7.720839249803405080e-01 -8.607355906064438900e-01 -3.208959291832841898e-01 3.951709069465679791e-01
-1.288848459383615773e-02 8.985616905582130554e-02 -6.540879540564987771e-01 -2.868944713460913065e-01 -8.902428492040881380e-01 3.537785066281358137e-01
-5.626672107562760011e-02 1.170630988676563400e-01 -6.336533211210915173e-01 -1.912489280122960655e-01 -9.757600231483511966e-01 1.063777456034713936e-01
-8.194998659601543389e-02 -1.996467351817393307e-02 -8.434244712192742188e-01 2.244013108676821966e-01 -7.118177845184685548e-01 6.655520215010132246e-01
-9.068053926012531463e-02 1.155187224858081202e-01 -6.565665736105097405e-01 -8.106560520668773528e-02 -8.848527658688821740e-01 4.587635015851440623e-01
-4.690891451653728811e-02 1.149546276018231644e-01 -5.664609080988719514e-01 9.044716562914818514e-01 3.006215325442789243e-01 3.025850576880366738e-01
-8.851526049673627550e-02 -9.553009239982272749e-02 -8.870519405487525821e-01 2.555722742113222257e-01 -2.409646255418189109e-01 9.362792649054787475e-01
-5.656724138130817675e-02 1.149295630003103336e-01 -5.431705080652646789e-01 7.911428067246847329e-01 4.911455822297343676e-01 3.645121073764264197e-01
-3.981283461229798148e-02 2.272384639655857918e-03 -8.248764941952925200e-01 -1.249482176892527802e-01 -6.318513068916721265e-01 7.649522003861189967e-01
-6.019849798066296415e-02 1.312674562657623056e-01 -5.164353462026429753e-01 -1.971634225063080004e-01 -9.795732847709643920e-01 3.953181742118919845e-02
1.212489525937841817e-01 -7.509727906870350411e-02 -7.598772478627906501e-01 -8.815678114400989918e-01 -1.490405207627579776e-01 4.479119522891521488e-01
5.082557394111649612e-02 7.456440841773302741e-02 -6.115920580523385164e-01 -6.272937996491460000e-01 -7.392055735855393994e-01 2.451073415910069719e-01
-5.383403591320974624e-02 9.176391103565817442e-02 -6.983556571183904271e-01 -3.007849452732896389e-01 -8.568094020424854573e-01 4.188150728764937769e-01
9.683529285507679052e-02 1.235618287016372781e-02 -6.048219606928558756e-01 -8.288880983231015076e-01 -5.071495466691214871e-01 -2.361013718122305372e-01
-2.917959957885978006e-02 1.069116198356875741e-01 -5.949088853883790495e-01 -9.069929660844858743e-01 2.186089087610164072e-01 -3.599637544025567903e-01
-6.944713767787123737e-02 -3.049580357290176263e-03 -8.304922020186539244e-01 1.097764819829269989e-01 -5.224633747033815556e-01 8.455655776443398164e-01
8.778161543697665659e-02 -4.407101515644576417e-02 -7.922887977518966451e-01 -5.738468088626019759e-01 -6.018799975785330547e-01 5.553740257457795426e-01
2.236579595233173338e-03 5.309723714537277484e-02 -7.188942183058223412e-01 5.798259949027595450e-01 -6.116283696196475050e-01 5.382495268102303054e-01
-1.614135645202009472e-01 1.091213188519908756e-01 -6.218438163525273898e-01 5.184550256936730772e-01 -8.348089793166398875e-01 1.851981489790945345e-01
-1.389125162619282428e-01 1.023618515187638134e-01 -6.638469501377072257e-01 2.367524405887822814e-01 -7.373422177505296604e-01 6.326726924705899924e-01
1.721470742989433117e-02 -1.389941114613808260e-01 -8.863859921515641060e-01 -5.215149628695574524e-01 -4.994472494316756772e-01 6.917908560672783036e-01
-9.441819521832230111e-02 -1.397877137944719683e-01 -8.980299967195148891e-01 2.651561858017529305e-01 1.594507380359641013e-01 9.509298918799706790e-01
-6.369858486881667392e-02 1.272386543655563140e-01 -5.793784505717732847e-01 -3.459812254653057972e-01 -9.350220775332975798e-01 7.765762133133698175e-02
-9.689515488238815977e-02 1.197152852907954201e-01 -4.567374240980424660e-01 8.983768628881847462e-01 9.637112438876040132e-02 4.285225998838680384e-01
-4.410321522994652133e-02 -6.341245738856635117e-02 -8.768765534822022811e-01 -5.514552308755086424e-02 -6.024609963810758639e-01 7.962409931188683121e-01
1.237651543029000267e-01 -1.301837003664762515e-01 -7.928422069759215596e-01 -9.192309782499741289e-01 -3.238521171677904431e-01 2.239067101083287992e-01
-1.021267300594625449e-01 -1.011522800671904865e-01 -8.842396928730821282e-01 4.369496447603998246e-01 -6.785256283424870860e-01 5.904896100916539048e-01
-2.526977172050797263e-02 9.490238947427070970e-02 -6.316427300644894549e-01 9.121334668239753363e-01 -1.627686473594757988e-01 3.761899867572797151e-01
4.662376063703131679e-02 -7.962098349549374954e-02 -8.434437664284478720e-01 -2.215177149612885532e-01 -4.200101051494906090e-01 8.800689822568701359e-01
-7.701273869429030305e-02 3.261327847703544142e-02 -7.942665698693848197e-01 8.454271193048670807e-02 -6.553751118680861687e-01 7.505571214793261836e-01
1.028206305580980501e-01 3.186439375718039691e-03 -6.755411339977305252e-01 -8.357488902500226358e-01 -5.344525340803146785e-01 1.260328578624862195e-01
-1.160657169233215991e-01 1.623219976436697867e-02 -7.970483907192502659e-01 2.239106411451250167e-01 -3.486650321736448066e-01 9.101080815602783369e-01
-9.769104076250430257e-03 1.029898173908737335e-02 -7.994084463819669528e-01 -3.962312933926614433e-01 -7.911787084520882640e-01 4.658723145116738795e-01
1.095856044834169901e-01 -1.579792252040691514e-01 -8.185271415410104723e-01 -8.241675809814681397e-01 9.030973704808942237e-02 5.590992307752353785e-01
-8.917834010918758436e-02 1.171952485439709396e-01 -4.485218120056245206e-01 3.624222056064511643e-01 -1.425964155926352783e-01 -9.210409367359778665e-01
8.622599579308090623e-02 -5.630837079557966807e-02 -7.965376662008822883e-01 -6.633758005203330699e-01 -5.145859367631566705e-01 5.432622395948311089e-01
-1.483465628861762309e-01 1.022209826085582057e-01 -6.520690323845232950e-01 4.506818386676458288e-01 -8.630694050745905122e-01 2.280286874920398332e-01
-8.342530169900216896e-02 1.236046034490411588e-01 -6.272155270477518529e-01 -9.861729346939678009e-02 -9.344182769382143317e-01 3.422529958270484896e-01
1.127412633671695669e-01 -5.568891635237240012e-02 -7.597822949221733069e-01 -8.518664529661978957e-01 -2.720549047832014899e-01 4.475596888619345348e-01
-4.359130840523007394e-02 6.973644956423573349e-02 -7.389681419006715046e-01 -2.948631727712883732e-01 -8.658676249283974169e-01 4.041397845351351048e-01
-9.155240212423583490e-02 1.280471155097646641e-01 -4.655490112434368943e-01 8.457175691470556478e-01 -3.486502094267228680e-01 4.039861689497517006e-01
6.362039923982501510e-02 5.352564482923218708e-02 -6.656680849115139686e-01 -6.435461249204428302e-01 -6.941147237031746187e-01 3.225726824118053671e-01
-3.617287641543094536e-03 -4.670332935618772691e-02 -8.513854919115575459e-01 -4.133152583172111094e-01 -6.570010676749893364e-01 6.304919462737815783e-01
1.080802560085735997e-01 -7.278668267065409314e-02 -7.768738150904652695e-01 -7.840877138124872081e-01 -2.701779124244585439e-01 5.587578658831289236e-01
9.081748698058046687e-02 -9.306998406579910718e-03 -7.403052182555798222e-01 -7.353720426739009941e-01 -4.753341158857434801e-01 4.829963117133844741e-01
-1.224938649731572710e-01 2.667289803281399502e-02 -7.798556876647930736e-01 5.310570982506075399e-01 -8.217531927952809179e-01 2.066399006203945288e-01
-5.639855225821872875e-02 1.198642746091296424e-01 -6.119880014724410344e-01 -4.586325654949791053e-01 -8.189661771899835463e-01 3.448921142709965859e-01
-4.729484045112439944e-02 -1.423750539982820973e-01 -9.042147237024557027e-01 8.912378885619394453e-02 -2.648434185593532830e-01 9.601640036502679942e-01
-6.967381462220165189e-02 1.191683716990508679e-01 -5.162307414499995861e-01 9.122329134416526930e-01 8.580844038975532495e-02 4.005846017904733936e-01
8.345017062512602446e-02 -1.997128717560395783e-01 -8.284093560790430910e-01 -8.381394757657203431e-01 3.052633410009106263e-01 4.520359629544147273e-01
1.675764136330731846e-02 4.555982450809899220e-02 -7.232814230272003320e-01 -1.692337329796222423e-01 -5.447851608513514243e-01 8.213215400426007173e-01
-9.660255728288072441e-02 1.239663873073006684e-01 -4.571373016620842167e-01 8.871144504764627570e-01 -1.845566366215810883e-01 4.230446780598629553e-01
-4.438323038563642131e-02 -8.663261324864060531e-02 -8.887353245563421877e-01 -9.395822973732775862e-02 -2.988105596813889209e-01 9.496757870386728362e-01
8.447799335308620039e-02 3.417889245622528910e-02 -5.792204509701139870e-01 -8.773903190405960562e-01 -4.360416411339554377e-01 2.001347427386045708e-01
-7.058042003869363645e-02 1.272717320443320643e-01 -6.113795945621699479e-01 -2.956228100498335398e-01 -9.453876077037935977e-01 1.372932095128459873e-01
1.866851870914061975e-02 2.152999704732868420e-04 -7.761229754789413793e-01 -7.930690108576989861e-01 3.658281344295836179e-01 -4.870434478329026540e-01
-7.535974096742621697e-02 1.283460132444168289e-01 -4.591472885368939605e-01 -9.301854446026338596e-01 -1.802492522547526621e-01 -3.197893771078124669e-01
8.319624178518790492e-02 2.959292213304234517e-02 -6.731204181235163064e-01 -7.512499957154176178e-01 -5.596876773195146315e-01 3.498187356249975455e-01
7.031443746815042861e-02 4.334796731000354481e-02 -6.740954744570678558e-01 -7.383805613057602413e-01 -5.904022329713369821e-01 3.259131018971918037e-01
5.442804282731084770e-02 4.978870481789766239e-02 -6.910168954535558239e-01 -5.163097991032324918e-01 -6.812433899094827439e-01 5.189717093008211490e-01
-5.835101433832006607e-02 1.125459095946216154e-01 -5.231800855996963096e-01 -2.416430549915340731e-01 9.663046620021500388e-01 -8.867882592405609832e-02
-7.842166701641337112e-02 1.087309917587543917e-01 -6.657845733926940346e-01 -1.406055628571290794e-01 -9.545089340004768719e-01 2.629501295053935372e-01
2.900193801539356284e-02 -1.661355112366484643e-01 -8.899807666773199566e-01 -3.444365487982999352e-01 -2.578621211093096721e-01 9.027018280412000273e-01
-1.298737600607841880e-01 7.430773251625200082e-02 -7.145760724234601069e-01 4.011383429707317538e-01 -8.657616063280955121e-01 2.992404899188803591e-01
-1.050032603482064647e-01 7.506401844390422386e-03 -8.110516753729379857e-01 3.126795972182751515e-01 -7.135991386039991502e-01 6.269032930740177090e-01
6.039063241600108739e-02 -1.818140774490657197e-01 -8.589308142053307948e-01 -6.069676641409744722e-01 2.864503679323874841e-01 7.413072516835708115e-01
-9.352991134611270130e-02 1.155183839612683866e-01 -4.616380477595543042e-01 8.276240652400741471e-01 3.777956941042036609e-01 4.151009758502335889e-01
-1.223183368549695116e-01 -3.123072929137386128e-02 -8.341380374185307645e-01 2.965529691128922507e-01 -7.368171942642789962e-02 9.521698066693214946e-01
-8.511982887805827347e-02 1.105296801534935286e-01 -4.524091113675745568e-01 -4.709865765122919212e-01 8.753717253889171657e-01 -1.090687266582925641e-01
-2.701394200286749356e-02 -3.227776489483311084e-02 -8.525097025435576237e-01 -2.277957524430992420e-01 -4.683705082719432644e-01 8.536616204035203381e-01
-3.177961389962778022e-02 4.327819594368728651e-02 -7.731861225115722602e-01 -3.743181874771472906e-01 -7.020567639548729311e-01 6.058070606298964211e-01
-5.612203564853660703e-02 5.073674096001310613e-02 -7.707481489667167285e-01 -1.573106861325453826e-02 -8.722852362621764666e-01 4.887443095109386682e-01
-5.095755198670232772e-02 9.497847129372795350e-02 -6.895657944546378371e-01 -2.700798178452790133e-01 -9.224570892505289388e-01 2.759163106525281406e-01
7.705513282525382202e-02 4.273099073540156251e-02 -5.755495662522681632e-01 -8.365433635539674118e-01 -5.268832994007823789e-01 -1.502970049813377174e-01
8.015182225643165126e-02 3.869519566299670088e-02 -6.373238409077791600e-01 -7.685587548101430189e-01 -5.999960888147034543e-01 2.220858703559064895e-01
1.449934096419599030e-03 4.635804617056260568e-02 -7.143424908174987875e-01 3.091387311850137265e-01 8.405803930271933400e-01 -4.448121488219144437e-01
1.165598191135356308e-02 -3.419886332357671699e-02 -8.265597681007975650e-01 -5.932512120134513234e-01 -6.046014748644731318e-01 5.315167504757255523e-01
3.567858947021616128e-02 5.648697195574547969e-02 -6.949968026796076170e-01 -3.282088422825820695e-01 -8.767799097357784621e-01 3.514768068183831140e-01
-1.066362798112393123e-01 1.046919801557038565e-01 -6.720833395548663214e-01 1.633103516674315747e-01 -7.803607309147093662e-01 6.036280797680971810e-01
-9.617039834401069909e-02 1.322633016413350127e-01 -5.863974264904022737e-01 2.006669239067258512e-02 -9.541672826806639751e-01 2.986002754826192485e-01
-1.403628925054421599e-02 1.015975572449535624e-01 -5.040375623118399373e-01 -2.763999906761107073e-01 -7.921236748085553891e-01 -5.441903425843167552e-01
-1.544892474149711648e-02 3.939303049285700076e-02 -7.663637930892933658e-01 -4.910191977680438136e-01 -7.297394120555026342e-01 4.757946383852135752e-01
1.100318848090807433e-01 -1.301448355940584278e-01 -8.183705945260384418e-01 -7.811857511185582581e-01 2.867422054144250221e-02 6.236398089648180765e-01
1.002661712350546991e-01 -4.641836418418728710e-02 -7.744477415741133353e-01 -7.469845062451898610e-01 -5.208419805214955511e-01 4.132042821124625731e-01
-6.528564863451857825e-02 1.156601735100311196e-01 -4.952006369692461552e-01 -7.903229626361050197e-01 5.368703031498219813e-01 -2.952285425325739121e-01
-1.144878461319955108e-03 -3.192762315026766856e-02 -8.373159773639146097e-01 -5.041556124210331280e-01 -6.326724143945866574e-01 5.878373367935191274e-01
2.353984589256620519e-02 -1.321005474199560825e-01 -8.743571871031535769e-01 9.732067600633464988e-01 -1.295524943933201723e-01 1.899598730349976727e-01
-4.004376933934234578e-02 1.144821196815738878e-01 -5.851532062399695810e-01 8.432961230166149402e-01 -3.722940057092001265e-01 3.876194296189809929e-01
-8.258280680432948662e-02 -6.669475803442208306e-02 -8.741295133810261797e-01 2.692608539090214914e-01 -6.459306214522806400e-01 7.143334129259635290e-01
-2.918475872569285812e-02 -2.921711963124073649e-02 -8.486179626574860135e-01 -2.183723864098646994e-01 -6.592080599355371051e-01 7.195541915447964954e-01
-6.435838300224123489e-03 6.894250205584788460e-02 -6.760377319542926200e-01 -6.468958223679031061e-01 5.852005708979663989e-01 -4.889438483339865749e-01
1.146684597154816743e-01 -1.456001673092550130e-01 -8.143745198042596778e-01 -7.827477836281380164e-01 1.204341866745797102e-01 6.105747406380893638e-01
1.212072271223302300e-02 2.433089969419496845e-02 -7.468813125774708128e-01 -6.175489242043207261e-01 5.352513776774473486e-01 -5.763152686754714482e-01
3.863085098933587147e-02 -2.064209825137070797e-01 -8.705036049368358730e-01 5.707715908324113158e-02 3.813074186325522419e-01 9.226845887987760175e-01
7.021772981325041796e-02 -1.200256503706441380e-01 -8.542470614846415788e-01 -5.771839271482606115e-01 -1.762726503937977196e-01 7.973623185007286951e-01
-1.018866084489764429e-01 -2.541431278301010607e-02 -8.411036522873870380e-01 3.046406797309570980e-01 -5.237448346329085513e-01 7.955409508305700816e-01
2.875289781232868644e-02 5.417700521794807655e-02 -7.055201690153927174e-01 -1.919401497175908244e-01 -8.668325946035875251e-01 4.601741321056643796e-01
-6.861654497535286945e-02 1.020848684828214031e-01 -6.767679645591444526e-01 -2.004730207565737499e-01 -8.645614803107496416e-01 4.608080020047606307e-01
1.041625559446279353e-01 -2.297250209185505362e-02 -7.284647200050083926e-01 -8.395331180387631820e-01 -3.435583431646576091e-01 4.208940585920254440e-01
1.289603920160396489e-01 -1.045667981680058894e-01 -7.655812820477444491e-01 -9.301924030925925457e-01 -3.052209433319789667e-01 2.039173091730189513e-01
1.001475569965668694e-01 -4.965343054739726480e-02 -7.811596373308726804e-01 -7.177480949225795159e-01 -3.222617676157509825e-01 6.172398442811186658e-01
-9.185834720705432499e-02 1.211333280203089335e-01 -4.675130703315003022e-01 9.049055954113196520e-01 4.463132810144733453e-02 4.232657651466580351e-01
-9.607733222480407953e-02 -2.006801070988445054e-02 -8.387061072146353435e-01 2.688816701494685102e-01 -6.564932314581783945e-01 7.047831471504061307e-01
5.643921392552874589e-02 3.938674896286379484e-02 -7.100735372059582273e-01 -5.455763022007641405e-01 -6.813345344371116719e-01 4.879854000483057064e-01
1.936889531585879063e-03 -1.458144626446746250e-01 -8.965290976825703861e-01 -4.025580748924505459e-01 -2.331489980743557122e-01 8.852053665877813726e-01
-3.273054568559029959e-02 -1.380306549699951424e-02 -8.380838177629001962e-01 -9.646424224729559238e-02 -7.073608154547432747e-01 7.002394781264876800e-01
-7.498289116607194382e-02 1.323452267414823580e-01 -4.641987783121419020e-01 -8.225630316230154726e-01 -5.030775857066968060e-01 -2.651471322995498925e-01
3.806552464774970446e-02 5.975675890517671840e-02 -6.886654185103796566e-01 -3.251134665578310767e-01 -8.887537234757603155e-01 3.231378233366093977e-01
9.050119554933312715e-02 2.737709421148402586e-02 -6.481549852364192343e-01 -8.250574349986098399e-01 -5.129944855227662748e-01 2.368900309779768121e-01
-5.317556468712739820e-02 1.021828318151438986e-01 -6.675584492988301255e-01 -3.134211156902365070e-01 -8.364965007969924482e-01 4.494894975345636312e-01
1.182678488227981717e-01 -4.580076636703180742e-02 -7.095656247255257565e-01 -9.125521082436724996e-01 -4.088295299483786227e-01 -1.034723065444234820e-02
-5.517872168897869356e-02 1.012250249878370589e-01 -6.788170554156067737e-01 -2.167080428515133494e-01 -8.640773324691520818e-01 4.543214585251959536e-01
-1.194590558273941894e-01 1.224079851592026619e-01 -6.339308639250844646e-01 1.987253346343795524e-01 -9.473359537694332477e-01 2.511231412478993619e-01
-3.247268452020311141e-02 8.322787137050562112e-02 -6.962705042430271662e-01 -3.773792812021180554e-01 -8.478808486389096677e-01 3.724015905319615349e-01
-3.201276217322569090e-02 1.183487019165388593e-01 -5.606577306671187699e-01 9.595368617399294836e-03 -9.807888255316197235e-01 1.948363636834816448e-01
-3.249626444116407442e-02 2.765264359313318598e-02 -7.934459528127150163e-01 -2.152275687855537967e-01 -8.462327979451979010e-01 4.874086020132408215e-01
9.599553369940655445e-02 -6.495566763470103644e-02 -8.010564540368904085e-01 -7.394565741324387043e-01 -4.099190298522093490e-01 5.340134492101679120e-01
6.166536287950253464e-02 6.182029237893321011e-02 -6.268983044827920459e-01 -7.452856331919957000e-01 -6.495506165165297885e-01 1.504437487588045075e-01
-9.166256915782443337e-02 1.017924402815078289e-01 -6.777079984292183612e-01 -1.265582838613249841e-02 -8.763280577561356477e-01 4.815485076264068298e-01
-9.419729663231789230e-02 5.982324912237152459e-02 -7.557696033361603893e-01 2.448332103360339462e-01 -8.587953843812491384e-01 4.500302066328588091e-01
-1.026605417381312030e-01 2.216023854450844752e-02 -7.976144389809771695e-01 2.124088819170126541e-01 -5.974957417654706004e-01 7.732278483441312744e-01
2.190280499817137509e-03 9.770125735280500712e-02 -6.156629659277879085e-01 -2.154617136350378825e-01 -9.596055727434366078e-01 1.809237262417335568e-01
9.991955825857944118e-02 -9.198939664435841490e-02 -8.144346382053081479e-01 -7.233677602871187995e-01 -3.101483638656358788e-01 6.168849777459867179e-01
6.582243537465384819e-02 5.899686890779298754e-02 -6.216439738031792617e-01 -6.761109783014814800e-01 -6.840526477578438014e-01 2.737625250389411624e-01
-2.830206117132560636e-02 1.194544787984180984e-01 -5.565425689571599221e-01 -1.957828974410000811e-01 -8.512067987688733961e-01 4.869456261219042847e-01
-7.550913357759737876e-02 1.212581291981959103e-01 -6.355806333127120844e-01 -1.985976714434000978e-01 -9.628201987145693641e-01 1.831289978252937933e-01
-9.159570295910335336e-02 -7.002878692864157595e-02 -8.757244332085322158e-01 1.678546626909122597e-01 -2.546317900991483252e-01 9.523588943690416420e-01
-2.718678397916087300e-02 1.139286620321125314e-02 -8.083227319626922203e-01 -2.618940561885877982e-01 -7.799941238137685362e-01 5.683490742044720045e-01
-1.204277105604972531e-01 8.638467057753013156e-02 -6.969966549284363211e-01 3.048778242041311204e-01 -8.512286912824350571e-01 4.271524639354756236e-01
-1.884200282281419531e-02 -6.298996166271414454e-02 -8.707002347348807847e-01 -3.282236787862806704e-01 -4.542327000623961331e-01 8.282160774085625121e-01
1.802690124023431303e-02 -1.255103950042593397e-01 -8.783025135743802725e-01 -6.392300741674387110e-01 -3.697988539385810292e-01 6.742653186288041223e-01
-7.990842233144103413e-02 1.213577695183197941e-01 -4.934569102750204772e-01 9.095010035283367378e-01 -7.439985679248384276e-02 4.089897136728579130e-01
-9.979537021627338245e-02 2.200897124613651265e-02 -7.992506201824179923e-01 3.098942011160519816e-01 -8.072712131717668660e-01 5.022736032271930551e-01
-1.938908555375706833e-02 9.502602642961242851e-02 -6.260930382824663187e-01 -8.977815828142827748e-01 2.035268573616078325e-01 -3.905957602073899526e-01
