-3.277308330813236831e-02 2.687734715530126217e-01 -8.369758765691590607e-01 -8.630451871573884270e-01 -3.675063518732312184e-01 -3.465430510878801385e-01
-5.827427744753937294e-02 9.345420187055322736e-03 -7.587280403560775488e-01 -3.505088373525944850e-02 1.256001104234676646e-01 -9.914615715250845174e-01
-5.604466574362667458e-02 -1.084481899623393475e-01 -7.785143967104618534e-01 6.363052382403527885e-02 3.430975241680155330e-01 -9.371420625218233047e-01
-4.475551570140617191e-02 3.215421488241084202e-01 -8.764798255248216208e-01 2.008258367755652585e-01 -8.786069245819000395e-01 4.332653405941092051e-01
1.202604534463414497e-02 -1.697494465471728609e-01 -8.270565633753484969e-01 3.240342093555007713e-02 5.009013977416039154e-01 -8.648975708441900556e-01
-8.580446509913121356e-02 -9.056321238061174062e-02 -7.789199045891386231e-01 2.820805013704874020e-01 2.725911069216830351e-01 -9.198503569460558804e-01
7.449118320227511580e-02 1.713702165322449414e-02 -7.881130497960342485e-01 -4.617074993702061092e-01 -7.407041578616499478e-02 -8.839342501173806932e-01
4.647055870832188240e-02 -2.074345698039144759e-01 -8.621704767284703586e-01 -1.893877068809855235e-01 7.917573044494115031e-01 -5.807345928506099098e-01
-4.276518941655152450e-02 2.582335346264731379e-01 -8.471899892004608468e-01 8.096798254745708467e-01 4.694328606475630661e-01 3.522092695596102385e-01
6.035290954224516169e-02 1.032162503959973276e-01 -7.916700714433302366e-01 -3.865039585949788803e-01 -1.716351544693532627e-01 -9.061766184032185034e-01
2.202022544774127899e-02 -1.774416040824711438e-01 -8.342582514210725719e-01 7.932709464404066879e-02 2.567384570901878882e-01 -9.632199004932804343e-01
-8.877571572252383747e-02 2.031048064996425762e-01 -7.998523336121963201e-01 1.236110038213290435e-01 -3.035013352685738686e-01 -9.447789472805139255e-01
6.317082470357908430e-02 -5.863697545894298174e-02 -7.908616579545721947e-01 -3.362721155408893714e-01 2.503834612821219663e-01 -9.078706882734119965e-01
4.882000174666876503e-03 1.142462742312241354e-02 -7.759724877560945089e-01 -9.557175797353367752e-01 -6.823165339352457726e-02 -2.862662209552782611e-01
-4.094172545074917929e-02 -1.499008656817206742e-01 -7.978318111901656629e-01 3.243992605239591487e-02 4.592951553235947171e-01 -8.876911689850193188e-01
9.752134934357546692e-02 1.218079143370661283e-01 -8.289606541096667947e-01 -7.241081886821573166e-01 -6.284736055589326686e-02 -6.868169627743643257e-01
-1.866165656428396893e-02 1.575774241787806507e-01 -8.008109507723398801e-01 3.857437844590697607e-01 3.193931196068570677e-01 8.655574896556522679e-01
8.497214376162447180e-02 -9.605435719885726392e-03 -7.971520241460111622e-01 -6.115283565700714297e-01 8.402676229773245464e-02 -7.867480996662579162e-01
1.976649892520945806e-02 -1.997089490671663248e-01 -8.457242118028363009e-01 3.243992605239591487e-02 4.592951553235947171e-01 -8.876911689850193188e-01
-3.484284800471799254e-02 2.857763533037676607e-01 -8.538097659846738408e-01 -9.869483808028834959e-01 -1.533343660547094867e-01 4.920839173521770332e-02
-1.077548855233394637e-01 5.085381229000927178e-02 -7.720984564157702401e-01 4.264749417981650303e-01 7.358943662448394485e-02 -9.015008146616081408e-01
1.176936780084556766e-01 -3.514708282745900025e-02 -8.279526301280624168e-01 -7.838754841806132578e-01 1.642644440698437514e-01 -5.987958063605942627e-01
-4.337346001608589213e-02 3.084136460151845061e-01 -8.840136163708143258e-01 -8.334655084268033365e-01 2.302864487461596943e-01 5.022981164475261995e-01
-7.862759502675779888e-02 1.703282550870797649e-02 -7.620765185740937531e-01 2.250679554551374417e-01 -6.065773093256580407e-03 -9.743241872313471719e-01
-4.884949257684795959e-02 3.151012240310914758e-01 -8.875713261206820137e-01 1.200757814656805977e-01 -8.989038616064656262e-01 4.213711597800570696e-01
-1.245135922258674699e-01 1.798079973844458057e-01 -8.020112588821991517e-01 4.852012194234078812e-01 -3.488537379268852323e-01 -8.017985072351271336e-01
-2.427464773973322248e-02 1.379413015654098740e-01 -7.848988116568821338e-01 -4.875419053465925856e-01 6.002250351905625420e-02 -8.710339772949843296e-01
7.551617970681073766e-02 -1.234959286043306112e-02 -7.912177728098885865e-01 -4.625942509103080913e-01 -1.195914552522250006e-02 -8.864894459964186568e-01
-3.109677733590135787e-02 -1.771994038311226760e-01 -8.150920492142397222e-01 1.205778481846584392e-02 5.300337891907248578e-01 -8.478907902208832059e-01
6.137500926333352980e-02 -6.988980415274254065e-02 -7.927235073300415991e-01 -3.388909714408891993e-01 1.173395814977114537e-01 -9.334796902395855467e-01
-1.411715178976400038e-02 -8.650805539763099794e-02 -7.822765592260905176e-01 -3.365490050107047271e-01 1.430219305983777833e-01 -9.307413682619986028e-01
-3.469340399033969680e-02 2.580743196844943466e-01 -8.275984761239671972e-01 -1.548207076902662349e-01 -5.069758595205269280e-01 -8.479422305403288007e-01
1.285696839466502449e-02 -1.850052756932225873e-01 -8.363356413245398580e-01 -8.787200292240641142e-01 2.381354799338061268e-01 -4.136938523076644225e-01
-1.911847911328524085e-03 1.299568112751660620e-01 -7.892875795342295664e-01 1.447889673130458854e-01 -1.656228323048542228e-01 -9.755025537453707596e-01
2.123666431400693388e-02 -2.157594928359732322e-01 -8.564144180475339319e-01 -5.357436452178798714e-01 5.353534239912286496e-01 -6.529743165159913598e-01
-3.336938090584022631e-02 -2.515493959148303732e-02 -7.633587684584711708e-01 -1.771614705540711099e-01 2.304642259868518173e-01 -9.568176701396146067e-01
1.172073015234345247e-02 -1.552361388140104104e-01 -8.192997723506529884e-01 4.745896034177088385e-01 3.663015201956025257e-01 -8.003673560498406614e-01
9.304521397330460519e-02 -3.927532747544204561e-02 -8.042301166589659323e-01 -5.052295603953442793e-01 8.576952186310160542e-02 -8.587122221222324159e-01
-7.622274907549572709e-02 2.000809779986217202e-03 -7.612520313066528654e-01 1.494869288887788750e-01 -3.582294698650867470e-02 -9.881145553834347339e-01
1.157732323904430219e-02 -1.832093211549466194e-01 -8.348173338877138416e-01 4.764939020431351313e-01 4.430446174459121145e-01 -7.593846378930196872e-01
9.637178823927734783e-02 -1.961150019158063723e-02 -8.044144905782913968e-01 -6.392679561921034148e-01 -4.895400752899728425e-02 -7.674242538080366938e-01
-7.237629204972415020e-02 -9.468366458953892881e-03 -7.624421684083061423e-01 5.964749200265539314e-02 2.179484324694856701e-01 -9.741358516561675618e-01
-4.943430601474869956e-02 1.524290988417189852e-01 -7.811881213515020628e-01 -1.462227678010814547e-01 -3.102727973389141081e-01 -9.393347078693921048e-01
-1.303059664460339551e-01 -8.222477625873890472e-02 -8.020064843681168343e-01 6.475356004989771819e-01 -9.577444523883682503e-02 -7.559926598358096550e-01
-4.094371802860759940e-02 3.178494431206707604e-01 -8.785410082687554745e-01 -9.853578134711100667e-01 -1.207810231333834583e-01 1.203408653878066809e-01
1.211644755265755546e-01 -1.155922264659456772e-01 -8.535592907952940234e-01 -7.907325878351865178e-01 3.969353745603990680e-01 -4.660303455334904865e-01
-1.090845932780156735e-01 1.071427610172784456e-01 -7.759486336587876343e-01 3.823591725702702449e-01 -2.150585675882844550e-01 -8.986385678671117150e-01
3.427447112778173044e-02 1.595588173364407558e-01 -7.946899435840850678e-01 -2.080702994104672854e-01 -2.756743678011744914e-01 -9.384617165556948803e-01
-1.105115368754100574e-01 1.676039664161823040e-01 -7.889107874165272039e-01 3.575476291729128286e-01 -3.139920264866289945e-01 -8.795275437276818264e-01
-7.655170107266245916e-02 -9.637290125455005504e-03 -7.631210553012429676e-01 2.140367362773343274e-01 2.040008035097724826e-01 -9.552863171275478571e-01
-9.786307450127423868e-02 -1.826893905468525425e-01 -8.382102784860820943e-01 3.784629147839880803e-01 8.077181291676501784e-01 -4.520588965468091414e-01
3.128336316426600511e-02 2.251124273199270331e-01 -8.238593409247664257e-01 -4.811751587707329136e-01 -2.787804044866704078e-01 -8.311148853535282877e-01
-9.620442296378545199e-02 9.837089488541332638e-02 -7.722814258269496968e-01 2.688421353887949228e-01 1.307917871396633777e-02 -9.630954476705624323e-01
1.081353604904336796e-01 1.182749617377160806e-01 -8.419093113215617707e-01 -7.575255451964747477e-01 1.358177379617716840e-01 -6.385206264716363211e-01
3.684222592655059247e-02 -3.002116780067379601e-02 -7.815131453730291833e-01 -1.232597065450427437e-01 1.845594280096393702e-01 -9.750614658959633196e-01
-1.097243507204121171e-01 -8.095218029447913410e-02 -7.876993805962817508e-01 4.157747391695450490e-01 3.639534958709434997e-01 -8.334681872224134480e-01
-6.226007000667850740e-03 6.722891702335806463e-02 -7.763759531790466184e-01 8.804865813510646122e-01 7.547185610521746357e-02 -4.680249768941274757e-01
-3.115653727250444760e-02 2.659057208779486703e-01 -8.416241471730624424e-01 -9.870681093026424380e-01 -1.551264110263051166e-01 4.040227963623460594e-02
6.156040412981034909e-02 8.560836677821764829e-02 -7.886566920076263365e-01 -3.845991869930907581e-01 -3.671860081178313778e-02 -9.223530829994978086e-01
6.040412953492156622e-02 6.371803824745531086e-02 -7.852599071320780499e-01 -4.322689383449769274e-01 -2.296012656247897188e-01 -8.720245545657538955e-01
-6.391040520784357915e-02 -4.314339726669854519e-02 -7.628552674995173755e-01 7.858073065292982273e-02 2.838031748405119847e-01 -9.556572747175096083e-01
-7.232029195264301491e-02 -1.749559780233170825e-01 -8.156574507895886228e-01 2.449508876117472145e-01 4.744454034844065582e-01 -8.455179606434958250e-01
-1.188023330930072482e-03 3.026379138010926173e-02 -7.743166790896961471e-01 6.199749164502007526e-01 6.874356927964675457e-02 -7.816043913996779668e-01
6.600967409450986256e-02 8.487821441156788438e-02 -7.907788166626750215e-01 -5.062701606382981057e-01 -8.950696900576016191e-02 -8.577173351091103015e-01
-4.039956054055949750e-03 6.645830942262825891e-02 -7.842940757137456531e-01 -3.033233114508390171e-01 5.650012908448493604e-02 9.512111774700368061e-01
6.350155529323486814e-02 1.836741275421720221e-01 -8.184356330565800697e-01 -5.601316561618359113e-01 -1.640551620360120033e-01 -8.119965711594702151e-01
-1.484178056086725705e-01 1.724897178562297406e-01 -8.168798623581570162e-01 6.334721961862977979e-01 -4.702600319621482172e-01 -6.144660112633306692e-01
-5.139399000624503971e-02 3.114232508999406623e-01 -8.926595758055718699e-01 -1.676952502377624665e-01 6.133080035854693302e-01 7.718365084560980804e-01
2.373803200272246380e-02 9.241038798109944830e-02 -7.807744602172087545e-01 -1.319312337238915944e-01 -2.620919978355913393e-01 -9.559821830131773890e-01
-2.785772773257838217e-02 -7.025954556864488776e-02 -7.712100313609329127e-01 -1.405965973085414600e-01 1.418138334164933123e-01 -9.798578639154653658e-01
-2.965410667743198156e-02 2.569374871233994773e-01 -8.327075640193030148e-01 -9.458916392742764412e-01 -2.772328365059543720e-01 -1.686148306463128299e-01
4.166121205531659460e-02 -1.686524729346388085e-01 -8.277393074684747942e-01 -7.598485939250709809e-02 5.614780222113618935e-01 -8.239955896221278220e-01
-6.738717473895877719e-02 -2.007040935581539676e-01 -8.407934168433726096e-01 3.626014519561879257e-01 6.062345964662174680e-01 -7.078133942549454938e-01
7.719358617222770455e-04 2.043540146909996746e-01 -8.059504839963508305e-01 2.252313322013202446e-02 -3.033850811173222084e-01 -9.526018061212061516e-01
-9.681684943121694753e-02 1.457111395187263569e-01 -7.817691957212861142e-01 2.715594142513980680e-01 -1.436723086840399611e-04 -9.624216663654791004e-01
-1.001935820294156121e-01 -1.491891655486470292e-01 -8.100619020487743738e-01 3.782913464855438002e-01 5.771474817899937548e-01 -7.237378264521091564e-01
-5.284851700237316180e-02 2.913559967866215517e-01 -8.601035222162375371e-01 9.671003614386395331e-01 1.496051567126731319e-01 -2.057551651605115939e-01
9.794454133340592394e-02 -1.261124428783591822e-01 -8.327074909518881185e-01 -5.627461499238337606e-01 2.074868169861527889e-01 -8.001662274320612278e-01
1.034327506749785075e-01 -1.783370247882945514e-01 -8.791246022199257215e-01 -7.477075017506420451e-01 5.500804700855835838e-01 -3.719475342790122818e-01
4.477275584129446900e-02 -5.032984300504393660e-02 -7.838438301809862452e-01 -1.994861860291565481e-01 1.361673143610171999e-01 -9.703935923547973852e-01
-8.939115830571464638e-02 -1.285264694285792875e-01 -7.971590684623290901e-01 4.556661746233170440e-01 3.372344022218498050e-01 -8.237968774292753205e-01
-1.026900609929480915e-02 -2.231218565258704933e-01 -8.666455042406107090e-01 -1.885150377947503175e-02 8.260977874783368424e-01 -5.632113868954081726e-01
-2.917673289457302019e-02 2.496863885231363767e-01 -8.368491135365113687e-01 -9.668941304756194510e-01 -2.275033407900763777e-02 2.541616862375000729e-01
-3.729378588949170542e-02 1.360344553026137104e-01 -7.788622198783063943e-01 -3.493673146767798388e-01 -2.460608861768620315e-01 -9.040998394698414042e-01
1.412152652283132567e-02 -1.904829028665811497e-01 -8.416903209000986541e-01 -4.039693761069566569e-01 1.847413704401724699e-01 -8.959237518983648174e-01
1.127051519260809792e-01 -1.652759017094443950e-01 -8.776306777780145119e-01 -7.700284892785962398e-01 3.775918174737671884e-01 -5.142767203327212044e-01
1.308813954391707148e-02 -1.378750781903735900e-01 -8.119510335010442503e-01 -8.787200292240531230e-01 2.001321663677575469e-01 -4.333569270537018792e-01
-7.876275670214970270e-02 1.360433061403522048e-01 -7.764780560748356653e-01 1.859332315487618736e-01 -2.353880468994303532e-01 -9.539503659953730841e-01
8.124278238057340562e-02 -6.032981244161146617e-02 -7.999715849462655237e-01 -4.590171114046215917e-01 1.119918461966277062e-01 -8.813405231936336515e-01
-3.649473326891131131e-02 2.159724465681497063e-01 -8.090642879030098822e-01 -3.323681716540439202e-01 -4.822396697565898838e-01 -8.105407450488857357e-01
1.162673700771490494e-02 -1.752996476974704176e-01 -8.364034847290409136e-01 -4.769669996887400676e-01 -4.038968265933655655e-01 7.806214413374322758e-01
5.804482713412074252e-02 1.221529271136184182e-02 -7.816021018851672109e-01 -2.370866981196765311e-01 1.509253623395122035e-01 -9.596934055089658688e-01
8.468744013853835018e-02 3.575997519047777184e-02 -7.947711910478849617e-01 -6.167297801966722393e-01 -1.328593164916435643e-01 -7.758819370496631285e-01
-2.658195310363647285e-02 2.398956348577041819e-01 -8.228064475091304564e-01 -9.362060357060768556e-01 -2.804790901845972684e-01 -2.117775688705783033e-01
1.730728798327542048e-02 -9.544985977010039813e-02 -7.963546154223742901e-01 2.213058152353308827e-01 2.237389932136976123e-01 -9.491915502461802934e-01
2.642011998038115358e-02 2.393181887763873028e-01 -8.321114793053190350e-01 -4.439131184764877336e-01 -5.433998560026147562e-01 -7.125010454313855934e-01
-9.078762303123934230e-02 7.695792052777952752e-02 -7.676544600189999512e-01 2.868592231557918204e-01 -7.462895154902576822e-02 -9.550614146122481385e-01
-1.205520001818400494e-01 5.967407862412474340e-02 -7.776432874115468685e-01 4.557996101631200947e-01 -6.645697777206131807e-02 -8.875979864108253237e-01
-5.311876296362161298e-02 3.172744474552113281e-01 -8.812529376602684650e-01 1.944780353042501186e-01 -8.760037121389133707e-01 4.413567605724902920e-01
-3.603010589108470579e-02 2.900670424854892016e-01 -8.604180579278766228e-01 -9.862468633905743243e-01 -9.423311994331229346e-02 1.357838118407460326e-01
1.073484683835360803e-01 1.482177031128748268e-01 -8.467299984990527273e-01 -8.100698307609545123e-01 2.018825874065453482e-02 -5.859857536663657385e-01
-6.964344362593193061e-02 -1.259001262945537991e-01 -7.892289043412406002e-01 2.919192995163210069e-01 3.655643848296762921e-01 -8.838245318579932563e-01
-9.926965403148466094e-02 5.059748804196328303e-02 -7.688198957384919652e-01 3.615777716151383769e-01 -2.852292255273622748e-02 -9.319055520614101251e-01
-1.302561813146960734e-01 1.634883151142425828e-01 -7.968706280676002285e-01 5.027750891326308036e-01 -3.275495146833264926e-01 -7.999553269891965801e-01
-6.616505399306453483e-02 6.068334958033212018e-02 -7.611624469002762350e-01 7.530513183093448526e-02 -1.628849043438872213e-01 -9.837670684957939837e-01
-3.356324421565409777e-02 2.739642933819764758e-01 -8.521578123277083749e-01 -9.568649029188299737e-01 1.084509819449335812e-02 2.903307448536750490e-01
3.172908841127893703e-02 1.029000684553843248e-01 -7.823052746897736220e-01 -1.364671424241189479e-01 -2.670150051690443616e-01 -9.539809778256432837e-01
-5.630356321984705120e-02 3.122599076382120420e-01 -8.663629829711239072e-01 8.648825549684915348e-01 -7.286118452647595556e-02 -4.966582465846844929e-01
1.397465207355008121e-01 -8.819431838773635068e-02 -8.768322055935415804e-01 -8.518403334833286600e-01 -2.434796452978985615e-01 -4.637733375007891956e-01
3.060036117152640806e-03 -2.266354624448079502e-01 -8.644641533192899407e-01 -3.434555780858986607e-01 7.510403467101653963e-01 -5.638941953018808961e-01
7.839383123531822040e-02 6.702413825493357125e-02 -7.962276452204128940e-01 -5.533295203286995312e-01 -4.960249392376241649e-03 -8.329476801449036127e-01
-2.622704788732940773e-02 1.918410477931184188e-01 -8.090174526471197725e-01 8.971468269739029111e-01 2.786550084914956038e-01 3.427520344115589368e-01
2.963147034656821166e-02 -2.303963000527783998e-03 -7.764397664191307058e-01 -6.525463797078802364e-02 -9.925664160261987723e-02 -9.929199118363324361e-01
-3.011441762545865545e-03 -1.980765510348413139e-01 -8.384293374239079055e-01 -3.018349854577124236e-01 6.563919145958689860e-01 -6.914081978158141961e-01
4.373978469393152713e-02 -1.154464529042143889e-01 -8.034934558216014766e-01 -8.937236760963472582e-02 4.772309551124906957e-01 -8.742214795978580089e-01
-4.657266105086698554e-02 3.246858485363180447e-01 -8.692191427294627681e-01 2.106648927942177951e-01 -8.848765984654275440e-01 4.154680594609592159e-01
-9.791824598844305061e-02 -9.059923684437856672e-02 -7.835284023557652633e-01 3.628970842932831564e-01 3.781349175855806544e-01 -8.516570262223989163e-01
-3.707442183923065349e-02 8.959230541047991103e-02 -7.683744401363912235e-01 -3.016409318679230123e-01 3.503261119915028476e-02 -9.527777623215291092e-01
-9.589897032033651561e-04 6.838581528104968610e-02 -7.783734483046229613e-01 -9.692578688177605484e-01 -1.468247693165286583e-01 -1.974377644980838398e-01
1.237226037818507096e-01 -3.173307976715984691e-02 -8.432524196421141705e-01 -8.215995030638086893e-01 2.255726409579824066e-01 -5.235372386149276247e-01
-6.677852568686123980e-02 1.758457990925043624e-01 -7.844485158735130526e-01 -1.415281581487403129e-01 -3.571816166395182512e-01 -9.232502765695796976e-01
-1.410435871700646826e-01 3.690356280710347520e-02 -7.933953907493692670e-01 6.202673404229994691e-01 -3.556236577650568331e-01 -6.991425036731642173e-01
-5.044639591131546558e-02 -3.988846611298298844e-02 -7.613547883605392697e-01 -7.231936328439049488e-02 3.180288230418550910e-01 -9.453187702615202248e-01
-1.485701747307365539e-01 1.439854255874430944e-01 -8.084630715686926816e-01 6.085639884265759969e-01 4.064445130951910290e-02 -7.924631856232103866e-01
2.146486272866432454e-02 -2.050922058521467781e-03 -7.768123881791693108e-01 2.699165002019387680e-02 -1.105050906898672053e-01 -9.935089711526572387e-01
-3.350238136300619923e-02 -1.531654424543917557e-02 -7.635325664925830536e-01 -2.445938700426517343e-01 3.042105209196938748e-02 -9.691482850045066710e-01
8.992974896128349410e-03 -1.312116466746782173e-01 -8.116435393127539033e-01 9.994736870962211972e-01 -1.490734680390510929e-02 2.881179990130806196e-02
-2.976010362544700971e-02 2.085679401797750354e-01 -8.119434705276921127e-01 9.636183047053626938e-01 2.354502165824833571e-01 1.265027997635795876e-01
-1.292679235677372251e-01 1.167589324868307937e-01 -7.905626909266458835e-01 5.123314425071144873e-01 -2.646589890528854364e-02 -8.583798979552785813e-01
4.203841120818516824e-02 1.716880560707108594e-01 -7.999992638799567901e-01 -3.294094125592471611e-01 -1.223661533385188155e-01 -9.362243125632370155e-01
-5.173701077642208629e-02 -6.191707848522388924e-03 -7.607453142456568340e-01 -5.398962383614705485e-02 1.924337836081281561e-01 -9.798236369083426212e-01
-2.046641921177122861e-02 1.731181147731490899e-01 -8.053078899735588436e-01 1.558654498777795328e-01 2.632724294841099488e-01 9.520470520977057927e-01
-1.119733682660140200e-01 -9.643909738213158125e-03 -7.756462434201480960e-01 5.007577850317203039e-01 1.998949800449129621e-01 -8.421897872112730221e-01
-3.781746637506783887e-02 2.783225069576841237e-01 -8.392184698999363146e-01 -3.437128692470274860e-01 -5.220457924250014869e-01 -7.805957046546745381e-01
-1.164670692499413310e-02 1.288865236790439073e-01 -7.935183257064214457e-01 -4.651301746275915971e-01 1.258584741348673375e-01 8.762497161992972572e-01
1.124515689491721732e-01 7.926780673194727678e-02 -8.348317803698408479e-01 -7.776398095232379681e-01 -4.207848949565987096e-01 -4.671363813930853870e-01
-6.120211640253021140e-02 1.193477025105786210e-01 -7.685349591473564779e-01 8.413472413765389624e-02 -1.993689276601095517e-01 -9.763059862962732982e-01
-4.070735809351053863e-02 2.488771641442046323e-01 -8.386635756618643356e-01 8.876898402154770329e-01 4.050275097934528667e-01 2.189964928685741996e-01
-7.474753812598181058e-02 8.218460057055547441e-02 -7.649588925389051441e-01 3.609645671749861506e-02 -1.569623611765482568e-02 -9.992250367080383056e-01
-6.366774821207666496e-03 2.162459265442844558e-01 -8.116289273213187494e-01 -8.292124694349096992e-03 -2.236496112192641328e-01 -9.746343376207947662e-01
1.167709652026378830e-01 -3.167027796245019955e-02 -8.327247854500110513e-01 -8.108807594769302796e-01 1.553075279142974163e-01 -5.642268743008138632e-01
8.822896727481772949e-03 -8.470705128291911024e-02 -7.909813631048205895e-01 3.434735589219697349e-01 2.936949433447241242e-01 -8.920589636202395090e-01
2.516896440970340862e-02 -1.783502048847365185e-01 -8.344228802334087147e-01 2.102118294058913928e-01 5.266690863802793166e-01 -8.236690234731364191e-01
9.029295485235078189e-02 1.518592376813510392e-01 -8.266379877321481384e-01 -6.724930008225379341e-01 -3.228031985095307088e-01 -6.659964405886225070e-01
1.849287811231956069e-02 1.603818048369685667e-01 -7.921887940092084968e-01 -6.167617943271128805e-02 -1.879286688763954216e-01 -9.802442880756460086e-01
-1.156680429839373747e-01 -1.723065806361019914e-01 -8.374635970923816064e-01 2.029539044811597970e-01 9.463089903756586319e-01 -2.516128124520968234e-01
1.031333671563025058e-02 -2.442074651849259759e-01 -8.929455787559246183e-01 -5.078838272516601471e-01 7.827945130615669989e-01 -3.595646928397032149e-01
-9.449939692234803068e-02 -8.054157326325434019e-02 -7.803366531756210644e-01 3.973287040266126890e-01 2.376479138709762517e-01 -8.863708986588546557e-01
1.168295238952007931e-01 -1.433301020692176742e-01 -8.673065370499410953e-01 -8.109319615308689944e-01 1.065314415349960797e-01 -5.753611089847602278e-01
8.976120854458372045e-02 3.810429881003972452e-02 -7.989782615930725029e-01 -6.184665140303502451e-01 -8.998961542531302982e-02 -7.806414286589912210e-01
-8.679404758053758939e-02 -4.177776276208353297e-03 -7.647853676740893336e-01 2.399539803633667923e-01 2.178762786316764122e-01 -9.460190349656760755e-01
-1.717614102320293851e-02 9.202477250596419189e-02 -7.774654567600550736e-01 -5.496817053362771377e-01 1.234177219762336158e-01 -8.262070495467821463e-01
7.563926338070475763e-02 1.977463753145534270e-02 -7.889220853177653092e-01 -4.619996704771888174e-01 3.848563034069631128e-02 -8.860446719755433742e-01
-2.264787856453386386e-02 -1.553066311791978793e-01 -8.030301375729628210e-01 -2.015535496465442056e-01 4.152324065313087731e-01 -8.871066537858319778e-01
-9.876640353557954166e-02 7.530365623492990546e-02 -7.699368833005382218e-01 3.229378435412185167e-01 -1.053044618371149904e-01 -9.405435234619092810e-01
-4.733780943647909745e-02 -1.648369655493827843e-02 -7.614156806014029666e-01 -5.232453485361091006e-02 1.869476404732424435e-01 -9.809753935618572562e-01
7.632664886140370919e-02 -8.745630017553969460e-02 -8.052433762040768217e-01 -4.829150577410752376e-01 3.342953969554825489e-01 -8.093451887676299528e-01
1.239891218866139705e-01 -4.506111346827070679e-02 -8.393037105335218184e-01 -8.307165374045454298e-01 2.961300086480202487e-01 -4.713990373990232796e-01
-7.841645087722563801e-02 -6.795420970413217077e-02 -7.700121236640695699e-01 1.537819314941390181e-01 4.057919068729217704e-01 -9.009350952551297143e-01
-1.473766539608761285e-02 -2.469044035170543938e-01 -9.218065626174830607e-01 5.958309440986712113e-01 7.693433451073028451e-01 -2.304263513437463662e-01
6.890050407009002016e-03 -8.187893758929276622e-02 -7.940218200008084537e-01 9.987581856584735185e-01 3.401033882016592236e-02 3.640581593003826971e-02
-7.337222789396478928e-02 1.487997734512945258e-01 -7.787505578148029572e-01 8.418578900764835463e-03 -2.092222940118918240e-01 -9.778318665382577102e-01
1.240978341516537275e-03 4.920477090641485474e-02 -7.781581133936327221e-01 -9.909323251984749614e-01 -1.343133858054766094e-01 -3.611269889240605047e-03
3.148079574697068561e-02 3.060993887471310376e-02 -7.755875063816345394e-01 -7.373587894278649246e-02 1.290560423410826718e-01 -9.888920861710803756e-01
-3.348235974564481299e-02 2.732676233685639167e-01 -8.399754799935397198e-01 -8.630451871573884270e-01 -3.675063518732312184e-01 -3.465430510878801385e-01
-1.472324192576340189e-03 1.761933550464495415e-02 -7.796820766898500121e-01 9.328843419571201112e-01 9.793557768923823181e-02 3.466055786537575178e-01
-1.012641665501597954e-01 1.526575058773844140e-01 -7.843789044955592482e-01 2.115190859687011704e-01 -1.239845898133618979e-01 -9.694779511467900290e-01
1.149155211938311487e-02 -1.589625581189643422e-01 -8.213509815028209315e-01 3.243992605239591487e-02 4.592951553235947171e-01 -8.876911689850193188e-01
-7.160018492938852175e-02 -1.078451618230636261e-01 -7.797491681600611235e-01 1.147189027694903718e-01 5.282043683322861227e-01 -8.413321095869660260e-01
8.941740995931087010e-02 7.295889757010915605e-03 -7.983339401939182345e-01 -5.124510720637638350e-01 -7.836841084149480385e-02 -8.551329083381585816e-01
8.201110196384083645e-03 -2.076305550581161730e-01 -8.479337992276363423e-01 -4.174502271972801437e-01 4.730899337283492323e-01 -7.758358218191818700e-01
1.040746003502252548e-01 -9.159278843484748578e-02 -8.252920958208996849e-01 -7.364801630166004642e-01 3.175732280799974383e-01 -5.972806830041397230e-01
-9.082508437336368756e-02 -1.410580309610053040e-01 -8.009072108505136400e-01 3.201453947033354175e-01 4.283912397508334302e-01 -8.449780304569992628e-01
7.902581613925012405e-02 -1.799559162710978599e-01 -8.522668811984375203e-01 -4.413161942768137891e-01 6.355904712858788663e-01 -6.334546309560172839e-01
7.738771230195660988e-02 1.662235888098541614e-01 -8.194528853580422822e-01 -6.519246436501378028e-01 -5.630916537174550374e-02 -7.561901459929100122e-01
9.634323503928848842e-02 9.601393871883559528e-02 -8.165092729919890546e-01 -6.680404126330771186e-01 -3.772894287679287584e-01 -6.413849811376924892e-01
1.385424060422532980e-02 -3.001326208863872372e-02 -7.823976993486422282e-01 1.111547747260842184e-01 3.072561088615322761e-02 -9.933280187789259585e-01
-4.542727469181074423e-02 2.646519175998015561e-01 -8.447361975143126145e-01 9.698865953483533087e-01 2.326080059659232646e-01 -7.220462398029899032e-02
5.706610159673000671e-02 1.943856470732177946e-02 -7.805591635026124520e-01 -2.413092117593791108e-01 -6.680213253218375558e-02 -9.681463419386656666e-01
8.556618698443169135e-02 -4.656690929999338785e-02 -7.997953550150453950e-01 -5.659758413205657757e-01 3.215360230081938386e-01 -7.591349899389120415e-01
9.483085452059540621e-02 -1.254710972426985038e-01 -8.300389047137369802e-01 -6.291250216246639937e-01 3.118910406533855206e-01 -7.119871388767595732e-01
1.243945685666039830e-01 -1.394590718257961437e-01 -8.778850459413687357e-01 -8.424099135070148847e-01 -1.496963905601542653e-02 -5.386292301125480408e-01
-5.657938048395891317e-02 -1.843183876455810610e-01 -8.208373820065270055e-01 2.997166420598556535e-01 4.582263542665222511e-01 -8.367786700962064339e-01
-6.224025399577889917e-02 -9.851104646389742536e-02 -7.812567584541463273e-01 1.765585704640950937e-01 2.984986856383168852e-01 -9.379368879982663554e-01
-2.113420092355362823e-02 -6.041071298642700788e-02 -7.693701174725323666e-01 -3.083706246418892460e-01 6.491493023825514741e-02 -9.490487920492464147e-01
-5.395861097255313932e-02 1.640572276707580046e-01 -7.830252293309601930e-01 -2.663555444369855585e-01 -1.311657347664093032e-01 -9.549085160217521961e-01
1.003135630539530865e-01 1.041681825245143744e-01 -8.227889226017136570e-01 -7.159458218221731451e-01 -3.322423045928456498e-01 -6.140330864490999296e-01
-4.014653663461833187e-03 -2.286248862148028069e-02 -7.741283784917160071e-01 -4.612835124625214167e-01 -2.585810304802569348e-01 -8.487363382146466684e-01
-2.831232028909232840e-02 2.500147702819126572e-01 -8.293794245105980956e-01 -9.746411517308120054e-01 -2.135636829132805392e-01 -6.682199258740940950e-02
-9.633714704037076026e-02 2.017844611261629829e-03 -7.669505550039129593e-01 3.206110855664918713e-01 1.890935484881644535e-01 -9.281444724459818607e-01
-5.030690549280459473e-02 -5.649296096385166693e-02 -7.650522310453905517e-01 -1.666246060085375394e-03 1.302367663189032687e-01 -9.914815219270920466e-01
-7.616484791030758705e-02 2.232285434137815661e-01 -8.070351765236287722e-01 1.467556127157632895e-01 -2.505800037357949206e-01 -9.569077551489432176e-01
1.045605688202428801e-01 1.178069187107277510e-01 -8.297823162627546711e-01 -7.528697514598161611e-01 2.033541983134016379e-02 -6.578553093478214375e-01
-8.089369596002829454e-02 1.639620899078438887e-01 -7.831471684639240705e-01 2.015548912818709015e-01 -3.337125127532685198e-01 -9.208754446895913714e-01
1.781842097315936013e-02 9.534323800923689279e-03 -7.770806461595453074e-01 1.634527709400219464e-01 -9.273356514401807915e-02 -9.821831181443249070e-01
-2.686069089066224838e-02 1.572112346986911935e-01 -7.908023512782115239e-01 -5.024544137859856541e-01 1.840910269954710576e-01 -8.447781104211534720e-01
4.755263561134037004e-02 7.473038576833974933e-02 -7.809891671252442436e-01 -2.387562524081797422e-01 -1.989633892625045919e-01 -9.504783120456661294e-01
-3.093694371043078858e-02 2.610592653681917397e-01 -8.334383891441028425e-01 -9.101966754252505121e-01 -3.243495658562582373e-01 -2.575643049292314357e-01
1.835750957372815628e-02 1.790973662593617066e-01 -7.976407672113616787e-01 -1.513980075834510663e-01 -1.424694361427027989e-01 -9.781518813890519581e-01
1.286388665964055024e-02 -1.289081023789506730e-01 -8.078376549187415989e-01 -8.771288318184943256e-01 1.620448506674815325e-01 -4.520912283653342190e-01
-2.957447706631968071e-02 1.550705338285385815e-01 -7.887784196603976339e-01 -3.988845169442570282e-01 -4.223299555887537471e-01 -8.139585682051317939e-01
5.658571829283570026e-03 8.169935376005467431e-02 -7.805081062283719673e-01 2.186239178124009253e-01 -1.276853949958398071e-01 -9.674192588868142373e-01
-2.823534567554791472e-02 2.326949057978588697e-01 -8.139407326620211602e-01 -4.148537899252033312e-01 -4.515632520594451971e-01 -7.899284539590869514e-01
4.814610438865937758e-02 1.596670752921401371e-01 -7.994509169792038961e-01 -2.737067595179125123e-01 -1.926669326616205491e-01 -9.423184508715544139e-01
7.536439813794711118e-02 1.650221725938319783e-01 -8.175901981905614457e-01 -6.564114655176945812e-01 -1.498655786502208764e-01 -7.393674974413921852e-01
6.073229404377045171e-02 7.465427948125205604e-02 -7.857053991828121253e-01 -3.920959137121840521e-01 -2.252952167119157134e-01 -8.919096701891613410e-01
9.430925492061988102e-02 -6.725937875573356761e-02 -8.101317338213668284e-01 -6.268595356520005879e-01 1.158788426021818418e-01 -7.704668820912013993e-01
8.782317743871001503e-02 -8.470179471006704375e-02 -8.113689887607629103e-01 -5.574550146537264883e-01 3.680144064388548575e-01 -7.441836489005054789e-01
1.247815551522735988e-01 -1.592628187001822460e-01 -8.965370297508399311e-01 -7.843300063047822235e-01 5.791859292470268317e-01 -2.221938355855042346e-01
-3.464883405204790406e-02 -6.847442063249897792e-02 -7.692100862372707182e-01 -8.994329667251776961e-02 4.420995078195923411e-01 -8.924450843437672365e-01
-2.962674318977675386e-02 -1.573637287520878447e-01 -8.024029393768857821e-01 -1.245509350670621906e-01 5.052233225208545564e-01 -8.539534290316475040e-01
-7.839646997227960046e-02 -1.126481561352157962e-01 -7.836684681139292064e-01 2.777234749016578852e-01 4.266030692131748125e-01 -8.607435697270398034e-01
6.290330735849122834e-02 5.720202420214526989e-02 -7.845100933249679054e-01 -3.221377825627483871e-01 -1.952417490417022172e-01 -9.263411404427054352e-01
-8.133002632530145215e-02 1.265005247334054783e-01 -7.737853891122957739e-01 1.876928153469320792e-01 -2.459737310485669015e-01 -9.509302449187269080e-01
-8.472401263123444104e-02 -4.886358897366662596e-02 -7.687262679279052158e-01 3.213966125215224068e-01 2.076807176427298562e-01 -9.238901108785021465e-01
5.254553653070358904e-02 1.320515197000108609e-01 -7.965671655989221556e-01 -3.850348098113029471e-01 -6.173846294854397343e-02 -9.208347068971310945e-01
-9.210152824211594036e-02 1.603164667688852449e-02 -7.658887493454010764e-01 3.629061918209912085e-01 1.459767875855710884e-01 -9.203205275468884228e-01
-1.027061690832039298e-01 -1.661402961688620006e-01 -8.229175143660056868e-01 3.614309800312485721e-01 7.497448497450024396e-01 -5.543016389606791883e-01
-3.309461332170886977e-02 2.763023356864303115e-01 -8.485675454560203113e-01 -9.867195553452203782e-01 -1.546098290839499623e-01 4.980280965931958848e-02
4.337562923073099569e-02 -7.692538066432781652e-02 -7.903768007509757165e-01 -1.826826794498650763e-01 3.031081662889794637e-01 -9.352820313455990631e-01
-3.077318834586515242e-02 2.140651492729183092e-01 -8.146041920298404682e-01 9.707057234858551542e-01 2.347212502947815804e-01 -5.134523397412112111e-02
4.114346359056159780e-02 7.584230979111082627e-02 -7.795535920741764047e-01 -2.387565387233001601e-01 -1.883785569779857227e-01 -9.526325810551311557e-01
-1.047896263562679044e-02 -1.577212977482454204e-01 -8.090056124370345048e-01 -4.048992913329974574e-01 5.853248531896104723e-01 -7.024609456166209798e-01
5.115647253988333393e-02 -5.085945039865985562e-02 -7.852715641106103872e-01 -2.754668976887242327e-01 1.282689342212743056e-01 -9.527145788700245310e-01
-1.026667942356011554e-01 -1.140616690655061882e-01 -7.931130934185794956e-01 3.555137643591194108e-01 5.637090803609073886e-01 -7.455481447028545761e-01
4.011373630302294993e-04 -2.329292336150442511e-01 -8.732297920837709393e-01 -2.817112987566646742e-01 8.649666221259227905e-01 -4.152968658211909636e-01
-2.232132673905521617e-03 -1.967487312933010324e-01 -8.376839962252983218e-01 -2.723197551363611413e-01 6.879139476499399608e-01 -6.727676802516215915e-01
7.252357689290724052e-02 4.190617058998170191e-02 -7.874333229763482711e-01 -4.230839743204192205e-01 9.290298915294468995e-02 -9.013151420450490336e-01
3.209416694706779954e-02 1.719412547645669809e-01 -7.969795621236773764e-01 -2.409797808207094771e-01 -1.209371728204422236e-01 -9.629657031617488983e-01
-1.215809157626638604e-01 -9.258089587002572840e-02 -7.978096264917411418e-01 5.164834178369884787e-01 4.642273243732170096e-01 -7.195400408627076194e-01
-9.670562956521405740e-02 1.630742023309494637e-01 -7.856945201196997575e-01 2.222321827650908521e-01 -8.463759881520206696e-02 -9.713132006774438665e-01
4.282600038293649797e-02 2.089779451047422965e-01 -8.168200561668732540e-01 -3.357068019472818077e-01 -3.722261073475232607e-01 -8.653026453994224765e-01
3.616459410077515341e-02 1.746765355323353364e-01 -8.000504250361643033e-01 -3.726729956708398905e-01 -3.990178129369224003e-01 -8.377944994190145156e-01
3.175400099018180211e-02 -6.980303487505286342e-02 -7.878011103682968086e-01 -6.143304646222887133e-02 5.103295199562975226e-02 -9.968057075543766965e-01
1.216406912524609779e-01 -8.435207736713054572e-02 -8.473207295786999715e-01 -8.270484032833318455e-01 1.359095237049806615e-01 -5.454535177196830897e-01
-9.944975654204785825e-03 1.073455783713560818e-01 -7.796901410032406332e-01 4.427796856241160151e-01 -7.083392982047692632e-02 -8.938281179202165472e-01
-1.407396750985682662e-02 8.021715310937081733e-02 -7.759300403276263580e-01 -5.544760701576134654e-01 -3.898224170711309111e-01 -7.352515017131150410e-01
-6.304007700606927000e-03 1.040950714637395857e-01 -7.867636346233831679e-01 -9.009439514261774473e-01 -4.511331496472588409e-02 4.315840418753674745e-01
-1.088272731688859352e-01 1.606544813048488285e-01 -7.887617662231509730e-01 2.979559667681117574e-01 5.657830948536437740e-03 -9.545628480180011755e-01
-4.133241962082181975e-02 7.745080146597747850e-02 -7.644748255331046405e-01 -2.881235145464324798e-01 5.154196025048948858e-05 -9.575932527481789691e-01
3.813894340755442230e-02 4.564969961170180224e-02 -7.763234990578886663e-01 -1.705867518799997207e-01 -1.591497177336592128e-01 -9.724050223175155772e-01
1.555678112579851093e-02 -4.170707103420533135e-02 -7.830949205491646303e-01 1.493654227840021387e-01 3.866948864003314640e-02 -9.880256277672531118e-01
-5.756867884492843784e-02 4.837804028153698532e-02 -7.605773451560331466e-01 1.175143203881732698e-03 -1.668070052120952385e-01 -9.859888650743589000e-01
-9.550283928486541507e-02 1.759366513799864584e-01 -7.865931796280132282e-01 1.540278862524585568e-01 -5.899045934974916222e-02 -9.863039774645062652e-01
-2.814315639131336616e-02 5.209267562774765221e-03 -7.632744915343326886e-01 -3.077930699015251070e-01 1.728136498636236307e-01 -9.356275266052233031e-01
1.098159133602697735e-01 1.036043135343499566e-01 -8.351273240970598088e-01 -8.040257553227021514e-01 -1.130611040873210071e-01 -5.837463246310971021e-01
-9.032676392458258152e-02 6.900451689856149096e-02 -7.655926257902777587e-01 2.800564736263257970e-01 7.474471500822703340e-02 -9.570692760497150342e-01
-7.207103749979515417e-02 1.706469475548285375e-01 -7.838631397181985427e-01 -1.588587915560343497e-02 -5.968017748501632663e-02 -9.980911357480390933e-01
1.084502378881346861e-03 -7.790277254057353246e-05 -7.822566925316941644e-01 8.190165102993660629e-01 6.605929683576622358e-02 5.699544939366761875e-01
-1.065499645370034804e-01 -1.665286654838144809e-01 -8.259712263630030193e-01 3.721942097041887054e-01 7.394388765344226400e-01 -5.609827253420422988e-01
3.865416161517148258e-02 1.782234319822018354e-01 -8.021265298018577239e-01 -3.847546095107087227e-01 -2.386128524146694518e-01 -8.916433127225242838e-01
1.060783336821646272e-01 -1.371130417047462802e-01 -8.456137062152079276e-01 -6.979157255657764125e-01 1.792858830539620363e-01 -6.933759529617080641e-01
1.267129012394928034e-01 -5.345743844519577209e-02 -8.430289076663952663e-01 -7.322479596874376107e-01 4.883539605495630931e-01 -4.746823514194946636e-01
-1.019551562054867543e-02 9.029975573866466654e-02 -7.853389898787105361e-01 8.532362412209745228e-01 1.955652337095060700e-01 4.834688780379243767e-01
1.235915956710046115e-01 -4.432509736717920451e-02 -8.382433378401956681e-01 -7.437269480848318626e-01 3.887256134201097502e-01 -5.438406238628932243e-01
5.782290015570949043e-02 -3.731794766665701840e-02 -7.849087133884832257e-01 -2.295816650016937188e-01 2.704135615629773559e-01 -9.349699272264728744e-01
3.168799414206539128e-02 -1.895411242414791753e-01 -8.417785484527599005e-01 -1.759187556963988375e-01 4.332690536062149822e-01 -8.839290234975913929e-01
1.113431482121717345e-03 5.058882280402439424e-02 -7.771110831309027134e-01 -9.604171043897308246e-01 -1.326066702023137311e-01 -2.449784819397407831e-01
-1.155722823392526799e-01 1.369949964056392244e-01 -7.872653378452323381e-01 4.328252463405400929e-01 -1.773674338568139719e-01 -8.838569451768196750e-01
5.080907794720474283e-03 1.384185300583549438e-01 -7.911311243972186658e-01 8.245858610713958925e-02 -1.111624569813694507e-01 -9.903754286810010354e-01
1.248963384742664967e-02 -1.250275211389981489e-01 -8.057671221551405694e-01 -6.822418735914281829e-01 2.747006841149636225e-01 -6.775585288853123167e-01
1.004532431000589171e-01 -3.065550939046366580e-02 -8.133458397123793926e-01 -6.956136159063629476e-01 2.854778606226547333e-01 -6.592602585170647123e-01
1.900635734626717616e-02 5.686712384306803758e-02 -7.755161933785262862e-01 9.278196740863715875e-02 -2.878917165377137821e-01 -9.531578390134298751e-01
1.234323295722533631e-01 8.093928476912809825e-03 -8.349203859782001746e-01 -8.201794416057668347e-01 -1.642605343349975711e-01 -5.480183942416836373e-01
-7.581623173588052100e-02 -6.736479235349489281e-02 -7.692801540042097930e-01 1.565386859757767757e-01 4.144188091270890051e-01 -8.965225543368456895e-01
-9.231800178901440612e-02 -1.756140608603982967e-01 -8.241694943777537752e-01 4.450149148281940525e-01 3.620492321355882059e-01 -8.190739155231878676e-01
-5.746145066048997246e-02 6.349103150728381204e-03 -7.589292443669660715e-01 3.659508699976839197e-02 -1.633298487596395246e-02 -9.991966939559602245e-01
1.358348574182217765e-02 -1.730180900964702062e-01 -8.318161058763896554e-01 -9.994736870962211972e-01 1.490734680390510929e-02 -2.881179990130806196e-02
3.997663778749007552e-02 1.507759667711473239e-01 -7.959797514882689384e-01 -3.862703020559227762e-01 -1.446538542881407874e-01 -9.109722916692974959e-01
3.819685895226969385e-02 -1.540349364565958556e-01 -8.197910142366036101e-01 -1.054456508007557275e-01 3.542269406733448145e-01 -9.291956140815602616e-01
-8.799238074763712780e-02 -5.933589571348513170e-02 -7.716868833416397067e-01 2.600207681896755663e-01 4.105199914468947719e-01 -8.739922978679458554e-01
-3.588320042458153364e-02 2.545897625265114428e-01 -8.476272658079790912e-01 -4.049271735722855814e-01 4.733530294666557503e-01 7.822856854100678214e-01
-9.812619603400551949e-02 1.326175388299392910e-01 -7.794392082074657058e-01 2.598806615674941201e-01 -2.231366886558042162e-01 -9.395062851939651738e-01
-6.402532993691388563e-02 -1.516415183490458785e-01 -8.002865321429095680e-01 9.783253698392468944e-02 6.433228605528419353e-01 -7.593184389947327251e-01
6.068323723487577259e-02 -1.260012865776227731e-01 -8.108070187756010183e-01 -2.088575183824616655e-01 4.646301896682947241e-01 -8.605215417779640275e-01
3.262510276976004348e-02 1.498164667721220977e-01 -7.937360377440477732e-01 -2.385000988529209776e-01 -2.054974182754296663e-01 -9.491514704878669662e-01
9.957457411162227989e-02 1.302205358207543517e-01 -8.347284426338722474e-01 -7.293968146696776511e-01 5.015600433216532011e-02 -6.822497064705561609e-01
-1.297859192000724304e-01 1.426791906258328413e-01 -7.952951095862405007e-01 4.914221161564102935e-01 5.744094954825776367e-02 -8.690252246438823214e-01
-1.861352064609424510e-03 7.107622796218453221e-02 -7.766091067382284718e-01 -8.069237755537261858e-01 -1.441688862538202387e-01 -5.727908454946295524e-01
-6.519814725538467491e-03 9.028639842283329997e-02 -7.868724949214017661e-01 -5.423410360801906860e-01 1.378378702948478661e-02 8.400453605601253537e-01
2.804437290704191871e-02 -1.528144986675354366e-01 -8.192250310718107720e-01 1.089423450841197488e-01 2.064001900224505526e-01 -9.723839401215287337e-01
9.111531502054712184e-02 -1.834439637748040350e-02 -8.003306307076741843e-01 -5.329646750786793952e-01 4.444752245855630030e-02 -8.449692733262991196e-01
-5.893210943882637443e-02 3.186327893175244230e-01 -8.719436416201875595e-01 8.980179192417460099e-01 -2.406014728649211176e-02 -4.393004962816195458e-01
-1.307682769672932621e-02 -5.707686853335328103e-02 -7.719985688075625685e-01 -3.935621943462539463e-01 6.404376467078104485e-02 -9.170644445120282873e-01
1.987734914090704200e-02 2.094027927406900691e-01 -8.090869504519889732e-01 -1.534773894947419892e-01 -2.824429466255857779e-01 -9.469269627671058620e-01
6.141145310638044391e-02 1.215537326162751119e-01 -7.951415164202125796e-01 -4.467306852404464568e-01 -2.714006530278008089e-01 -8.525100470966217037e-01
-5.965020954430939881e-02 -9.579256041578551595e-02 -7.799079980592330541e-01 3.243992605239591487e-02 4.592951553235947171e-01 -8.876911689850193188e-01
5.444742668510382279e-03 -1.164416433751741253e-01 -8.026006712545261657e-01 -6.849220836138680824e-01 4.741735199677916124e-01 -5.532099170652964304e-01
-1.189587356136641988e-01 1.029171623042032246e-01 -7.816522199860891362e-01 3.723528427175274991e-01 9.904911943758226700e-02 -9.227906764043597443e-01
5.167637302157763318e-02 3.200941043494988369e-02 -7.793037310867625411e-01 -3.384251239630744479e-01 7.273095674418676715e-02 -9.381783643858203625e-01
-6.619071702247812661e-02 -4.871061112360998424e-03 -7.607795380817087283e-01 1.370048877075064619e-01 2.587573533828469927e-02 -9.902323500396038591e-01
-3.978126939571775822e-02 3.044206696670579415e-01 -8.581666971489420037e-01 -7.855209469280363122e-01 -4.307438437953262644e-01 -4.443158594622849122e-01
-1.525536407041703808e-03 -1.443981006529498901e-01 -8.073955342923528899e-01 -5.628902505854287419e-01 5.189609401182356807e-01 -6.432993925284479220e-01
-9.699349091299115655e-02 1.122568806272346981e-01 -7.724761661423036330e-01 3.983427663304042743e-01 -1.716178879129659496e-01 -9.010384792341187277e-01
3.023510501351891686e-02 6.945076889896273364e-02 -7.776486895338349248e-01 -1.156350127914694409e-01 6.436848994490690368e-02 -9.912039352822048510e-01
-1.318831480539303380e-01 1.305379906808080970e-01 -7.949173338095398833e-01 5.518205072957297341e-01 -2.716554732112319570e-01 -7.884779208083542157e-01
8.205514963215611995e-03 -1.082168787335736071e-01 -8.032377431165474979e-01 9.982197774671044410e-01 2.958643289661741504e-02 5.178724613241116048e-02
-5.849530977647621893e-02 3.166585503094199727e-01 -8.709643359550572894e-01 9.151516650524115226e-01 8.110167292942596987e-03 -4.030281071318466135e-01
-1.151460736776276500e-01 1.062932607872912605e-01 -7.786343957714393360e-01 4.426139006088541938e-01 -2.455175544773787744e-01 -8.624465580146185584e-01
-1.773500128652687885e-02 1.863021478698996258e-01 -8.011150603507896095e-01 -9.652281715078441238e-01 -1.783993759672019841e-01 -1.910712945006047547e-01
-5.369124805256308280e-02 -1.531103325046679342e-01 -7.998051867443926044e-01 1.681122125909105536e-01 4.070638464872095574e-01 -8.977958057714604534e-01
1.305952283427023672e-02 -1.264778839288187851e-01 -8.102810533777398128e-01 -9.581783458319296232e-01 -1.445403698690277128e-01 2.469865159414813549e-01
-5.022541065808317634e-02 3.846910900087285781e-03 -7.593724769939361741e-01 -5.246531300258971964e-02 1.865719824863407983e-01 -9.810393907905312627e-01
8.163224365475263422e-02 -7.773762004375063539e-02 -8.041444785945954798e-01 -5.105448589281419425e-01 1.019324180079291542e-01 -8.537878713012386767e-01
-2.836411715169480374e-02 -1.761624404208667338e-01 -8.147950929505752837e-01 -1.278538183166888498e-01 5.725325806483796409e-01 -8.098517427516900291e-01
-1.314088208312196547e-02 -1.521445088432852311e-01 -8.047964828440932195e-01 -3.836330941295723052e-01 2.894828924748661381e-01 -8.769408783110501648e-01
8.544095940656377952e-02 -3.871989518887145737e-02 -7.987430993092027309e-01 -5.088255830602601559e-01 1.556648730832454752e-01 -8.466787899264768269e-01
4.885870632724272772e-02 1.945380326130475845e-01 -8.117658847155012625e-01 -4.329549200372230233e-01 -1.999191019888584830e-01 -8.789666602753087865e-01
-1.232553214198639779e-01 -1.542184914958898978e-01 -8.329851730274926425e-01 2.682731423323483910e-01 9.420280552230476667e-01 -2.015258402185935160e-01
-7.161718694093044402e-02 -7.033917314979318269e-02 -7.693095873345754399e-01 2.233400704460521413e-01 1.542962976173220258e-01 -9.624509678288755143e-01
-3.125171685591050103e-02 -3.852604850135436104e-02 -7.633382117869953465e-01 -2.531436704354570466e-01 2.213288577826275916e-01 -9.417705765371424675e-01
