3.838936027760329883e-02 -9.784886571555509449e-02 -8.993584026764677164e-01 -8.464762676783537110e-01 -1.459831847409555627e-01 5.120223022781448252e-01
-4.333408929867556270e-02 -3.077752445464107187e-02 -9.241706918005572202e-01 -3.110705148430402689e-01 -2.426193999159429737e-01 9.188966000479671381e-01
-8.566782957799984333e-02 1.477862444092001848e-01 -7.122323638378413868e-01 -6.670522085840043802e-01 -7.171248912128187492e-01 2.019238505630401026e-01
-6.697830211307699740e-03 3.765090098834660004e-02 -5.835641175745436282e-01 -9.445118212218902576e-01 -1.225791165599881827e-01 -3.047487157569017113e-01
3.378886590466867457e-02 -7.192978875247502124e-03 -6.270106167730935542e-01 -7.297950492438183279e-01 -2.630425326504026162e-01 -6.310370925041369761e-01
-3.081891148485918497e-02 1.002645629559759943e-01 -6.845957838832825715e-01 -4.361779768437938354e-01 -8.467436657697356983e-01 3.045881432283354950e-01
2.200342349084341564e-02 -4.838274993632703941e-02 -8.948105359508408130e-01 -6.698742076109404087e-01 -5.245182754320102392e-01 5.254989293190278632e-01
-1.892745360218870201e-02 7.600895616344231775e-02 -5.863559333367193149e-01 -8.407005809464710433e-01 -4.030078479464684338e-01 -3.616727909171804090e-01
8.674930246043282070e-03 3.535047934496367283e-02 -7.617301687268780430e-01 1.507216329105859898e-01 7.315285042081831612e-01 -6.649428824370591240e-01
-1.198702676099267783e-01 1.642160073620727578e-01 -6.357226758659876298e-01 -4.389139946708050521e-01 -8.949575965571656688e-01 8.003377816108667164e-02
3.725973023786596089e-02 -1.522467866717426843e-01 -9.153324713538200097e-01 -7.747818777810371316e-01 1.411259058020907231e-01 6.162763345883318644e-01
4.710856201585043868e-02 -1.115601955290575903e-01 -8.690724374174448874e-01 8.939091537588075287e-01 -2.014071052802671735e-01 4.004517483653125542e-01
6.499522729096106344e-02 -1.521980405636753388e-02 -7.576533866847621201e-01 -8.961478105928131210e-01 -3.699124228530183967e-01 2.451201766250936942e-01
8.629983886779560298e-02 -6.669909970556159307e-02 -7.663177176721853723e-01 -9.570640222241476591e-01 -2.892256814737046433e-01 1.941552317624017573e-02
5.684919712161821265e-02 -3.289601816657833876e-03 -6.896551771403225395e-01 -8.690769373353416372e-01 -4.331557048166407853e-01 -2.389171663498087794e-01
-1.257014236862504138e-02 8.423662702308507000e-02 -6.212117271343604585e-01 -7.293213299553608087e-01 -6.368665912535388385e-01 -2.499826846348401077e-01
2.818577128389287978e-02 -1.034359233010359175e-01 -9.190683504788494940e-01 -7.765037021130256623e-01 -8.865567210444319501e-02 6.238446700970322611e-01
3.984723209932083954e-02 -5.671133869254507687e-02 -8.661837022074154735e-01 -9.490485473504893799e-01 -1.415943332737912286e-01 2.815277953536319266e-01
-5.603516190859846036e-02 1.257923204281619911e-01 -6.358181855856701592e-01 -4.841159851871424946e-01 -8.664078985765494290e-01 1.223481351327028455e-01
3.808383894118163443e-02 3.515746707845084085e-02 -7.028270688976813174e-01 -8.542985388714842143e-01 -5.196220119569486817e-01 -1.292173254096388654e-02
-1.772540245503465006e-02 -7.375854416775298739e-02 -9.421361930555630648e-01 -3.785491816528203657e-01 -4.158826223641233222e-01 8.268870306671403103e-01
3.778579537409931105e-02 -6.501466937577943250e-02 -8.779858634020792918e-01 -8.461770246057404021e-01 -2.033896453820271122e-01 4.925617678837340696e-01
8.181573650503921880e-02 -4.872055219595123471e-02 -7.386965606998104894e-01 -9.717663335258956980e-01 -2.282033139806293742e-01 -5.994531269328631090e-02
-2.560456375939064791e-02 4.817893625604929148e-02 -8.478975431583823941e-01 -4.747409872055196045e-01 -6.898827535632063856e-01 5.465187841265634061e-01
-1.147996633412769057e-01 1.189947730475649501e-01 -7.920630580717001878e-01 -5.527100718002475599e-02 -8.388447681206798734e-01 5.415575415058575537e-01
-3.354913881072259241e-02 9.727732178984961620e-02 -5.933441271712658338e-01 -6.649409672990405085e-01 -6.314426274911829617e-01 -3.989156780504465316e-01
-1.059253122875966763e-01 1.610900367912002917e-01 -6.953655443220067012e-01 -4.256480977747228445e-01 -9.027639460494358836e-01 6.197543524664490822e-02
1.749281383226343120e-02 -1.109332322124074316e-01 -9.326037799853230670e-01 -6.090785237459317436e-01 -2.284206982610614278e-01 7.595046652374202178e-01
-7.415772405388448840e-02 9.019742899412484805e-02 -8.259737337949585312e-01 -2.151182735024329273e-01 -8.488406009545931274e-01 4.829014004705076135e-01
9.372329300470950628e-03 1.422966949595028466e-02 -8.455638938374879787e-01 -6.907333410387941353e-01 -5.047478155927307419e-01 5.178002454921698527e-01
5.965342337597986933e-02 -1.340930056058831643e-01 -8.709610543267282123e-01 -6.813604404404278725e-01 -4.820995818676778732e-01 5.507521614717788561e-01
9.138393568178369841e-02 -8.658570479578599211e-02 -7.860607247737926295e-01 -9.726816251157550663e-01 -1.979052163652503943e-02 2.312980575264910466e-01
7.282143824265110976e-02 -2.774375409255453243e-02 -7.241294473547773558e-01 -9.708520376646199157e-01 -2.075518794921745458e-01 -1.198688378258551818e-01
-1.326912815326948825e-01 1.622722935194284566e-01 -6.043814941644963801e-01 3.071637840519466645e-01 -6.933317685189037682e-01 6.518753473857853420e-01
6.674108223968251274e-04 -8.825173450160497812e-02 -9.358932136497484233e-01 -5.817895207161731808e-01 -4.197521468521165922e-01 6.966556457805280766e-01
-9.429714297437957748e-02 1.497477013634815890e-01 -7.184566021014718862e-01 -3.528560254962954668e-01 -9.183678743987212512e-01 1.791453949822113256e-01
4.155773113235457922e-02 -3.175721534371995364e-02 -8.242183556152875568e-01 -1.403294825587255157e-01 -5.543921379803381511e-01 8.203395599813469996e-01
-2.458008890935394278e-02 -9.737644503649615924e-02 -9.539778985574363102e-01 -3.593003272241150348e-01 -1.300406344478760301e-01 9.241172589282368177e-01
8.215006151278134161e-02 -1.867787153736926442e-01 -8.317221496127753522e-01 -8.793683374545190334e-01 2.847401490420293779e-01 3.816207208813457430e-01
-7.508138763881637423e-02 1.122894483583959935e-01 -7.904663621626001335e-01 -2.557982322108590112e-01 -8.857193053085412604e-01 3.873868565162669197e-01
-1.800979594054331889e-01 1.772862755191088324e-01 -5.623109999041256968e-01 6.882845322340349625e-01 -3.050540853669574948e-01 -6.581841745957619505e-01
2.701124285984239995e-02 -7.903133402549833431e-02 -9.088239363189104525e-01 -7.113383406777076257e-01 -2.622145214961812965e-01 6.521052904235744574e-01
2.309575771327307056e-02 5.567515717582188078e-02 -6.995307404502251192e-01 -6.703618114369376269e-01 -7.417845925339411339e-01 -1.925253350191550444e-02
6.076918453355049932e-02 -1.658531548195263383e-01 -8.805859855907302025e-01 -7.610969555482055560e-01 -9.230577136744631817e-02 6.420366569188347139e-01
-6.164653310959695293e-02 4.354694726340092165e-02 -8.729943631264024395e-01 -1.128455022191004742e-01 -8.380388218166253678e-01 5.338134746867313485e-01
3.206461014994613917e-02 4.249751652655712336e-02 -7.036719029811854265e-01 -7.813246961713693484e-01 -6.202850326000680647e-01 -6.912450712337937786e-02
-5.741041894027174020e-02 1.244304354956682485e-01 -6.687147753049274002e-01 -7.511849714503123776e-01 -6.203538857693796649e-01 -2.255708205376413811e-01
1.662895298090288215e-02 3.614005604432108526e-02 -7.696990489830484172e-01 -7.217333286647175106e-01 -6.303013616898702765e-01 2.860440451162065689e-01
4.793115703306520536e-02 1.266510052260126466e-02 -7.511025327099102311e-01 -7.308633467041228959e-01 -6.108977321552392370e-01 3.043726815797281882e-01
-3.461394703272153983e-02 -1.459247122960866117e-01 -9.579622118405396458e-01 -2.846547219905377624e-01 3.752047570891191564e-01 8.821525262142509982e-01
3.225491375156172569e-02 2.023542107309286506e-02 -7.672163330971839557e-01 -5.289970562214151295e-01 -8.154980887711447135e-01 2.347870987079298255e-01
6.282381734697646547e-02 -8.668167397876058722e-02 -8.417470488651684901e-01 -6.559241508678549382e-01 -4.808432163618334143e-01 5.818533402732088966e-01
1.319130494326960917e-02 6.479774755683269383e-02 -6.961516945670788159e-01 -6.964019355447018667e-01 -7.174694661102622995e-01 1.618361421463827485e-02
-7.082151218072181564e-02 1.386957160310965387e-01 -7.061769845935992329e-01 -6.766806109189094087e-01 -7.359500885737066955e-01 -2.192756107652813619e-02
9.139585020480621436e-02 -1.221949125019017313e-01 -8.104361756700583230e-01 -9.509397934005884290e-01 -2.394791715331173743e-01 1.958653510171155243e-01
5.590530664947294948e-02 -8.096619254040799893e-03 -6.732607423915377698e-01 -9.840839112083836770e-01 -1.262499779478170603e-01 -1.250591810663496672e-01
5.326976043182506809e-02 1.257055413432506263e-02 -7.211047888693425945e-01 -8.270023603685529023e-01 -5.605612160203493621e-01 -4.287445671526902286e-02
-1.075269438894163598e-02 1.590853473810033281e-02 -8.677005966479314214e-01 -5.156681907951092825e-01 -5.597588482642728014e-01 6.486573431265184597e-01
2.232647081879992820e-02 1.439886036156924056e-03 -8.421503063700976899e-01 -7.463696277554442426e-01 -6.160999682898266050e-01 2.517006313807625961e-01
4.180625260310040330e-03 4.758010519725357212e-02 -7.504425162175231145e-01 -3.547204516720218193e-01 4.956183861765266485e-01 -7.928025078475547938e-01
9.520298065821510003e-02 -1.216181055980217335e-01 -7.940597529019557399e-01 -9.799598174798874739e-01 -1.265248512282269866e-01 1.538512858134783445e-01
-1.302524082740769695e-01 1.454284171095191758e-01 -6.079057964332923447e-01 4.659542230064956381e-01 8.242419483720860862e-01 3.217326104177199442e-01
5.007059624113854857e-02 -1.453890326295217417e-01 -8.842742637049511023e-01 -5.981191536012715471e-01 3.734706756722341314e-01 -7.090649705832487992e-01
1.324690567441963755e-03 5.640740992846964702e-02 -7.437430802735603974e-01 -5.396063420977271763e-01 3.876234363885493472e-01 -7.473774596080904331e-01
-1.532646452358358245e-02 9.428905783228043458e-02 -6.816805669600407569e-01 -6.145824917812466870e-01 -7.102647471752583375e-01 3.432380365227903352e-01
8.801918096019896443e-02 -6.612473937773820365e-02 -7.457651704188258401e-01 -9.952777161255549343e-01 -7.308830867802022790e-02 6.387774979197248515e-02
3.573221185554553009e-02 -3.156346603278558510e-02 -8.180976990192303511e-01 9.207423289304476066e-01 3.539323724124496806e-01 -1.642115692459902299e-01
-6.467894886149920530e-02 -1.200117875941340145e-02 -9.191584263222702944e-01 -2.305251074560127622e-01 -1.195794721028181906e-01 9.656909053542986898e-01
7.068430972123521117e-02 -4.293563029631969341e-02 -6.940055838809136013e-01 -9.467519716016310483e-01 -2.534747154873880914e-01 -1.985227263489298399e-01
-6.524879859837880158e-02 1.295928107076587676e-01 -6.651178861002552400e-01 2.420078021286946150e-03 -7.923820965025905050e-01 6.100202917645694001e-01
7.429125111265369452e-02 -8.812223229710909600e-02 -8.298836413038050974e-01 -8.043868299104607322e-01 -4.319792429491645658e-01 4.078673332441151156e-01
-6.584768577474113538e-02 1.285546933106392342e-01 -6.471772139598858109e-01 -3.925698462416968848e-01 -9.037621539882000343e-01 1.705956764996684194e-01
1.050821391122214350e-02 -4.055151847272990551e-02 -9.025145486913238591e-01 -5.862523742319283304e-01 -3.774628725664050943e-01 7.168193172211145825e-01
-1.567109496121597834e-01 1.683399291970263667e-01 -6.834187829475228959e-01 1.891896209653013694e-01 -9.704662514078870039e-01 1.496747881151982151e-01
-2.654158605093046019e-02 -6.144898263346309369e-02 -9.396206462934453274e-01 -2.954572566105668208e-01 -5.803208567048804278e-01 7.589023078034954350e-01
-3.227349251281518006e-02 9.240898818536628923e-02 -7.810512273993333032e-01 -6.700034364534358522e-01 -6.134415883470962783e-01 4.180727362873335462e-01
7.583394090966330200e-03 2.030382629134254435e-02 -5.972126458302916552e-01 -5.795072766158297917e-01 -4.034617517303971668e-01 -7.080889289064922210e-01
-7.574146151790309839e-03 -6.231614374190522915e-02 -9.304215501732612248e-01 -3.489866542050154563e-01 -5.992595558603086570e-01 7.204833793342456660e-01
-6.006398733120798389e-02 3.976003780508063912e-02 -8.765128811269964348e-01 -2.096256905469395526e-01 -5.631719115449920210e-01 7.993087437964619957e-01
3.468346800592757989e-02 -2.259761033293953836e-01 -8.770439719724328897e-01 -6.306255478645457213e-01 6.143324054510354015e-01 4.742437284701677136e-01
-1.451837469683427972e-01 1.489837347278770430e-01 -5.957538475356137786e-01 5.008767711008539347e-01 7.622187586713765617e-01 4.100549037641772476e-01
2.622056262456504833e-02 5.227579527033426876e-02 -6.913116944168661293e-01 -8.007722807707658985e-01 -5.977708773294009292e-01 -3.786466117666978382e-02
3.545258679549512237e-02 -1.751590583666483292e-01 -9.164880213060970782e-01 -7.309480296693157131e-01 3.518260155714519333e-01 5.847507440693529013e-01
-2.548191207920290705e-02 8.638307367005877702e-02 -7.092935042031450754e-01 -1.575957638332787514e-01 -9.486399202791496732e-01 2.743098191362715044e-01
-2.922101207022579153e-02 1.037053648786570997e-01 -6.109770707448373139e-01 -8.009529308198996000e-01 -5.975043499261935009e-01 -3.824858729796518780e-02
-5.992903916722340518e-02 1.006371277540897280e-01 -7.950268426767780339e-01 -4.125415071561851499e-01 -8.000066019696508990e-01 4.356592035964305110e-01
2.852939529098304228e-02 -4.741200117722716573e-02 -8.843445387477296693e-01 -8.397888529541028824e-01 -2.888520702917262151e-01 4.596946420638550745e-01
-5.596946934887164077e-02 1.119505891576071804e-01 -6.821504577351572562e-01 7.446043649622384741e-01 -6.832798158405332944e-02 6.639997188341503209e-01
-1.100889799228186999e-01 1.555413316545737612e-01 -6.217860029154052004e-01 2.396306991591814761e-01 -7.503628944225095854e-01 6.160622165774782832e-01
-9.594012961043113866e-03 -8.458991547325693527e-02 -9.405460447683592351e-01 -3.903168974517020051e-01 -2.480505326849103409e-01 8.866361445364212557e-01
-3.625539514760928173e-02 1.027815326001583485e-01 -7.002907678331871111e-01 7.046906728471648285e-02 -7.501337741673113069e-01 6.575206699485024453e-01
6.864034243429438520e-02 -6.202652937269394900e-02 -8.192217786796421874e-01 -7.242570130682987051e-01 -4.994698024802991521e-01 4.753753205959236339e-01
4.659367620997828009e-03 8.921546754733479523e-03 -5.895424345642242825e-01 -9.814916846640155956e-01 1.892828240056727285e-01 2.908754839841140583e-02
-1.261918779300536253e-01 1.503800658647954647e-01 -7.479212729720019492e-01 -3.792538026945930230e-01 -7.539607083030543944e-01 5.363858718095089184e-01
4.649868327277782015e-02 -5.237966171045305153e-02 -8.376565263399021743e-01 -4.420357397418362422e-01 -5.443055963098865080e-01 7.129767335731413969e-01
-4.417270184179362957e-02 1.128732460654028116e-02 -8.962897486482652720e-01 -2.199069419702958939e-01 -6.777750037877964262e-01 7.016138404519437488e-01
-8.351224218561344170e-02 9.430476604720183786e-02 -8.228468965561749338e-01 -1.473874595637005847e-01 -8.288821650345956638e-01 5.396584968764226442e-01
6.541076499040381076e-02 -6.762502399543154907e-02 -6.708647662988124205e-01 -4.952085598028769797e-01 -5.338104384217873255e-01 -6.854304473321123359e-01
-1.869215076424148719e-02 6.921175854620306711e-02 -5.793521639677536861e-01 -8.872843240730147185e-01 -3.239760552511481428e-01 -3.282773886185254564e-01
9.612229067162632312e-02 -1.109239250182771364e-01 -7.629806908935462539e-01 -9.965671238535922516e-01 3.808503187861488060e-02 7.350848931234849060e-02
9.565822679983318477e-02 -1.215526934841184847e-01 -7.522272256525117662e-01 -9.883943836129346350e-01 1.510364575919526386e-01 1.626440655177608524e-02
3.717214666955803021e-02 -5.295701765071905015e-02 -8.711588843643662816e-01 -9.082638604425505857e-01 -1.797260752546498142e-01 3.778297204926508446e-01
4.379179486585337705e-02 1.871816069225294352e-02 -6.696639336034695411e-01 -8.564602325431394103e-01 -4.200658322419680291e-01 -3.000342758003066157e-01
-1.568308078372407099e-01 1.593149913145135987e-01 -5.898735468487388278e-01 6.139373587602083848e-01 -3.262768861001196646e-02 7.886801338023592400e-01
-8.186639987769600557e-02 1.462198496276704007e-01 -6.767853380919681694e-01 -7.519095745976184242e-01 -6.587858628435270258e-01 -2.516303928260857359e-02
-4.003996520422520994e-02 9.395407024232016457e-02 -7.912951666655602123e-01 -6.359366676209466940e-01 -6.730952924352837652e-01 3.775278560273734318e-01
-1.413881945743995505e-01 1.691454469056478394e-01 -5.838476929834185425e-01 -6.109601249711050786e-01 -6.907632146279499841e-01 -3.867478597382958405e-01
4.388174752948391377e-02 -1.925663053536071367e-01 -9.097456240021065677e-01 -7.053492871958052524e-01 3.064837865940451753e-02 7.081970488062764302e-01
-1.456123289524469677e-01 1.564417483621647342e-01 -5.987837273649522229e-01 6.079306472982247689e-01 -9.378529670746260649e-02 7.884317638179314525e-01
-1.158750691132288541e-01 1.593700696993493870e-01 -6.077369668492067500e-01 -6.346799395291841117e-01 -6.614033717602781914e-01 -3.996585469915117650e-01
-5.658625982464828008e-02 1.007135348746525660e-01 -7.916480349794677851e-01 -4.109427371178271393e-01 -8.415649291094285944e-01 3.505631710592983508e-01
-2.987338168223514084e-02 8.375228669353922129e-02 -7.114062100041347314e-01 8.208212442469506875e-01 5.392271134213685313e-01 1.883788872038116013e-01
6.003249359374172346e-03 4.099082674238762464e-02 -7.562470753273238255e-01 -1.662168077738908345e-01 6.042170381903021470e-01 -7.792905386144479696e-01
-2.438074018924544367e-02 9.641022879891349151e-02 -6.923724574560969902e-01 -3.949292940500005455e-01 -8.933272024392573396e-01 2.144699561318986203e-01
-6.025009706666782650e-02 1.275032082018995594e-01 -6.157315909906657669e-01 -7.087781459408686313e-01 -7.041915221347327947e-01 4.180717630016224373e-02
8.579872243563036599e-03 6.185805334693590674e-02 -7.222674436935914155e-01 -5.868726667163375321e-01 -6.802696053888939165e-01 4.391056103550638468e-01
2.403699481694789031e-02 4.779437308516423788e-02 -6.660328650040571175e-01 -8.243216215673704328e-01 -5.266676762731549166e-01 -2.076415733555695420e-01
-1.347125970912571302e-01 1.169636823761908834e-01 -7.980652486224562026e-01 2.988626716453257059e-01 -8.907885644411637216e-01 3.423110237165449821e-01
-1.945383778628358498e-02 8.674187047982950816e-02 -7.147629068172841604e-01 -8.530122132650387323e-01 -2.687842775444358456e-01 -4.473535248163310607e-01
7.471258352584025930e-02 -3.694550524236413225e-02 -7.139266811695119674e-01 -9.653059576511030526e-01 -2.390086872883553926e-01 -1.051629950314479228e-01
5.450862118205489215e-02 1.033103443499477567e-02 -7.100922475394233491e-01 -9.348403105504257127e-01 -3.367997471055915737e-01 1.124256381773883623e-01
1.457139563185714387e-02 2.967981763617769109e-02 -8.071673201488996918e-01 -8.705290885878126383e-01 -4.351516667225510671e-01 2.298306612944804039e-01
-4.820482932648095104e-02 8.035139119752889025e-02 -5.644958886794921860e-01 -4.494371709666246661e-01 -4.495143495193156258e-01 -7.719734962612015972e-01
-1.056983233951958173e-01 1.508692153254090618e-01 -7.321173923245866133e-01 -3.768789807254381841e-01 -8.947486421719237359e-01 2.395560502655982027e-01
8.137483257570242434e-02 -5.466283402307627048e-02 -7.753762011090888917e-01 -9.459718997262616114e-01 -2.496397127600693544e-01 2.069231227807982465e-01
4.110798517494113763e-02 3.937838127445240921e-03 -6.457473379879820063e-01 -8.144172296115471665e-01 -3.601713035036355204e-01 -4.549738544623685432e-01
-5.972042900306007845e-02 1.255677086792380270e-01 -7.213916308877780237e-01 -5.457605894430850313e-01 -8.378150684737533105e-01 -1.453581951788651336e-02
-8.051680143438767756e-02 9.650128305299983389e-02 -8.143465627119778061e-01 -2.524822861691931597e-01 -7.707684991467571578e-01 5.849518064711254350e-01
3.649644765540790980e-02 -1.645211255646484017e-01 -9.167702497963504671e-01 -7.312095480253196778e-01 -4.823815193815830099e-02 6.804452054164236152e-01
-4.409874646090963107e-02 1.164155240810680891e-01 -6.147838681001284167e-01 -6.688939092574447409e-01 -7.431760177010343638e-01 -1.644216750690376261e-02
-2.906848888739994169e-02 1.047684176705898779e-01 -6.319549495451887156e-01 -6.708826943560012301e-01 -7.320702892779749060e-01 -1.182772250693017169e-01
-5.204243149676288788e-02 1.212592801930497954e-01 -6.510090168681813561e-01 -3.359993327244419348e-01 -9.255809276939545027e-01 1.743685599468211833e-01
3.185365546928513314e-02 -9.743943968653949461e-02 -9.104776260868920890e-01 -7.615610997590214204e-01 -4.028765479038173281e-01 5.076565556386846145e-01
-3.804104123233156831e-02 9.126784728183379158e-02 -7.942226637312890247e-01 -5.523419511084903810e-01 -8.096947577305543264e-01 1.982744773018579321e-01
2.971921023782882545e-03 4.284089981306248712e-02 -7.549183408897501835e-01 2.597994105247760088e-01 7.759829485209071009e-01 -5.747649344695430207e-01
4.648635067931273374e-02 -1.201587677050007935e-01 -8.891028546481221095e-01 -9.734769570278156703e-01 2.265863494088936336e-02 2.276602740894418386e-01
-3.468316791459618697e-03 7.495561926011212739e-02 -6.289356667158573222e-01 -8.302047251824327123e-01 -5.470454848075299026e-01 -1.072443557323920077e-01
2.543838631657126606e-02 -1.251371657948773808e-01 -9.280559612581934514e-01 -7.076234990941177028e-01 -3.175986901637464221e-01 6.311893975155713488e-01
1.307133029464086632e-02 -3.249344695480887307e-02 -8.917017454640194796e-01 -5.987202510393604404e-01 -5.660234145038990361e-01 5.667023515291890190e-01
2.004552721075722813e-02 -9.315798890453794168e-03 -8.612242991770864275e-01 -7.911039628974787519e-01 -4.960811631427700097e-01 3.578519239333793345e-01
7.752795028028476067e-03 2.851903823207947372e-02 -8.297959921088550184e-01 -7.376695179672254632e-01 -6.129951444645659331e-01 2.829852206827540573e-01
7.897179677862098401e-02 -1.208518094573088481e-01 -8.427726508702488850e-01 -8.466884674024954816e-01 -2.566650300986128563e-01 4.660919453199031115e-01
-9.834942625099470613e-04 5.912460156625216900e-02 -7.704290845860619630e-01 -8.991981679082445833e-01 -4.308404885366644010e-01 7.628321091789806718e-02
-4.467178823287675654e-02 9.375274842946798581e-02 -7.978338078633386843e-01 -5.234808156716285188e-01 -7.201723736710828883e-01 4.553236078051792757e-01
4.181991190437511774e-02 -3.444079960354196751e-02 -8.205300830135734413e-01 -5.960974357697778059e-01 3.473626644284054654e-01 -7.238832961395742505e-01
-6.095019828442782561e-02 1.187650892118122803e-01 -6.656756189321979544e-01 -4.120073293103900802e-01 5.011762550456134724e-01 -7.609680163929190000e-01
4.321405582932025952e-02 -2.208704626539817820e-02 -8.108789232937325675e-01 -4.526905024355685758e-01 -7.470840387440516039e-01 4.867614899090814684e-01
7.257463330766456000e-02 -2.681519466102336505e-02 -7.273456761127626846e-01 -9.198857609270951752e-01 -3.859737714022337118e-01 -6.953009875669345641e-02
3.017484714403288228e-03 5.381462738705205390e-02 -7.800000752725495534e-01 -7.722312867199710995e-01 -6.345294144921489465e-01 -3.211326758628512551e-02
-1.696114665582872105e-01 1.711426495222972133e-01 -5.765824252292950369e-01 4.409565299761678547e-01 -4.987045417433118022e-01 7.462245765960608956e-01
-1.037559961419212001e-01 1.487720436015198266e-01 -7.398345086520625724e-01 -2.362808465564225358e-01 -9.334017914539940453e-01 2.700600993502277891e-01
-1.615537430092509885e-01 1.768765293230509239e-01 -5.720800072265616043e-01 -1.635056966687080116e-01 -9.659463661443510318e-01 2.005330518627879144e-01
4.844259681211880719e-02 -1.894014043638019007e-01 -9.010016617945920681e-01 -7.633603197926877026e-01 2.129516462940821975e-01 6.098627866222414706e-01
8.404392977366904882e-02 -1.269269496108885453e-01 -7.132385975888009266e-01 -4.710706183726091067e-01 7.052676600849673294e-01 5.298018498875998183e-01
6.263376895900432673e-02 -1.358490295919745905e-01 -8.691509467987393878e-01 -6.104295647564135230e-01 -1.317705025459766366e-01 7.810328297389785845e-01
6.027843361903743695e-03 5.305564635841620441e-02 -6.170730252394680537e-01 -9.155229930666894944e-01 -3.171708587636060672e-01 -2.474273540200572497e-01
7.901438337757598143e-03 4.265661359298746069e-02 -7.976521027361523908e-01 -7.486920139583881362e-01 -6.607500963203929434e-01 5.356844637960272992e-02
5.973425278319111770e-02 -1.955164928458882068e-01 -8.621893432202297758e-01 -8.908934198241511560e-01 3.436738503372109288e-01 2.969801325146602111e-01
-3.537371462267880490e-02 1.030379200913856680e-01 -7.386332109558445547e-01 -5.910364868022648377e-01 -8.006623476334091549e-01 -9.805955512133458785e-02
-6.767281958078803783e-03 3.459253183675966431e-02 -5.819998961953131156e-01 -9.146732233995122918e-01 -5.667328664239057456e-02 -4.002012405991458022e-01
-5.223332515768135814e-02 1.162544497001479493e-01 -7.382647909591364410e-01 -5.424525303562388601e-01 -8.363177529925991394e-01 7.948501959189428756e-02
5.213947433832282624e-02 1.354553718597597406e-02 -6.940997829049876389e-01 -9.514942707240302555e-01 -3.003967133370760711e-01 -6.648659560865141649e-02
2.329133913841636289e-02 3.683987126302912252e-02 -6.380882063535746607e-01 -8.236613406580338692e-01 -4.183879876293991606e-01 -3.827969275122672932e-01
-6.095629954987853011e-02 -3.445860056445440578e-02 -9.298043174312582426e-01 -2.400061828516202034e-01 1.832765310791751867e-01 9.533135608752132395e-01
4.181861592822869872e-02 -2.689322829958788394e-02 -8.186301998497471644e-01 -9.657412267824654339e-01 -4.481711721381050062e-02 -2.556077246433340333e-01
2.590514938730037811e-02 6.343233585423017559e-03 -7.950394249045499295e-01 3.539054907791339133e-01 -4.941818440789817468e-01 7.940624714586864696e-01
5.728140246822530091e-02 -1.970290611426235919e-02 -6.729745706979686215e-01 -8.509818540275068122e-01 -2.832383303932636265e-01 -4.422735944095504967e-01
2.803950363623619602e-02 -2.187737750472341924e-01 -9.150027376033802451e-01 -5.914091990393706144e-01 4.688961868212033757e-01 6.560270766333853310e-01
1.468107056906166850e-02 2.977237925185807765e-02 -7.675024569263940721e-01 -3.743110752061536983e-01 5.303277650702015178e-01 -7.606863220629501710e-01
-1.311485067614956423e-01 1.659799120923966809e-01 -6.942925923346146000e-01 -1.545987555912299305e-01 -9.780692144204048422e-01 1.395701851137822747e-01
-1.055929102603942252e-02 7.222969430876721719e-02 -7.779270196558283335e-01 -7.058350583520979216e-01 -7.083360311806143894e-01 7.545683029789810453e-03
-2.622629258405364053e-02 -5.053045209787166737e-03 -9.016082119111721305e-01 -2.540424082987531862e-01 -7.060159942182999693e-01 6.610626828778910502e-01
9.358954528213719870e-02 -1.119163436391480276e-01 -7.830371648288348974e-01 -9.763102333338088412e-01 -7.693732348404933030e-02 2.022349538106463507e-01
-3.272466374338446615e-02 5.395333905842651656e-02 -5.578258084069183109e-01 -8.570982341920949654e-01 -1.772222711285982577e-01 -4.837095032773435221e-01
-2.003655192617842182e-02 6.156882946309945315e-02 -8.223441405102182022e-01 -6.046961190862079061e-01 -6.354566991600579806e-01 4.801430901873756651e-01
-2.027271170057225527e-02 7.730133749827459988e-02 -7.940953713245274548e-01 -5.936305202605817177e-01 -7.946882749399515333e-01 1.267807204905978535e-01
9.429481560399194384e-02 -1.548353449372658064e-01 -7.840196372715886319e-01 -9.606626182685219506e-01 2.627991221880268680e-01 8.979952805371863023e-02
-1.066620482231797479e-01 1.575655016684671950e-01 -7.201080143098701480e-01 -2.679572715767793434e-01 -9.155144613272541143e-01 3.000536147254289077e-01
-2.268178038689247153e-03 5.700294654810207640e-02 -6.059205302033083829e-01 -8.331897429468889671e-01 -3.732517747192367064e-01 -4.080171135100063573e-01
4.040156323126369020e-02 -2.123631385800544280e-01 -9.012886760176386236e-01 -7.178529855947268778e-01 3.464435533200694306e-01 6.038741221775455470e-01
-6.708738528714093020e-03 4.764679487055834689e-02 -5.890397105055130700e-01 -9.038828061244209566e-01 -2.475237938564835705e-01 -3.488951766183293612e-01
1.319327302560683104e-02 -2.210527356021842887e-02 -8.844927712165669975e-01 -6.740252250365410536e-01 -5.964580653513711361e-01 4.358070356152359270e-01
-5.397258858172242213e-02 1.136482118341396730e-01 -6.834268969029390073e-01 6.498846967950078213e-01 -2.659997446627005435e-01 7.119648985104805039e-01
3.535239212294902927e-02 -3.925120503004569245e-02 -8.600442597741774220e-01 -8.574422798896030873e-01 -4.467676233962500909e-01 2.553261195854945043e-01
-4.578771313171144802e-02 -3.511564455595794082e-02 -9.297431403255902449e-01 -2.464404780938043993e-01 -3.253043793062543876e-01 9.129316248006034140e-01
-6.188166037022446719e-02 1.271214917681852408e-01 -7.216712030830527702e-01 -6.225839817455033343e-01 -7.809826727717203987e-01 4.955048439980007380e-02
8.400206322580749951e-02 -1.249821605226835441e-01 -8.353576157769486699e-01 -8.814561165650649510e-01 -9.087705782360394613e-02 4.634398288142267952e-01
-3.732320256655181911e-02 -1.271379138980841539e-01 -9.624440007131892516e-01 -2.016571203194308382e-01 -3.695046494047888458e-02 9.787589432363605901e-01
-5.623109550200770627e-03 6.967450936883012869e-02 -6.138589916883077091e-01 -8.572163799890236691e-01 -4.145599505993654010e-01 -3.054834287446134833e-01
6.505915941605286412e-02 -5.756630972210056985e-02 -8.207142448027164860e-01 -6.970577048828845435e-01 -2.338000758671799906e-01 6.778259958041638056e-01
2.168691852947456089e-02 3.862435999595070085e-02 -6.360824480876874354e-01 -9.155129596090466615e-01 -3.173116875833074113e-01 -2.472838727271096659e-01
2.428844925966437349e-02 -5.361561984013468729e-03 -8.488726691778976097e-01 -7.338756859242346886e-01 -6.090131856198448546e-01 3.008810684479873432e-01
-2.668817892418290719e-02 9.090914097912233816e-02 -7.621833067959606911e-01 -7.725445264508924437e-01 -5.807012018501819250e-01 2.568288706912070229e-01
-1.742870899612361524e-01 1.640596576435434661e-01 -5.762807316249692891e-01 5.835108012104449626e-01 -1.314301772761528320e-01 8.013995591288427534e-01
1.556975251721224272e-02 -9.129397254737622869e-02 -9.258195790711339912e-01 -6.675297232765533550e-01 -3.345564934843355820e-01 6.651887109759109240e-01
6.118801312961866246e-02 -5.580565746637952684e-02 -8.235539607940122186e-01 -6.396869475320836607e-01 -3.658862906856006347e-01 6.759643714319695240e-01
-6.577231194464054458e-03 2.923519656971676831e-02 -5.799040250850832079e-01 -6.374612840955293791e-01 -3.280734524024788157e-01 -6.971448351009977840e-01
-1.161475344755817790e-01 1.593634145237388389e-01 -7.257203957952338413e-01 -3.165561558995693137e-01 -8.430880469985099213e-01 4.347352587153774928e-01
2.851638548044183735e-02 3.822856256767174360e-02 -7.407500864625423675e-01 -7.163409327028230633e-01 -6.017674953073282040e-01 3.531735405236274272e-01
-1.350756206415393568e-01 1.529785152549451854e-01 -6.073702099044848701e-01 6.107451648560341395e-01 -9.536865452902679174e-02 7.860630784729041309e-01
4.137129316049562716e-02 -2.691874418964288959e-02 -6.351713466146370335e-01 -6.031671823646953534e-01 -3.315357251336491506e-01 -7.254470436071400741e-01
3.293946990440831113e-02 -1.158745712063151412e-01 -9.170666631059863905e-01 -7.406090776101873496e-01 -3.364146359015296461e-01 5.816557288573961371e-01
-6.182157322571893432e-02 -3.562759802333161085e-02 -9.304386331417002776e-01 3.261583312063881523e-02 -9.147917556531297567e-01 4.026068196378586594e-01
7.656355886524138232e-02 -6.837238011814142369e-02 -8.000507854689652421e-01 -8.377694409923398533e-01 -4.202931302097827060e-01 3.485628328405728227e-01
6.629574351064485005e-02 -8.988476062931699540e-02 -8.403852912534611752e-01 -7.320826904297502713e-01 -4.170538041343110347e-01 5.386288692877853057e-01
-8.668847593739731350e-03 -1.083807996550738562e-01 -9.497363521042766488e-01 -4.857548166168543791e-01 -1.544964687134884884e-01 8.603331327390503214e-01
-3.238976939681605799e-02 5.855027675596823772e-03 -8.954711514901977365e-01 -3.905503427392807980e-01 -4.069535496159980004e-01 8.257476843692448387e-01
1.635490666063320678e-02 4.778086214281868777e-02 -6.356145719733647947e-01 -9.131782769569409819e-01 -3.862720091039092973e-01 -1.299975748880785043e-01
-8.081264982471637881e-02 1.411954790448659292e-01 -7.314707087311621558e-01 -5.938593604787246738e-01 -7.302093347273173052e-01 3.378244920796728001e-01
8.454844078686138409e-02 -1.183373520306309629e-01 -8.291958081250300205e-01 -9.024211864085771584e-01 -2.676795797727999915e-01 3.376146396316266896e-01
1.414034740152291837e-02 -2.911981863993547137e-02 -8.877261821117164997e-01 -6.588437585434386845e-01 -3.772700435521433304e-01 6.508396239216839296e-01
-3.415054992592310434e-02 1.107040066677201784e-01 -6.233419898940018022e-01 -7.774085837469352223e-01 -6.289358030258108689e-01 8.697677210778851850e-03
-1.280155009840421299e-01 1.480316502906456888e-01 -7.527531375440214001e-01 -1.626447560636672396e-01 -8.778070274736179401e-01 4.505568841366439092e-01
-1.455315919265864379e-02 7.229566195515793603e-02 -5.962830808437823427e-01 -9.261514231579495160e-01 -3.014525286448552222e-01 -2.266493202198659185e-01
9.519052390500304037e-03 -5.602283774377934955e-02 -9.118506746962889986e-01 -6.630462283089735287e-01 -3.580673567833810300e-01 6.573868473976397508e-01
-1.673572111545545624e-02 8.225539730402706140e-02 -6.061386969995204987e-01 -8.617477874346255451e-01 -4.614769420842168568e-01 -2.107837346099739606e-01
3.177253783812447607e-02 -1.248440033614975353e-01 -9.202329544559761931e-01 -8.318383993398698051e-01 -2.094492311646617422e-01 5.139804441301396576e-01
9.561368768813306718e-02 -1.520631077471435721e-01 -7.610667146774010572e-01 -9.372530847853507430e-01 3.278917167430082658e-01 1.185060215839982140e-01
5.319902703395724269e-02 1.252217786683396637e-02 -7.170256987713908847e-01 -8.836575942044877507e-01 -4.669066599174465093e-01 -3.387369376774329588e-02
7.013639934787675723e-02 -2.222985195081838075e-02 -7.448405814323112439e-01 -9.375330127743184416e-01 -3.033467482942026616e-01 1.703308552718600932e-01
4.240821913890231026e-02 2.669793222173502331e-02 -6.873463306482694435e-01 -9.184168053577608237e-01 -3.928821945110227976e-01 4.641285245109923185e-02
-2.700168443673347813e-03 3.808673696749364374e-02 -8.363612099972953517e-01 -5.794792131655432943e-01 -7.116718423096770607e-01 3.971486250418011510e-01
-1.770361365981408617e-03 -5.746102336670553395e-02 -9.218468992725297184e-01 -4.808759691633653910e-01 -5.235076185232143686e-01 7.033477629376145845e-01
-3.077044827184437226e-02 9.398578983064254100e-02 -7.674666182390972313e-01 -7.596305046982593234e-01 -6.065465691873660470e-01 2.346545455321574492e-01
5.829629348376955122e-02 -1.393239262158416369e-01 -8.743171911642551031e-01 -5.007072705933655055e-01 -1.629094351314662736e-01 8.501486606000675517e-01
-1.620500775408737631e-02 -9.820587454166176955e-02 -9.507024673970160267e-01 -4.005403170341160779e-01 -2.938763981851764129e-01 8.678733300545175000e-01
-7.681575103182750053e-02 1.198403184671989474e-01 -7.804696572097030716e-01 -2.736369022435278797e-01 -8.818968334206960247e-01 3.839020981098111851e-01
2.794260827004962228e-02 3.521815160702369135e-03 -7.906680237066088246e-01 -3.361698181709237843e-01 5.056874893758751544e-01 -7.945250256849385462e-01
-1.430326388803475346e-01 1.478449881435965618e-01 -5.931128468705139101e-01 5.005515638323870115e-02 9.823025234885317536e-01 -1.804888740823434312e-01
7.344743323604507705e-03 -1.756752132576384073e-01 -9.375835304901222189e-01 -3.702270279694111488e-01 -2.198685503039038945e-03 9.289387027909838945e-01
-8.111846591018669062e-02 1.229165243932268670e-01 -7.784850641783012115e-01 -4.596873221603962056e-01 -7.469761864010180386e-01 4.803271206113555181e-01
9.663088307480816042e-02 -1.245452341155162540e-01 -7.874069237712600922e-01 -9.702021178958029068e-01 9.195820149719299841e-02 2.241685517816894846e-01
5.938702073115722374e-02 -9.495455610296561766e-02 -8.521826734607920173e-01 -6.526175042349494637e-01 -6.139652346022982377e-01 4.440012205680189394e-01
-5.097419613674335215e-02 9.472329392363164347e-02 -8.032422692542643405e-01 -4.803245096045933860e-01 -7.216846927786536581e-01 4.984571894175942042e-01
8.026097341127329254e-02 -1.219646505043183449e-01 -8.410679767728332923e-01 -9.044231990175676250e-01 -2.092727685995423859e-01 3.717843264602632702e-01
9.387942132505081028e-02 -1.408843526403680824e-01 -8.015291904658561339e-01 -9.957998439872892682e-01 -5.687865807737176906e-03 9.138007932500152863e-02
-5.583486936948971885e-02 1.212502482030718282e-01 -6.022630784883650223e-01 -7.701035562924891664e-01 -6.241423026479975267e-01 -1.318593896198388404e-01
4.197315853583258316e-02 -1.577769577882081886e-01 -9.090718884770865316e-01 -8.433188740856792931e-01 -1.978534597288340025e-01 4.996671743112537367e-01
5.227255176823172866e-02 -1.055885514408088331e-02 -7.885864704885380272e-01 -6.992060806608038082e-01 -5.760820350990889516e-01 4.233678608527688403e-01
-1.149252798634697037e-01 1.603529778478794687e-01 -7.224957763793605769e-01 -4.561710517208821258e-01 -7.985017674790638731e-01 3.928140767649185849e-01
-1.591364387773306910e-01 1.569203685623520861e-01 -5.879238506715434021e-01 6.279707621110436344e-01 1.238878485291787235e-01 7.683127767520764317e-01
-9.452450391725411918e-03 -9.701720638394031870e-02 -9.472677534981395198e-01 -4.762907979295578631e-01 -1.936753513488397027e-01 8.576927970360532782e-01
-6.279005294240418145e-02 1.289325153288231607e-01 -6.654199970980732015e-01 -3.028284284949587235e-01 -8.994938819287741083e-01 3.149693624274883530e-01
-1.607074646429323267e-02 7.781871666299203238e-02 -5.997401694432760166e-01 -8.907266756339183855e-01 -3.988488056772577783e-01 -2.180037144728811938e-01
4.748387844017638859e-02 -1.083160650486334475e-01 -8.682185014624853592e-01 7.883794085259449025e-01 -2.764171924595086316e-01 5.495920704714399863e-01
7.165489167173063299e-03 3.530173149680078393e-02 -7.641712392556109235e-01 8.754545679473737518e-01 4.735667919521581726e-01 9.650799459225442578e-02
3.755615316373047546e-02 -9.898858990511796851e-02 -9.016415200948741937e-01 -8.952954116396318884e-01 -2.700583934178826806e-01 3.542803833711007933e-01
3.265727414605153894e-02 -1.593928105684200569e-01 -9.206994207979833922e-01 -6.491939159465706100e-01 -6.736830553609633732e-02 7.576336653734127013e-01
-1.200871107625907895e-02 2.924173864057080449e-02 -8.592073598242989663e-01 -5.722658293437883348e-01 -6.231714558523745451e-01 5.330751890458774733e-01
1.284799818089407165e-02 2.098246444323044815e-02 -8.335308744660068214e-01 -7.717199828585389332e-01 -5.688130933886558216e-01 2.844291350168700605e-01
8.548307893861943618e-02 -1.178304961412950241e-01 -8.264968814733115732e-01 -9.278929406825955351e-01 -3.739382012309167003e-02 3.709668352400349867e-01
5.673837024217244680e-03 4.259407476657368213e-02 -7.547760594925865263e-01 -8.749853855056716201e-02 6.777443389879955760e-01 -7.300730214993839118e-01
8.830645099850259472e-02 -8.621346734728235761e-02 -7.264429332090123204e-01 -9.958721970432562465e-01 7.459713228466711976e-02 -5.170913856507060313e-02
2.948941847745905828e-02 -1.595222389933174112e-01 -9.238621876993901028e-01 -7.078024415738732866e-01 8.498264515830165899e-02 7.012800109257085746e-01
-9.994564013968902649e-02 1.190752839044783157e-01 -5.668828997730556152e-01 1.344281397476223550e-01 -7.317962560521429349e-01 -6.681342042374871504e-01
1.633355661791760852e-02 -7.934961419546726624e-02 -9.211913390572118443e-01 -6.566062587762835356e-01 -4.173943136896857697e-01 6.282119131593482120e-01
6.831522881379185896e-02 -4.169423987719739905e-02 -7.967686622090440762e-01 -7.590872564714764570e-01 -5.432897267109157990e-01 3.586402235011924566e-01
4.685254552831002312e-02 -4.966576812167297628e-02 -8.342156355073612195e-01 -9.394952537913529023e-01 -2.666086821943325913e-01 2.151010894489443770e-01
-3.551709841687133995e-02 1.029769255302815656e-01 -7.361248878632792314e-01 -7.141092653809570923e-01 -6.949627985769660787e-01 -8.411103192293505060e-02
9.286061123445003840e-02 -9.062412359650744154e-02 -7.822030734188127887e-01 -9.726292938271223765e-01 -1.949186702423585243e-02 2.315433521163213770e-01
-1.498502435680413025e-01 1.581476233909680784e-01 -5.953529585042430794e-01 5.908506545758300810e-01 -1.485544514617254397e-01 7.929861782769098699e-01
-6.834410187045328322e-02 1.204957979680491287e-01 -5.827543301008653032e-01 -6.610825117904053361e-01 -5.725828564634082296e-01 -4.848904877279947567e-01
9.344834498191938177e-02 -1.652054034720759623e-01 -8.072769247051045927e-01 -9.890445439697062024e-01 5.067541616427218010e-02 1.386466452545236649e-01
-3.546138315698400129e-02 1.745957330967927348e-03 -8.999424972049544502e-01 -1.952666108385456289e-01 -7.251092890817766312e-01 6.603691918759905244e-01
-3.500538896582939923e-03 2.588311063945731086e-02 -8.539374898374751943e-01 -6.035238910291099712e-01 -6.867819660466009113e-01 4.050795527674145302e-01
2.419382576385637265e-02 5.127665377854430384e-02 -7.100018360471231915e-01 -8.069312692975596502e-01 -5.207639460410585786e-01 2.786877089747139546e-01
-1.340969839761514126e-01 1.534567402293799954e-01 -5.901614076153499644e-01 -5.483949136550215764e-01 4.398338916123267217e-01 -7.112026198394220122e-01
-1.752148302681486719e-02 -1.733220097558391430e-03 -8.940827454281283782e-01 -4.982577113412350878e-01 -4.413077594724981734e-01 7.463154256199976411e-01
-6.717075329066372891e-02 1.218698889384737249e-01 -7.653568194261815005e-01 -4.943651273726702988e-01 -7.517724690052820513e-01 4.363957787187058845e-01
4.246196679014058867e-02 5.243026639393860364e-03 -7.729734090592147444e-01 -5.924097302270826537e-01 -5.801238133575664646e-01 5.590233203612801072e-01
-5.208601672943356103e-02 1.113613636756646263e-01 -6.760214937583055583e-01 -4.215870040175616063e-01 5.427470146869691758e-01 -7.264227943091262629e-01
2.086491659364145615e-02 -4.421776976782920004e-02 -8.932511425249503034e-01 -7.098301520185621438e-01 -2.915066653484374992e-01 6.412215056770467214e-01
5.732570215776679884e-02 -5.590291536222447011e-02 -8.274136031601482255e-01 -6.372722553723253469e-01 -6.903865411617435832e-01 3.424185980863100331e-01
4.138374176317154152e-02 2.476174102882066838e-02 -6.775970374400624996e-01 -9.239357838609089102e-01 -3.774842166317632919e-01 -6.203493769829673821e-02
-2.078093704707936751e-02 8.805606747611874341e-02 -7.175374821492329636e-01 -2.712511367741278767e-01 -8.248703377140493842e-01 4.959957124393856165e-01
-1.645957420442899222e-02 9.496587639109603518e-02 -6.826283086670412725e-01 -6.628452337722644527e-01 -6.679590167533930867e-01 3.383296439912298892e-01
-4.760992726561534549e-02 1.123692360919863881e-01 -6.791877000725002889e-01 -7.021262722274201895e-01 1.866881235838820929e-01 -6.871435383970048161e-01
4.915471207840799855e-02 -1.553051793303763806e-01 -8.894362649570033419e-01 4.162543407136327644e-01 8.246452524304698217e-01 -3.830046102606934344e-01
-1.891591421062102929e-01 1.609836714377114453e-01 -5.638113469356604845e-01 6.678248813736289424e-01 -2.861917275487849688e-01 -6.870984084546699622e-01
8.145048363803847336e-02 -9.814630606655833089e-02 -7.039454231095311210e-01 -9.366506766646056636e-01 3.499174000511042770e-01 1.559881550669475064e-02
4.774822074205663930e-02 -2.228852748703798181e-01 -8.601441875136870419e-01 -6.942992839546817674e-01 6.633510996543540150e-01 2.791304764574724095e-01
-6.029496219651153677e-02 8.244573074842559413e-02 -8.252760200597906159e-01 -2.046358274171082847e-01 -8.576778192550358337e-01 4.717127690610479762e-01
4.272358189832959480e-02 -2.301711880645335995e-01 -8.548653621718350637e-01 -8.139933763540261324e-01 5.807175192902310767e-01 -1.348873756780239082e-02
4.238981896485001510e-02 3.040983008754842912e-02 -7.202266963121466414e-01 -8.024685332570468121e-01 -5.945539131811542477e-01 5.049650931757981853e-02
7.821480961181795366e-02 -1.443150937532284295e-01 -8.517123424377891494e-01 -8.964745017294039053e-01 -2.092610872025990609e-01 3.905678751917563973e-01
2.580043895328134294e-03 7.095034027068215787e-02 -6.382182348630869306e-01 -7.676774572562585774e-01 -5.733670386062641455e-01 -2.862194274685909701e-01
-1.497675867549927986e-01 1.650851070133227683e-01 -5.727994585968750885e-01 -6.754981136434710098e-01 6.378055739107676980e-02 -7.345980798797365763e-01
2.771165281457444070e-03 1.415603580044534626e-03 -8.741711646980250272e-01 -6.164406831113069529e-01 -6.121751372014637704e-01 4.952196336956301015e-01
-1.038539650062653419e-01 1.525539911777714641e-01 -6.278107855622211408e-01 2.289477136185503192e-01 -7.527493653533013918e-01 6.172125544648617845e-01
9.578502600167006220e-02 -1.074626391619964844e-01 -7.696327237878618499e-01 -9.907566863684540426e-01 -1.343579837653648967e-01 1.868476959201884752e-02
-7.961094261845817754e-02 1.254092247104811042e-01 -7.609063769408771494e-01 -3.173448666908891269e-01 -8.822075570435971015e-01 3.478535063501734248e-01
-3.222995789142345940e-02 -9.367699255924604590e-03 -9.081571821595461058e-01 -3.357685540680285796e-01 -6.193184994187228565e-01 7.097211243698520189e-01
-6.800522104951794988e-02 1.305822915892612124e-01 -6.635064739716733939e-01 1.092374673567289012e-01 -7.368760553126390001e-01 6.671438037127919163e-01
2.197134655579670998e-02 2.593843285470437410e-02 -7.766495584380764816e-01 -9.191657502036768568e-01 -6.360292666612261947e-02 -3.887016740020756145e-01
-8.237583111940124936e-02 1.319204002551857824e-01 -7.529067496014957284e-01 -3.765718774552311299e-01 -8.947982044771453092e-01 2.398536936849615941e-01
-5.927066982223819572e-04 1.552999728464648371e-02 -8.578164943966264389e-01 -6.042341820281561526e-01 -5.526741421975935875e-01 5.739793949393298123e-01
5.897047136106487938e-03 2.951850799243760023e-02 -5.965967392056972241e-01 -6.713821169208175066e-01 -3.419374382696689918e-01 -6.575141377860236336e-01
-5.323888746385727067e-02 1.148783906938865146e-01 -6.732521007976460803e-01 -6.239278462280698490e-01 2.432408525264293242e-01 -7.426627298871393279e-01
-1.295995547147669735e-01 1.373093362669190742e-01 -7.745032819567361226e-01 -5.632016517399505290e-02 -8.587256412366018887e-01 5.093312400369340853e-01
8.458632636358662249e-02 -1.370377843862258527e-01 -8.380976636158657955e-01 -8.811726321904956860e-01 -9.123747481919582125e-02 4.639078739007240215e-01
-6.472757289969700845e-02 1.326177154050414975e-01 -6.951493830867998547e-01 -7.157125666478882930e-01 -6.949709260845897685e-01 -6.907194683386193301e-02
-6.932329210470047909e-02 1.236655742364159843e-01 -6.668347565184313819e-01 6.817134545388804368e-01 -2.036657337494771902e-01 7.026998184124946256e-01
3.640727187563754658e-02 -1.569101337055284484e-01 -9.165289358022039590e-01 -6.624379746515043355e-01 -3.926086886761802341e-02 7.480872368349645862e-01
-8.509456057435108023e-02 1.439501760682810882e-01 -6.613115972428509348e-01 -7.990596471873215867e-01 -5.998309475396962354e-01 -4.130998197171515535e-02
1.415082772225175617e-02 -6.284427610485024407e-02 -9.136925518005126756e-01 -5.950858634677819170e-01 -2.816023579562107471e-01 7.527103872634589576e-01
-9.289339743218712891e-03 6.945107776624578899e-02 -7.291459278085652418e-01 -1.131728603238948277e-01 -9.877436853780278136e-01 1.074910027953037278e-01
1.675434808608249060e-02 -1.556030067808231599e-03 -8.587743252078118283e-01 -6.722985719623221224e-01 -6.091721893062587156e-01 4.206231970698261491e-01
7.133397909458617792e-02 -2.300254161765552877e-02 -7.289011605801676286e-01 -9.701673103121312147e-01 -2.318461893859413148e-01 7.087125276826421183e-02
-8.591773441282524182e-02 5.980596364525066211e-02 -8.626330997838457249e-01 1.545647284626306545e-02 -8.517237445107425087e-01 5.237630766708857299e-01
3.077370434313213277e-02 -8.815602368516122639e-03 -8.326247636919363870e-01 -8.871618686343205606e-01 -3.760200865401654990e-01 2.674933893754893877e-01
-9.537792201625285016e-02 1.455322833762742740e-01 -6.257966207348475418e-01 -6.384695710707128935e-01 2.731317866663956484e-01 -7.195523844232624144e-01
