-1.325639489499837349e-02 9.060072438242645909e-02 -6.041497381594402860e-01 -9.644557429418382233e-01 -1.945941891233554377e-01 -1.787686255077513275e-01
-1.176596468283907099e-01 -2.146210514024896043e-02 -7.917093991382100349e-01 3.341464348602088408e-01 -3.138271186720713035e-01 8.887399505233223307e-01
1.192730752775830183e-01 -5.490122360323434342e-02 -7.187620137646305585e-01 -8.664320331962745980e-01 -1.768892380371699380e-01 4.669108365823166906e-01
7.866884860469913754e-02 5.164398334431043180e-02 -5.784000081568809737e-01 -7.763034974519548159e-01 -6.034020368661693334e-01 1.823701229632218590e-01
-3.282333981842002618e-02 6.767761305056312071e-02 -6.980815483907795160e-01 -3.227651870580376392e-01 -8.992032602086199589e-01 2.953914874426463166e-01
-5.253735900914120738e-02 9.778934882521413130e-02 -6.440460029396113395e-01 -2.397748471846465612e-01 -9.365848987045605201e-01 2.555714189344096554e-01
-1.192772657741796305e-01 -5.681057341835449304e-02 -8.181675194461308642e-01 5.041290305378551828e-01 -7.610983132186596167e-01 4.081461480703613698e-01
5.761202144651061258e-02 7.255062659436194161e-02 -5.508883153646212394e-01 -6.484204209272441677e-01 -7.605384356499752530e-01 -3.364885768676270650e-02
-8.310019155334126550e-02 -1.572286601064189562e-02 -8.037856682814322751e-01 1.885158335840335098e-01 -7.580111048478961333e-01 6.244044726100133058e-01
1.017027112914904441e-01 1.091124028975264636e-02 -6.232321925964081633e-01 -8.339803192162210665e-01 -5.337328545187616236e-01 -1.400216667779112245e-01
-1.120853498904151035e-01 -3.663510809159142151e-02 -8.089052472132368665e-01 3.735331371452620952e-01 -8.362531208105020708e-01 4.014395513512769020e-01
1.347645920378949449e-03 -3.604457480637201366e-02 -8.059884222402037279e-01 -6.093935357892450444e-01 -4.673859060260888709e-01 6.404607196280299730e-01
2.326636523990514155e-02 8.877944951633882920e-02 -5.823329693092039738e-01 -2.916359909953558649e-01 -9.225521383698530586e-01 2.526776617458862395e-01
-1.020725306540120336e-01 8.480329156384165679e-02 -6.714567464291143484e-01 2.203142510600851200e-01 -8.707882740538606114e-01 4.395331757104720127e-01
-5.027364839609329422e-03 3.946195199686706317e-02 -7.187281262089146860e-01 -5.580114464408307828e-01 -7.785596675609017803e-01 2.871725434098290064e-01
-7.646116140523346108e-03 6.560341386669993335e-02 -6.440870950392834082e-01 2.624889826646588653e-01 8.998269870921127289e-01 -3.484407084145064726e-01
-5.123133742658197293e-02 8.334915950920700201e-02 -6.728225211151398488e-01 -1.133738951040858534e-01 -9.623472294929679149e-01 2.470509457503390072e-01
-7.092541366216140175e-02 -6.227700719699592186e-02 -8.395649927929095258e-01 1.558560708718791377e-01 -6.171369132892702281e-01 7.712657877983253307e-01
9.193217297496068807e-02 2.371473249525316712e-02 -6.327624291638525023e-01 -7.368342484243670665e-01 -6.743394680569686495e-01 4.838979406385837678e-02
-1.446220588306036670e-01 9.448809410434656775e-02 -6.260344659044067006e-01 3.238285237019620788e-01 -6.990843459882440936e-01 6.375077759770437780e-01
5.161937223750171638e-02 7.726252152538398699e-02 -5.083037294793061323e-01 -7.565186306529267934e-01 -6.485540437297490080e-01 8.400722490840460688e-02
-5.712894417715079498e-02 9.969394748467825390e-03 -7.838604702610327823e-01 -1.262621808691547116e-03 -6.237592921849861582e-01 7.816154752811980133e-01
-1.642375799218998011e-02 -6.208140735444075270e-02 -8.353721492151257033e-01 -2.980045016490988075e-01 -4.509952409602959178e-01 8.413064897099254980e-01
1.179031280946643834e-01 -1.397755877318446749e-01 -7.800975856432734723e-01 -8.849039873304321846e-01 -2.875153806001532475e-01 3.664421361211769312e-01
6.150527640665255646e-02 6.916015983685025459e-02 -5.446499548923757761e-01 -7.479259040702873618e-01 -6.340540372305325523e-01 1.964238272010442043e-01
-9.217294032170353368e-02 -1.211906905973984261e-01 -8.624796685908958649e-01 2.919407549836767202e-01 -3.503607725088668245e-01 8.899538890676026437e-01
2.123650084437276458e-02 1.004266214132414903e-01 -5.462504281654353422e-01 -4.330698484744545662e-01 -8.908807042727686643e-01 1.370477183201847249e-01
1.195780324247118220e-01 -1.420442289907799804e-01 -7.775177092222022024e-01 -9.035118363932910235e-01 -3.110144460246661580e-01 2.948497513331036490e-01
9.879790352584916224e-02 1.669233945272848713e-02 -5.765371960819312136e-01 -7.760752407227056171e-01 -5.475146705889095688e-01 -3.129455323648385745e-01
1.954629767069117341e-02 2.960664487229456763e-04 -7.499808077333779410e-01 -9.847024881377720584e-01 -1.731802658799262151e-01 -1.922512327760516823e-02
3.875988218124701290e-02 7.501913204747721886e-02 -6.126652136384227454e-01 -4.003044675703620880e-01 -8.229684100105209010e-01 4.030872478359542876e-01
1.066628724171339304e-01 -5.338703118232934058e-02 -7.456003530705436200e-01 -7.623947895987132073e-01 -2.933658211714021968e-01 5.767934463576738224e-01
8.076936101459696038e-02 -5.106432395638782484e-02 -7.683790332355883157e-01 -5.509303380498423719e-01 -6.200010546366528930e-01 5.586362455710555119e-01
2.198768261081096922e-02 1.012763365021770723e-01 -5.276525619447243187e-01 -4.588380482595234011e-01 -8.587911127973614223e-01 2.279154888322884598e-01
8.318154551271163266e-02 4.248440174848595874e-02 -5.813203379380484925e-01 -7.882087409091272923e-01 -6.078223177501486107e-01 9.632762220301048506e-02
-1.673134233386868938e-02 9.037738216514452916e-02 -5.939828897625213378e-01 -8.452805688856628308e-01 3.479849504451689723e-01 -4.054716193866143570e-01
-6.774403633078029952e-02 1.161843094152799349e-01 -6.037776030998103227e-01 -1.767823498688506911e-01 -9.686319284034603516e-01 1.746430303568995701e-01
-3.843053543398106120e-02 8.745972448400399224e-02 -6.562074330423157686e-01 -3.854065169533341106e-01 -8.966319596875134135e-01 2.179746442979753063e-01
6.293996417506281249e-02 -2.329095887698716047e-02 -7.616800765918407823e-01 -4.507558001270579595e-01 -6.923413152343541599e-01 5.634560425369313785e-01
-5.883033072153360382e-02 1.176050647232580321e-01 -5.791497017278605108e-01 -2.755547105860153279e-01 -9.429498931926344474e-01 1.868558278509306891e-01
6.026079238151833134e-02 6.884298109517220099e-02 -5.579228175600059458e-01 -6.784486340290029061e-01 -7.324765399780053254e-01 5.644084838155742634e-02
7.222561764250237659e-02 5.564593824335961614e-02 -5.518345205942666309e-01 -7.412066083369777125e-01 -6.677194156234875777e-01 -6.901844504929506574e-02
6.146099477468947719e-02 5.739612387585262682e-02 -6.179917459122697965e-01 -6.556730095814851111e-01 -7.381746558934262348e-01 1.587169868129410244e-01
-5.775610327516131348e-02 1.089611621508859846e-01 -4.691193718875238394e-01 -5.992548857480892721e-01 7.763856747375056377e-01 -1.952405336230995658e-01
-7.871348303675669567e-02 4.636254759326575298e-02 -7.377203045175078078e-01 1.285554506314727508e-01 -8.366652185943579401e-01 5.324141321447002362e-01
8.490736166783369177e-02 3.887691771986725997e-02 -5.566307638472252073e-01 -8.822863034127433890e-01 -4.381690636830132823e-01 1.719847389782821478e-01
3.270421216395774655e-02 6.721649785529248966e-02 -6.444844127990505545e-01 -3.734665740785227395e-01 -7.409483509532682755e-01 5.581382080324583939e-01
1.200964549555954830e-01 -1.212268402656983129e-01 -7.704278026794358913e-01 -9.253390383691144638e-01 -2.895918744418667368e-01 2.447125054576671788e-01
7.966517886338433940e-02 4.410514441497062621e-02 -6.127392263056475885e-01 -7.451174237340911777e-01 -5.975522400741342111e-01 2.961947758321457069e-01
2.278363182980479296e-02 -1.619187782819979660e-01 -8.628357135144523182e-01 -1.199468123311747264e-01 -3.621865656681660384e-01 9.243558047965562130e-01
-5.240710468209644479e-02 -6.490909199325152479e-02 -8.446024880499213294e-01 -1.516472734099703901e-02 -6.545871540602908878e-01 7.558344321238098518e-01
5.809370566189957924e-02 4.858548971788531623e-02 -6.566796379297225039e-01 -5.140040114722463915e-01 -6.874984617680884869e-01 5.129773301588979040e-01
1.786395782305438829e-02 -1.499977990757309643e-01 -8.605865378368574570e-01 2.430036444667070181e-02 -4.718362040713670047e-01 8.813512857058088956e-01
-4.121893881312541086e-02 1.128712539402686454e-01 -5.367795292710230148e-01 9.505187369208394355e-01 -4.555701860126313424e-02 3.073087841545956711e-01
2.992396107279892033e-04 -1.228690454157697759e-01 -8.578807272989300570e-01 -3.173039851040992954e-01 -4.930470346112440505e-01 8.100758005878931911e-01
1.688821640331564233e-02 3.414874221307177826e-02 -7.062618597044054702e-01 2.362798791296925882e-02 -5.942017165031762138e-01 8.039689286855949968e-01
-1.781238626695370517e-02 6.834910773136985973e-02 -6.773106430783526477e-01 -5.125290595826705875e-01 -7.479773797605810959e-01 4.217153097171110754e-01
-6.083450165341054705e-02 1.224363777518255869e-01 -5.690007336002084193e-01 -4.097908168509141191e-01 -8.685018655573252255e-01 2.788834809523614844e-01
1.521713306032303897e-02 1.309471767091286744e-02 -7.388178678847276970e-01 -2.058549003998036073e-02 -7.709200857932826390e-01 6.365991351865722958e-01
4.915304638401974194e-03 7.955839346847530524e-02 -6.243489843140392903e-01 -3.119007939227402913e-03 -9.183830208573873222e-01 3.956802987139173555e-01
7.436448005500635727e-02 -7.946451286832606486e-02 -7.998141034869549193e-01 -4.951288860760911792e-01 -3.927799428984305452e-01 7.749653557609881283e-01
-5.623199266843843802e-02 9.336871601102408880e-02 -6.558998476865134375e-01 -1.345622354429469036e-01 -9.481208144386176206e-01 2.880276480146469198e-01
6.460733842239430036e-02 -4.706530888133115403e-02 -7.840301476855877638e-01 -3.419417005220737882e-01 -6.697441689735449399e-01 6.591802648517384178e-01
-2.867872998671777262e-03 7.217620941747440733e-02 -6.435017864889545081e-01 -9.721114511783681689e-01 -3.121661193281561122e-02 -2.324324625075483153e-01
7.627666515044929929e-02 3.208318349762787763e-02 -6.660782563565227354e-01 -6.208411572405294621e-01 -7.386434024043618818e-01 2.626065146959384311e-01
-6.765855843041465589e-02 -1.342547433842807003e-02 -8.051757783454920325e-01 6.283093520809458765e-02 -5.438800486508068577e-01 8.368074845867906619e-01
3.393171411831832213e-02 -7.630377179209746341e-02 -8.125269168792644825e-01 -7.769525751442485362e-02 -7.428994733891436386e-01 6.648788005327738171e-01
-2.357397187228251617e-02 8.559118558300207735e-02 -6.369115418876497570e-01 -5.586126206916353087e-01 -8.258011665390287970e-01 7.748789161412575344e-02
-6.951141792274800890e-02 8.166753339936870526e-02 -6.806040789249409029e-01 -1.249746221701380534e-02 -9.471480485943584160e-01 3.205532521782191169e-01
-5.023932227102690523e-02 1.255311986536757629e-01 -4.931929381707255144e-01 -1.792889188685800328e-01 -9.833151796657140231e-01 3.076915679573338433e-02
-5.819227670457342849e-02 1.005561249374379712e-01 -6.333782390787648930e-01 -2.286852806937409444e-01 -8.615242128968657598e-01 4.532979957891509204e-01
7.801659467778611357e-02 2.310832413699773213e-02 -6.791127638386138532e-01 -6.280925470668786703e-01 -7.153289848406805262e-01 3.062747063762241151e-01
8.457544502403244180e-02 1.568259600777940216e-02 -6.835257166128743123e-01 -6.406427216059444874e-01 -5.754342242309963273e-01 5.083820972821524453e-01
3.650432984575986695e-02 6.198132585519902649e-02 -6.520425747638268765e-01 -3.980748599037698954e-01 -7.262897905712525359e-01 5.603923143874836033e-01
-4.154143796273632866e-02 -1.741380424500070176e-02 -8.082185637275973722e-01 -1.793410832756000550e-01 -5.845225185322345807e-01 7.913091691483599144e-01
-1.165980425462139342e-01 -9.181471385571092492e-02 -8.424948638237498288e-01 4.504922970682448957e-01 -7.415845602298704042e-01 4.971006239292461992e-01
1.898379393180847641e-02 -1.473352954351335176e-01 -8.589724254814318227e-01 -1.303309768964732718e-01 -5.097412272407361167e-01 8.503985640347232478e-01
-4.375561166774857846e-02 -1.308719702589249655e-02 -8.048695002174454105e-01 -4.955591314185465307e-02 -7.527035132939311479e-01 6.564919135432283337e-01
-1.447581847729154381e-01 1.011178618291678072e-01 -6.090657578876121914e-01 3.073250137643994684e-01 -6.832459725581717658e-01 6.623641573166150209e-01
1.233040915855864589e-02 2.983760252394929494e-02 -7.101015949912076186e-01 -9.406728642625451497e-01 1.410533211905911632e-01 -3.086073930112546160e-01
-9.477973892613973661e-02 8.880782885134830273e-02 -6.665442851650336120e-01 1.253019686661816234e-01 -8.553549801323734325e-01 5.026601979579508050e-01
-4.690947211642351733e-02 1.005146751536661366e-02 -7.791084941197703451e-01 -5.780015358322420499e-02 -7.775593161986448232e-01 6.261474682839909267e-01
-9.122589361567173816e-02 7.388137942756442533e-02 -6.965719709330104870e-01 9.104118912646654016e-02 -7.728767358285156819e-01 6.279912842528133643e-01
-5.516340810287160418e-02 -3.453015419109752016e-02 -8.234289392595790513e-01 -4.329468830797877227e-02 -4.736765876132142949e-01 8.796340490859909655e-01
-8.477123643687878296e-02 -1.433459682653797035e-04 -7.845208934997427441e-01 2.912887875170675489e-01 -7.197486387290475962e-01 6.301688181071161132e-01
5.074678545082352736e-04 1.007141999184074377e-01 -5.694629774044632775e-01 -1.244990847052386829e-01 -8.245365939151393375e-01 5.519414671886669899e-01
-3.685714175662379438e-02 -1.747322482089161966e-01 -8.702488198058400126e-01 -2.828695599060775459e-02 2.312751091055780528e-01 9.724770804646185596e-01
-5.867827825938438241e-02 4.541929868275713239e-02 -7.420473624791745770e-01 1.364078433865639935e-02 -8.794132247607061581e-01 4.758637505826661673e-01
8.118463623995385292e-02 4.491650473761917700e-02 -5.830781339929065332e-01 -7.340619958188949745e-01 -6.716872109304556915e-01 9.994637045359064387e-02
1.235203111974517709e-01 -5.358935881866380008e-02 -6.952828817630627434e-01 -9.054209652116116391e-01 -4.243628762485474604e-01 1.135891796490530285e-02
-7.503938577134149079e-02 1.097010410436553007e-01 -4.086541918698033959e-01 -8.356765939095424089e-01 4.933841619505975884e-01 -2.412813692104140151e-01
7.135950361034022749e-02 3.002882155211358123e-02 -6.780497203302096043e-01 -6.060430026151019112e-01 -6.453128698172803102e-01 4.650625538886759003e-01
1.909489217233113420e-02 1.006895016548666477e-01 -5.087850776721598578e-01 -6.107627438576196388e-01 -7.865661288044580868e-01 9.100876734183648009e-02
1.192713509140952977e-01 -4.640010316921103911e-02 -7.016738128891805149e-01 -8.273507100026095129e-01 -5.561011001600230097e-01 7.900866445517128189e-02
-1.596522887925133497e-04 -1.196473585699585063e-01 -8.566546745766472348e-01 -4.199221928106391943e-01 -2.408328956592908632e-01 8.750227816196930464e-01
-4.747855671537446615e-02 8.025840574020021850e-03 -7.848067211244499353e-01 -1.086800305292056346e-01 -7.525311986437327461e-01 6.495270941477327975e-01
6.260713191049938064e-02 -1.038188261670679319e-01 -8.215817342016220604e-01 -3.708089123968170697e-01 -3.460230882947498143e-01 8.618403406977729331e-01
3.965287306693754399e-02 7.350987357248378595e-02 -6.155966480337762281e-01 -4.483268287576380740e-01 -8.626534039811106780e-01 2.341626768208855403e-01
-1.316825052784649785e-01 1.075601565984470043e-01 -6.064542818584088835e-01 2.917835495827342807e-01 -8.140135231551064443e-01 5.022393297159346570e-01
-2.806903850911631609e-02 3.792823301722483657e-03 -7.849977468211084553e-01 -2.794763013484119485e-01 -5.772763726253657968e-01 7.672320291757319666e-01
-1.270968880089964059e-01 1.198123559170172631e-01 -5.310286738385376903e-01 4.103570020929717121e-01 -9.092627527710381852e-01 -6.963028979189225809e-02
7.959731705012207392e-02 -1.129337540293539194e-01 -8.156894817444656498e-01 -5.583634387476810179e-01 -2.210513855950397011e-01 7.996039989872348874e-01
4.400121967609504220e-02 -3.573281615082904428e-02 -7.780028938338651168e-01 -2.188728171763167085e-01 -7.401005286969051244e-01 6.358819838019191817e-01
8.727157411090682992e-02 3.433017962702183262e-02 -5.552028136690946303e-01 -8.524176898784286971e-01 -3.822641944991041485e-01 3.567326275886103515e-01
-2.778086669190518374e-02 8.426472693503037070e-02 -6.507206798703361050e-01 -3.342827886425159822e-01 -9.374238341250360484e-01 9.742470134262541659e-02
5.925005149689382966e-03 -2.237030828919318037e-01 -8.611636389111393397e-01 2.809386315685236113e-02 2.878351572960954341e-01 9.572678084409063093e-01
6.640894039182691777e-02 6.351744228369185508e-02 -5.892618041356826319e-01 -6.893553834652595969e-01 -7.181494148828356794e-01 9.513450052901717413e-02
1.966899974443251167e-02 9.781070831678370658e-02 -5.552737936403120411e-01 -3.858535173965537690e-01 -8.701215073992346616e-01 3.066033683343858951e-01
-1.003371522584111109e-01 1.165089341646304844e-01 -6.056333927570809461e-01 1.304326796236194852e-01 -9.268364055467593898e-01 3.520817993582818772e-01
-1.085387530198116124e-02 6.411418381017451595e-02 -6.746440868219355513e-01 -6.349184019077768193e-01 -7.589062616731812039e-01 1.447062849779219840e-01
-6.932099605985581059e-02 1.296792014415151240e-01 -4.320588905534982205e-01 -5.227371194387153697e-01 -8.426942666504956270e-01 -1.288886221328243986e-01
-1.283917014019221939e-02 -8.596088426514454650e-02 -8.478822756393731286e-01 -2.949235213959819357e-01 -4.717342774823254925e-01 8.309554067310843672e-01
6.156813088733955469e-02 1.162322824476531846e-02 -7.186383810315282172e-01 -4.296799586883823796e-01 -7.417166494237070751e-01 5.150063543969330970e-01
8.615269125371503162e-03 -1.422147503054695949e-01 -8.609952564645946271e-01 -4.119307509314825144e-01 -2.130450537069025763e-01 8.859598532258939896e-01
6.236414520743693152e-02 6.292609408151057793e-02 -6.002665995790935627e-01 -6.306378132494863120e-01 -6.629261219634051683e-01 4.035156816264600654e-01
-8.060353980358553327e-02 1.675695745222160332e-02 -7.735817560150965999e-01 1.527997962767845552e-01 -7.441829980795366950e-01 6.502644751384819566e-01
-3.671189348764940935e-02 1.073308515534275170e-01 -5.773901342679550464e-01 -5.642873541575802454e-01 -8.243293817815733338e-01 -4.539661077048171012e-02
9.744916879781129193e-02 2.144739218486723178e-02 -6.126054787733868912e-01 -8.916006397679798745e-01 -4.492304241286809718e-01 5.692385442408567225e-02
-8.987074569188219231e-02 -4.634983081264956034e-02 -8.256787155485868501e-01 2.975647152028711995e-01 -6.290410950471576612e-01 7.181660956966061660e-01
-7.735654372918716881e-02 1.135633616915402155e-01 -4.472304797202582560e-01 8.936485671053638891e-01 2.359419942918025981e-01 3.817376243444399186e-01
7.455306382774368190e-02 5.475881763595612933e-02 -5.567076497255596390e-01 -8.272126952245182352e-01 -5.095419196730444078e-01 2.368252287137019019e-01
1.157737273610739137e-01 -2.136270115794015184e-02 -6.578760876108620259e-01 -9.043871452885237083e-01 -4.202367688652511313e-01 7.406044511456913448e-02
-1.744068583081832824e-02 1.302520105059236377e-02 -7.660047877126475724e-01 -3.604712091088401182e-01 -7.409112688738060948e-01 5.666665677975165627e-01
-4.346691010038878505e-02 6.989487448584778828e-02 -7.003060339684020752e-01 -3.010910527020280170e-01 -8.197400114191517595e-01 4.872068263697808543e-01
-2.578125939362796090e-02 7.031409378795225318e-02 -6.832940691579888481e-01 -4.102909197418969089e-01 -8.005118397976970224e-01 4.368548449096735231e-01
6.188641879973758725e-02 6.433163537130574816e-02 -5.911756140270992832e-01 -6.706142205013294610e-01 -6.765837212844945103e-01 3.041562679844357908e-01
-4.016927185723435934e-02 2.858184098805434739e-02 -7.585671748698069594e-01 -1.348289990381452697e-01 -7.811040872284897851e-01 6.096700303716099389e-01
-2.826993824195591504e-02 9.701419194325101858e-02 -5.790014719378954178e-01 9.585161310641127086e-01 1.629353175250707053e-01 2.338779784265483386e-01
-3.644738943037476725e-02 7.657705675443819693e-02 -6.815783629795707510e-01 -4.364875390579552872e-01 -8.279694861244387694e-01 3.520584586314653430e-01
-9.323523976814512837e-02 4.925171042094059204e-02 -7.318132727528411374e-01 2.428483425761148451e-01 -8.211435794428112445e-01 5.164764316480292550e-01
-1.221854975100744936e-02 8.083360639869766051e-02 -6.312567495457725997e-01 7.255504748128066561e-01 -5.224167619667605678e-01 4.479478042306666019e-01
6.340211334718814928e-02 -1.939751854144798615e-01 -8.202360656561797914e-01 -5.887010910546910392e-01 3.556624036970099101e-01 7.259030789213402057e-01
-7.507258028717525566e-02 1.138294040277587765e-01 -6.128300572662911394e-01 -2.567589547186345800e-01 -8.922391454433933333e-01 3.714621737273358648e-01
-7.720601362222642705e-02 1.296688177526704733e-01 -4.112790070174517365e-01 2.929638717627267019e-01 -1.191178969771524987e-01 -9.486743890616701202e-01
1.809831800159402912e-02 -1.703791426761968042e-01 -8.661030211244712396e-01 -3.151631335813351864e-01 -1.820364137154820150e-01 9.314155588741251934e-01
-7.102911714992905801e-02 4.318490439928137498e-02 -7.448392972172994675e-01 1.422376677685931179e-01 -8.573976080194440907e-01 4.946087217491084709e-01
-1.170265241124940694e-02 8.905877199554664003e-02 -6.114423389216884219e-01 -9.479095128881626087e-01 -2.947638967083165418e-01 -1.207551264893338416e-01
2.143479585320621703e-02 -2.739920260605541169e-02 -7.791764146580046901e-01 1.810594776686577922e-01 -6.182561584997967596e-01 7.648377527446109658e-01
-1.707134461641258288e-02 6.688022721746193777e-02 -6.801637917525941157e-01 -4.326725436068836750e-01 -8.910385239850701078e-01 1.372764320022094586e-01
9.504926623309668809e-02 2.137491159657221515e-02 -5.964151917590334584e-01 -8.528585711683053239e-01 -5.190970724176038331e-01 -5.630707763886867723e-02
-2.575685898934283041e-02 9.565820684127959717e-02 -5.715168430691000001e-01 -3.560874234321265708e-01 8.479715826713790650e-01 -3.926142405151216153e-01
-4.522523393325207641e-02 9.780707258070156507e-02 -6.371510063934860968e-01 -4.352777639089248085e-01 -8.147025263397645878e-01 3.831358268578541892e-01
-2.681812123127453543e-03 -2.203807188229278680e-02 -7.953871637164344754e-01 -5.113540524198033621e-01 -5.769989655484063507e-01 6.368588751284809391e-01
-1.138992191065832243e-01 1.095003092816083240e-01 -6.186678524511037836e-01 1.409221867794037408e-01 -8.726223388935998582e-01 4.676229153251306725e-01
1.021794007722684472e-01 1.362168230603034470e-02 -6.087253226405351381e-01 -8.707375858574607497e-01 -4.915977031959433696e-01 -1.215544271486741074e-02
7.452483642755447502e-02 -4.946731534709580824e-02 -7.796387563969843226e-01 -4.085426009870397057e-01 -4.776051360019456515e-01 7.778086379330763078e-01
1.927150635481375898e-02 6.752171839116065388e-02 -6.497577630994275655e-01 -1.767531603895610148e-01 -7.968298442781753810e-01 5.777720307871616612e-01
9.983480581379478025e-02 -1.670580578116738490e-02 -7.033522033927506190e-01 -7.803444125264913378e-01 -4.657489742093218754e-01 4.173014388444516443e-01
6.868625239569900454e-02 -1.711149518510311773e-02 -7.535835671146507986e-01 -5.195195713278302208e-01 -6.001253578227442320e-01 6.082343051041024795e-01
-7.403485873188017999e-03 8.202981206135312453e-02 -6.281386855853421380e-01 -9.242273818669326513e-01 -3.681278512235965361e-01 -1.014181037137477509e-01
2.649888603833423090e-02 -1.761123500900849126e-01 -8.610769972691153518e-01 -4.660339799678718253e-01 2.398747821633626792e-02 8.844415924209614310e-01
-4.765527010112359518e-02 1.246276415686013717e-01 -5.032998855298929097e-01 -1.500044003859075936e-01 -9.876942794457588271e-01 4.425709225635658661e-02
-5.849593697359175420e-02 -7.384270291370284567e-02 -8.501173198952488574e-01 2.077090038667570374e-02 -3.723262372760749450e-01 9.278694642744563792e-01
7.276943708903839403e-02 -1.644552876896384352e-01 -8.251724710691841214e-01 -7.596136518108138613e-01 4.307270198882440226e-02 6.489467176325198761e-01
4.957303728354768568e-03 8.043017671517299627e-02 -6.230160486720841551e-01 -7.475766897071993433e-02 -7.632936430848213938e-01 6.417118553964586969e-01
2.482704560556273088e-02 9.512035535659707497e-02 -5.607074899498879494e-01 -4.909250480005313277e-01 -7.930292296509163785e-01 3.606899474132181926e-01
-9.707072159738146938e-03 1.089708054204501508e-01 -5.452578816353157443e-01 -9.816979196685553244e-02 -9.822965463483450677e-01 1.595499513547340986e-01
1.109804793190382124e-02 9.972345551725728119e-02 -5.610758894037883859e-01 -3.517200733034535620e-01 -9.293718902378650393e-01 1.120753303412979213e-01
-1.416538484300704920e-02 2.742845548068309838e-02 -7.469427562787861463e-01 -3.920042398789586047e-01 -7.507850615179956222e-01 5.316525814085165669e-01
-6.156321351843176831e-02 1.279338549939505465e-01 -4.678628211251480984e-01 1.719784111684004024e-01 -9.740569787673146740e-01 1.470932636346199418e-01
-6.981901389835071248e-02 -8.038156757656131704e-03 -8.001271174186805890e-01 6.903037662249293660e-02 -5.429063913557751198e-01 8.369512873091280447e-01
-5.370625887946706145e-02 4.714873505970477996e-02 -7.388774704311703578e-01 -1.597942474298764959e-01 -8.276941334789070792e-01 5.379481572539501766e-01
9.143089190132229482e-02 2.726246226474262832e-02 -5.985919204977055985e-01 -8.270203319820429444e-01 -5.149538972086293853e-01 2.255212944224025129e-01
-6.911421793341981923e-02 1.123371779851980445e-01 -4.241217147335550886e-01 -8.646656602399699354e-01 4.320950553079562773e-01 -2.562170157897226686e-01
-5.051832797705841510e-02 1.111630819966890754e-01 -5.102695965190929828e-01 7.458394033438058290e-01 5.833724471284545965e-01 3.215589718093931904e-01
1.365946190286696643e-02 8.950112407751951993e-02 -5.964315057227093098e-01 -2.494490456619757046e-01 -9.222137428332130016e-01 2.954606338378873431e-01
-6.909288737349200682e-02 1.199940132468692439e-01 -5.826067697141559254e-01 -2.453171290766937018e-01 -9.065019223425102579e-01 3.436186417686073469e-01
-1.013411028013430082e-01 1.173907416311051333e-01 -6.033352904083579826e-01 7.514505620905098660e-02 -8.715810135738619735e-01 4.844582100706912309e-01
-2.793061615486528218e-02 6.723645974072380016e-02 -6.946307246854056539e-01 -4.453241897472733912e-01 -8.116131528950329965e-01 3.781143425919179513e-01
9.832813936377399200e-02 -1.406314822394835462e-01 -8.050008878656670364e-01 -7.731828690559655604e-01 -1.680447082570162357e-02 6.339604567783814204e-01
8.626097771429766525e-02 -5.964941299626628710e-03 -7.141410890898917119e-01 -6.337484819192689134e-01 -5.376915625602211035e-01 5.561030886594409139e-01
-7.784510646714309923e-02 1.644614912508656282e-02 -7.746763177498213748e-01 1.921896108921898327e-01 -8.253895117429504991e-01 5.308439576465407983e-01
-1.673751495204212764e-02 -4.382799243539244743e-02 -8.224825762985593647e-01 -3.635378342619515202e-01 -6.517335611300011378e-01 6.656452571429748444e-01
3.071137412802601996e-02 8.658399498629917868e-02 -5.787467396188558100e-01 -3.991378648933289197e-01 -8.277202924736047907e-01 3.944211990192779682e-01
7.930680175275590937e-02 8.910384205936273602e-03 -7.016318454310839225e-01 -6.391268529774671858e-01 -6.514184306251776801e-01 4.088653739862910808e-01
7.458135376204440281e-02 -9.879060884105499152e-02 -8.127327180428504105e-01 -4.567245362062318237e-01 -2.570578408143513460e-01 8.516595355557676772e-01
-2.964085167947757768e-02 1.111905444821059685e-01 -5.469475242260422032e-01 -9.503684194000614482e-01 -5.931648999903458425e-02 -3.054200737037812696e-01
1.082061764752390021e-01 -3.642449190399580511e-02 -7.210967791573110741e-01 -8.013703325209420303e-01 -3.661298548481798920e-01 4.730269754930743753e-01
-8.773086279426248191e-02 1.164220972388925884e-01 -4.236317839565346688e-01 9.170978784614681745e-01 -1.794840346344818427e-02 3.982578764250458980e-01
-2.622075885463274678e-02 -2.623226569509625600e-02 -8.110788835126335750e-01 -2.502208739631535117e-01 -4.853532264239744931e-01 8.377480288445646739e-01
-2.614155103886227002e-02 5.127747532198633634e-02 -7.206762176129054565e-01 -3.058686622907615393e-01 -8.548420624541872570e-01 4.191532055078804331e-01
2.450193908289933012e-02 9.952135304386688919e-02 -5.291439036840199783e-01 -5.674710163259591988e-01 -8.216315470876931482e-01 5.383536440172944498e-02
-7.645194222487539104e-02 1.153771648638766689e-01 -4.089893053631633024e-01 3.015472234062424595e-01 -1.218423512071253323e-01 -9.456340272580638917e-01
-4.950464301833584942e-03 2.940940373320799495e-02 -7.357037731078123199e-01 -5.472922875265109344e-01 -7.381714138391607394e-01 3.944288475817833706e-01
9.529942696718596284e-02 -2.613253581271586870e-02 -7.318992104942210197e-01 -7.089553904315099020e-01 -4.421511348691169463e-01 5.494402863933963710e-01
8.539771891038562199e-03 2.979141135012421115e-02 -7.043440282739170666e-01 6.312181300503016956e-02 8.331331701344963925e-01 -5.494586040318254483e-01
-7.773395580691561113e-02 2.925635965281610240e-02 -7.607168834950052139e-01 1.142631805850481547e-01 -8.138306236610052258e-01 5.697575287384343268e-01
7.660882671671133404e-02 -4.578558333342653414e-02 -7.678318784972554267e-01 -5.252577633104090760e-01 -4.933551501281658869e-01 6.933289103478672555e-01
3.240410868007916403e-03 -1.056324400807358288e-01 -8.501283416714837671e-01 -4.821528153940128902e-01 -5.243024985775099900e-01 7.018800129601973081e-01
-4.042700042820585710e-04 -7.376536363469782254e-02 -8.346906101487356899e-01 -5.275750946211382741e-01 -3.224991054883978303e-01 7.859127473801912345e-01
2.290253014233683410e-02 -6.412959579315608005e-02 -8.072284218175995729e-01 5.556814790349567934e-01 -4.364458446452778584e-01 7.076249844016199164e-01
-7.759569102076632752e-02 3.800155658792147423e-02 -7.497233485949993392e-01 1.181814568349346534e-01 -6.645895696963883825e-01 7.378033932635046366e-01
-1.358549630681789577e-01 7.791192984788765374e-02 -6.646006757617100025e-01 3.127146620801467547e-01 -6.550511385778214901e-01 6.878354061605139735e-01
-1.023388168315578356e-01 1.098177303723597287e-01 -6.226154416399855007e-01 1.383830421182343784e-01 -8.517245279271322689e-01 5.053864483555201570e-01
4.661765364915444049e-02 -1.457886671682931401e-01 -8.400604949972194646e-01 -3.995716963070883865e-01 -4.861149763421376141e-02 9.154121376779065233e-01
8.465220832726003120e-02 3.282065245286543143e-02 -6.336616068010763048e-01 -7.920717934784150538e-01 -5.240904776124096776e-01 3.129719560150452939e-01
1.134226699860334808e-01 -1.030243388302312484e-02 -6.333147949691109169e-01 -9.138958387232568592e-01 -2.549561369898862284e-01 3.158983446862444477e-01
-1.753577025394563449e-02 1.142664662659374775e-01 -4.911353894045131785e-01 -4.615140440145829026e-01 -8.565890618791370814e-01 -2.307812086074722546e-01
-7.433908926128579564e-02 8.025430721150657309e-02 -6.863011980373642240e-01 -1.163970007209409394e-02 -8.467134527180504300e-01 5.319218423495218895e-01
-4.294414957634576369e-02 -1.184372406317734938e-01 -8.688581744982329935e-01 -6.021473151390018680e-02 -2.617232791636266986e-01 9.632627425850887048e-01
-1.641642530703844305e-01 1.017044879160369647e-01 -5.813753991274235311e-01 3.904253825153284341e-01 -6.421928419368722052e-01 6.596638344284176947e-01
3.217721690859642186e-02 7.862371239274261459e-02 -6.056919671968773455e-01 -4.165419314576331855e-01 -8.111377445042882162e-01 4.105464392465735801e-01
1.225684191365448705e-01 -4.961121364412170165e-02 -6.751690095884083087e-01 -9.223336850247555452e-01 -3.854829104398136419e-01 -2.652355985733322041e-02
5.194141396224282760e-03 9.184343946524442526e-02 -5.876538319354626116e-01 -2.290652935776155696e-01 -9.496267538704462607e-01 2.138647226909566323e-01
-6.707773443756502585e-02 1.174330567437336797e-01 -4.726231803509384766e-01 9.250429858818514095e-01 -5.203802995938226067e-02 3.762811684216139096e-01
-6.806478748194891293e-02 1.084456003057637230e-01 -4.626261803526354188e-01 5.807300057145341476e-01 7.738560951738499005e-01 2.527833151635581199e-01
1.189758121106183342e-01 -4.539158100186532069e-02 -7.004097565730790231e-01 -8.711785338476043528e-01 -2.913183717818710328e-01 3.951981381857692099e-01
1.035315571329563922e-01 -1.309507583762823946e-01 -7.991291594525176123e-01 -8.061674240644711720e-01 -9.569224263498499194e-02 5.838981752640969303e-01
9.434009476011892548e-02 2.568950813383088713e-02 -6.155792443623165910e-01 -8.099583269743066971e-01 -5.056389980592493893e-01 2.971476269577468243e-01
2.216408740476602177e-02 7.864021971610216100e-02 -6.199984071253975548e-01 -2.457953258095505467e-01 -8.737480960290752163e-01 4.197009917735994300e-01
-6.260943152057792116e-02 1.150111286455995779e-01 -4.418859073550588934e-01 -9.194315235459175062e-01 2.631939527117507227e-01 -2.921893508771285508e-01
-1.199460205725001311e-01 4.775684705929388041e-02 -7.187504429611222267e-01 3.718905915153090658e-01 -6.521269830793597899e-01 6.606268128695701458e-01
1.321170224079729234e-02 6.812235794873862382e-02 -6.501743893619597037e-01 -1.302757463378664271e-01 -6.964780431863006882e-01 7.056532897078375832e-01
-6.573324320949383570e-02 7.640199260356374776e-03 -7.856381164966457220e-01 7.707467501100398336e-04 -5.881576829743194734e-01 8.087459093607379801e-01
-1.462388129320414676e-01 9.910120784121423387e-02 -6.162639613295378682e-01 2.556359714075066014e-01 -7.303540408616931989e-01 6.334297317931457671e-01
-4.265470321360937539e-02 -1.210288749217031112e-01 -8.696821159780244725e-01 -1.748125612550410519e-04 -3.671904553812733729e-01 9.301457621886268790e-01
9.414382792387766818e-02 1.487549851971050122e-02 -6.537637654622594496e-01 -7.930815612498076650e-01 -5.103584110303669430e-01 3.324995180389386240e-01
5.221060094375371691e-02 -1.352709231923250599e-01 -8.367459510888374252e-01 -4.183459480768410566e-01 -2.100263423406718843e-01 8.836716603188584651e-01
2.511369683753509816e-02 7.297377802760840471e-02 -6.305461483995371541e-01 -3.040417329723053008e-01 -8.815906839385975191e-01 3.610491526148110197e-01
-1.393459778703444452e-01 1.136346199950107605e-01 -5.564721407423787181e-01 4.147610693667598825e-01 -9.019768958498599609e-01 1.200455525656531214e-01
2.315030967194744646e-02 -2.655697626083735469e-02 -7.744800853080827663e-01 -9.966711257691854842e-01 1.671320784822026909e-02 -7.979558723016406951e-02
-5.944353461982918030e-02 1.156803099594586187e-01 -5.974568443708875298e-01 -2.938944579553937619e-01 -9.375379090704705209e-01 1.861416574517254785e-01
4.527823048610599838e-02 6.688062846171978493e-02 -6.234605287918626448e-01 -4.041149022789958800e-01 -8.054950174412365271e-01 4.334384877158232729e-01
3.787185724336961795e-02 2.798098220306757811e-02 -7.105682685117166164e-01 -1.651539628884926281e-01 -8.679445269684433750e-01 4.683977654171203042e-01
4.873862694910934684e-02 -7.800060431809571759e-02 -8.116299422755802739e-01 -1.821475773959271016e-01 -3.999138356670277616e-01 8.982712196719208064e-01
8.223209473125735192e-02 -2.462991889843062221e-02 -7.493959830750961393e-01 -5.271980532010348552e-01 -6.300329489125244820e-01 5.701935601053623737e-01
8.236080503441545186e-02 -9.489391762022191673e-03 -7.301200826950315914e-01 -6.192406175677945823e-01 -5.434241012541793925e-01 5.667727090557060921e-01
2.201658735581894094e-02 -4.710977095540925391e-02 -7.868760985038715239e-01 -3.146457901578157412e-01 5.937634702410697907e-01 -7.405693540400154484e-01
-1.286235070042218986e-01 7.858056533402903165e-02 -6.608097410576411201e-01 3.861989865104802910e-01 -8.582582691845382916e-01 3.379986482142174342e-01
6.659626476674539164e-02 -1.510726102851606412e-01 -8.306669579203217468e-01 -5.096959867755728180e-01 -8.099132672501278829e-03 8.603164563780170138e-01
8.533087638313391343e-02 4.287204522665566397e-02 -5.741796367067091289e-01 -8.268661906202654510e-01 -5.005087083547873350e-01 2.564826225500533852e-01
-8.366728960200972912e-03 7.724463802146888658e-02 -6.411675212381199307e-01 5.424934669866339210e-01 -6.839682866598352229e-01 4.877378610692750804e-01
1.270905822594961196e-02 -1.463498717438220520e-02 -7.709712128914831819e-01 -5.894256810534866942e-01 -7.486343328726251523e-01 3.035193604352000585e-01
-1.280910356461603325e-02 8.921898684670050150e-02 -6.058476179069539613e-01 -9.614428993182602134e-01 -4.631012566853623391e-02 -2.710773388003179241e-01
2.969388584094124345e-02 9.758760420056256102e-02 -5.395403703584743527e-01 -4.805512676104546355e-01 -8.193858715889240640e-01 3.125336344114734710e-01
-1.044991101267924299e-01 9.560050350668161667e-02 -6.433750713186087156e-01 1.306444988065029733e-01 -8.574442587169287533e-01 4.977161421181495737e-01
7.756632706758063989e-02 5.034134175944852269e-02 -5.569009197762293528e-01 -7.900526152900078092e-01 -6.118384966985662698e-01 -3.834734711889800640e-02
-4.274303579321279273e-02 7.671974818724804556e-04 -7.915263218949949442e-01 -1.307881556907486975e-01 -6.950612749700394444e-01 7.069542293303262559e-01
4.539544926811416026e-02 5.595805484785828371e-02 -6.546531533983117601e-01 -3.717147123898229544e-01 -7.483734659195055983e-01 5.493317104451352906e-01
-9.264494109603250982e-02 1.262495157183545769e-01 -5.801227484893571873e-01 -3.801821983584822290e-02 -9.233065713521413365e-01 3.821774329528974667e-01
-1.324090727082907412e-02 -1.270413300156437442e-01 -8.646447504378107496e-01 -1.478085286162074130e-01 -4.361652035932697125e-01 8.876443848990164254e-01
4.596476256637169883e-02 8.324819020692883487e-02 -5.151295975661829285e-01 -6.714440136700231543e-01 -7.395101438228566249e-01 -4.782973645952574154e-02
1.438650148895638872e-02 -5.485372760154855372e-03 -7.509342063673997147e-01 9.885455843954448207e-01 1.507393768608971119e-01 -7.434234046426254836e-03
3.954642556078476201e-03 9.010239598617546253e-02 -5.998691845559954716e-01 -9.334145154506047481e-02 -9.657809275117268388e-01 2.419805229311849382e-01
-6.581432599707394415e-02 -2.745010045622867665e-04 -7.929808939166023141e-01 -2.173008561586279447e-02 -5.551855837526969983e-01 8.314425842908842457e-01
5.568411260489881942e-03 3.249281888452203171e-02 -7.070204011725549353e-01 9.857772582213448764e-01 2.991916701042941773e-02 1.653724300450651052e-01
-1.602541526183643220e-02 8.756589760506751363e-02 -5.985021568926585100e-01 -7.318994191101696467e-01 5.478557632012045486e-01 -4.051879848088068004e-01
-6.628483148518576895e-02 1.238802355559896762e-01 -5.713256761861700284e-01 -3.965260548126878781e-01 -8.765779903522089578e-01 2.727235132597994882e-01
2.637789224313015837e-02 -1.866778959692088347e-01 -8.608024886702965173e-01 -3.283936452115596705e-01 1.146526439392932945e-01 9.375566036364916256e-01
-3.023676819321020198e-03 -2.279847322411791485e-02 -7.964904009121653861e-01 -4.819011471878999475e-01 -7.191307471182344369e-01 5.006218661706220985e-01
-5.220901673353895572e-02 1.106919776897212632e-01 -6.043303175452640064e-01 -3.641600808395631383e-01 -9.163104261898636915e-01 1.666212422792288095e-01
-2.879611641983613468e-02 5.127238530523283572e-02 -7.227855153963052004e-01 -2.583088135647521599e-01 -8.896857161836119188e-01 3.764782639856167346e-01
1.459034430167246987e-02 2.378584456309464426e-02 -7.208187517418740420e-01 -9.858592979326812333e-01 -6.058479860056355942e-02 -1.562399656240680001e-01
6.265884080284949906e-03 8.019148914117869842e-02 -6.230789231588751420e-01 -1.172869676407664596e-01 -7.310272107842408218e-01 6.721926690426242024e-01
-8.534290820492954066e-02 -1.563120150755774318e-02 -8.028711401775814327e-01 1.746509932762876638e-01 -6.987384356891880310e-01 6.937302278539060341e-01
-6.828402267225068545e-02 4.557825872421127078e-02 -7.417087027483422190e-01 4.496424137457604581e-02 -7.655224251640287969e-01 6.418361423047108660e-01
-6.070959445373172447e-02 -7.181958148324595233e-03 -7.999354044617430493e-01 -7.226946802986906893e-02 -6.000767009102981886e-01 7.966712477649060542e-01
-7.098765129184957112e-02 2.206847144364604274e-02 -7.671705939835896659e-01 9.090400709197506146e-02 -7.730632801293610967e-01 6.277815116824125852e-01
1.611609577456503059e-02 -6.692786163387058271e-03 -7.491564575195668318e-01 4.844771940713622771e-02 7.342228039844123089e-01 -6.771777407693747586e-01
6.274315693031170572e-03 3.569186835362672672e-02 -6.956617252205024027e-01 -5.794704721677767373e-02 8.229718876150596829e-01 -5.651189360782049587e-01
-5.581935266102860949e-02 1.209479918047050295e-01 -5.658832708498273689e-01 -4.713455410846121296e-01 -8.415598845780241088e-01 2.638377182449033187e-01
-4.269615157252542453e-02 9.248423815519545010e-02 -6.476280214953634706e-01 -2.962850729173342468e-01 -9.207667178738826452e-01 2.537790511884852052e-01
1.068841249959346790e-01 -1.228338784829649949e-01 -7.926002116746052595e-01 -7.729625534619493088e-01 -1.633767522952131457e-02 6.342412563951338456e-01
-5.616634453013285427e-02 3.710426472331392750e-02 -7.529823738347860562e-01 -1.249055400121720644e-01 -7.110770575765543722e-01 6.919306498938583294e-01
-2.454727007921168186e-02 7.932701464642885614e-02 -6.554344899635112798e-01 -5.497271886464506485e-01 -7.989412724172930691e-01 2.439115849874833042e-01
-7.031074296066752716e-02 -3.692323680755877496e-02 -8.215927458803237160e-01 1.647012762754020698e-01 -6.536829413943255895e-01 7.386285275585530163e-01
7.640252066818332966e-02 -1.514973449601316087e-02 -7.429988585310614013e-01 -5.270210280467235719e-01 -6.301052466286903853e-01 5.702773133902241387e-01
-7.667996336029758719e-02 1.302925344299313837e-01 -4.303731916344911146e-01 3.980044695309433722e-01 -8.936233424643146295e-01 2.074361685827683655e-01
7.975406416277022736e-02 -5.878127658074763437e-03 -7.295236983875804659e-01 -5.291967823571831486e-01 -5.855783109109390372e-01 6.140430012087881861e-01
-7.420396542178606114e-02 1.116742365776782764e-01 -4.082433705905571530e-01 -8.933908983517020452e-01 3.604674113047550699e-01 -2.681714901505884430e-01
6.959116991176703126e-02 5.890937189157667564e-02 -5.310130107104595876e-01 -8.128411392339043307e-01 -5.785046930638036988e-01 6.798236883253415408e-02
1.333356969051586183e-01 -1.342797744251318093e-01 -7.447821908370720889e-01 -7.025105861402203278e-01 3.276887490882259835e-01 6.317427958290604550e-01
-5.339513877607318659e-02 7.758855155130946202e-02 -6.897158113358569098e-01 -2.702445002573618943e-02 -9.337194577083876013e-01 3.569841080462284322e-01
5.278270073946254165e-02 8.096877165094940043e-02 -5.326638737224959064e-01 -6.629442361394155547e-01 -7.453467090902836656e-01 -7.045014561951419563e-02
-1.002385773237765287e-01 8.300025816655065558e-02 -6.751997509503371298e-01 1.397891785602947412e-01 -7.789690618446438730e-01 6.112824112031306489e-01
4.698577421656541936e-02 -5.020059365028462645e-02 -7.941769362887877159e-01 -2.403778763645933458e-01 -6.734910144778386565e-01 6.990195490628712260e-01
2.775693133182496886e-02 -1.224828208658751416e-01 -8.381487555572444403e-01 -3.763203470932628414e-01 -5.995896071832523821e-01 7.063110499782934149e-01
-1.155691957220390635e-02 6.685846586357697963e-02 -6.682770178063799360e-01 -6.135793380899992044e-01 -7.849165644630418104e-01 8.617646256707328645e-02
9.584730292081847236e-02 -1.677670534432335880e-01 -8.079138092134486859e-01 -7.326063756003705629e-01 1.293764035302683302e-01 6.682437015335510599e-01
-4.356679401270052709e-02 -5.299426428030505620e-02 -8.347706358038300412e-01 -4.329468830796886353e-02 -4.736765876132131847e-01 8.796340490859921868e-01
5.773226781539091135e-02 -4.015930005124625224e-02 -7.763468215381597037e-01 -3.451571821378381366e-01 -6.831295761081170870e-01 6.435841062868252749e-01
1.811965250586385079e-02 -9.248596542191409031e-02 -8.288112256225013130e-01 -7.619522427202098935e-01 -1.965462812441556850e-01 6.170885991028645101e-01
1.496381844280356317e-02 -9.213149915452172045e-02 -8.322957738296167252e-01 -6.686468860099792355e-01 -4.899323691198066988e-01 5.593546419918324908e-01
-8.405751149485628237e-02 9.296380439607988821e-02 -6.613953595218026171e-01 -4.233800183975847120e-02 -8.020173658624059065e-01 5.957983202857692895e-01
8.602198692089629839e-02 -3.443774889566514341e-02 -7.529511857096768956e-01 -5.488599288034704538e-01 -6.599880698800715262e-01 5.129995381770114937e-01
-8.592051301570671762e-02 1.170730641052588200e-01 -6.073845148562874163e-01 -1.120406905371707507e-01 -8.970557186246750359e-01 4.274785624411144846e-01
-4.396535202390740305e-02 1.117002239967359450e-01 -5.802059952791742692e-01 -5.194142560765441230e-01 -8.358239110308248732e-01 1.777841959612446454e-01
-8.389492267698954453e-02 -2.594718902570324059e-02 -8.121878697217169707e-01 2.622241640475617142e-01 -4.612188879696621502e-01 8.476530098864663021e-01
1.135073561006093024e-01 -1.327160679550858091e-02 -6.067188390099532702e-01 -4.804602579984352806e-01 -6.154227998533257082e-01 -6.248301512449364603e-01
1.029558518978668513e-01 -1.081783097419327239e-01 -7.891202985817841187e-01 -7.452936429035407206e-01 -1.619103179615439814e-01 6.467785051972283483e-01
-6.333300989126575131e-02 -1.154773926142966221e-02 -8.041810291690204560e-01 -2.200603395955180730e-02 -5.510120507968369052e-01 8.342070812130734092e-01
-8.146951503333485500e-02 -1.039196614285498310e-01 -8.607090111297988066e-01 2.029541268631870898e-01 -2.286171714349756190e-01 9.521259429898296656e-01
-4.430270617262258709e-02 6.262189451393676554e-02 -7.133075286193846232e-01 -2.270174301759214364e-01 -8.905342024867776152e-01 3.942231862759466021e-01
-6.414353573796448271e-02 5.730878184684969762e-02 -7.258479932462749140e-01 -4.370700502721941438e-02 -8.830942968104922297e-01 4.671553924042113892e-01
-5.229972714135742128e-03 1.063776550340810034e-01 -5.550843664937792354e-01 -1.916310648972211761e-01 -8.672126930225437791e-01 4.595864228052701783e-01
1.103144508626307668e-01 -1.632221527317305465e-02 -6.728717978874239058e-01 -8.485019795983130830e-01 -5.285966561183217394e-01 -2.509911867522123322e-02
1.065308914412236019e-01 -1.143340197748798567e-02 -6.772301142609306046e-01 -8.062157071095787941e-01 -5.856352692869859489e-01 8.394977651525543927e-02
-8.149526922071544111e-02 1.302743805578594483e-01 -5.293579940008245055e-01 -6.715680945566124271e-02 -9.936008435999660326e-01 9.081479252397300916e-02
7.405274409394277391e-02 5.395822632966561228e-02 -5.689418372839120108e-01 -7.569607009686583066e-01 -6.530740073517803390e-01 -2.246860277196472203e-02
-5.618723783883119299e-02 7.983007113290696566e-02 -6.865635842279987910e-01 -2.158210772107366504e-01 -8.111600263293572421e-01 5.435445467640658279e-01
1.170035368907713369e-01 -3.066523054406369159e-02 -6.813159997020772352e-01 -8.372061784864057721e-01 -5.463737889574470374e-01 2.369593729886036726e-02
3.598199223384502578e-03 4.005295044231924062e-02 -6.979082621610283033e-01 9.343264600625054150e-01 -1.404103352292136730e-01 3.275957933000470113e-01
8.050642714403713485e-03 4.612480405197946082e-02 -6.945945406428530866e-01 -6.576635246978000948e-01 -6.886231889952902918e-01 3.054124946036472776e-01
-9.356097100084366514e-02 1.180428791328472227e-01 -6.022293646257266264e-01 -5.216913839798083957e-02 -9.065517794891605474e-01 4.188582720967188311e-01
5.144592104843363073e-02 -1.689214146856882204e-01 -8.430140745867171770e-01 -4.011886958870055087e-01 2.304224524341964009e-01 8.865399729886374036e-01
1.171038230145252518e-01 -2.818343125053058770e-02 -6.683624549647360080e-01 -9.134625849078288340e-01 -3.838130693011302386e-01 1.351800052047392176e-01
-9.489449396834126471e-02 -1.093476851274435280e-01 -8.584216544411108485e-01 3.868962288504302349e-01 -2.497547001738364136e-01 8.876564075375067420e-01
-1.304325954796792253e-01 1.093453386736673721e-02 -7.536766201814428801e-01 5.150397492546263667e-01 -8.570343706815743978e-01 1.503809024342623105e-02
-5.512536725950848565e-02 -2.996073267981741103e-02 -8.178684518854724139e-01 -2.250172182249680214e-02 -5.510822163355374448e-01 8.341475069516990359e-01
1.050514352499605369e-01 -1.120873452152604949e-01 -7.876125764066762569e-01 -8.292070645975530008e-01 -1.636479473697718678e-01 5.344483074565489211e-01
-6.139056495495971884e-03 2.496993958998497409e-02 -7.430633459224956772e-01 -5.189635982251777913e-01 -7.919027223143132455e-01 3.218180574615978062e-01
8.411081960234119415e-02 9.929027796966403020e-04 -7.085635851386457018e-01 -6.057817551751282226e-01 -6.467066768089495543e-01 4.634640646993747892e-01
