3.545576862446239014e-02 -2.302336949920089082e-01 -1.064949718440570070e+00 -7.288930824452268808e-01 5.450466989987307054e-01 4.142933384379752226e-01
-1.224376702965913749e-01 2.151230935540442979e-01 -9.036170174347925022e-01 -4.094137342354547959e-01 -8.542065874892450505e-01 -3.204863493338828140e-01
-4.363187795074274788e-02 6.682388240096906462e-02 -8.456809801395401838e-01 -6.112507033099947584e-01 -3.156061670161290356e-01 -7.257860049934993230e-01
2.782101840875661480e-02 -8.063885131556872143e-02 -8.896478166849931535e-01 -7.602718809888540097e-01 6.235810022784768480e-02 -6.466050837363124248e-01
-6.168879988031541507e-03 1.162911687166312963e-01 -9.480505432878717498e-01 -8.854870102976110102e-01 -3.403122665731775909e-01 -3.163863394870663481e-01
5.834664580362101949e-02 -1.312310408478038204e-01 -9.784375934648968931e-01 -9.562681829463747230e-01 1.289589240416456062e-01 2.625276332016498460e-01
5.647147915283690089e-02 -1.654162620967047637e-01 -9.927874756950861856e-01 -9.993060044008212905e-01 1.739335778813604766e-02 -3.293904481493068609e-02
-1.153783098053674516e-01 2.216405390474966153e-01 -9.573934581285582501e-01 -3.387593998044710064e-01 -9.162704649080600783e-01 2.137533723272734276e-01
6.854331742165022112e-02 -7.784446906672401467e-02 -1.098974612680956531e+00 -9.391034108130170699e-01 -3.770890521669515577e-02 3.415593978603371217e-01
7.541457174239009353e-02 -8.839602470990279293e-02 -1.027818149282863081e+00 -9.670399165903652561e-01 1.348726123579731262e-01 -2.159703177675939834e-01
-7.349794420448094168e-02 1.096425849014457388e-01 -8.400668778994456742e-01 -7.720770659185135498e-01 -2.723957461758146903e-01 -5.741929656030108076e-01
6.375042369569115797e-02 -2.534618041478901157e-02 -9.961552906498660764e-01 -9.488855553619892635e-01 -2.166250798791785614e-01 -2.295425398323986677e-01
-7.647138701808596506e-02 1.375256063281610685e-03 -8.154484010572015107e-01 -5.288338605224154332e-01 2.045244882591588098e-01 -8.237138348160042423e-01
5.449433111746794511e-02 -1.415711573392944289e-01 -1.009246558546046613e+00 2.811043697739517011e-01 -4.522924755433990196e-01 8.464111588706833000e-01
-3.719341010100056522e-02 1.670496582544244435e-01 -9.614637370752713297e-01 -8.469908589051370340e-01 -5.285554834217249809e-01 -5.688221054042116864e-02
-5.402456449283053047e-02 1.796342465193271065e-01 -9.458436688249679536e-01 -6.566934495086779178e-01 -7.403965012801640988e-01 -1.434110674407151065e-01
5.090730367882288082e-02 2.838461038137445741e-02 -1.033338325800972957e+00 -9.588767930802950534e-01 -2.491833391233888861e-01 1.358784721556989816e-01
-2.554814663037367761e-02 2.907055356294685824e-02 -8.473482253275295140e-01 -7.189631901178061835e-01 -1.565521267316119236e-01 -6.771878342612457358e-01
4.226895819100297269e-02 -9.032801377978064150e-02 -9.225783679636535561e-01 -9.636044702816247698e-01 8.323067950432995465e-02 -2.540454267301754387e-01
4.329458530998624155e-02 -1.967615341796188355e-01 -1.002989900397031064e+00 -7.833903246927633734e-01 6.178919635278133926e-01 -6.714998574467598291e-02
3.183445440621197192e-02 6.245715886858724947e-02 -1.041020818628656253e+00 -9.172767803996361158e-01 -3.331264918455931201e-01 2.182430951263428232e-01
-6.060223051841037711e-02 1.333946481002588613e-01 -8.959958020627233344e-01 -2.606069204396015415e-01 -4.469540970946162539e-01 8.557546775269905259e-01
3.191194991442961038e-02 -1.381368335976418393e-01 -9.120203314279370366e-01 -7.261955893280854779e-01 2.302843073243793226e-01 -6.477724167024754287e-01
1.858033214861447985e-02 8.950227868105684048e-02 -1.023094269513322940e+00 -8.065087358488387537e-01 -5.674930348887023968e-01 1.658171111565934774e-01
5.589312793460062684e-02 1.164970332117253732e-02 -1.045986752271959030e+00 -9.553276207924203955e-01 -1.833191486331315900e-01 2.318258542430441382e-01
3.051591714511987796e-02 -7.342835966262524668e-03 -9.450481125353752399e-01 4.584894619884396366e-02 -3.378480682722537765e-01 9.400832712569467953e-01
7.411813814728322736e-02 -5.310200724272760853e-02 -1.029715754881863177e+00 -9.847973152388667106e-01 -1.678411604400184276e-01 -4.476150980997348205e-02
-3.144936326832092205e-02 1.428648079482558730e-01 -9.381227865928966070e-01 -8.798380223628822216e-01 -3.815976916091909366e-01 -2.833165299856487129e-01
-1.490541896759988438e-01 1.157167168647060679e-01 -8.072808529141736189e-01 -4.325171045479841436e-01 6.993803333886070006e-02 -8.989091309838390664e-01
-5.668557365560904920e-02 9.967820193293192021e-02 -8.508089277029166064e-01 -8.056846384816579443e-01 -3.172615255353510300e-01 -5.002173404927718892e-01
5.678961241472477162e-02 6.964496573907326751e-03 -1.024096402215124879e+00 -9.116349316162046801e-01 -4.089093557995649997e-01 4.141123273584864511e-02
-8.208582467220595924e-02 7.828045425652571665e-02 -8.204185825758265604e-01 -5.789872621477906156e-01 -1.339384754042959036e-01 -8.042600543835175531e-01
-1.326144041472073209e-01 1.921299118038891363e-01 -8.736684651117951894e-01 1.654647125770032090e-01 4.278160458046078585e-01 -8.885915033601882174e-01
-2.881800563987033797e-02 1.916305455789396942e-02 -8.438006637628079343e-01 -5.669435737116641505e-01 -1.491085305702454233e-01 -8.101491407995377036e-01
-1.226478993233082355e-02 1.240245610793861558e-01 -1.034741375846554456e+00 -8.535358652405926616e-01 -4.465916733220320345e-01 2.683885319223240917e-01
5.617936693841928163e-04 2.152430641536494382e-02 -8.740880445384471287e-01 -8.418171552423870940e-01 -2.770238972321184545e-01 -4.632511602812703910e-01
5.177998242671257023e-02 -1.335712879110072804e-01 -9.467438328818523763e-01 -9.133190000934514607e-01 1.075406085673565465e-01 -3.927892839389340307e-01
7.295349702661436952e-02 -8.025699029297374276e-02 -1.086620179467919112e+00 -9.560507744046797818e-01 2.462875081715337408e-02 2.921649215655413023e-01
5.171785928442628605e-02 -1.748584462178192495e-02 -9.701734396790882009e-01 -8.322390330686703086e-01 -6.470605789981108413e-02 -5.506281121664523548e-01
6.802799820696429911e-02 -9.312422782932773535e-02 -1.099114293241225226e+00 -9.308971694701645427e-01 -2.264189018287662003e-01 2.866442756572874506e-01
-1.019048529166615286e-01 1.673305231164603779e-01 -8.815114649658710722e-01 5.101383662286331777e-01 6.192737834909779471e-01 -5.968742148747507859e-01
7.384981443830432313e-02 -1.416635810158682063e-01 -1.068577130949855514e+00 -9.964417858101981551e-01 -2.041787371176226329e-02 8.177333259977655200e-02
-6.377266205607143648e-03 1.014288487450052678e-01 -9.349856803089503510e-01 -8.449914257723829536e-01 -3.256110984739062908e-01 -4.242250616380077721e-01
-6.765526259126944386e-02 3.878200719670280017e-02 -8.209214740540026201e-01 -3.721287388391460449e-01 -1.383929571387447488e-01 -9.178058570004772321e-01
-1.307950701321023215e-02 1.163062936065634573e-01 -9.342263897400505668e-01 -7.032331021842920249e-01 -5.173983329798037545e-01 -4.876086227928880801e-01
-5.003922746140660599e-02 7.698543332340866685e-02 -8.457401907944169794e-01 -6.816825955234753209e-01 -3.224262533852955137e-01 -6.567725253756427906e-01
7.032144048957711391e-02 -1.496803691909647238e-01 -1.057801728316069223e+00 -9.555281694702721929e-01 2.946835330192071334e-01 -1.129303839135144261e-02
5.665007393760522481e-02 7.148169807575867514e-03 -1.015427930426408221e+00 -9.451680354378095839e-01 -3.039117062483346898e-01 -1.195619487623790916e-01
-3.487840217456225633e-02 9.984883426340861179e-02 -9.061264989342667775e-01 -4.556885807773532193e-02 -3.248130957017640874e-01 9.446798039728211416e-01
-5.878559334330808739e-02 -1.734682453009306000e-02 -8.246215449815688103e-01 -1.947594468932233591e-01 -1.124628037495327831e-01 -9.743823046518443887e-01
3.685920382669860551e-02 -2.065160205812233696e-01 -1.084291716057747212e+00 -6.670564752575450784e-01 6.275025378028655787e-01 4.015921113118922081e-01
-4.527744415584739057e-02 4.510100764123367578e-02 -8.380554842079118716e-01 -5.209688819998252729e-01 -2.009484850870354722e-01 -8.295849144777630579e-01
7.805592649146288198e-02 -9.219284693214442605e-02 -1.058227685183543265e+00 -9.993595890304954876e-01 2.204894153754923675e-02 2.818254761147219109e-02
-9.557156328307585269e-02 2.127011992388431194e-01 -9.710140530521393920e-01 -5.311500623724920711e-01 -8.399734507617319101e-01 1.110144731876275270e-01
7.813794745963299759e-02 -9.340999958353525534e-02 -1.053836070424228888e+00 -9.993544078868555891e-01 2.191715923779015765e-02 2.846762315434094720e-02
6.240410137955498121e-02 -5.823649361620569093e-02 -1.096974673996951921e+00 -8.899805339864605980e-01 -1.300524574377431297e-01 4.370595010288400029e-01
-9.756649193072462756e-02 7.191479767292881242e-02 -8.115867792212273502e-01 -4.966991034763783563e-01 -3.202937776256273295e-02 -8.673316087667422014e-01
-6.228182211943007057e-02 6.396335297292615740e-02 -8.291315850437818158e-01 -7.123221442640251810e-01 -1.830754859647893418e-01 -6.775548164022284769e-01
1.576839241502472899e-02 -3.473972636589439666e-02 -8.790160196360943257e-01 -8.239341510209383657e-01 -1.271797854387917426e-01 -5.522298588062299896e-01
-2.109552055976364748e-01 2.443170291921494264e-01 -8.766817038591495637e-01 7.996979616196492335e-01 -5.901861101828042022e-01 -1.102883744039637182e-01
-5.049988997549414299e-02 -3.310092962833377419e-03 -8.275353801238168883e-01 -5.207410818524484952e-01 -6.552386524558423929e-03 -8.536895172730976089e-01
-1.710155239296727858e-01 2.212844766274596753e-01 -8.842893704031352664e-01 -2.125650066992192666e-01 -3.404146010861686666e-01 9.159334131334578855e-01
3.678427071078652077e-02 -6.542818011933221323e-02 -9.020093069538707153e-01 -9.022416359932170504e-01 6.150703176237998226e-02 -4.268218777476909254e-01
4.484233424236904082e-03 5.188165440518168608e-02 -9.191002823055212101e-01 -7.688753282281347579e-01 -5.741105190271489356e-01 2.814744066242179654e-01
4.192046363284762656e-02 4.887275614186731287e-02 -1.022575060048514395e+00 -8.534905186785001208e-01 -5.139923825080204844e-01 8.582403654940572169e-02
1.716569333910409820e-02 -1.381437279569561749e-01 -8.921004723054880570e-01 -6.141230846241687580e-01 1.706393555061380962e-01 -7.705420477067723706e-01
1.365025022935918708e-02 2.986357573588781233e-02 -9.236019826748811390e-01 -2.178197743643632278e-01 2.324359599854805836e-01 -9.479072055858032142e-01
1.122894348168270752e-02 -1.052919443284096746e-03 -8.800223596164576945e-01 -8.566939642396482757e-01 -1.230870719785210898e-01 -5.009241702564476428e-01
-1.180117488413180531e-02 1.247457634896528278e-01 -9.463308906189827896e-01 -8.731768230328635916e-01 -3.219524514539607862e-01 -3.659355882133091820e-01
6.611466606207914987e-02 -1.395320410074102069e-01 -1.023070848635818653e+00 -8.309466985314649667e-01 4.653055969932982094e-01 -3.049889925986984385e-01
-4.235884165577016858e-02 1.045958853248876302e-01 -8.747948332420052431e-01 -8.248903411603302205e-01 -4.502636889300468681e-01 -3.417872664267933569e-01
-6.238944668207269117e-02 5.018593242269884375e-02 -8.252326238568228334e-01 -6.578945902197014250e-01 -2.967099545526314525e-02 -7.525253086696451765e-01
-5.736794115510214509e-02 1.200205704853365002e-01 -8.959762857897839439e-01 7.664323923812370598e-01 6.393873352039085578e-01 -6.136141694597733315e-02
-3.325283744169682532e-02 1.594863206027614388e-01 -9.943852048430293911e-01 -8.607884070304034907e-01 -4.810782353104119391e-01 1.661536934066775439e-01
-1.367410892592692551e-01 2.027818200406930893e-01 -8.830063559744035784e-01 -3.036126356815201377e-01 -4.697266574683966467e-01 8.289609367865823364e-01
3.273722488993233148e-02 6.085919203486264001e-02 -1.040989327126843556e+00 -8.339827691730196113e-01 -5.346357483250868681e-01 1.365187069063299730e-01
-8.172772935403113670e-02 1.196604411446839794e-01 -8.387775622524669128e-01 -6.202033973957181701e-01 -4.634953698421672708e-01 -6.328663271131443890e-01
2.168226838870393469e-02 -2.697616477812503008e-02 -8.898184026050485196e-01 -8.198264669099990520e-01 -1.894578668932896115e-01 -5.403612503003087930e-01
1.501737273287192956e-03 -2.640916811484994575e-02 -8.636627847125225577e-01 -7.181511579264761025e-01 2.771174464789523048e-02 -6.953351519788365520e-01
5.306880608329286875e-02 8.983553885139878084e-03 -9.825483906449706817e-01 -8.742667294546947465e-01 -3.199135896468395801e-01 -3.651205019276032582e-01
-1.172433811729258202e-01 7.506975400726771663e-02 -8.032653854750281264e-01 -2.796222078804906364e-01 -9.505311461668028428e-02 -9.553932835548446523e-01
-5.022737138886937402e-02 1.319216084015385759e-01 -9.036067639945594143e-01 -4.762431650460218213e-01 -4.231626663090014007e-01 -7.707955666642123393e-01
-4.241914290854417735e-02 1.744153097935159102e-01 -9.854480963615455114e-01 -7.038541424245952083e-01 -7.032173514790208690e-01 1.003728188832467144e-01
1.770712072395828202e-02 8.951042051556643009e-02 -9.773780228224252520e-01 -8.018189116072279576e-01 -5.597582318126205214e-01 -2.091821094334051501e-01
-1.163958749303487944e-01 1.432352451007200822e-01 -8.282612868755031554e-01 -4.428894139640347505e-01 -4.553132263929418055e-01 -7.723592641188707919e-01
4.556845374579041041e-02 -5.165277862556540145e-02 -9.406091582352914537e-01 -9.999015609763586276e-01 -1.403073616490076170e-02 -8.246036869801872337e-05
4.044114968980365432e-02 -1.090685952872262436e-02 -1.108214817740771352e+00 -7.886103778829063327e-01 8.166711201249933494e-02 6.094457766782189756e-01
-3.478142533622152754e-02 -4.991845954429997845e-02 -8.378630537289041280e-01 -5.176273506566345661e-01 2.614051724329029547e-01 -8.146958092917365724e-01
-1.914471064749887798e-03 -1.251097188782382130e-01 -8.728862056636048639e-01 -6.167416355030254094e-01 5.398710548792824415e-01 -5.728603661806115355e-01
-7.530229313042274830e-02 1.420405703830882882e-01 -8.869697642327796228e-01 3.947762727422238216e-01 5.359457346433289526e-01 -7.462666172336664960e-01
6.425824972776501831e-02 -6.328760188103661755e-02 -1.101285451984078234e+00 -8.573523241138467643e-01 -4.055175431689990173e-01 3.170213155590088094e-01
-3.985765072065736853e-02 1.680115025357942771e-01 -1.005496394791608239e+00 -7.727304827135833554e-01 -6.040320418297900895e-01 1.950202387655379788e-01
-2.656455354363079779e-02 1.417455052149217964e-01 -9.480289931033855089e-01 -6.992806432733277289e-01 -6.288441372537928453e-01 -3.399435732364623486e-01
6.502106241414935817e-02 -3.701861474663183799e-02 -1.077809427931487374e+00 -9.428762411728704995e-01 -2.836632962106920910e-02 3.319333444767900709e-01
-1.873145629630077469e-01 2.310063769401010381e-01 -8.662772152193075614e-01 3.766987154945729971e-02 2.147821822813923143e-01 -9.759352411671021743e-01
5.219020916360638668e-02 -1.644151994277650852e-01 -9.625298112757393332e-01 -9.284928419926490317e-01 1.597034075604499281e-01 -3.352549238743475213e-01
5.664672691063585980e-02 -1.682500026368970447e-01 -1.023566199593463955e+00 -4.798234516585153098e-01 -4.134990552863397895e-01 7.738139224101702185e-01
1.011615420128040600e-02 -2.216401443577836194e-01 -9.561082332736068334e-01 -5.204090995317812718e-01 6.135177757477275895e-01 -5.939447011011056432e-01
-2.769164044502426397e-02 1.492602627009757266e-01 -9.622234549961282690e-01 -8.634725723701585087e-01 -4.768220349914024103e-01 -1.644866672746432279e-01
5.026591961803270753e-02 2.513334978469838540e-02 -9.967316567201652822e-01 -9.379741299947008670e-01 -3.398651302417325937e-01 -6.852900631450935254e-02
5.286856594301925227e-02 1.022344323956289082e-02 -9.833641362015687060e-01 -8.759333595018325980e-01 -2.893006710943509252e-01 -3.860645948752510770e-01
3.153157806829758047e-02 6.142232502102046993e-02 -1.043767733075783521e+00 -7.959298934548217908e-01 -5.304297284195902407e-01 2.917874361820875784e-01
-3.656988223951494060e-02 5.767868248969189662e-03 -8.359864674682531138e-01 -6.491510511831686259e-01 6.339381421057879717e-02 -7.580132829097534497e-01
-2.302579214622348797e-02 -6.844668250834989864e-02 -8.461216003428092547e-01 -5.201910522765201828e-01 3.657081165352930041e-01 -7.717893771176532747e-01
6.914120756472953017e-03 1.091323029196614586e-01 -9.770863827778510924e-01 -9.056048542493633224e-01 -4.149473797005874820e-01 -8.774121061169691538e-02
-1.084919714843606692e-02 5.793103806456994381e-02 -8.864606686136728975e-01 -8.084595793230850980e-01 -5.043930918507978367e-01 -3.032832298263999360e-01
2.143980614990429606e-02 8.578051513051919430e-02 -9.765562067771099697e-01 -9.019478378880373404e-01 -3.676846353347675844e-01 -2.264908533866951956e-01
-7.301975480415041908e-02 1.451384027549620648e-01 -8.912474463011672565e-01 -3.231565594157065902e-01 -4.178954545043299107e-01 -8.490778687559948912e-01
4.107232088631972144e-02 -4.060332845643329497e-02 -9.261408722528400306e-01 -9.390038703956552490e-01 -2.589921164728143932e-01 -2.262627123211239655e-01
7.316239108173330785e-02 -5.233089267637408559e-02 -1.056968329458204403e+00 -9.905570080841172853e-01 -1.070513272191110504e-01 8.565528049145093581e-02
-1.443056387211004710e-01 1.977526311649810131e-01 -8.850126359752694682e-01 1.348011485206292159e-01 2.199196762820595785e-01 9.661594000689087691e-01
4.078460678274788143e-02 5.261318927423048325e-02 -9.974950014618511052e-01 -8.928495559692082306e-01 -4.242838374659599343e-01 -1.510062769249890802e-01
7.388144400520754718e-02 -6.803219016202095848e-02 -1.062416474984510639e+00 -9.609423969028257906e-01 -2.395404353390927221e-01 1.386004677921763850e-01
4.801081254387395969e-02 -1.031459148068212400e-01 -9.256826243373774687e-01 -8.903647892096124838e-01 1.099747191308803919e-02 -4.551149280645967465e-01
-1.910457973658828690e-01 2.456130927312180079e-01 -8.701334928104675903e-01 -5.338618657074338802e-01 -7.781154525385792775e-01 -3.309499219882968135e-01
4.945819910339934594e-02 -6.160983717776171570e-02 -9.432679788397237974e-01 -9.979355130406900587e-01 -5.117947568625379889e-02 3.879913762823967299e-02
6.761501699314831360e-02 -7.333807424139704434e-02 -1.000765734262959450e+00 -9.250425707338242320e-01 1.878144664594506297e-01 -3.301847490704405974e-01
3.198708282251362667e-02 -1.224339303302587473e-01 -9.025971586439447414e-01 -8.228512270489858338e-01 2.871671656321290178e-01 -4.903579071726977823e-01
1.106272989075857832e-03 2.913312267648970888e-02 -8.788275453455213215e-01 -9.032204899923662600e-01 -2.048654441221430256e-01 -3.771245102914781433e-01
-7.643029744219632937e-02 1.328737199693914017e-01 -8.570962336611457344e-01 -7.069658283467744608e-01 -5.697447292001097674e-01 -4.190349163239894259e-01
9.305639930704564730e-03 7.551978501384278009e-02 -1.070907990560692191e+00 -6.024294864165433694e-01 -6.720209968933773537e-01 4.306582097561022504e-01
2.685595420949947465e-02 8.014786473387473797e-02 -9.978295073710161667e-01 -8.935644022465382141e-01 -4.388998999769155307e-01 -9.439034292786802061e-02
-1.496301376163113317e-01 1.961277593421178744e-01 -8.812539286119385196e-01 4.803810539141825653e-01 8.559183705568264022e-01 1.914099944716741719e-01
-1.533400411085242554e-01 2.033011567348906867e-01 -8.850243548708530694e-01 1.321396059313299787e-01 2.220944890390265103e-01 9.660295867533285064e-01
-1.546230210574481567e-01 2.139661638541609789e-01 -8.691742344255500852e-01 -1.071058890234336813e-01 6.951631221030789808e-03 -9.942233166446394765e-01
-1.456716442655490440e-01 2.124074598630893984e-01 -8.800200150102800434e-01 -4.444371770381439490e-01 -6.805139133818088881e-01 5.825602195139498729e-01
4.077045513259595910e-02 -3.531324661917226160e-02 -9.334310605147162487e-01 -9.744490062103234873e-01 -2.011141981489528163e-01 -1.000110673806495765e-01
-8.382841596378386596e-04 -5.260229034046244503e-04 -8.654814964544943479e-01 -7.921862169971273238e-01 -4.447773469177412203e-02 -6.086564948445620793e-01
5.828064563418440536e-02 -1.362817133761146660e-01 -9.765138658365364321e-01 -9.887839560759826840e-01 -1.220240123581093489e-01 -8.611868911425173134e-02
7.512478084304242965e-02 -1.214653000060606641e-01 -1.080417482038458665e+00 -9.705835547399220831e-01 1.075429130772362074e-01 2.154114321833422996e-01
5.922621483702825151e-02 -8.990656906394788733e-03 -1.066990244856026004e+00 -9.392927509322348545e-01 -1.542973503213477260e-01 3.064660759855260541e-01
2.902843089364873230e-02 -7.622031776520027391e-02 -8.903778383142189057e-01 -8.693023962693721129e-01 1.782638388809124896e-01 -4.610155611123855079e-01
-1.027506920767942006e-03 5.396046260726087423e-02 -9.142865345618760298e-01 -1.530363794066523508e-02 3.543292417106764791e-01 -9.349955011306300134e-01
-1.095470240720232552e-01 1.775131791021218042e-01 -8.767381529625623005e-01 2.075581778890511486e-01 5.018264165950930833e-01 -8.396962846164708338e-01
3.833369041644225234e-02 -2.662638523373948504e-02 -9.259498212292145425e-01 -9.598967052918072618e-01 -2.755167409698670578e-01 -5.185403181312493726e-02
6.992146056248818575e-02 -2.913545769189023957e-02 -1.029613284893844627e+00 -9.964774401186266006e-01 -8.381744285382226878e-02 -2.710647169030190509e-03
-1.943218586283818883e-01 2.340930101060084978e-01 -8.850848323303840415e-01 -1.695555417682728661e-01 -2.361430715487362331e-01 9.568110409141378225e-01
3.844747631876995614e-02 -2.249943951800302266e-01 -1.045204475983523063e+00 -8.117109569779329403e-01 5.527774278152739473e-01 1.885800562623160259e-01
4.916024755194958740e-02 -9.392660208960504353e-02 -1.137419451317084995e+00 -7.496950210064783349e-01 1.153633687671842267e-01 6.516507259451052025e-01
-4.231518754971762275e-02 1.741762908147931332e-01 -9.869763251494959588e-01 -7.037374258597337562e-01 -7.033807084193784975e-01 1.000460617304306243e-01
7.194426224407951542e-02 -1.301971981677880752e-01 -1.031873462577196365e+00 -9.192232006347801354e-01 2.751724512568994307e-01 -2.816182335787580926e-01
-3.287322333420635359e-03 1.229203904674338460e-01 -1.005966097184043395e+00 -6.403689919572602696e-01 -7.569315123856448224e-01 1.303159226542287552e-01
-6.610414645897549901e-02 -9.540648792665747157e-04 -8.187407230380121526e-01 -4.467595881961730075e-01 1.665530188506262332e-01 -8.790141991267995669e-01
-8.852737082841308225e-02 6.381431956879483891e-02 -8.135475036988351061e-01 -3.441776319640616477e-01 -2.553074044300538414e-01 -9.035263620386513317e-01
-1.455222174471905716e-01 2.063515323441761917e-01 -8.702278639896477985e-01 -4.869581426929450729e-02 8.361838673412594347e-02 -9.953073309649802525e-01
-1.230502348923420697e-01 1.165740769261876114e-01 -8.094188756658199368e-01 -5.013914346683850942e-01 -2.886154166751746936e-02 -8.647390592853736457e-01
-5.053820106452996258e-02 1.705545443705784592e-01 -1.027030291848462618e+00 -3.260012217863590966e-01 -9.068038194793447415e-01 2.672639825555867543e-01
3.428174818609354413e-02 -6.937193531721157214e-02 -8.976435733672418760e-01 -8.676753215199458635e-01 1.753690420927329630e-01 -4.651722643287493630e-01
-2.101457659851471427e-01 2.441832333581811509e-01 -8.854871277055026413e-01 -2.257008252571481022e-01 -2.939359105360257463e-01 9.287953585023990266e-01
5.904722292030150504e-02 -3.857737703540589256e-04 -1.050193132728656220e+00 -8.960361147161717277e-01 -3.721958131470439746e-01 2.420527996123120196e-01
-4.693073014654689651e-02 1.758906677446964439e-01 -9.522598052012480885e-01 -6.805458604994765182e-01 -6.956290616230206281e-01 -2.301250537914178440e-01
-2.742270802556188644e-02 5.897857443457904525e-02 -8.592947075196319950e-01 -7.200382103599126671e-01 -3.498564879093866153e-01 -5.992874214343260064e-01
-5.883271635806278099e-02 9.214538234871411104e-02 -8.437658249515539444e-01 -6.513651868474985562e-01 -3.544592161292692833e-01 -6.708815524846000189e-01
8.954715250994218709e-03 -1.205511483251947014e-01 -8.795624578503723479e-01 -5.714556372095055403e-01 1.760653793802468559e-01 -8.015231979706936016e-01
-2.093795293251656531e-01 2.442318362321998781e-01 -8.660779078670528541e-01 7.535880838150395000e-01 -6.484894332011257312e-01 -1.075474544490006429e-01
-4.317351075018265039e-02 1.587902801135687714e-01 -9.276203096359774136e-01 -8.124306718507727787e-01 -3.789734016095988034e-01 -4.430976916082410288e-01
-1.411020042555624909e-01 2.113865971662768628e-01 -8.764226527459161309e-01 -5.609549935764908124e-01 -8.132068530311102883e-01 1.549971269567183008e-01
-1.647628101862369174e-02 -8.629947365406486978e-03 -8.497157532287418213e-01 -5.903175557614821489e-01 -1.211435468497839840e-01 -7.980284609062785472e-01
-2.034638905073016604e-02 1.867247771153323146e-02 -8.508995617747256990e-01 -6.834637077102919678e-01 -2.070334954855516385e-01 -7.000103513448461268e-01
4.289541037934975487e-02 4.798073966145401104e-02 -1.007110043779104958e+00 -9.475321714456294009e-01 -3.182426517465253291e-01 3.007322205667988663e-02
-5.396045465826986715e-02 1.833029705027396372e-01 -9.606965779309708520e-01 -7.329649964769424653e-01 -6.764341257975596822e-01 -7.210539089448690653e-02
-2.990467335210444597e-02 1.560753327301029059e-01 -9.885464791999374334e-01 -7.133317681864022042e-01 -6.996268620676749928e-01 4.098831991432852484e-02
-4.039764114835391572e-03 1.256196400971905380e-02 -8.640195730584971923e-01 -7.125502542115697002e-01 -3.594310759822921253e-01 -6.025623924883124483e-01
-2.317192280087969347e-02 9.318217533752895521e-02 -9.035880161693555790e-01 -8.203176282492313787e-01 -5.201720570715107073e-01 -2.376973281834459939e-01
2.381409958266782548e-02 -1.137574849689933637e-01 -8.990204582037504277e-01 -7.579975739843285432e-01 3.458940077407993141e-01 -5.529891619578816142e-01
5.111645446667367754e-02 -6.212611524945524377e-02 -9.659912933714153160e-01 -9.814154073428086322e-01 -1.484860756380827762e-01 -1.215552696173670261e-01
6.691719403165233282e-02 -1.167121508577047828e-01 -1.107837284637598785e+00 -9.283412794793344247e-01 -2.287848405927880857e-01 2.929845824093903484e-01
-2.011741334246077914e-02 -2.373950969546715500e-02 -8.461216746500698216e-01 -4.882811406326420522e-01 -5.787008218216663918e-02 -8.707655145277142239e-01
-4.962695427846181701e-02 1.583921419742700121e-01 -9.168975856895688059e-01 -5.969740536950126630e-01 -5.582598957715994015e-01 -5.761665280003924750e-01
4.439461319588269839e-02 3.117195370358965406e-03 -9.615952095270803301e-01 -9.092163493986007428e-01 1.322369055780292513e-02 -4.161138834433584233e-01
5.703052471065784418e-02 -1.148178614160430266e-01 -9.803664709794805976e-01 -9.903700906877740406e-01 7.178388407090853518e-02 1.183814067275119064e-01
-6.590496673108704739e-02 1.879888541225932519e-01 -9.277189372969857351e-01 -8.485508122011395926e-01 -4.686822440959388381e-01 -2.455574742946773636e-01
7.511074953038675284e-02 -1.346616284706938782e-01 -1.050601823049030825e+00 -9.937656582757522505e-01 -2.139562337346382487e-02 -1.094168347751926507e-01
-1.705106258927427095e-03 8.883684711103548293e-02 -9.319668207339625310e-01 -7.099401288975042412e-01 -3.609603060180056056e-01 -6.047252854481802720e-01
-1.525709414562708421e-01 2.142505936004192313e-01 -8.821533126769548483e-01 -3.496265112843422451e-01 -5.431064986411930917e-01 7.634111826144829305e-01
1.815074863273917136e-02 4.761346927927378320e-02 -9.367252861581140122e-01 -6.466050544822722346e-01 -3.573871543315763621e-01 -6.739260533892095228e-01
7.481332153004588426e-02 -7.440097521815684789e-02 -1.072578368913008617e+00 -9.634907904346379226e-01 -2.381399514331241363e-01 1.223718116196130801e-01
7.742532392003527442e-02 -1.196302643636499158e-01 -1.058452096595400960e+00 -9.914938079285703365e-01 1.137039739437602226e-01 6.333589147316340262e-02
6.572895191236353962e-02 -1.618880798816297595e-01 -1.054084279645943312e+00 -9.868217248133416275e-01 1.610846926597055417e-01 1.531682823398975574e-02
-4.123937501142207335e-02 1.733795496240165546e-01 -9.714365580684390933e-01 -7.260955699833011590e-01 -6.875418009437966882e-01 -8.455483758241054762e-03
4.436732844672842957e-02 -7.841584231077855516e-02 -9.160505765810539325e-01 -9.243817999628026749e-01 1.668222613054824166e-01 -3.430577517422602751e-01
7.024092103202468629e-02 -4.655668039190037633e-02 -1.013354350640174095e+00 -9.957108161939840496e-01 1.012835769555127732e-02 -9.196405213289060576e-02
2.044803825479334178e-03 4.194965703893870079e-02 -9.199141476607610723e-01 4.167934779051467031e-01 5.400846959144891546e-01 -7.311577928290760031e-01
-1.026664472997677879e-01 2.111138670244468163e-01 -9.942129935777342942e-01 -3.392864164400717919e-01 -9.160383847602379115e-01 2.139121437999929876e-01
-1.789039320777865427e-01 2.316981662014730436e-01 -8.816639179503065193e-01 -3.433304708859941656e-01 -5.395681687410841532e-01 7.687589863166441884e-01
-2.152788591769830631e-02 8.170133047581704111e-02 -9.045656451771134643e-01 8.564126693010806757e-02 4.039127376486968402e-01 -9.107799260873841174e-01
2.258094737111779673e-02 8.713605770229368441e-02 -1.003589518464657049e+00 -7.734972759313495372e-01 -6.337354532434785748e-01 -9.018837456381838605e-03
5.500599811325782018e-02 -1.497993735693810557e-01 -9.617076052779122142e-01 -9.576454049840743554e-01 4.802934294610365640e-02 -2.839162914118418257e-01
-9.217890105555277824e-02 1.957289660623071637e-01 -9.077481995120195712e-01 -7.096118916799073473e-01 -5.308048594037418910e-01 -4.633542536977916515e-01
6.969084913816636639e-02 -3.722681128150509555e-02 -1.014577622536587231e+00 -9.637812681377843083e-01 -2.024028670773604377e-01 -1.736627380458709846e-01
2.502213935844352366e-02 6.750554799304500642e-02 -1.047784493822012442e+00 -9.001605081328054592e-01 -2.427496890165478927e-01 3.616402191134981958e-01
-7.280325892712527502e-02 1.524116041120650300e-01 -8.871823848159083870e-01 -6.663373483673317166e-01 -6.625048652959848461e-01 3.421722397126077952e-01
-5.881169482499516710e-02 3.399027412917150770e-03 -8.219262901039053881e-01 -3.551248339070522952e-01 -8.601153508181332008e-02 -9.308535696742846755e-01
1.804554119588305111e-02 8.582053560493071998e-02 -1.038190063344209380e+00 -8.424065509374213390e-01 -4.023874615049555237e-01 3.583790364423062869e-01
4.962911469523746677e-02 -6.853621461235098744e-02 -9.366043280752708311e-01 -9.515163600969523960e-01 -2.320794700898312357e-01 -2.018804993818618110e-01
6.842743607644501125e-02 -8.016860725144742128e-02 -1.100719206672369888e+00 -9.228850002092998661e-01 -2.831176992995095287e-01 2.610127290613102335e-01
7.061029395670000153e-02 -1.212006351590017572e-01 -1.098554209084035893e+00 -9.596772026540953959e-01 -1.324834964710005225e-01 2.479269849549023685e-01
2.649284665770404099e-03 7.372317146229737106e-02 -9.289895300187218652e-01 -8.004327552813853552e-01 -8.603285262427116942e-02 -5.932164466212819232e-01
4.662618899020667257e-02 -6.314286617778440414e-02 -9.699015430938902060e-01 6.248448835593192752e-02 -3.884901240426358870e-01 9.193318836177906128e-01
4.123928157771702963e-02 3.780855595124738011e-02 -9.752865884418919773e-01 -8.833315229008177338e-01 -3.747999284330980063e-01 -2.815145365629753149e-01
5.213348367343555168e-02 2.640661094077683194e-02 -1.029069354180104146e+00 -9.430490382280981576e-01 -3.016487701891901740e-01 1.402374092045637621e-01
-1.493151517473141621e-01 2.172482979121384550e-01 -8.753762359719744479e-01 -5.576503715309110154e-01 -8.114166113123641999e-01 1.750118453642407201e-01
3.654145243177189112e-02 6.116965070071133520e-02 -1.021779156180524062e+00 -9.389363100684232633e-01 -3.155823471783587575e-01 1.371363838829502135e-01
5.509364447058692077e-02 -8.817782270065825656e-02 -9.806597361401774293e-01 -8.102697633474560401e-01 -3.134258905550236785e-01 4.952041212819697225e-01
1.645957775802635997e-02 2.450985229404754884e-02 -9.257035258580224024e-01 -3.812100778601502094e-01 1.830213168580801242e-01 -9.061909700021248959e-01
5.102891764459049212e-02 4.566640155844605732e-03 -1.070716199693066306e+00 -9.018114532384954307e-01 -2.420263677760202403e-01 3.579934917132145400e-01
-3.308217997567543256e-02 1.377557279735683038e-01 -9.298466621430712120e-01 -7.687445861978910999e-01 -4.048775212582710337e-01 -4.950817649350373606e-01
4.063730377026472662e-02 -7.578295550408237213e-02 -9.121202564745067853e-01 -8.407648443570527874e-01 -9.927798528511730392e-02 -5.322202158232891556e-01
-1.289834052582286839e-01 1.856581534798585897e-01 -8.779750479479002667e-01 3.942832955551702767e-01 7.912240498919658194e-01 -4.674453826049737026e-01
3.306752004010987678e-02 -4.065385881697495402e-02 -9.002339328313088140e-01 -9.504017471109820203e-01 -1.279504746753026313e-02 -3.107616544052634877e-01
6.216779390318412368e-02 -1.763898777508992044e-01 -1.061004938123963015e+00 -9.601947015156998555e-01 2.434741895595777250e-01 1.369176913312632748e-01
-1.828511615762966613e-01 2.277016996827319617e-01 -8.846582525733530655e-01 -1.745052134676843281e-01 -2.714535548895397055e-01 9.464992857949918736e-01
6.133633565890462408e-02 -6.418217451005355173e-04 -1.037637034296994498e+00 -9.724989771241098202e-01 -1.583247725019560626e-01 1.708186345360594716e-01
6.862968806167360492e-02 -2.361454660867675845e-02 -1.030897511793357646e+00 -9.419203352708561683e-01 -2.975011040344138769e-01 -1.558177624712364373e-01
-1.044734442033351945e-01 1.331849652700975994e-01 -8.272336117281636758e-01 -5.273920731821105656e-01 -3.846844569243941248e-01 -7.575456882231326183e-01
4.012463064195354034e-02 4.960793158907299272e-02 -9.846711414867769241e-01 -9.141736928108985527e-01 -3.660728158740666482e-01 -1.740033127573049621e-01
-3.995419221750563799e-02 2.946261820092240316e-02 -8.348417328357936595e-01 -6.784570047015805461e-01 -3.784299583757402136e-02 -7.336647738834113364e-01
-3.129647031648864763e-02 1.039467245300323694e-01 -9.011901380779344661e-01 -6.790295592373423172e-01 -6.472799718813864178e-01 3.463343697688296419e-01
3.449672033090602635e-02 6.194528431617796205e-02 -9.870051677257369871e-01 -9.448793993002333469e-01 -3.211674971646458765e-01 -6.367385289918879587e-02
6.374470161722731176e-02 -1.036233974446714168e-01 -1.001480167536995980e+00 -7.968737608531158978e-01 2.690424067409690964e-02 -6.035464945615716115e-01
6.412504905259724941e-02 -1.542174538721417971e-02 -1.054765422457336399e+00 -9.447118715578709525e-01 -3.065486198869218359e-01 1.163933992245624882e-01
-9.468826865959512062e-02 1.613512856963815467e-01 -8.820387716884685592e-01 3.649248448242745635e-01 5.734071589206565234e-01 -7.335080693002089536e-01
1.254403850898330730e-02 2.468173686029666650e-02 -9.020362448301609826e-01 -9.689149760824082858e-01 -1.865866681336198485e-01 -1.624474819688521421e-01
-9.094635788024820963e-03 7.037877227628670795e-02 -9.146110383997176907e-01 -4.166781640074445625e-01 -5.402906108556208009e-01 7.310713805509317931e-01
7.047421813169268967e-02 -3.222406421739654192e-02 -1.031982305068148031e+00 -9.583656116225898192e-01 -2.501548209307876136e-01 -1.376877627980967744e-01
-1.979401135253998911e-01 2.474086049409766064e-01 -8.664269339114576418e-01 -3.840454341343380595e-01 -5.017594275929789793e-01 -7.750784356064449598e-01
-5.361583816463174473e-02 1.700384487068820616e-01 -1.033562742681894520e+00 -9.294802767658425502e-01 -1.349809001777795003e-01 3.432878845670045975e-01
1.728026546456823062e-02 -8.662841309818120061e-03 -8.885215386589618847e-01 -8.475289614748001688e-01 -2.678597178768432618e-01 -4.581984624596470157e-01
-1.913331861127490208e-01 2.352477922925607923e-01 -8.655789094764472225e-01 1.498504392111673841e-02 1.701446094023859323e-01 -9.853051610288011686e-01
4.694932399772212481e-03 -4.959714651060719015e-02 -8.652520524049426287e-01 -6.965638566634532181e-01 -7.145465913571724670e-02 -7.139278852082574511e-01
-5.300893102996624565e-04 1.135848886945592384e-01 -1.030930536962839872e+00 -8.993707885491603049e-01 -3.186229609537146734e-01 2.993519558271653391e-01
5.987905519834628432e-02 -7.196622095180399414e-02 -9.851041708381833573e-01 -8.184768937883429851e-01 1.525036742841421045e-01 -5.539297822508028046e-01
3.794251319977642173e-02 1.108094438675954856e-02 -9.544199787778978594e-01 -8.511691365692297673e-01 5.476827687729084702e-03 -5.248629395475270520e-01
-9.342410154574846623e-03 -8.577771386381942420e-02 -8.577248158786459076e-01 -6.561859772754360387e-01 4.212152205747823341e-01 -6.260971978720384357e-01
2.977699040436939878e-02 -1.195756626799613503e-02 -9.467993370863054814e-01 2.238667412399074352e-01 -3.151284244259952017e-01 9.222677259263788452e-01
1.018685564243931689e-02 4.053222553773928177e-02 -9.246900833168707479e-01 -4.021781840676751374e-01 -5.366804972752717839e-01 7.417727091935873984e-01
-4.073722832199404981e-02 1.105795501183102769e-01 -9.025420522703941906e-01 -2.162516653637813757e-01 -4.328996035400696774e-01 8.751189350495403030e-01
-1.726312104988151908e-01 2.088365067234646821e-01 -8.785103491481951465e-01 4.680924243336258561e-01 8.732710497281801487e-01 -1.352300114179962875e-01
6.932998948629386093e-02 -7.540234329862852136e-02 -1.005342202042647459e+00 -8.982016624090731760e-01 -9.231832499511748169e-02 -4.297802933077237153e-01
5.812817956449179563e-02 -1.422813206048657020e-01 -9.831859875187612952e-01 -9.867400715536802647e-01 1.508417411892009896e-01 5.992328683615554680e-02
6.289666931028822794e-02 -8.869100209592287176e-02 -9.961504665708730277e-01 -8.705527919976425721e-01 3.340771184928291726e-01 -3.612897939945678982e-01
-1.479612619512150895e-01 1.493040387234334521e-01 -8.211735961569011089e-01 -4.532341075589493284e-01 -9.433705870757651268e-02 -8.863855611976348969e-01
-4.886765029523618131e-02 4.753855116522287885e-03 -8.265970625488289203e-01 -5.506428369297128311e-01 1.454113283344035668e-01 -8.219781090333380114e-01
-3.408141385751498748e-02 1.468609093945873745e-01 -1.030973452174281491e+00 -4.333193614473720978e-01 -8.499947827210191376e-01 2.995716948276143099e-01
5.877769576105670163e-02 -5.259487852821039672e-02 -9.817981139645033384e-01 -8.215960004801931005e-01 -9.766657544961206139e-02 -5.616415690054429311e-01
-2.662757537237800745e-02 1.501779193204911822e-01 -9.773856450537750096e-01 -8.755072751423526034e-01 -4.815978073194852604e-01 -3.937719083272420151e-02
-3.022077717024748787e-03 1.181762893401687858e-01 -9.606274818745977884e-01 -8.069184110582638958e-01 -5.319265010848823749e-01 -2.567817659780413098e-01
5.383065009029217030e-02 -1.748322124458958349e-01 -1.008797247265487140e+00 -9.387323008248851242e-01 3.150747950563363431e-01 -1.396765581915052068e-01
7.692053870239429214e-02 -9.818888495894372015e-02 -1.036491068545756677e+00 -9.843509966618776419e-01 1.513937594686148858e-01 -9.018339628072956360e-02
-1.221585839092248493e-02 1.382184805388866622e-01 -9.784487359932889650e-01 -7.498224391829506619e-01 -6.614450002532635819e-01 -1.602564624875612090e-02
7.905695263859797636e-03 -3.976004165854041261e-02 -8.683434739804449798e-01 -8.366733342391011741e-01 7.134039928178755041e-02 -5.430361674912093095e-01
7.526569813851020745e-03 -5.435883265103291090e-02 -8.701979550424632226e-01 -7.156707877143989593e-01 1.657586653732158466e-01 -6.784831526765729981e-01
7.752217096198150970e-02 -1.190773098199218449e-01 -1.056373154259395708e+00 -9.866677109594883532e-01 1.573515688439372506e-01 -4.156094238964222476e-02
7.380084021190441712e-02 -1.401101236884309542e-01 -1.053347113853991601e+00 -9.530563873021498100e-01 2.601594289768175416e-01 -1.549212514054502110e-01
-1.062479345421081384e-01 7.483675918354180945e-02 -8.077056387227222745e-01 -4.943782489620388576e-01 1.925832308654232619e-02 -8.690335229121618488e-01
4.377910063597580809e-02 -1.842869471947661264e-01 -1.102273748335623971e+00 -6.430974363837461683e-01 7.140017000717019391e-01 2.768162921711311286e-01
-9.190295357266145548e-02 2.113054462316059645e-01 -9.607161183417680661e-01 -5.151722216643233043e-01 -8.567393504576759078e-01 2.439810244270441270e-02
1.271835760057327125e-02 5.304224910457919911e-02 -9.329329074004084621e-01 -7.102481459381165818e-01 -2.654096624794128889e-01 -6.520009833229025720e-01
1.829148197906647899e-02 9.047031078411692587e-03 -9.015169927404313999e-01 -8.250322382983015235e-01 -4.321695257208191254e-01 -3.640759629620401450e-01
-6.756262967183611357e-02 1.448580203599848237e-01 -8.857600409374033479e-01 -5.982232672174438992e-01 -3.117444476359557681e-01 -7.382034420996962387e-01
-9.131849247671855463e-02 2.062771120989807527e-01 -9.274686443384154710e-01 -7.457505132409820714e-01 -5.954078720377767864e-01 -2.989074069277281032e-01
3.581435710112634060e-03 5.273888182630285387e-02 -9.164977953423010248e-01 -7.670107089767633779e-01 -2.305286496428588516e-01 -5.987913777007838334e-01
4.298411356953613788e-02 -1.365856030247794284e-01 -9.253134111854589561e-01 -8.830204471883400519e-01 2.740935310983692585e-01 -3.809824484898633457e-01
5.650088447373474709e-02 -1.788243390132528143e-01 -1.024351389351465969e+00 -9.965735878739768738e-01 -4.808122708814988738e-02 -6.729992238989944420e-02
2.525002820244017648e-02 6.633656682005585614e-02 -1.048411973228112082e+00 -7.226259243678486710e-01 -6.076613556789932646e-01 3.294836114981753439e-01
5.872181737147747632e-02 -1.517197259857728797e-01 -1.013290921562749691e+00 -8.207177856631677759e-01 -2.502894123579509356e-01 5.135927631476696620e-01
3.838295252442512628e-02 -4.649420168514224044e-02 -9.118893232977374197e-01 -9.582471018200702240e-01 2.770426467646787752e-02 -2.845961446895799440e-01
-7.564061955907601387e-02 8.053678736814041950e-02 -8.255792979120948338e-01 -4.937413987685701500e-01 -2.312726985975872007e-01 -8.382913395863309525e-01
1.375627971054868212e-02 -2.518188777743908882e-02 -8.788421713233725008e-01 -7.462324592429508963e-01 -1.971125898515740382e-01 -6.358331099386245189e-01
-3.147250624308746067e-03 1.240901488930474805e-01 -9.839146875895878885e-01 -8.870336600979308317e-01 -4.593933914553479103e-01 -4.614106349469881962e-02
6.865036255819666200e-02 -4.497388459787210468e-02 -1.073613095214851709e+00 -9.381527383233420059e-01 -1.101733507595407113e-01 3.282244237695154387e-01
-6.938114333749671563e-03 1.243777129625068117e-01 -9.595947876785615449e-01 -7.860980819593818003e-01 -6.020359016872851576e-01 -1.400092090519719501e-01
4.884355565874189120e-02 -1.668728667742474248e-01 -9.548038160077647607e-01 -8.871814084056918182e-01 3.276654086560852330e-01 -3.248761741795383462e-01
4.839203870447758571e-02 -5.537909351673509645e-02 -9.652734842192335352e-01 -4.664763740965056082e-01 -4.551321299973904444e-01 7.584553623344063578e-01
-1.936231478626111446e-01 2.279611014597399676e-01 -8.856866931151843314e-01 -4.574760553324185713e-03 5.588693124052280387e-02 9.984266234843683918e-01
6.680543485851163366e-02 -1.679597477017995624e-02 -1.029846561208457967e+00 -9.200713064734616919e-01 -3.916941905702757132e-01 6.667239137296139886e-03
7.021489506015839155e-02 -5.082834989224832567e-02 -1.012481141984074462e+00 -9.766249676066456331e-01 -1.263000952485039685e-01 -1.739309017614103225e-01
3.718833713776229649e-02 -8.930024664027229331e-02 -9.030084486157138324e-01 -8.773650638351794262e-01 2.261390977864365659e-01 -4.231922178086786057e-01
-9.425224405982887688e-02 1.907123939404454238e-01 -9.000578821244784589e-01 -6.944009736838701041e-01 -4.761443465206068870e-01 -5.395311381406613371e-01
5.169856132419330119e-02 -5.290218092338741518e-02 -1.115668110367432186e+00 -8.161853047836290509e-01 6.107983263691603437e-02 5.745526975833469274e-01
7.129145314267212874e-03 -5.629920220817959120e-02 -8.698072686003246456e-01 -6.546698536691597514e-01 1.293768353134618077e-02 -7.558042068165828908e-01
-5.739172282877576248e-02 1.847877914266645438e-01 -1.000531550293331184e+00 -6.559254342357598855e-01 -7.430774936432384958e-01 1.326561840379579804e-01
2.453767003419447465e-02 -6.838420332533437507e-02 -8.855240220619944314e-01 -8.561283716372525276e-01 1.307889006667085074e-01 -4.999384709543172045e-01
7.753154574737132487e-02 -1.192286881561659823e-01 -1.054972361872476894e+00 -9.761416658330971385e-01 2.164204606562283861e-01 -1.759637559079661046e-02
-2.126230842588109071e-01 2.392539919726611453e-01 -8.865797674200315281e-01 -7.000314439608211481e-02 -4.077408555146942032e-02 9.967131150547295926e-01
7.430693531893334258e-02 -5.303081458947068311e-02 -1.032480560460792063e+00 -9.786007128512572706e-01 -1.977835074133664495e-01 -5.676556176308008433e-02
4.441985540844777675e-02 1.347751614384145973e-02 -9.661642232255415186e-01 -8.042881218041533220e-01 -3.419601331666231592e-01 -4.859875352819377770e-01
8.437712280780836072e-03 1.083515105998430622e-01 -9.895402840344937889e-01 -7.836002762983396153e-01 -6.173050714369925362e-01 -7.003610328491699510e-02
4.726178370455937777e-02 -6.411979798672584607e-02 -9.587298070343416301e-01 -9.951397867614550918e-01 -8.144103968667862348e-02 5.535487204500159908e-02
6.893634638212423060e-02 -1.191707734588657031e-01 -1.103067927433797557e+00 -9.596772026540951739e-01 -1.324834964710048801e-01 2.479269849549011751e-01
6.308784296531466662e-02 -7.789471301478459453e-02 -9.925074182558342173e-01 -8.253576701862941345e-01 2.550649008301096310e-01 -5.037128275408310207e-01
4.932371833628585583e-02 -1.350991816700011783e-01 -9.403401227336608548e-01 -9.347043663379482892e-01 2.004633617784107869e-01 -2.934998946052159163e-01
6.647859620294495342e-02 -1.977844882095467979e-02 -1.013985600494610617e+00 -9.665190231050971859e-01 -2.356955532250268603e-01 -1.014326582808370153e-01
-8.603089208209373229e-02 8.865079638506748183e-02 -8.214536600088050422e-01 -6.434376988065741987e-01 -1.815407458223065040e-01 -7.436604637607011625e-01
2.308752817061673554e-02 -2.160262238142650615e-01 -9.810564778579397016e-01 -6.443102107370493048e-01 5.772449702632117541e-01 -5.016498745597401943e-01
4.558732755086116264e-03 4.304687245928526945e-02 -9.141998479846136227e-01 -6.663099572130106729e-01 -7.346430487786461683e-01 -1.277913604278928805e-01
8.904036008894502044e-03 9.333802968531006161e-02 -9.511190051240057119e-01 -8.939486528403286503e-01 -3.542579336186535977e-01 -2.745125180264160192e-01
-2.209295378519146244e-02 -2.401295742654525455e-03 -8.433960393885548967e-01 -7.016645891699511139e-01 3.658213398971976033e-02 -7.115676719594011823e-01
7.010033407416907392e-02 -3.109433898147809586e-02 -1.030980750045618288e+00 -9.706097403753569663e-01 -2.386611135142303330e-01 3.094519000797810171e-02
-3.927124439776275011e-03 4.120017092014381654e-02 -8.829070022252933914e-01 -8.436293093000630794e-01 -3.825002778604722486e-01 -3.768064833924174017e-01
-3.789035439165861635e-02 -8.610175164307813656e-02 -8.460141034074137867e-01 -5.420255541267340327e-01 5.730462716717243943e-01 -6.146757431335184707e-01
5.635632905444577616e-03 8.488056437149817113e-02 -9.382599650321479245e-01 -7.871997327862992888e-01 -3.979680798921627072e-01 -4.711029485028983554e-01
7.754227559132047774e-03 -2.468290182454501436e-01 -1.059966165236443825e+00 -4.256218542904939284e-01 8.055820664651598406e-01 4.121693478899716712e-01
-2.166240133385368208e-02 3.773557330251538222e-02 -8.538888528895427488e-01 -7.641248256527227722e-01 -8.352052239243824838e-02 -6.396386270078521230e-01
4.520507244788088408e-02 -8.661599313325346605e-02 -9.300980685225361810e-01 -9.227275165924299083e-01 -7.957327942102265794e-02 -3.771498685209248025e-01
-9.629080384424505701e-02 1.815194442777034456e-01 -8.917168237505931350e-01 -4.176803211913291958e-01 -4.594712244837570458e-01 -7.838554351160073042e-01
-4.422810973564472725e-02 1.739219521825826342e-01 -9.519264911555375130e-01 -8.461996171199412942e-01 -4.945917193391301536e-01 -1.983059231269404810e-01
4.255852423313621902e-02 4.872694572904864158e-02 -1.002611690676076917e+00 -9.524904698158433991e-01 -3.026249530366844631e-01 3.435174973037390805e-02
3.435078070416566765e-02 -1.836069631241029065e-01 -9.397810786546192396e-01 -7.392610653973005208e-01 4.170161904131115538e-01 -5.287632495937891752e-01
5.289071796989945617e-02 -1.679691664227468129e-01 -1.021732631790186030e+00 8.219601042917604738e-01 2.484006859442849102e-01 -5.125218884838840250e-01
-3.823069367470755334e-03 -2.993133972237040259e-03 -8.616736358761490910e-01 -7.921862169971268797e-01 -4.447773469177406652e-02 -6.086564948445626344e-01
