-3.357617400171157562e-02 -2.898204987112221534e-02 -8.036255907731262305e-01 5.761007708033675234e-01 -4.253515156891853888e-01 6.979856660280916447e-01
-3.639277428674746878e-02 -1.530223084046547499e-01 -8.228456741968611654e-01 8.720703204454257618e-01 3.341654038071901200e-01 -3.575287947796511601e-01
-6.138775851399860123e-02 7.886088873783116127e-02 -8.978380303621730230e-01 7.980812270392523278e-01 -5.999053505048852486e-01 5.639082800537784101e-02
-8.076391856203621322e-02 -7.995901570477524645e-02 -8.539067205013133322e-01 8.250611186368461691e-01 1.101993709409274519e-01 -5.541933319320432316e-01
-1.883716499185451171e-02 -9.092018953858223632e-03 -7.791638947597200326e-01 9.233776546046572609e-01 2.727005231731262011e-02 -3.829230356395572632e-01
-9.492319072234498001e-02 -8.674528074773953101e-02 -8.887945113904758276e-01 9.392548157385606222e-01 5.251060291016895060e-02 -3.391799340968347787e-01
7.185193371224855852e-02 -5.451519014823369425e-02 -7.230266958008998435e-01 -3.287100528062576743e-02 2.809860894999800449e-02 -9.990645450554814788e-01
8.599630239473290971e-02 2.050167713364538513e-01 -7.688523663232200711e-01 5.883608084450754339e-01 -5.571038980667845086e-01 -5.860604114292748967e-01
1.034456481345161771e-01 1.851386579978155922e-01 -7.427280189136472588e-01 5.964018086592021151e-01 -2.973383872682416884e-01 -7.455835071169114592e-01
1.708855041996477919e-02 1.760596529593458637e-01 -8.076794673343851150e-01 7.867533080173362281e-01 -3.399766049593952455e-01 -5.152039794140391704e-01
-9.648857615858975889e-02 -8.255942389003829984e-02 -8.928766954075044726e-01 9.543150135047940852e-01 2.143281051864504017e-01 -2.081977865553103491e-01
-8.905360741887125009e-02 -3.730745726177020494e-02 -8.633490087013344638e-01 9.705105043075621385e-01 7.852134109683532592e-02 -2.279117373481146791e-01
1.008953334760808451e-01 2.041272562423051273e-01 -7.767893355786388287e-01 -6.656354152907192345e-01 7.462549944110330458e-01 5.742580198889168756e-03
1.744589174641879847e-01 2.769244148233894753e-01 -8.103523763005423541e-01 2.941338565208166389e-01 1.234736263747571589e-01 9.477549989517640716e-01
2.016536508421857415e-02 1.099419334471365278e-02 -7.359889695745481797e-01 5.445210037444966344e-01 -1.279452207107459050e-01 -8.289311774679272160e-01
3.987543638334475199e-03 -1.674510094787363401e-01 -7.861833252001846351e-01 5.645091562185243772e-01 5.167866956974693782e-01 -6.436310462489674977e-01
1.465548671205980091e-01 2.076429534580686853e-01 -7.485387166849433171e-01 -7.953136561828592910e-02 -5.931356053619760704e-01 -8.011647243449832034e-01
1.707482353928251690e-03 -7.289585377916650566e-02 -7.534002412730639309e-01 5.961750838391988161e-01 2.845836830549456908e-01 -7.507245811535723234e-01
-3.205940744670979226e-02 -1.242042029727537106e-01 -8.035447541457316767e-01 8.376741479209249830e-01 3.550578004989789205e-02 -5.450150103327434659e-01
-6.390376438802296277e-02 4.540230357219458834e-02 -8.375480314625480815e-01 8.701863687048233542e-01 -2.686280244598431843e-01 -4.130552846715741522e-01
-4.438817462459104107e-02 6.023820434495187615e-02 -8.139748230834819021e-01 8.407175964749614705e-01 -1.198922434488823019e-01 -5.280338748017571193e-01
-7.415707376299146558e-02 4.992882110939693419e-02 -9.067189153018164749e-01 9.959058440242942734e-01 2.002002573154840898e-02 8.815184857940527863e-02
-9.546320416909510886e-02 -9.009303108412727856e-02 -8.939495114222104633e-01 9.222550532820257274e-01 3.475461068508994278e-01 -1.692847314690582583e-01
2.384298587258726343e-02 -4.810295381427166783e-03 -7.339388651899781957e-01 4.992193740628923515e-01 -6.416455354157385438e-02 -8.640965956587632890e-01
6.893674139609930196e-02 8.413579446381322380e-02 -7.218541582004781576e-01 4.305088941316582707e-01 -2.863174266177836436e-01 -8.559698728860185568e-01
4.327114181365949996e-02 -6.307216260883144465e-02 -7.329797824367573211e-01 2.618231894331654597e-01 1.143403378318707392e-01 -9.583187907056495147e-01
-4.620661634132071371e-02 6.327212807918039528e-02 -8.174938667259605829e-01 8.610124320177287016e-01 -1.712895256357829105e-02 -5.082953776053750206e-01
-2.055384869098405426e-02 1.150578577948269399e-01 -8.125828318305173825e-01 6.661440876214709261e-01 -3.676463614104364397e-01 -6.489130970080855265e-01
7.328179982596198794e-02 6.383238269306578186e-03 -7.149227644627957901e-01 2.937637988342851614e-01 1.876085450415938827e-01 -9.372864366466773234e-01
1.307756314604776315e-01 2.510550221294002848e-01 -7.773175546679506054e-01 2.013278506659894052e-01 -4.001978925172475776e-01 -8.940406832862624054e-01
9.446265744862994765e-03 1.827530086317351588e-01 -8.257345301469976029e-01 8.627408769117029808e-01 -3.488326609206330864e-01 -3.660518460282049524e-01
4.626047234562392918e-02 2.209073606235605058e-01 -8.209464829097763428e-01 8.117892843388404556e-01 -4.948783693329749656e-01 -3.099896085338491036e-01
1.491411447534780055e-01 1.800134941201584904e-01 -7.287835956014664385e-01 -7.016005605836543590e-02 -3.827428476955330172e-01 -9.211869946280186738e-01
-8.232030834645350653e-03 1.287626724385417809e-01 -8.034669368793595501e-01 7.799593765468353368e-01 -1.870524558463716180e-01 -5.972225294632755865e-01
-8.628007377784799314e-02 -2.522957081714224600e-02 -8.602819110971576810e-01 9.313948617788141426e-01 1.213171107552816208e-01 -3.431993153985222200e-01
2.349246992701808229e-02 5.495720650759145648e-02 -7.430920359599930691e-01 6.704909374997263249e-01 -2.850379688188797167e-01 -6.849782909423813848e-01
2.798780483312024361e-03 1.855651596195823927e-01 -8.483246288145070979e-01 8.966947223945012091e-01 -3.827378570133002089e-01 -2.223742512943323035e-01
4.818326716177747521e-02 -4.849833916596698463e-02 -7.264223043562407778e-01 3.674920094767988310e-01 2.540285780412046002e-01 -8.946614468663932618e-01
2.346549032976300367e-02 2.138123692384730490e-01 -8.927211353993723675e-01 4.711944067559425409e-01 -8.734563534048095379e-01 1.226777475285871916e-01
-9.484712512846418808e-02 -8.574225532776755254e-02 -9.546852258662283930e-01 9.373484484535404837e-01 2.413103556143282868e-01 2.512910632215695217e-01
-3.129729162450090724e-02 -2.228822587018033652e-01 -8.879206350541911652e-01 5.486402079179679703e-01 7.685535076685964251e-01 -3.291191700676603382e-01
-4.099687422852450747e-02 -1.701519145128209121e-01 -8.457110843525327271e-01 9.152017798646265856e-01 3.651837568559643810e-01 -1.704304135451873981e-01
-2.881537884554547652e-03 5.673920850163001461e-02 -7.761595301830179761e-01 2.378961996552720060e-01 1.070853217547871189e-01 -9.653694277603018792e-01
7.936187026269719835e-02 -8.286870124992366804e-02 -7.297783852630208568e-01 -1.052224394708526772e-01 -1.128612419199294253e-01 -9.880235717350542846e-01
-8.719619835506375871e-02 -9.831795682577852691e-02 -8.753452505353469526e-01 8.844123425179316600e-01 1.529592768451671081e-01 -4.409288695798317947e-01
-3.441777691388469076e-03 1.728482884778035911e-01 -8.441367681483894492e-01 7.918688693854184502e-01 -5.585689253247110297e-01 -2.468692961059689994e-01
-1.367720907956515575e-02 -7.557067606256784309e-02 -7.673986076706734716e-01 7.158319547059999177e-01 1.763168852772666884e-01 -6.756455939232566266e-01
8.145450278680200704e-03 1.562416708740723970e-01 -8.052688668979548492e-01 6.163641510951550773e-01 -4.526403626037163175e-01 -6.443694091022050818e-01
-9.545253919351788519e-02 -5.857054313726281491e-02 -8.823366949037850793e-01 9.682549807042916123e-01 1.439871448619896126e-02 -2.495495328837082083e-01
3.632618247743423651e-02 -5.921710223125174061e-02 -7.344144076282964617e-01 3.024776287900731164e-01 6.860743343940096939e-02 -9.506841242801906677e-01
-5.288707530889859981e-02 3.041009888118332422e-02 -8.159039030269161774e-01 7.755120334019951489e-01 -9.281990258064333477e-02 -6.244722185442861395e-01
-2.071995560696383940e-04 7.583586867101127504e-02 -7.821709239711727157e-01 5.080590009566455789e-01 1.728981734457126218e-01 -8.437904201672780102e-01
1.067958810253999760e-02 1.883583255323507677e-01 -8.329951056460606074e-01 7.936892732845821641e-01 -4.900521246515975315e-01 -3.604250998438470743e-01
1.514872046298536799e-02 1.110962635242354751e-01 -7.801945084515795603e-01 3.553286238233087091e-01 -2.730634496053689908e-01 -8.939675170728798026e-01
9.207297185897884984e-02 -4.646011234540232265e-02 -7.206724596827793761e-01 2.746694436766213832e-01 6.358684611846623369e-01 -7.212683250920040035e-01
9.798344938350904421e-02 1.503215064594825290e-01 -7.231081476469596314e-01 4.504359134484178240e-01 -3.546625906230068681e-01 -8.193423794046461595e-01
6.509580121734682978e-02 1.963985094734231329e-01 -7.815526485009794966e-01 4.156763197124166975e-01 -3.379751026097700395e-01 -8.443849994204398746e-01
8.674298665057228463e-02 1.758578192102275839e-01 -7.486343592842946704e-01 6.118455231804401651e-01 -5.546166972054296096e-01 -5.639551178462647307e-01
9.367325945256814446e-02 3.296496276803757841e-02 -7.088420524662880640e-01 1.351139224825999852e-01 -2.311747385171862221e-02 -9.905603516969982980e-01
-2.764827365190127353e-02 -2.004152846285274792e-01 -8.518295906146620133e-01 6.062755203986063268e-01 5.433025772705680767e-01 -5.807342790782695774e-01
9.351526168616248330e-03 -7.294623488298034031e-02 -7.484854553270943178e-01 4.501537537770612385e-01 1.339710227635264039e-01 -8.828439063731003955e-01
-3.747864106237074056e-02 2.104029020179463885e-03 -8.021208989498024300e-01 4.627565882363829375e-01 -3.505163148394692396e-02 -8.857921444527131483e-01
-4.702410540681474516e-02 -1.173266508654124129e-01 -8.356627015532732683e-01 -5.231043728351715549e-02 4.698090374962953786e-01 -8.812168214679130251e-01
-1.479539624639761644e-02 -9.114755971199564599e-02 -7.711923015041702856e-01 7.387388597717607919e-01 3.011198796401638456e-01 -6.029856674487477086e-01
-9.931216937729236971e-02 -7.853961981206673826e-02 -9.046792084498871400e-01 9.628215947712960299e-01 2.592011344634300718e-01 -7.608776862892717430e-02
-8.052927063455002366e-02 3.079136514005623507e-02 -8.806436777035181462e-01 9.042709161894278980e-01 -3.734223846568118788e-01 -2.070020115147503670e-01
-5.084472272750918675e-03 1.531602294941636910e-01 -8.184734626114963385e-01 7.182933540620642932e-01 -5.491432138578392630e-01 -4.271959599342594061e-01
6.509888747478898008e-02 3.777975169324360172e-02 -7.171649818348142524e-01 2.214518875115901175e-01 -1.527650649489284695e-01 -9.631312976166352957e-01
-8.408654286159830682e-02 6.497513375662726520e-03 -8.650670472153513257e-01 9.681128367390914313e-01 1.464819575574369780e-02 -2.500859166408427869e-01
-4.492033022411339588e-02 -8.919499004287027855e-02 -8.218390750301483028e-01 -5.449191174391884718e-02 4.566163677193850190e-01 -8.879933131984995009e-01
-4.589998396827588145e-02 -1.024682380463135950e-01 -8.281928621482337327e-01 -3.664748384456804065e-01 4.623511914629663266e-01 -8.074203171452820627e-01
4.536787820992763121e-02 2.431577428607044691e-02 -7.239994890392352778e-01 3.965938805545607959e-01 -1.290608618525332929e-01 -9.088765525881697949e-01
1.113494872778633682e-02 -2.134797747027844805e-01 -8.185858049571052009e-01 4.116218111396587886e-01 5.067488240333264393e-01 -7.574781276940925068e-01
-8.465162281339644323e-02 -4.995296879741628615e-02 -8.651658558856203385e-01 9.304279621691367019e-01 1.821098301920519580e-01 -3.180248684634733869e-01
-6.638262819619082655e-02 -1.606340487114815696e-01 -8.838762184389672427e-01 6.417041253584977456e-01 6.170338532618517835e-01 -4.555052572986582615e-01
-1.573103750794689268e-02 -9.562578636695352741e-02 -7.734270674042684757e-01 6.830178856450958014e-01 6.658097082142572232e-02 -7.273606685911598868e-01
1.409997098238415791e-01 9.007564492510353182e-02 -7.021103488659646841e-01 1.150250766689040888e-01 1.361369833797630435e-01 -9.839898137143344714e-01
-1.655455838974028608e-03 1.533559817972112993e-01 -8.134430895411457474e-01 7.192614290579356640e-01 -4.739849960932800976e-01 -5.079382050485959921e-01
4.430597276160264109e-02 -6.842179709863284442e-02 -7.317863915887321546e-01 2.799134112733336899e-01 5.685172720901893184e-02 -9.583404214070680993e-01
-3.267647902765062617e-02 -2.135497807889325805e-01 -8.789893378385766898e-01 6.393147872366077289e-01 6.877326851202529845e-01 -3.439481888859104997e-01
-8.631974834922589990e-03 1.653311293140378446e-01 -8.433554214047929154e-01 7.431829833753864634e-01 -5.518488711496701837e-01 -3.783409528878608485e-01
8.866614553811742738e-02 1.122449907958466969e-01 -7.156262671929958241e-01 5.219109310569270965e-01 -7.983134576373995817e-02 -8.492561075887777866e-01
5.109377909745820012e-02 -2.241036277619252171e-01 -8.154770679666248911e-01 8.853568810476118711e-02 4.949717329229935681e-01 -8.643867279979633444e-01
1.214338902591594743e-01 2.383497593013103599e-01 -7.741385007764538528e-01 -3.261843813680710691e-02 -1.872192983249345022e-01 -9.817764367860100094e-01
-9.223569112367752121e-02 -9.495075403767237743e-02 -8.865931055372949787e-01 9.304279621691367019e-01 1.821098301920519580e-01 -3.180248684634733869e-01
-1.523966363836840726e-02 1.337486629526054571e-01 -8.160163600983217913e-01 8.552845329402755103e-01 -2.413039221608456464e-01 -4.585420208257116048e-01
-6.928750658927432249e-02 5.375292442226797113e-02 -8.601172515644563976e-01 9.504558362105927083e-01 -1.435018899109615775e-01 -2.757551649655993753e-01
4.038794639726717151e-02 1.015374303154757685e-02 -7.240135965835394760e-01 4.750162191090841479e-01 9.000220764942762353e-02 -8.753623216711695632e-01
-3.508820533716800610e-02 -1.721791847904700634e-01 -8.319320084677871430e-01 8.246642207464121022e-01 3.835267406540524004e-01 -4.157356879364485502e-01
-5.714904035097144452e-02 2.599404943591182918e-02 -8.214589706926327395e-01 7.899549969598342880e-01 2.728780332532695484e-03 -6.131587531268594127e-01
1.056514406411295792e-01 1.337151318824732482e-01 -7.160035217277926911e-01 5.131660487532999637e-01 -1.743995523932432568e-01 -8.403840803656159597e-01
1.268899333868884170e-02 1.648376067754207253e-01 -8.051122722766426154e-01 6.434351603568271294e-01 -4.088264410077619426e-01 -6.471878672761961493e-01
5.342992440217034233e-02 8.762845191111488796e-02 -7.286377347478465438e-01 5.263844170869810268e-01 -3.696825695455836502e-01 -7.656724124729673564e-01
-9.253316726379164081e-02 -9.364766558370343774e-02 -8.870348807490940901e-01 9.054917669474151776e-01 3.085282966619156131e-01 -2.913673800365181865e-01
2.373063851594956614e-02 -9.093660751437035450e-02 -7.456984500151091488e-01 2.952768023890577909e-01 1.904633093233639163e-01 -9.362346595659050141e-01
-4.528822630110761888e-02 -1.744123448029579193e-01 -8.695965582408267114e-01 -7.444561773060257570e-01 3.500762885266180402e-01 -5.685346007784639610e-01
-4.251688365325750202e-02 1.067031559908494937e-01 -8.415022763712460829e-01 8.342213146472259311e-01 -4.586844949585041076e-01 -3.060773305439592473e-01
-4.279231166711770090e-02 9.014380403060692770e-02 -8.290764308773463931e-01 7.693744710031177325e-01 -4.013927927416068853e-01 -4.969373695987915340e-01
-1.822920789519252285e-03 -1.669254162807120578e-01 -7.900380550356740361e-01 5.381441156238967460e-01 3.713174368117876933e-01 -7.566533366997718613e-01
-4.978396606613812170e-02 7.049336149255830408e-02 -8.244812871655406994e-01 8.483942092699976456e-01 -1.688134161325741123e-01 -5.017263160437031022e-01
9.754563825147023748e-02 2.174565883218122775e-01 -7.777925783728644182e-01 6.959262906490518708e-01 -4.823920279094775498e-01 5.319629022712329958e-01
5.011234861623658360e-02 1.654766596140994361e-01 -7.777416878236433906e-01 3.461838546435678232e-01 -2.868520307616476139e-01 -8.932371752407307630e-01
-8.595232932039162388e-02 -6.122645425325799751e-02 -8.569642193928477258e-01 8.722740765532966956e-01 2.760946253404093498e-01 -4.036207294369709708e-01
-6.682640491051590470e-02 -3.968804972244160956e-02 -8.282760388932415285e-01 7.345867243970238825e-01 6.796715532485911315e-02 -6.751020738649063935e-01
9.785678668997790930e-02 2.086741650297874728e-01 -7.694272483728623602e-01 -3.979541251860436724e-01 2.421323057577014493e-01 -8.848753927846956246e-01
1.539551060280980321e-01 2.543256095557455132e-01 -8.002340286510098988e-01 -1.190497447570667278e-01 5.053122677485994974e-01 8.546851293523510806e-01
-6.430674177544951076e-02 3.942339069386922856e-02 -8.366407473494573699e-01 9.064231307301446883e-01 -1.480891583101215658e-01 -3.955587304918994351e-01
1.477523233203771880e-01 2.069594283927302936e-01 -7.483338732025365259e-01 -1.643307566542077380e-01 -5.692739200155019219e-01 -8.055573265805726635e-01
-8.857318219289064820e-02 -4.923727393229926363e-02 -8.779473389056170474e-01 9.646916262358710137e-01 1.118353648052517087e-02 -2.631444371104574298e-01
4.461189947191327582e-02 7.634460363240228031e-02 -7.323691579083406733e-01 6.756560185442729294e-01 -1.452138931863712623e-01 -7.227737334951777060e-01
-7.094359367844610409e-02 2.562488872731436690e-02 -8.427636504271920348e-01 9.280334071828982845e-01 -6.421860964924149852e-03 -3.724416126780786818e-01
-4.055247158329997742e-02 5.545988727370486371e-02 -8.077017534771956386e-01 7.205099040950058153e-01 -2.533785080641133836e-01 -6.454957860065467790e-01
-2.152422476886544159e-02 -1.398864815205110301e-01 -7.941953328485642505e-01 7.462665187142428769e-01 4.018650224615049615e-01 -5.306512854673385293e-01
6.119197312875866539e-03 -6.784198282596555496e-02 -7.498305776137464962e-01 5.941307470747230202e-01 4.906123119118786097e-02 -8.028708806367536033e-01
-9.733326755428307886e-02 -8.945650536101096284e-02 -9.392733607148039399e-01 9.114264013098044570e-01 3.571907211379338198e-01 2.042466737267024379e-01
7.495882890932852038e-02 1.904977278971841659e-01 -7.719239005917698515e-01 7.630368682591233132e-01 -5.159823021518245012e-01 3.892775379384388335e-01
-4.961596943846162400e-02 1.060605966084232632e-01 -9.053773509766309679e-01 9.889548537245433923e-01 4.994772776007871257e-02 1.395475610187152105e-01
-2.369378469806205853e-02 1.453392782215369439e-01 -8.526256779004103281e-01 8.355489456306858242e-01 -4.885664485676134983e-01 -2.513180948309903795e-01
-8.934064324259942402e-02 -2.873700947398490774e-02 -8.696743116264801232e-01 9.429980915976129419e-01 -1.661109927889820037e-01 -2.883777684183002066e-01
-4.912533169857284665e-02 -1.066231009925501655e-01 -8.314993598607479663e-01 9.262379219345061587e-01 9.902566607789850539e-02 -3.636993668241341182e-01
1.624184012001545219e-01 2.859898910217091306e-01 -7.980005558464839943e-01 7.302566375250102437e-01 -5.540338614305987397e-01 3.997145528235943046e-01
-4.238257188321818691e-02 -1.641313561784979724e-01 -8.434239126716811530e-01 9.128605571247563333e-01 8.604871554602673556e-02 -3.991005159089099918e-01
-4.347247908036332847e-02 1.779662173576916293e-02 -8.060417987656138816e-01 6.511789882737656354e-01 2.553990413247040903e-01 -7.146588381326974826e-01
-9.673453462604954256e-02 -9.734236306297025521e-02 -9.110600433971697276e-01 9.656495463918862709e-01 2.477813489679893955e-01 -7.826465777570149052e-02
-5.264948065195925592e-02 9.808123503764425155e-02 -8.946300979872774395e-01 6.056673236453830045e-01 -7.936958726056525526e-01 5.669175316561381184e-02
-3.087408868185312349e-02 -1.625377311817007703e-02 -7.987450110662622782e-01 7.869583596130599323e-01 -3.832928869392452365e-01 4.835112232998329262e-01
9.943911668451281549e-02 1.385031301239651735e-01 -7.201741851579001041e-01 4.694126524433320791e-01 -1.406469968781050572e-01 -8.717053309434821262e-01
4.966324346885703928e-02 1.458440495112377222e-01 -7.755748548632951378e-01 4.608211361751614610e-01 -3.460228943141651081e-01 8.172588556049309449e-01
-3.756196265333336393e-02 -9.476877343353580507e-02 -8.038986151191134244e-01 9.247094255066995450e-01 8.492567507698559059e-02 -3.710796519506127100e-01
-2.590258247993587268e-02 -1.894820577948559404e-01 -8.316281662598592472e-01 6.686112098801512138e-01 3.696312764328031908e-01 -6.452377619957291310e-01
1.898638778116489706e-02 -5.409166929738470908e-02 -7.396196442107887403e-01 5.100121962454882141e-01 1.255549240658258014e-01 -8.509544762933433093e-01
6.765887132234109369e-02 1.954450395406832214e-02 -7.132818055928188405e-01 1.540169714467242434e-01 -8.473376154865763787e-02 -9.844282412447309394e-01
-3.517028569362873336e-02 -2.868740048160724546e-02 -7.989771687220190710e-01 8.911883586703501781e-01 -7.492934763684649946e-02 -4.474023940851947767e-01
1.313533807356045691e-01 2.124336985511701137e-01 -7.512130215482842877e-01 1.633632356763781435e-01 -3.892995343365994731e-01 -9.065088669145222600e-01
-9.012193053920304620e-02 -4.710456057212435155e-02 -8.846084215648019056e-01 9.679900788219019114e-01 6.619064024253267821e-03 -2.509011663859117558e-01
-3.921937095613049068e-02 1.218568256933121596e-01 -8.593107658376836211e-01 9.562350374795226537e-01 -2.418708579972857764e-01 -1.646603812342020412e-01
1.454110430683453192e-01 2.435122860133526190e-01 -7.939056813954826763e-01 -5.014318641016698441e-01 7.490523021615187460e-01 4.329973836988550429e-01
-9.382528081767174677e-02 -1.911790810904109156e-02 -9.029538152373629556e-01 9.623962811459425559e-01 -2.644602589624778788e-01 -6.208195765243857550e-02
-4.910561608375502152e-02 -1.789794294799162411e-01 -8.723942817242977821e-01 9.153812893052702959e-01 -1.689780252053462439e-01 3.654087056810800815e-01
-2.041198455995977060e-02 -4.912740898566570619e-02 -7.733082997613427434e-01 8.225549564538460201e-01 -7.930557681089756006e-02 -5.631287322627945846e-01
-6.761505433113387808e-02 -1.454527763779877025e-01 -8.704541101902443234e-01 7.177054887632380309e-01 3.082946113930910004e-01 -6.243823059513335938e-01
-4.077788804959838614e-02 -1.621635731474053987e-01 -8.370176467773908779e-01 8.709636828101233741e-01 1.293109804451911260e-01 -4.740263004962174676e-01
3.445068826759774272e-02 -5.797325396755139554e-02 -7.348683799509317938e-01 2.579702347162955434e-01 1.465207843459687409e-01 -9.549780195140941119e-01
-4.379918003179485153e-02 6.937207220317151424e-02 -8.141492709882199863e-01 8.434627062331822023e-01 -9.431224629590176378e-02 -5.288438932165310247e-01
1.565519783065620341e-01 2.680418927898489678e-01 -7.819952337683753196e-01 -2.670390722902101222e-01 3.813811894828048749e-02 -9.629307440067903512e-01
-7.829975422053170320e-02 -4.315647819872910768e-02 -8.411537695785021862e-01 8.788446438768585667e-01 2.218608173726448751e-01 -4.223859250066216431e-01
2.430737581637560860e-02 1.254472023421633609e-01 -7.760381511732677984e-01 4.028180072796374578e-01 -3.066543020523145868e-01 -8.623808857135398798e-01
2.165509621089293374e-02 1.505944276911986013e-01 -7.903455807611458050e-01 5.323405678928926354e-01 -2.963685453363742450e-01 -7.929559919129649526e-01
1.143202029584778623e-01 2.159762150353156940e-01 -7.789851410011408017e-01 -6.733845269178984072e-01 7.038661289998688897e-01 -2.261100425772773204e-01
1.677182893187523227e-01 2.667419026920431757e-01 -8.061519943049573200e-01 -7.217387931074095882e-03 4.540646656859128605e-01 8.909394977701866614e-01
-6.918046085097601106e-02 6.161239647547467335e-02 -9.120709928445485115e-01 9.515695860673153428e-01 2.676331096167868795e-01 1.512872813838860298e-01
-3.332035861104034463e-02 -6.691104443502680910e-02 -7.954255898023165905e-01 9.281674228500803592e-01 6.638571619308190896e-02 -3.661941723257918224e-01
-1.407209603134402902e-02 -1.625976364344067226e-01 -7.975835127186072793e-01 6.050814796616463820e-01 2.613292235093871985e-01 -7.520528172345699591e-01
-4.956368174187862630e-02 9.997084842014228312e-02 -8.601890740663873380e-01 9.386609203293138082e-01 -2.802314494513437060e-01 -2.009627114290723493e-01
-2.260512074334327520e-02 2.714026811167378084e-03 -7.881290730448226034e-01 -1.289657566860305249e-01 2.637075897580289929e-01 -9.559425404836896512e-01
5.315097887967742962e-02 1.113999437014760452e-01 -7.438197445001707431e-01 6.184636884598666562e-01 -4.576925221620188888e-01 -6.387646054796609629e-01
2.253295354517267229e-02 1.966633416580729488e-01 -8.167296857474576344e-01 8.000448462161007246e-01 -4.224533335113369592e-01 -4.259828929055896052e-01
-6.162928660732485547e-02 7.700188283562668656e-02 -8.624842700921174776e-01 8.817995857310109153e-01 -4.492387978733644038e-01 -1.435757399072419283e-01
-3.742170348809500946e-02 -2.234819990875310247e-01 -8.996687222958712482e-01 6.116047768412579133e-01 7.530940283211755570e-01 -2.424643921319983852e-01
1.224868028068240057e-02 2.015169788969488063e-01 -8.459994585329613237e-01 8.001601104869524583e-01 -5.729287170521890626e-01 -1.774724845220821690e-01
-2.653414001789180035e-02 1.472791923052499397e-01 -8.772689456332762870e-01 9.262412369275858648e-01 -3.760958989174661427e-01 -2.508078611844016120e-02
-2.675799220285329447e-02 -2.007443531561797431e-02 -7.968030944396090609e-01 -7.869583596130595993e-01 3.832928869392455695e-01 -4.835112232998328707e-01
2.328965582890358751e-02 2.158471288816896094e-01 -8.718907448313317765e-01 8.875313873831387479e-01 -4.570888813134563189e-01 -5.794644932499157242e-02
-4.025694938268035983e-03 1.321080249573710896e-01 -8.034076581889615376e-01 6.699563003232743563e-01 -3.604851451687226538e-01 -6.490061754481506462e-01
1.146181260677612557e-01 2.301975003170609879e-01 -7.724445683642567895e-01 -1.718546229131922010e-01 -4.142083559698789968e-02 -9.842511381562185635e-01
-4.932058651981061775e-02 -1.705903198607287008e-01 -8.660113411316072707e-01 6.685285766385153927e-01 4.057932098941031684e-01 -6.232185916847482465e-01
-6.551702026890482422e-02 5.267502150193249799e-02 -8.454099553880630724e-01 9.505388450727915162e-01 -1.024127658528951323e-01 -2.932363030015962546e-01
5.832593682086953391e-02 -6.680374845084288346e-03 -7.174732537159277390e-01 2.229234362022668448e-01 -7.922192652386662870e-02 -9.716115622766234861e-01
-3.871636585854516116e-02 -2.228448966284546640e-01 -9.006933092196243162e-01 5.532312896768506461e-01 7.439025600818111039e-01 -3.748921461250098175e-01
-2.072470260316864807e-02 -1.328972306439269446e-01 -7.922101420789297022e-01 6.830744629487348618e-01 2.539346410348568561e-01 -6.847820647109529313e-01
2.583245379656779958e-02 -1.761482422029306549e-01 -7.796571228815578625e-01 3.553458150459771203e-01 5.620550888299884473e-01 -7.468757787273758719e-01
1.074584615612042549e-02 1.479608639673061776e-01 -7.950495376053451357e-01 7.193497413892746550e-01 -1.895109956099933213e-01 -6.682974877298976102e-01
6.055792208594141688e-04 4.048242004418683287e-02 -7.673208719109608777e-01 8.873890923674032649e-01 -2.029660187364976109e-01 -4.139388771130489975e-01
-3.784546081457924177e-02 -6.766848098047192894e-02 -8.153377249307379726e-01 -9.119241136972339179e-01 2.886668751040721292e-01 -2.916604979683817822e-01
-8.435727825229880072e-02 -7.649769427166099034e-02 -8.597098899917094972e-01 8.846896552907802525e-01 8.031562227329588910e-02 -4.592097719347157936e-01
1.331453023549437897e-01 2.446310208181934620e-01 -7.766334397336230877e-01 -3.156806055324815063e-01 1.073650428048633920e-01 -9.427717130218510322e-01
-7.372456979716993097e-02 -5.639017648068501976e-02 -8.445930257101680327e-01 8.235544073502701901e-01 1.904410850734724880e-01 -5.343129525381015155e-01
1.542389899082073912e-01 2.783982193184305620e-01 -7.940545718672588071e-01 7.193649293243162823e-01 -5.805760700694958532e-01 3.813732100198981567e-01
1.382066017809751267e-02 2.001329551764290393e-01 -8.388645445589557603e-01 7.570408811612874267e-01 -5.927565534569383399e-01 -2.748249853714056501e-01
-9.715907585708614957e-02 -6.872157619393405581e-02 -9.061366343954115887e-01 9.951050157371751359e-01 -6.407651180633294752e-02 -7.523435577879006297e-02
-5.105077921393305629e-02 9.392693643125908654e-02 -8.553991079100824457e-01 9.385217380884629534e-01 -2.805244898025932576e-01 -2.012037717250984570e-01
-6.728044609894432565e-03 2.436380178315919465e-02 -7.715711441076036348e-01 8.735969597208188553e-01 -2.842083562846283162e-01 -3.950366592919347108e-01
-4.094757223817072772e-02 1.215912665084995931e-01 -8.985702912902960859e-01 7.387611259668880326e-01 -6.688360928117421667e-01 8.300770875321253350e-02
-1.167685565154369387e-03 1.778340139313673920e-02 -7.593916269826371801e-01 7.428994677735341057e-01 -2.021650499293816128e-01 -6.381454954544852898e-01
1.381722375010935311e-01 1.880186583119764498e-01 -7.321997977892444887e-01 1.410762296854931874e-01 -3.192425940631030690e-01 -9.371134742140818652e-01
-6.190579885068304977e-02 7.812155349644875346e-02 -8.881437127747512372e-01 8.807249324134294177e-01 -4.727750638725857768e-01 -2.841359543656244574e-02
-8.548506739697807333e-03 -3.159635904597377781e-02 -7.587685228270357740e-01 6.976228260422848715e-01 1.108576998319943802e-01 -7.078368194525737067e-01
1.033195682109403490e-01 1.062012059299453776e-01 -7.089873459373210451e-01 2.507026435541422904e-01 -2.233748620928049933e-01 -9.419404734376715105e-01
-1.460946769350344662e-02 1.622127274173716938e-01 -8.606516948067876038e-01 8.096445879271019219e-01 -5.765733357671595227e-01 -1.097216009848729773e-01
6.275860414643168184e-02 8.283059621552317509e-02 -7.216528375234962933e-01 4.569885503477572608e-01 -2.519049892357992371e-01 -8.530564701408500650e-01
-2.808930794453960711e-02 -1.917813498822623919e-01 -8.404265276060829404e-01 7.324511165341117680e-01 5.789249824800962729e-01 -3.582753501824449960e-01
-1.888383184072841767e-02 -1.868647564527396721e-01 -8.194752830489300255e-01 5.660997853919584877e-01 3.917811706037217512e-01 -7.252851489859393208e-01
-6.708922713641353452e-02 -5.709993582515848765e-02 -8.352106408443694674e-01 7.433921389459744455e-01 3.244453634203888215e-01 -5.848960026434963932e-01
1.560600675475362978e-02 8.629915645854616124e-02 -7.796872479001965006e-01 2.377833543308868480e-01 -1.999564788443505547e-01 9.505137994639112353e-01
5.493538631118981275e-02 1.488975057773446187e-01 -7.760260408710837332e-01 -1.498828814820905297e-01 1.216817154018450947e-01 9.811873837221358752e-01
-8.603594505912032231e-02 -9.744093826238674205e-02 -8.725978890115539954e-01 8.804929557044431920e-01 2.148096474933431921e-01 -4.225978825060997535e-01
-7.521020529312127945e-02 -1.552990108141516223e-01 -8.919427674799879080e-01 9.102865374404356391e-01 2.760951683963898118e-01 -3.084637381328176331e-01
-4.790548300704772916e-02 3.045659476193438714e-02 -8.098061428365695980e-01 7.348169621255628003e-01 6.574292725264155313e-02 -6.750717737313662870e-01
-4.209408448243902312e-02 -2.173506283276945839e-01 -9.097021747186475604e-01 7.594058548254445373e-01 6.479230370353633583e-01 -5.914799857735614230e-02
-3.556439831442963911e-02 8.452568617621050717e-02 -8.139293192330764315e-01 7.872791369780235415e-01 -3.433218777660126952e-01 -5.121734557026141887e-01
2.997922951886810086e-02 8.718718453806408031e-02 -7.516522779880197014e-01 8.659770788962785071e-01 -2.066433373792153916e-01 -4.553923911782545852e-01
1.746275785488742849e-01 2.816399294989156421e-01 -7.867588108111973622e-01 -3.615815636035765168e-01 1.817013253691361352e-01 -9.144634499098868163e-01
1.464057451448495251e-01 2.674078841190147271e-01 -7.948884420224676672e-01 6.515114284167503600e-01 -4.267596450902680361e-01 6.272232967331443643e-01
-8.905980765025191259e-02 -8.895568277144390301e-02 -8.735567941232745826e-01 8.844137104740521504e-01 1.529234517154962891e-01 -4.409385520012259474e-01
-9.008841939426784351e-02 -8.841891744327211311e-02 -8.757900887014835600e-01 9.369034678963112928e-01 1.171027064256658645e-01 -3.293916331536819730e-01
9.825971721213449389e-03 8.346249518537565693e-02 -7.722801433894163070e-01 6.477344246181951926e-01 -1.941464338746688723e-01 -7.367138368310210961e-01
4.597186319921296033e-02 -6.356140731058493309e-02 -7.324429647335882754e-01 2.874077295555730327e-01 1.202230192268620573e-01 -9.502332464398874912e-01
9.225810565926208240e-02 1.889995909503425220e-01 -7.562032810698023910e-01 7.920053874841371799e-01 -3.380546232237185422e-01 -5.083763742673055308e-01
8.287405975394916691e-02 2.680295841649935756e-02 -7.125789840192111591e-01 1.988662524788182839e-01 9.823344472381927150e-02 -9.750909721470726321e-01
9.363190361919523919e-02 1.041785865134744749e-01 -7.120790673508425872e-01 2.790201470432031594e-01 -1.895508741451345791e-01 -9.413916420145255204e-01
1.103688541125446426e-01 1.279052087523391557e-01 -7.130295467132398146e-01 3.710515525985648155e-01 -6.767726657493214337e-02 -9.261428253261695387e-01
-8.076056796725798737e-02 -3.252603452622163105e-02 -8.482881765589692646e-01 8.856895714272826625e-01 3.059518684504296954e-02 -4.632687315229391811e-01
1.258790907659257385e-01 7.974283702848435074e-02 -7.028426829945275678e-01 2.514584374625809526e-01 1.804115940396645579e-01 -9.509049957619029048e-01
-8.796679036679203034e-02 -2.608428297292290574e-02 -8.658792591811689254e-01 9.336540821941110568e-01 1.188424052006330917e-01 -3.378853911142071786e-01
5.693498912075663221e-02 -4.764508215159116850e-02 -7.242121179018553567e-01 1.871005370376919164e-01 5.312935027954878570e-02 -9.809029825518323920e-01
3.080808722461624710e-02 -1.001050916877135703e-02 -7.300224899914499188e-01 3.858577175355504263e-01 -3.435145772729125691e-02 -9.219185425894553809e-01
-8.242848644107338141e-02 -8.825345539472322087e-02 -8.603987696111952133e-01 7.925076071796739452e-01 3.737658691487814600e-01 -4.819032762098672817e-01
6.656144450315150396e-02 -4.961128639847568050e-02 -7.226993874345174484e-01 3.081416528556003009e-01 4.173714511503897051e-01 -8.548975339419553343e-01
5.969264742048260852e-02 1.218991553166650643e-01 -7.405078881883516706e-01 6.133780284941331429e-01 -4.541775241382407513e-01 -6.461347930024415875e-01
2.070471578019836278e-02 1.395956872208804211e-01 -7.840848829789652807e-01 5.263009886408260840e-01 -3.758907332863801187e-01 -7.627014002774066270e-01
6.654282107524445156e-02 -9.405498116892714588e-02 -7.390489863201884502e-01 -6.676303350459286690e-02 9.286113406918932930e-03 -9.977256463853468871e-01
8.058002279886798181e-05 4.731365042709377577e-02 -7.818865649838218079e-01 -8.734893204519214027e-01 4.821274139310568474e-01 -6.759854874619827814e-02
9.329995928532776317e-02 2.000345004302431229e-01 -7.679035908799174415e-01 7.959715610936700658e-01 -5.187079381394390509e-01 -3.120438251932536877e-01
-6.020246243432604560e-02 -1.860283203683443243e-01 -9.064908383879388687e-01 8.320475426946450925e-01 5.511972242714504588e-01 -6.227765772129727206e-02
6.728384595831442272e-02 1.174792730770702898e-01 -7.318834743129588594e-01 6.479575869444238467e-01 -1.941792658181534792e-01 -7.365089125377116686e-01
-8.015816773797160288e-02 -9.217831109083622632e-02 -8.583346877458499780e-01 8.360025542788549480e-01 1.175359444294994810e-01 -5.359897676320846127e-01
3.577989178675201193e-02 -1.194279351937685557e-01 -7.500858322437933268e-01 2.099306833162775943e-01 2.596680714001333712e-01 -9.426036287314493167e-01
5.227425464430919544e-02 -1.695197774716635242e-01 -7.685285166435704696e-01 2.784415864809213215e-01 7.966532979629458167e-01 -5.364828103143188809e-01
-9.497655935014753803e-02 -2.380578446561017192e-02 -9.267559984486023472e-01 9.266511235700469751e-01 -3.720186458760215142e-01 5.403538014061654016e-02
-3.951518369461966967e-02 -6.657604418588859707e-02 -8.163093975257669221e-01 4.516300643653822222e-01 4.670524192412884856e-01 -7.601922932009903544e-01
1.244352881134010158e-01 2.365963418544742292e-01 -7.746708311164988148e-01 -3.131748107635083378e-01 1.102278196211149558e-01 -9.432769294776669478e-01
3.734152586309226474e-02 -8.472678099480704383e-02 -7.383621254978780524e-01 3.322934242570802499e-01 2.113696299030708714e-01 -9.191865750489085496e-01
-2.822916565974625119e-02 -1.359741781494186175e-01 -8.009075925032003163e-01 8.107119924693371171e-01 3.628194944169312319e-01 -4.594649929400932420e-01
6.245457454573919570e-02 -1.279232401222281379e-01 -7.476888837013808686e-01 1.239158420927977955e-01 4.930932271292012281e-01 -8.611062265700686336e-01
3.164848142050093963e-03 1.544036485835797168e-01 -8.069666023647449338e-01 7.838707324276057431e-01 -2.645149888240611036e-01 -5.617637363970869879e-01
5.749624180514793098e-02 -5.257800035789735732e-02 -7.246189789801255055e-01 3.220187148394383359e-01 4.234819984875741183e-01 -8.467390059812566205e-01
1.853980562828988357e-03 1.043853765542585021e-01 -7.864894561209174739e-01 5.139859533346446963e-01 -2.703513521075141535e-01 -8.140814370739056782e-01
-6.245045959824786080e-02 2.734801696298879564e-02 -8.298335522785840190e-01 8.197282103107470519e-01 -1.738265583940598602e-01 -5.457380221476385573e-01
-6.795939001834026827e-02 -5.222627434356572930e-03 -8.261443040192055776e-01 8.272101397898065089e-01 1.226037759237825625e-01 -5.483536256451303492e-01
4.195223476491653780e-02 1.408173857056397582e-01 -7.720370169773989044e-01 7.357100169119772382e-01 -4.561541164384785851e-01 5.006537656620682064e-01
1.339132028249481743e-01 3.384254931512527959e-02 -7.093884966607163500e-01 9.805084225503969686e-02 3.576468903652927356e-01 -9.286951782717048909e-01
-4.334830576918326933e-02 -1.557849040895759596e-01 -8.409317240093815427e-01 9.592403803167145471e-01 2.249441844853231065e-01 -1.710497197778406975e-01
-2.650487691007030744e-02 -8.270040621286545157e-02 -7.835877327537903447e-01 8.122589588806965466e-01 2.355118931933380955e-01 -5.336380157771148935e-01
-8.816367890109801098e-02 -1.262669509757886888e-01 -8.936368854239004067e-01 9.209296777778601673e-01 2.543954936887279361e-01 -2.952481352673292925e-01
4.994950529719206778e-02 1.540963060911246241e-01 -7.707291182314459643e-01 8.065845842951738787e-01 -5.416580162043717062e-01 2.367021374194288597e-01
6.206230188213125720e-02 -8.680908188004800297e-03 -7.165720730666405025e-01 1.800927152616049465e-01 -5.825394637581886997e-02 -9.819231597438495829e-01
8.093844204614004945e-02 1.793570177025426704e-01 -7.605215143704859848e-01 8.278487357079918896e-01 -3.131894572333069338e-01 -4.653803118575023379e-01
4.051475341284961618e-02 -7.877317192904846610e-02 -7.393633131278377624e-01 2.888478122118645630e-01 3.960176049512668106e-01 -8.716289336346527694e-01
5.123973506320985988e-04 4.805899386064072659e-02 -7.831807637719301329e-01 -9.172934773024254973e-01 3.768049443353878036e-01 1.288049316712289172e-01
-9.443429445442655390e-02 -6.961889132831777793e-02 -8.866365969452284501e-01 9.889460540220751383e-01 1.101812797495334006e-01 -9.922594331585717076e-02
4.278432256581155176e-03 1.719054943281053405e-01 -8.242550261442842530e-01 7.799949494024154273e-01 -4.572304755067788662e-01 -4.272565636412951617e-01
1.042253201113543803e-01 8.525725048455388977e-02 -7.088441717359824645e-01 3.219957753973026193e-01 3.332371200018112434e-02 -9.461544540109817492e-01
-2.483583182059681885e-02 1.081835292278364724e-01 -8.120357314531757575e-01 7.428003897988058046e-01 -4.268919943768736958e-01 -5.157623542404750072e-01
-3.293760156745327572e-02 -1.710502830709821898e-01 -8.265584501367537751e-01 7.996424631034962927e-01 2.259368156733957966e-01 -5.563492486964817241e-01
-5.988951211663044727e-02 -5.368864489722305344e-02 -8.222541634034152835e-01 5.775774712226857677e-01 1.794337981035417917e-01 -7.963716323640269712e-01
1.760445372864443137e-01 2.673791015678023131e-01 -8.021071504050496515e-01 -5.702611436624800412e-01 8.103810050081113880e-01 1.344799418158843796e-01
9.907205054833397029e-02 2.092403355779895169e-01 -7.698373720888932459e-01 -4.698484733597951268e-01 3.336102156644926153e-01 -8.172800230555991030e-01
-7.076016963142504890e-02 2.025159851092742103e-02 -8.412418897669604601e-01 8.505214711737710820e-01 -2.449910321422936188e-01 -4.653951237843578781e-01
6.877080015319825095e-03 1.927850864744182491e-01 -8.526772785302626501e-01 9.045181519486481525e-01 -3.897222339285109638e-01 -1.730996625564968083e-01
3.675213521287272467e-02 -9.310054697649057520e-02 -7.413969137075321347e-01 3.825512589554614928e-01 4.096885800200975591e-01 -8.281363424416946506e-01
2.977041960261194234e-02 -2.192910249866317773e-01 -8.156468420487715809e-01 2.952794941571362797e-01 5.674052643449813971e-01 -7.686750199687168994e-01
3.054251602397525453e-02 1.053234373350949576e-01 -7.741749171398412122e-01 -8.488529153610070432e-01 5.047478434146331905e-01 -1.570934201403608177e-01
4.623417812634882107e-02 1.451249583135258703e-01 -7.667618725350228148e-01 1.513808426090373915e-01 -5.697408058035663414e-02 -9.868322018626067837e-01
3.964826794230404128e-02 -2.482539592059282429e-02 -7.259927262024064021e-01 3.409756706233939560e-01 5.123106404677781750e-02 -9.386751142538944936e-01
-8.019612045081278562e-02 2.764433217315137928e-02 -8.900949699627945799e-01 9.971209918954240248e-01 -7.132573608028430767e-02 2.573648954483660073e-02
6.898614162469424160e-02 9.641245533287871872e-02 -7.259461162402018886e-01 4.517924988319039770e-01 -2.996973897191926861e-01 -8.402767476223095278e-01
-2.809605688499498821e-02 1.414998398501411403e-01 -8.595262056034761455e-01 9.419524600868165454e-01 -2.907041111066372974e-01 -1.679782209755008859e-01
-9.768942913860548943e-03 7.912408331213913182e-02 -7.873168694757285424e-01 4.179724177021408860e-01 -1.935328129103136008e-01 -8.876058293900782603e-01
-4.639872151450582724e-03 3.946502090613195068e-02 -7.864713446401160324e-01 -3.938494748147020053e-01 8.565502473529707644e-03 9.191350408702516628e-01
9.775641860903676317e-03 1.711562230923293071e-01 -8.139289611110436251e-01 8.113134244907352910e-01 -2.847516824387140155e-01 -5.105751723198432845e-01
-8.323816033955018512e-02 -4.217778405723413698e-02 -8.501493516948600560e-01 8.798146084696948366e-01 1.621729773476831005e-01 -4.467954567153801793e-01
7.965469496518996773e-02 1.515500028018098855e-01 -7.388790038599072352e-01 5.267039412160262613e-01 -4.766608802636342901e-01 -7.038304934668588864e-01
3.812627017517756373e-02 -3.636264499267009842e-02 -7.284801867182397750e-01 3.409756706234028933e-01 5.123106404677361253e-02 -9.386751142538913850e-01
5.438566803601467547e-02 1.020933528511514324e-02 -7.183807600374298996e-01 3.491666572910507860e-01 1.007673408244941504e-01 -9.316268504392486438e-01
5.975904927642766186e-03 -1.498030538119979882e-01 -7.780065373129255724e-01 4.228697381437179770e-01 2.770207895752483940e-01 -8.628097511649769347e-01
1.730900066153814865e-02 1.571902600273414330e-01 -7.962261709112257169e-01 7.195047584629188364e-01 -1.893589507034063313e-01 -6.681736977296561797e-01
-2.977627910368256872e-02 1.408902766916450278e-01 -8.913685874265010467e-01 9.620878393358551772e-01 -2.597481422797273121e-01 8.317386599345034937e-02
-9.551989005444873337e-02 -5.828429774723670187e-02 -9.400241213185830391e-01 9.614283775233849472e-01 1.786704216376879817e-01 2.091228235381365208e-01
7.944000336527133957e-03 6.044532076894713890e-02 -7.680794977720063477e-01 7.423171127707859362e-01 -5.421265237510436430e-01 -3.937818385010324329e-01
3.536243351958318071e-02 -1.180481837151613894e-01 -7.496203956127048817e-01 3.209281764511224266e-01 4.189809769969650710e-01 -8.493880423425007598e-01
-4.451351331280369028e-02 6.327930157926719978e-02 -8.146497640386211048e-01 8.619261258389170344e-01 -3.753994381139308389e-02 -5.056422709929945247e-01
-2.237819700784457813e-02 1.485410368380583324e-01 -8.450585937620841426e-01 8.306885994987494026e-01 -5.278186904022827974e-01 -1.770985057103134086e-01
-1.499594427136260837e-02 -1.051063793497884202e-01 -7.764932749527405642e-01 6.660618247061503849e-01 2.066052895258754796e-01 -7.167118667979780477e-01
-9.163963824035489814e-02 -3.523617277134980658e-02 -9.272901052427430235e-01 9.354369445806126615e-01 2.886783989826983143e-01 2.040159422066667450e-01
6.212416123927168993e-02 1.633686646368839590e-01 -7.667758414042544768e-01 -3.018905673740260864e-01 2.439812509381698302e-01 -9.215938555140406052e-01
4.149724784747329392e-02 1.366553786597256293e-01 -7.744764500100911331e-01 6.014542971847202102e-01 -3.746902510602509451e-01 7.055919104967405264e-01
1.594916857199429050e-01 2.717795984585588132e-01 -8.038096149718249039e-01 5.081607716945961695e-01 -1.837650130724565456e-01 8.414291711613237634e-01
9.751658211843860016e-03 -4.770964983838044821e-02 -7.443793194466183927e-01 6.012675977003814065e-01 6.928323925129971361e-02 -7.960383839454346910e-01
-3.151979489801409046e-02 1.162206699296587514e-01 -8.287914197081668322e-01 8.912130591117016776e-01 -2.685807929407743599e-01 -3.655183181894818834e-01
4.027189896571967132e-02 2.212841943588616800e-01 -8.380238523962580954e-01 6.441596217685933157e-01 -7.366795313475242857e-01 -2.058194591785115768e-01
-1.065172199869057583e-02 3.865281580637829062e-02 -7.795725818756008563e-01 4.189272135545869524e-01 3.698403281339168736e-02 -9.072663176048406664e-01
-4.882902127093863287e-02 -1.187710123355660147e-01 -8.363596028411734995e-01 8.909561868993767786e-02 4.195239319837056335e-01 -9.033613015970899385e-01
-3.183144110957442791e-02 -3.260706373315909457e-02 -8.058575341312660401e-01 1.062755139559448808e-01 -3.364559281780324373e-01 9.356831320095807536e-01
1.531921076485782129e-01 2.779305348042067081e-01 -7.872165246686633200e-01 6.605431293325959574e-01 -7.085216926440228713e-01 -2.483541530644298168e-01
-3.390755534773116225e-02 -1.684374708757495065e-01 -8.269184076630867741e-01 8.054730579023349213e-01 2.222215123361939992e-01 -5.493912562541166666e-01
-1.395985032031117797e-02 -2.273742992937140273e-01 -8.750233830315048422e-01 3.626560925755076825e-01 8.151841859809092483e-01 -4.516141067820039212e-01
4.418112384408744847e-02 1.121049376862020136e-01 -7.527376855858706195e-01 7.474092830082447181e-01 -3.440440780328530845e-01 -5.683423581289939186e-01
1.696347506952437523e-01 2.786722827421655446e-01 -7.853310526209338338e-01 -3.607654018018219277e-01 1.485582558905444994e-01 -9.207490263201637548e-01
-4.894461407259789731e-02 1.012097723589764631e-01 -8.587692631290559930e-01 9.496118446474250963e-01 -2.671250425964588615e-01 -1.639559578763593040e-01
1.336483619450853089e-01 2.535242157465345536e-01 -7.911268726352966851e-01 6.539965105275971080e-01 -4.288376660094814219e-01 6.232068841318001429e-01
-5.984239234715050398e-02 -1.769830674937549753e-01 -8.863655808990814622e-01 7.208365811251189470e-01 5.484818298373941303e-01 -4.237479270156655486e-01
5.087983660075103692e-02 3.517306261106324661e-02 -7.203040258973004706e-01 5.343726282684531093e-01 2.334498946066895786e-03 -8.452457892661379146e-01
-3.394267739948716740e-03 -1.126210526949108226e-01 -7.691989180636968904e-01 5.813379807723124681e-01 3.413278124150105897e-01 -7.386077961838434236e-01
-1.147220861535968792e-02 -8.778537113077988785e-02 -7.675043598671497103e-01 6.832804597045538664e-01 6.645478333542491345e-02 -7.271255566666429138e-01
1.577637271432433541e-01 2.795779242692266187e-01 -7.983509616669729470e-01 6.817106367360047381e-01 -4.814453515157723906e-01 5.508910793113692694e-01
4.263825954000587115e-02 1.109100963987926652e-01 -7.537322683658765898e-01 5.954506474337760702e-01 -5.502638789856143520e-01 -5.853615890664521926e-01
-8.091161587712299152e-02 3.849792172037608869e-03 -8.529344408484500484e-01 9.340237363729390063e-01 5.471708417023909282e-02 -3.529953265864028689e-01
8.363503134772551362e-02 1.385133233549982745e-01 -7.275454808133948736e-01 5.233992781213078205e-01 -2.641028404976762944e-01 -8.101252281611486250e-01
8.803194621174041321e-03 6.819149327049901788e-02 -7.760187666175725196e-01 -5.675943159974941032e-01 4.367091670569979156e-01 -6.979411120257352774e-01
-9.613469898421692431e-03 4.371111535268723536e-02 -7.827513790902513868e-01 9.063953273588508663e-01 -3.870366968760469151e-01 1.692634213683534838e-01
3.335068783101100953e-03 -1.056176692868572402e-02 -7.493426403006983039e-01 6.574416103162546987e-01 -1.779129846784341384e-01 -7.322004499504090047e-01
-9.807139665170815090e-02 -8.239173571853329603e-02 -9.007638497447573167e-01 9.924729779047398726e-01 3.038024856869042320e-02 -1.186356970974693087e-01
