3.753990070018267677e-02 8.855833205369144367e-02 -9.513979034839760152e-01 -8.233531413121013554e-01 -5.573754324389071924e-01 1.068748427135034068e-01
7.810917791784856290e-02 -9.563806279947529784e-03 -9.414625744030171717e-01 -9.877357212162211075e-01 -1.411316470251739730e-01 -6.678325569656830274e-02
-8.595120088106919520e-02 1.032040262069258418e-01 -7.649357958476727948e-01 -5.552279326946278903e-01 -7.323431184565526442e-02 -8.284676688466141581e-01
1.058089867488324655e-02 1.416317219383410320e-01 -9.141483945070557615e-01 -8.927482343261657904e-01 -4.366384648788106393e-01 -1.111190402036892899e-01
8.320819938511363201e-02 -5.492978679372481632e-02 -9.356036966941874145e-01 -9.685188530598892731e-01 -1.890050734215489026e-01 -1.620133126890233310e-01
-2.752330451237824244e-02 9.392667855305529556e-02 -8.247728415281013747e-01 4.415011729444209831e-01 4.499701736888861991e-01 -7.762754389255749343e-01
8.265531248185149782e-02 -1.490888648112814463e-01 -9.757228874911617611e-01 -9.817929913458804947e-01 1.510951328036886365e-01 -1.151207322211920264e-01
-1.122910782545509661e-01 1.243332946203433154e-01 -7.569067226201675602e-01 -3.981015938507994067e-01 -3.481304443375159985e-01 -8.487168636823571033e-01
-9.157944094001792268e-02 8.072393650395012776e-02 -7.566434176543587187e-01 -3.108977743021448248e-01 -2.767592671684513950e-01 -9.092562245980799762e-01
-1.019394518195894245e-01 1.973935982316630533e-01 -8.157600886302320831e-01 2.034456660744461687e-02 -4.632759663738166001e-02 -9.987191058547740807e-01
1.696148344140623043e-02 -1.608853328733003685e-01 -8.377486314460266259e-01 -6.729299078895021324e-01 4.787100801349585266e-01 -5.639166589532601526e-01
8.149319929642806493e-02 -1.403737679389762127e-01 -9.513127620288792663e-01 -9.201057687198013202e-01 2.999527614474548631e-01 -2.518605075604143373e-01
7.766530136447785670e-02 -1.167475078171453448e-02 -9.333834270354078866e-01 -9.844505705463215683e-01 -1.026639832591865198e-01 -1.425383481466638014e-01
2.671608696630074081e-02 -1.663853280652699829e-01 -8.504967237965467275e-01 -7.553682211291968818e-01 4.115285830299280079e-01 -5.099637985754400527e-01
-1.610438604037988108e-01 2.425068638892457773e-01 -8.223086777678578763e-01 1.965905094252660135e-01 9.687188494439585851e-02 -9.756884797471135906e-01
-2.632802463770512070e-03 1.229724917636187548e-01 -8.568320153595231359e-01 -7.787129143956633692e-01 -2.259818119779197221e-01 -5.852678169937146624e-01
-1.471774160783142216e-01 2.434744849070196449e-01 -8.280908772489309344e-01 -6.668120428354712415e-01 -7.294704789055533878e-01 1.524287372344474700e-01
-6.091605845974560035e-05 1.507252555970177710e-01 -9.396083137739396074e-01 -9.544260393616404992e-01 -2.613291143813621931e-01 1.441458614220505752e-01
2.806605555296353208e-02 -1.757528695701073562e-01 -8.587945947776448596e-01 -7.399071408848844067e-01 3.062202674164977156e-01 -5.989712603213315223e-01
-1.720364281213901669e-01 2.586833374354830517e-01 -8.402016417558729744e-01 -5.263720346605137435e-01 -4.107225715055998205e-01 7.444725988128633176e-01
-1.717699798208206785e-01 2.636174499242622815e-01 -8.353585896770859831e-01 -6.310192523071440629e-01 -6.267573649590908458e-01 4.571541410588661480e-01
-9.058190040500865500e-03 -1.721023300094551844e-01 -8.223347774473693805e-01 -4.813548761100596707e-01 3.745865033856535242e-01 -7.924534274809964529e-01
5.236984123552685527e-02 -2.045712933776356046e-01 -9.657381470503709764e-01 -7.137165026588465633e-01 6.987888437672035158e-01 4.798859925981462105e-02
-1.906039043886627662e-02 8.010346423029128526e-02 -8.269792380576415081e-01 3.276359523114026895e-01 3.474173237481369414e-01 -8.786102013479483164e-01
4.980558835471798201e-02 7.109273023466104735e-02 -9.499248370127237884e-01 -9.068916822958853485e-01 -4.197321278419672841e-01 3.704615283390672031e-02
4.755491802555569109e-02 7.395430925524192067e-02 -9.152441395847795702e-01 -8.584496492554209990e-01 -4.612000622340314826e-01 -2.244074470434751778e-01
-5.441403683505650901e-02 1.436333722555004078e-01 -8.188728479945742711e-01 -5.769125182788572559e-01 -3.656947623636228051e-01 -7.303692812769170262e-01
3.663800964086060680e-02 -1.829412038221668244e-02 -8.606967575930072334e-01 -6.740062409621072614e-01 3.223490812641085501e-01 -6.646853819306655087e-01
-1.763181065833952649e-02 8.074387111436462372e-02 -8.336862373759265088e-01 -2.637573476326232069e-01 -3.081590603717513366e-01 9.140405106342951447e-01
-8.571565457552606654e-03 -5.118693350444443457e-02 -7.891824892766894362e-01 -4.363457729606094460e-01 3.922399632399817954e-02 -8.989237145229749260e-01
-8.280323883164597901e-03 -6.156470467045786418e-03 -7.890320894615964198e-01 -6.484427750422117054e-01 -4.684348627393344205e-02 -7.598208047225734063e-01
5.089321916543291385e-02 1.868725502737282260e-02 -8.767356578588360039e-01 -7.855972953011339799e-01 -2.518633024374850038e-01 -5.651564088823787246e-01
2.351475928224923059e-02 -7.491015666472206069e-02 -8.191218528440373792e-01 -8.533826339427422747e-01 1.463920155826286817e-01 -5.003073633863512892e-01
-8.881039662684132863e-02 2.884431654599302342e-02 -7.534811286982913137e-01 -1.613492306993265235e-01 -7.503946051833421116e-02 -9.840403981127262556e-01
5.599440372156049006e-02 -1.825867386052864305e-01 -9.321938176450772495e-01 -8.835174618938557156e-01 3.056111665496171748e-01 -3.549629690669452442e-01
8.233259533366917016e-02 -2.384026471602974234e-02 -9.628838453107905204e-01 -9.406859154288198521e-01 -3.391108406452218449e-01 1.066987679094308882e-02
-4.800383951254793419e-02 8.586350101038672800e-02 -7.841052334187715855e-01 -7.120319169220887812e-01 -2.089492481025191084e-01 -6.703363044037279339e-01
-4.721119344108559712e-02 1.091812863548511647e-01 -7.962670011119785674e-01 -8.500675568719929798e-01 -2.671768243859239389e-01 -4.538740940665526580e-01
2.937741946141680938e-02 1.084553509468013238e-01 -9.503679884152284041e-01 -7.052692663412780671e-01 -6.887120398476064276e-01 1.681397874489681810e-01
-8.097492296264954814e-02 1.272229088694996069e-01 -7.780275179726910961e-01 -5.231933567680475683e-01 -4.130681485639039474e-01 -7.454149287985658567e-01
8.797911320639782706e-02 -1.038824246222884301e-01 -9.885548172687724788e-01 -9.844853520443962447e-01 1.404088488722204653e-01 1.052328217259178994e-01
-6.325377235910226159e-02 1.962538154775610999e-01 -8.455952540208536705e-01 -5.950552775962786312e-01 -5.109830413945726235e-01 -6.203269686318403364e-01
-1.068040589108189969e-01 1.953558743592118674e-01 -8.141129025160067645e-01 -8.368313114498847627e-01 -2.822038042483112630e-01 -4.691208469518776680e-01
5.841459364656816783e-02 -5.773265051564697992e-02 -8.835285310995923957e-01 -7.399071408848844067e-01 3.062202674164977156e-01 -5.989712603213315223e-01
7.590016721134244804e-02 -6.316232961362456405e-03 -9.728354519221880103e-01 -8.513775161949757031e-01 -5.134507199465159211e-01 1.073530768263219332e-01
7.922831807571441287e-02 -3.964909868887038502e-02 -9.936626150210470243e-01 -9.598695812388113868e-01 -8.429654136737818604e-02 2.674779993306488080e-01
-8.751949639421111038e-02 1.229279799674905423e-02 -7.514104374251764362e-01 -2.891873766188438055e-01 2.294953859346568203e-01 -9.293559754147028285e-01
1.920408253016875702e-04 1.422071337243669686e-01 -8.881510194464664609e-01 -8.700850072524513035e-01 -4.363175759261784248e-01 -2.293012278475743126e-01
1.879916021347415728e-02 5.390865478780793550e-03 -8.439465091570076405e-01 4.771000750790603262e-01 3.905746175585266822e-01 -7.872909160396591721e-01
-8.582156655524580957e-02 1.765056672221287370e-01 -8.162028934764813393e-01 3.070702871040421056e-01 2.967052671192765834e-01 -9.042531853643202000e-01
6.234338113568949069e-02 -1.885468741075309040e-01 -9.812024808368164930e-01 -7.858260190989910798e-01 6.168925616951624891e-01 4.382961364434008467e-02
2.459175654446676615e-02 7.487100043969310836e-02 -8.617716378957819279e-01 -7.926410436634417911e-01 -1.948035003079530147e-01 -5.777298435842646018e-01
2.782079813395449061e-02 6.118674702757773143e-02 -8.607459634591076991e-01 -7.451830810818865780e-01 -2.927390340271375235e-01 -5.991711221564043344e-01
-2.086022007994439362e-02 1.667775579057553803e-01 -8.686160119995800510e-01 -8.377656080942429417e-01 -3.564320010909409198e-01 -4.136484189414856849e-01
-1.038186016737781686e-01 9.913717348302537868e-02 -7.560502888676907673e-01 -4.749001887943949951e-01 -4.801131716751401435e-02 -8.787290390711396393e-01
8.213712475071510699e-02 -1.237664994748075009e-01 -9.433002663038698721e-01 -9.447122208321531156e-01 5.975829081076872162e-02 -3.224093151411054348e-01
-1.975851280892352430e-02 1.669118336936077085e-01 -8.706219521502469583e-01 -8.051156471441980322e-01 -4.648446871541577763e-01 -3.683859546021434062e-01
1.931529378444242148e-02 -7.119324200096589783e-02 -8.114809975315513402e-01 -7.626577269564920325e-01 1.081651352108105660e-02 -6.467118326958345431e-01
3.247048498211861645e-02 8.058056434021527992e-02 -8.777196352591298822e-01 -8.956140048131193687e-01 -2.639397490850153294e-01 -3.580661436600015013e-01
-2.720516841347434336e-02 3.935823799072210583e-02 -7.845736949582199360e-01 -6.372794920815021413e-01 -2.526172506288860697e-01 -7.280517657811462762e-01
-5.877290348154475680e-02 1.438300825003590577e-01 -8.262791097753292568e-01 -3.602467042544500453e-01 -2.902705054194584244e-01 8.865468660806032908e-01
-4.205705422799547316e-02 2.868992377786176717e-02 -7.711958722780902775e-01 -5.420386378785545523e-01 -1.531764924405901174e-01 -8.262754245470205205e-01
7.553554840438149454e-02 -2.022289622858514796e-02 -9.152978325464338205e-01 -9.291374270985378603e-01 -2.589950646368286424e-01 -2.638658713408650880e-01
4.213637769454435522e-02 -1.373223307311581265e-01 -8.619137372372056571e-01 -8.815005808191630488e-01 3.128314648110552820e-01 -3.536851716423062286e-01
1.536500448307195291e-03 1.449819098409482199e-01 -8.976108537784542873e-01 -9.110047869056503433e-01 -3.702637607484579596e-01 -1.815902687684532446e-01
-2.025715195616568653e-01 2.568715376111896931e-01 -8.431319014958995606e-01 7.061654307635675254e-01 -7.071676026999001996e-01 3.527557350605399489e-02
8.280402804828038144e-02 -1.477596481397261130e-01 -9.745124464905319250e-01 -9.546711011653520318e-01 2.855767265624797324e-01 -8.395845309194840955e-02
1.639005197717158940e-02 -3.296810557588372020e-02 -8.129904352547508983e-01 -7.926410436634416801e-01 -1.948035003079537641e-01 -5.777298435842643798e-01
5.143397161134653089e-02 6.619009742621428938e-02 -9.176784196862204368e-01 -8.663816175476203307e-01 -4.887403077486440761e-01 -1.025465960299484086e-01
3.340364981367141550e-02 -6.345779699463925672e-02 -8.354608298054870819e-01 -9.126846688976815170e-01 4.512602267246641069e-02 -4.061654062532814580e-01
8.218824325530736663e-02 -1.389518869628769693e-01 -9.523275236748346417e-01 -9.116942521084324680e-01 3.551586970164657409e-01 -2.065814381932998822e-01
8.878579658319847578e-02 -1.009974154576307043e-01 -9.552706181964027987e-01 -9.918228914615770941e-01 8.973745715509001686e-02 -9.074437038260174671e-02
4.269876772506634582e-02 -1.587909636879328290e-01 -8.742788647520902678e-01 -8.930416574407934460e-01 1.828675554678559634e-01 -4.111399460434500552e-01
-1.467024243523586402e-01 1.448939016630874932e-01 -7.607499278252787267e-01 -2.002432661501256372e-01 -1.194343000173478664e-01 -9.724392435216177022e-01
-8.980639127329968774e-02 2.109740024481672749e-01 -8.371935303987971810e-01 -3.482487587125938089e-01 -7.051715886079448214e-01 -6.176211076989555071e-01
-1.387382280857993033e-01 9.047014573188859321e-02 -7.460951073475040607e-01 -3.006694061639957893e-01 -1.108131668408046666e-02 -9.536640459918457324e-01
-1.365154760133868994e-01 1.106096919028874276e-01 -7.460092307806279743e-01 -3.293228196146934517e-01 2.414535608310003009e-02 -9.439086196558691411e-01
-4.464550001751561858e-02 1.074791360410248114e-01 -7.986839124228837239e-01 -6.952125313899968351e-01 -5.268486375886626272e-01 -4.889888028056289526e-01
5.599624324910861678e-02 -1.982673352691652069e-01 -9.446913940995583792e-01 -9.723840735311989336e-01 2.284032719197583716e-01 -4.797039627958719216e-02
8.709211836219050984e-02 -1.164686903192789780e-01 -1.002682796614567717e+00 -9.821114989125162564e-01 -8.571517144586394965e-02 1.676601117971009691e-01
1.822395127824091160e-02 -2.092964986781436776e-01 -8.905263319901084440e-01 -5.981039876340925598e-01 6.486940690927347486e-01 -4.706034686443645310e-01
-1.853463762656319680e-01 2.675551168445287620e-01 -8.254658447898985951e-01 6.510181568606661362e-02 -9.738499359734080485e-02 -9.931152584752805934e-01
4.423937625197840728e-02 7.479973478731374859e-02 -9.024896967322620922e-01 -9.235357759609489348e-01 -3.094362884432882432e-01 -2.265631345004080199e-01
3.824725099102663228e-02 3.308677883528216013e-02 -8.640222866975014737e-01 -6.994212217175216351e-01 -3.136491118615491458e-01 -6.422103932821631167e-01
-1.014367649580714542e-01 1.863991685201895621e-01 -8.230792421379112822e-01 6.531709289936876717e-01 7.550366592788784192e-01 5.733568402411921144e-02
-6.471489404225048980e-02 1.340345232588666391e-01 -8.011555056540796693e-01 -8.385060462069431342e-01 -3.789275208010608464e-01 -3.915629508188450125e-01
8.559667088421828163e-02 -5.143195449630409005e-02 -9.867738518327331398e-01 -9.929793103099648910e-01 2.319786454169139867e-02 1.159911564605319023e-01
6.973623947609754528e-03 9.093058045470787942e-02 -8.513982413569783914e-01 -5.628328609136750149e-01 -3.607915101403845193e-01 -7.436724123472301384e-01
-2.034349795503611474e-02 -2.089650787568806678e-01 -8.472363868535778275e-01 -3.134931343751641286e-01 3.745066173184711245e-01 -8.726206783501702091e-01
6.886325455272808427e-02 -1.722327258510205072e-01 -9.616873912505270461e-01 -9.375166506522368826e-01 3.335682199579659835e-01 -9.896854239547596410e-02
4.156136530906596321e-02 -1.400317904440791239e-01 -8.620861730582728422e-01 -8.758061627448735509e-01 1.843910897549385919e-01 -4.460532382093937431e-01
-6.518238888052926838e-02 2.213731523845798854e-01 -9.021103924044283628e-01 -8.131792648513563870e-01 -5.817771545699861324e-01 1.657786585353876810e-02
5.301755243909926640e-02 -1.575757282300676299e-01 -9.111123333598969420e-01 -3.599154624064745955e-01 4.246990658585913514e-01 -8.307174991412985543e-01
-1.419950361522396079e-02 1.683664175253975215e-01 -8.856708813365257171e-01 -8.357656566231516093e-01 -4.989210658141735033e-01 -2.292892001297080207e-01
-1.105714863401378728e-01 1.953625748301876242e-01 -8.198716247385990918e-01 5.415998613162992248e-01 6.339420851023331860e-01 -5.520751968330684933e-01
2.364549051126690199e-02 -1.113916519958404600e-01 -8.230056874994546856e-01 -7.399071408848844067e-01 3.062202674164977156e-01 -5.989712603213315223e-01
-1.887545322542569515e-01 2.718222191559380718e-01 -8.414346672015333706e-01 7.282315600799912358e-01 -6.827656854676573683e-01 5.924368026500384521e-02
-8.975319952859021899e-02 1.201828653300270611e-01 -7.687942230153353984e-01 -5.018086088228450592e-01 -3.381310082566021946e-01 -7.961504514642031571e-01
4.602868272059173343e-03 -5.937411803356865136e-02 -7.969444325025033526e-01 -6.472698053253481687e-01 -4.970105549525066779e-02 -7.606389447015867722e-01
-7.819760332829787941e-02 4.275933223912215669e-02 -7.569099936483341118e-01 -4.310954100721038351e-01 1.072451492439793624e-01 -8.959102775269414121e-01
-9.510444917469206352e-03 7.525052705587363666e-02 -8.276879769930519659e-01 -5.212348797501432651e-01 -1.233619903462121192e-01 -8.444501284680313580e-01
8.627015159242638898e-02 -6.018180056439353248e-02 -9.424445422444650555e-01 -9.782989987726111725e-01 -1.414473416979429576e-01 -1.514058074417612421e-01
-3.149273461848390437e-02 1.932171808788358813e-01 -9.584183661486994632e-01 -6.602895215357083014e-01 -7.265631920404815869e-01 1.900622943197612658e-01
3.835125682120978791e-02 2.349404618391387131e-02 -8.631363975151590262e-01 -6.156982391043966940e-01 -2.389777483295190685e-01 -7.508697051866576322e-01
7.049188786602393619e-02 -1.605038453959096723e-01 -9.441553678238712166e-01 -8.175604729007235338e-01 4.764610381205414691e-01 -3.233879285060605180e-01
-8.571707168788787745e-02 1.087930491101121444e-01 -7.674166283718495407e-01 -4.354141044018153828e-01 -3.024627168683737821e-01 -8.478979081189945699e-01
-1.229648428743587846e-01 1.415047416004892311e-01 -7.607886290882367453e-01 -3.437462332132132370e-01 -1.854957353360174588e-01 -9.205595360018152817e-01
-1.504584691759237522e-02 6.151869105853759873e-02 -8.101637742502154627e-01 -8.131414800594040093e-01 -4.344524928140517939e-01 -3.873654152017937946e-01
8.420839357366399769e-02 -1.387045861613100950e-01 -9.623924906437902882e-01 -9.717059582850464672e-01 2.134949928130337737e-01 -1.010317706323215076e-01
8.411952941210752710e-02 -3.302065192998610010e-02 -9.629954281281317696e-01 -9.548005627113466121e-01 -2.950096720283547636e-01 -3.640300613710825001e-02
-6.829684736079208451e-02 1.424357495253109618e-01 -8.039418314966509937e-01 -7.444916432212050905e-01 -4.691140443159406148e-01 -4.750412683118504509e-01
6.387065911790668071e-02 2.597817511874466953e-02 -9.686947810182654495e-01 -9.743333769994416693e-01 4.270635434146208276e-02 2.210218038197262203e-01
-1.040119144219956160e-01 1.862373279656386327e-01 -8.043035158672023899e-01 -5.721143226944535032e-01 -6.080846614337725997e-01 -5.503800925695268020e-01
-5.928160560970138770e-02 1.277841630077793111e-01 -8.061510207069910727e-01 -8.283265512335760139e-01 -4.058500105048226114e-01 -3.862135335468258046e-01
4.794438244110287711e-02 -1.935175745805763070e-01 -1.013801577866261239e+00 -8.511588911024221549e-01 2.145406543941754396e-01 4.790624695271105682e-01
4.300896652099477774e-02 8.440445581077099524e-02 -9.468712876566354186e-01 -7.584957449640883365e-01 -6.389061643656892553e-01 1.283865959004121260e-01
7.633384858899044945e-02 -1.390081387564249538e-01 -9.358191794870720503e-01 -8.827002143145168400e-01 1.389795286415730358e-01 -4.489153843071898020e-01
-9.519243299795487195e-03 1.587163590641674782e-01 -8.885625714459356450e-01 -8.548375578729312529e-01 -4.655106407407934577e-01 -2.292435233696661634e-01
-2.837353497045092075e-03 -2.269749686368087091e-02 -7.938284282149684623e-01 -6.851703391780984420e-01 -1.693364389863426522e-01 -7.084255618919986786e-01
-1.646428959573681405e-01 2.474976254436093148e-01 -8.405618327268979950e-01 -3.959802023837598051e-01 -2.231714221790740416e-01 8.907267794574754705e-01
3.909736156517428819e-03 -1.101817501292813722e-01 -8.108639595323153815e-01 -6.646885494598974153e-01 3.587537277756585041e-01 -6.553509708728338934e-01
8.390729691147541525e-02 -3.291715026474770212e-02 -9.540111693250346026e-01 -9.995955454924724259e-01 5.467766004653666981e-03 -2.790786567483423408e-02
1.745974985321278525e-02 2.109664317187738992e-03 -8.355662187753318815e-01 -9.852479154088413793e-01 -4.347545757195513810e-02 -1.655186689513955534e-01
-1.313336302350662510e-01 1.765618450226071057e-01 -7.784514137949648527e-01 -2.246086366781642474e-01 -5.120999211056052047e-01 -8.290383773584967253e-01
-3.936717043988189474e-02 3.606341407329147902e-02 -7.728068806773142896e-01 -5.277751077653174416e-01 -1.750735721810649792e-01 -8.311454024098726689e-01
-1.169431798883130008e-01 2.091235597932366852e-01 -8.291610983823507475e-01 -4.565375455046173370e-01 -3.070940934506682374e-01 8.350249620893567259e-01
3.743777453318884035e-02 9.084857875133253713e-02 -9.446504670510454948e-01 -9.695598656324505571e-01 -2.380732156367612040e-01 5.722596396004573510e-02
1.515452215786886395e-02 1.294618802464182761e-01 -9.049650551203608506e-01 -8.231039177962169440e-01 -5.431536531711356197e-01 -1.657831401420791495e-01
-7.110996797154219007e-02 1.617642830937177645e-01 -8.245587866854470205e-01 -4.848710268421317915e-01 -3.807979963883277308e-01 7.873328224300645273e-01
-1.778574476232972212e-01 2.410070011612400753e-01 -8.353140065341302378e-01 5.755314601993737345e-01 8.039728363349205598e-01 -1.496369498364615025e-01
6.119147169756968679e-02 -5.713466276415994638e-02 -8.867628962642772894e-01 -7.255386441574368517e-01 1.256544498554234002e-01 -6.766126181691552999e-01
-9.313133538257775679e-02 -4.210847106593152908e-03 -7.514371457306444624e-01 -1.312370627241647159e-01 7.216580974723353636e-02 -9.887208550804720275e-01
-1.010761991424854039e-01 2.254522477586888562e-02 -7.510665783468957191e-01 -2.669996773788174127e-01 2.595737058003853570e-01 -9.280800954317802720e-01
-7.109792936508110839e-02 1.134447753674904524e-01 -7.802689301727800952e-01 -6.359731831907075028e-01 -3.752686818974405591e-01 -6.743230135841699058e-01
8.759775530595090287e-02 -7.493591903740774718e-02 -9.815254242454148903e-01 -9.525324111251316506e-01 -2.852781234755454309e-01 1.062939227915427054e-01
-3.966889394519522438e-03 1.342738189835125662e-01 -8.626081844622605077e-01 -7.802334927490937044e-01 -3.046865938391736250e-01 -5.462616372465050052e-01
-4.258866142377169123e-02 -1.397904392127839561e-02 -7.678342621135019197e-01 -4.850082673259524246e-01 1.476538446248416570e-01 -8.619543623608967309e-01
-1.957649312972243871e-01 2.643957912651764275e-01 -8.406626870083505620e-01 7.618792216150278573e-01 -6.476089773457162080e-01 1.194420916237808397e-02
8.062148409654951164e-02 -2.840221584432530560e-02 -9.304886861405146092e-01 -9.927659563167209322e-01 -9.891186642000813350e-03 -1.196575129499174578e-01
-1.724529695154243814e-01 2.462819860637522895e-01 -8.253150979780597973e-01 3.771979056733856805e-01 3.448381808758272382e-01 -8.595396261754670864e-01
6.124158287528047584e-03 -4.995621264407015816e-03 -8.059234391035101641e-01 -7.584825937586668898e-01 -1.887995679944707572e-01 -6.237458441466574577e-01
-3.677496895272225341e-02 1.528972762165588806e-01 -8.396286952695886097e-01 -5.149136896770998284e-01 -5.170023963938382705e-01 -6.837926690935960394e-01
-1.318919407918440340e-02 1.762127085894903689e-01 -9.209752776830515408e-01 -7.612856851664092650e-01 -6.465428406711408726e-01 4.925911831937883345e-02
-1.408220904752275834e-02 8.024829805739715216e-03 -7.864088286668431405e-01 -7.685368203547014998e-01 2.644405824966821264e-02 -6.392588423654171903e-01
2.062724212498322912e-02 -9.673424761765206381e-02 -8.231214896794568636e-01 -7.399071408848844067e-01 3.062202674164977156e-01 -5.989712603213315223e-01
-1.030297165249855450e-02 2.434406456767219257e-02 -7.936083779878885247e-01 -6.740175928444270825e-01 -3.245264131320829692e-01 -6.636135107996435911e-01
-1.660365975199260338e-02 5.415209717704681097e-02 -8.028673149921468077e-01 -8.850683791919646826e-01 -1.105388390850486624e-01 -4.521450311661494026e-01
-1.284130558868574468e-01 2.257201752895219848e-01 -8.205810897045022756e-01 -4.963766418638054789e-01 -6.480149078273812480e-01 -5.776563932351842512e-01
-5.011799338621471950e-02 1.876318878827194780e-01 -8.492902847050757265e-01 -5.496964850549085346e-01 -6.426077505788785338e-01 -5.337499913013887820e-01
-1.919207701162511381e-01 2.680905145396865752e-01 -8.456802945556265438e-01 7.372789497303482431e-01 -6.726753322191467710e-01 6.267094788157216712e-02
-1.465744427747504020e-01 2.239554138214150947e-01 -8.232662715944124576e-01 4.728170092850234596e-01 4.881781697615545923e-01 -7.335708215973592017e-01
1.541855402681141865e-02 1.298046584563597727e-01 -9.475960990991409982e-01 -9.200023667636316738e-01 -3.766871202050198764e-01 1.081779026463573906e-01
2.181931920569182143e-02 8.996130799246335533e-03 -8.476255817723199470e-01 -4.726953963249148627e-01 -4.009300827372992981e-01 7.847382563947636891e-01
3.943669360745259700e-02 8.837248267633261711e-02 -9.285529756034979210e-01 -8.257868148783326090e-01 -5.610487992200846596e-01 -5.744894487107067571e-02
-1.416737914700869419e-02 1.749331767636023716e-01 -9.442441372493733942e-01 -9.706111752735860909e-01 -2.299646242980587507e-01 7.092402981698409103e-02
-5.923214865995850113e-03 -6.127219512116684891e-02 -7.885537733763001711e-01 -6.283248037083051241e-01 2.607064651106272835e-01 -7.329666295913073171e-01
-9.540203006830977328e-02 6.515584975589179539e-02 -7.502836739016124357e-01 -3.904437803876798507e-01 1.014442576022865083e-01 -9.150206101264048986e-01
3.392565160807277380e-02 6.599714530743605589e-02 -8.713016473661899797e-01 -8.626896776184038718e-01 -2.353409051659512419e-01 -4.476395631379391782e-01
-3.880743774075632452e-02 5.252693139283610285e-02 -7.768452613036137544e-01 -6.769200236689779659e-01 -9.880718256169050695e-02 -7.293945586787790036e-01
5.395600609250068153e-02 -1.675350915896709481e-01 -9.229310850075133077e-01 -5.293272684994487776e-01 4.534987333799762044e-01 -7.170436120945989922e-01
-4.463526616038059752e-02 1.509580244282749673e-01 -8.331506448909465901e-01 -5.729382949135549685e-01 -1.416183624663852891e-01 -8.072706792853854285e-01
2.036751092335943852e-03 -8.403043676436131038e-02 -7.973040122416092945e-01 -6.044135126302071503e-01 1.902088034441450359e-01 -7.736309952699417236e-01
8.362050951575231150e-03 -5.354530465648751208e-02 -8.000115067299619076e-01 -7.640213334532865996e-01 9.304788297300717326e-02 -6.384461555233168495e-01
-1.057545876581555550e-01 9.562056562999007858e-02 -7.549364298120073702e-01 -3.829998862434269569e-01 -4.755485136928729734e-02 -9.225235082363847372e-01
2.489223366397249476e-02 -2.554534516087024910e-03 -8.454095396510110660e-01 -2.105642620435221012e-03 2.755655137763873275e-01 -9.612799872494540709e-01
-1.075504891091071807e-02 4.778585678088438649e-02 -8.059431995045828190e-01 -8.763851379823596188e-01 -1.361238799420783352e-01 -4.619733533799921799e-01
-9.500047871537163624e-02 1.248281239036074103e-01 -7.678574418154954229e-01 -4.137065164495491998e-01 -3.293837729636797662e-01 -8.487362654885143298e-01
-5.847673253441144914e-02 1.717949400580937036e-01 -8.353593634217002517e-01 -4.836383629382325355e-01 -3.747093364501740687e-01 -7.910036959910471399e-01
-1.324189681401297392e-01 9.584293390142133162e-02 -7.476372278288805351e-01 -3.293546152391966797e-01 2.385233368629086081e-02 -9.439049759368570713e-01
4.088356022509763432e-02 3.369648239031358683e-02 -8.672376258293308382e-01 -7.609694783429120646e-01 -3.081983205512384694e-01 -5.709108934325148876e-01
5.498945460133546764e-02 5.635747027349096577e-02 -9.232765623231700136e-01 -8.690635634067829240e-01 -4.841519078978319124e-01 -1.016142354082023025e-01
-1.785491533985852225e-02 -2.330333343621232289e-01 -9.129526680564294949e-01 -2.754693692723785281e-01 9.531508947070066462e-01 -1.249799924464337492e-01
-3.869033250425177317e-02 1.984742022203632161e-01 -8.793151279007601628e-01 -7.896374177445193432e-01 -5.047536064624097429e-01 -3.488503192788537377e-01
-2.954391057830396683e-02 1.815192900474777438e-01 -8.730313394181576925e-01 -8.113085327818436721e-01 -4.708545879018806724e-01 -3.465175633169581548e-01
-6.768216606859853157e-02 1.597418642222071250e-01 -8.170858532239864136e-01 -3.297176302980798224e-01 -2.222985394091203937e-01 -9.175345462963182541e-01
-2.412906068965854287e-02 1.878833450586066545e-01 -9.236026472457632419e-01 -7.405360370285554161e-01 -6.720129879183250887e-01 -2.218542568187997083e-03
2.985202844853979132e-02 -4.472728551924207846e-02 -8.309168431861744253e-01 -9.085946275655720772e-01 -1.349262856881572881e-01 -3.952855931973448533e-01
3.110732317761981044e-02 -2.258827589131275765e-02 -8.580352980236402027e-01 -1.702302805854585543e-01 -3.792405097132867109e-01 9.095044185512254353e-01
6.975883896632456213e-03 1.036463776396944481e-01 -8.593125801786113405e-01 -7.467928810996977695e-01 -3.727973130013021441e-01 -5.507472706766887161e-01
-6.525260369692816032e-02 -5.284233966206044325e-02 -7.639350449556550071e-01 -2.720603505721579940e-01 2.573094422457762875e-01 -9.272405386833137975e-01
2.616311435088173459e-02 -6.135863716960985453e-03 -8.464495783918578597e-01 2.129210881635208163e-01 3.366394459168244868e-01 -9.172450564969406583e-01
7.192116369386500341e-02 -5.143756320228795283e-04 -9.301653775639479038e-01 -9.126624362254968093e-01 -3.579963462123013085e-01 -1.971950648509815385e-01
-1.265873407138672600e-02 4.496415341584113906e-02 -8.017585317811041223e-01 -8.144775053968137390e-01 -1.402195166921204883e-01 -5.629963413213368018e-01
6.237990788671438774e-02 2.191968038765213997e-02 -9.054767044793574637e-01 -9.527150759610826247e-01 -1.320717583544162022e-01 -2.736622638977488919e-01
6.597312313467884604e-02 9.084189503190032502e-03 -9.968679122184268548e-01 -5.095825762693590999e-01 -8.556818218913632146e-01 9.018989770123873873e-02
4.018821988601760375e-02 8.599092237800412541e-02 -9.062412468237518448e-01 -9.344360366684610897e-01 -3.036554051486949901e-01 -1.860717289093648530e-01
-9.288960810511114052e-02 1.890735031235760144e-01 -8.155261085999233606e-01 -2.067033402346106774e-01 -1.359439254634472183e-01 -9.689132975996580521e-01
-7.994926437439447975e-02 1.443463282443701867e-01 -7.907494426796669584e-01 -7.115105357464182045e-01 -3.250907234550622360e-01 -6.229516667008035968e-01
7.003978840654338789e-02 8.519435318751256841e-03 -9.837616570518882275e-01 -9.756801038685664063e-01 6.712652591215730047e-02 2.086680723876752075e-01
1.861677782154426419e-02 3.677121736360496659e-03 -8.451965547931317158e-01 6.522816981721506480e-01 4.258140214678810542e-01 -6.270653916068132938e-01
-2.334490018946579204e-02 1.781167063539213988e-02 -7.797448674978881833e-01 -7.372035661279744412e-01 -4.126698142967208383e-02 -6.744093255077958649e-01
1.717219457896231039e-02 2.398671168717836019e-02 -8.398559871509929664e-01 -8.627224900690977361e-01 -2.835618539022234930e-01 -4.186915095156691358e-01
-3.605214688532574346e-02 3.259917352665035739e-02 -7.758554971549738166e-01 -5.866294173563000314e-01 -1.796439613163983984e-01 -7.896796653420676826e-01
4.709203685017145091e-02 -1.289267412652389810e-01 -8.733683441695511140e-01 -9.644340326149835052e-01 1.660607857820960986e-01 -2.056473003942269340e-01
-4.333731178851586013e-02 1.229424753021876454e-01 -8.198679520292845302e-01 3.462030891937335070e-02 1.499386608014842137e-01 -9.880889799038264920e-01
-3.429725091531454079e-03 1.087080372289257746e-01 -8.484392927449545541e-01 -6.919014786149946250e-01 -2.337726846098744926e-01 -6.830978523027839699e-01
5.276065832067093966e-03 1.155295362772827267e-01 -8.626310810331544454e-01 -8.149679502111654150e-01 -3.434453554326759583e-01 -4.667681736797554271e-01
2.709875867861883530e-02 -1.248105355653430643e-01 -8.328159698060215721e-01 -6.979302871408062936e-01 1.470720339594277504e-01 -7.009016558109908424e-01
4.298962589271509288e-02 -7.545560074754982527e-02 -8.772496867716512714e-01 3.133022458264720367e-01 -3.355064181713596771e-01 8.884127115963129651e-01
6.494005046626093181e-02 3.087086192411520394e-02 -9.206933932533556408e-01 -8.756476961287836813e-01 -4.342936727215274684e-01 -2.112584154498937106e-01
2.863694621559390724e-02 1.066240847614696174e-01 -9.054355888720923007e-01 -8.450806588585763057e-01 -5.086570392490190606e-01 -1.646411140802205852e-01
-7.469234081250258894e-02 8.450281633042140694e-02 -7.618009217162021729e-01 -5.500028845328278626e-01 -8.152629137407690907e-02 -8.311740436396927167e-01
8.432213363955097518e-02 -3.433734544181565179e-02 -9.577005317252170746e-01 -9.607865769196427541e-01 -2.755872607651405071e-01 -3.067271287319848008e-02
-1.866289775792605299e-01 2.649340137473114032e-01 -8.463597795660150469e-01 -4.340844193978890542e-01 -2.514923204548540903e-01 8.650562580481285790e-01
4.146448419941227426e-02 -6.230917659697290598e-03 -8.628038540731918227e-01 -6.413402731542205970e-01 1.168632747987441434e-01 -7.583044435012777917e-01
-3.525764940511974532e-03 -1.666748155141137278e-01 -8.228081480226472344e-01 -5.549033172021400340e-01 5.564898109183583630e-01 -6.183861244417687697e-01
-9.615046203363034061e-02 6.173499347713002489e-02 -7.501722273851013645e-01 -2.370298921901066169e-01 -8.626707104240725899e-02 -9.676646230291312545e-01
-2.798676257136827744e-02 -1.023212102710961413e-01 -7.845315345514096705e-01 -4.318139403988866531e-01 1.599302704776341955e-01 -8.876705635888448853e-01
-3.776621660145944304e-02 7.520373973651199584e-02 -7.901278974608116901e-01 -6.560751703585084860e-01 -3.674568623360457420e-01 -6.591971064569398520e-01
-5.320485551848656847e-02 1.175359162881953363e-02 -7.637444183792128083e-01 -2.894293519455001240e-01 -1.230936278756477875e-01 -9.492516046912004013e-01
-3.691576190851310335e-02 7.595976964329247128e-02 -7.914812300079890894e-01 -6.133438886353178576e-01 -4.852143512304326611e-01 -6.231984496400301277e-01
6.934907994425926203e-02 -1.427937323394248836e-01 -9.256537321919448003e-01 -8.117089503900921654e-01 1.638064373404880536e-01 -5.606211117523418608e-01
-1.997287752718911180e-02 5.441998840845033159e-02 -7.970873286167700078e-01 -6.918390968262840834e-01 -3.773335826018529016e-01 -6.156119163429522034e-01
6.487847957674781896e-02 -1.705231025619817486e-01 -9.421210784215278133e-01 -9.511017895839011249e-01 1.762553700792216238e-01 -2.536521838434218079e-01
4.150539946838444766e-02 -1.171764080108592537e-01 -8.550479048995061060e-01 -9.003607709293144357e-01 3.195935195143709967e-02 -4.339689873647819551e-01
5.767299224615213618e-03 9.264490608682202089e-02 -8.506948717317475150e-01 -6.945554005596967784e-01 -1.407184598612133686e-01 -7.055431316423166344e-01
-2.346710285500036054e-04 5.781978486453830113e-02 -8.307979376604196498e-01 -6.313060899130531478e-01 -2.031030498034688270e-01 -7.484662798010487395e-01
4.302630273022539642e-02 -1.824407743940038296e-01 -9.003173018418996199e-01 -8.717071572890038311e-01 2.554545535566085657e-01 -4.181741299964855108e-01
4.735817637651905149e-04 8.713091427129024402e-02 -8.443767770559371666e-01 -5.865662823058410691e-01 -1.922195931749408060e-01 -7.867602077263216032e-01
3.113571730765250442e-02 -1.202882048744831900e-01 -8.363448651021647695e-01 -7.483675280817743136e-01 9.137043700777471023e-02 -6.569607949899164412e-01
9.252485426097785057e-03 -1.202417833189024961e-02 -8.096930893898049986e-01 -8.272672365807428596e-01 -2.547918685210013856e-01 -5.007095195975788116e-01
-1.652419636185336604e-01 2.533014320034890354e-01 -8.384394028259969378e-01 -5.573080636442826474e-01 -4.724697425989246025e-01 6.827738018740657777e-01
-7.874924295564314503e-02 1.898827818211488647e-02 -7.533950662985536839e-01 -3.574098747163528822e-01 1.455803643653235668e-01 -9.225315923948081975e-01
7.479336064642681803e-02 -1.599153463933015995e-01 -9.580243264034093986e-01 -9.052490315918263475e-01 3.914592233056409243e-01 -1.651782894057350626e-01
8.758319924209725937e-02 -5.611539966146820296e-02 -9.591801800024204461e-01 -9.794246483604343023e-01 -1.861093855871962244e-01 -7.804264718982584226e-02
-1.637179118832904068e-01 2.388055082604813306e-01 -8.245156972316722843e-01 4.176934863111147478e-01 4.042992178308084661e-01 -8.136794786368052312e-01
8.680016200212015143e-02 -1.045450378428257471e-01 -9.975823857842309739e-01 -9.693698338986647123e-01 -2.429189342938040674e-01 3.622866943233778170e-02
1.505516626197057678e-03 1.220114571584341306e-01 -8.622036968362971621e-01 -7.175796862269391285e-01 -5.015977798765083318e-01 -4.831967106028407510e-01
5.994736335051373960e-02 4.106649184774378847e-02 -9.167947772833165976e-01 -9.126982943648361823e-01 -3.581291255908028992e-01 -1.967875831120588781e-01
-1.795912485760809418e-01 2.667112924827433895e-01 -8.408693887920898336e-01 -5.760290512467370894e-01 -5.271129680364393666e-01 6.247739199483278716e-01
-1.571705026509854219e-01 2.426416309061941723e-01 -8.215610318055601713e-01 1.422542894783207779e-01 1.773748186819392933e-02 -9.896712074532599823e-01
-3.428812182206393555e-02 -9.407506304219280524e-02 -7.806133928810665701e-01 -3.487226504424564832e-01 3.834558889489078637e-01 -8.551924311514871313e-01
-2.176998460302710658e-02 9.286792479402751488e-02 -8.305314160753440866e-01 -4.727281528759398332e-01 -4.009461043908593703e-01 7.847103381836485481e-01
7.573540847262788533e-02 -1.578603279376147583e-01 -9.936113897752714141e-01 -9.132952394675786234e-01 3.756487242281125738e-01 1.574161413313430458e-01
9.031752488949361390e-02 -1.000958773437749388e-01 -9.709276739497308961e-01 -9.830100142325726154e-01 -9.357757782713907457e-02 -1.579067726428565743e-01
-1.284301602018583788e-02 7.826713806149392105e-02 -8.263817007332706632e-01 -2.932281040452830445e-01 -4.392361629304598891e-02 -9.550329810691093879e-01
5.966475180266303524e-02 -1.950814907254538599e-01 -9.717919751877382994e-01 -7.318551513777648010e-01 6.754309181784087235e-01 -9.044950066473951555e-02
-1.369436087239688828e-02 -9.590168192964612648e-02 -7.896514550168174384e-01 -5.009059903507943057e-01 1.188201000986306016e-01 -8.573068135989827532e-01
-1.924795081828067356e-01 2.677464966619393927e-01 -8.427080531582264999e-01 7.156402369681794662e-01 -6.966770334134959608e-01 5.000162343662873515e-02
7.437145560892588492e-02 -3.591871480312001236e-02 -9.074723594491486134e-01 -9.448747973631917985e-01 5.854868069923364199e-02 -3.221547288124859687e-01
-1.153234110260229926e-03 -1.190806607402138118e-01 -8.104029773227756639e-01 -5.378042477860609516e-01 2.256010006257691547e-01 -8.123243068996032212e-01
-1.285881159387846154e-02 -8.572160614309074639e-03 -7.847604705434561012e-01 -6.426039165735837333e-01 2.674231833713022061e-02 -7.657317120338206218e-01
2.062091396874000601e-02 -7.657457563864378258e-02 -8.154748483147973293e-01 -8.024899231381303899e-01 1.928732836946654428e-01 -5.646324642620138556e-01
-2.570604069965209959e-02 1.892979800040296701e-01 -9.140096420921093312e-01 -7.710103500667593313e-01 -6.273343375755298101e-01 -1.095201761713518046e-01
8.510859291355606093e-02 -8.098366206881053853e-02 -9.399632049037508486e-01 -9.735213391326995591e-01 1.355580467018297486e-01 -1.840657986364101495e-01
3.284222746918489394e-02 9.629026488744911461e-02 -8.968695148438755593e-01 -8.055434477744236599e-01 -5.140208673338222400e-01 -2.947580392340126698e-01
-1.022422448375516074e-01 2.009799868026362624e-01 -8.231949442775504666e-01 -6.245010566982840405e-01 -5.427891257070888154e-01 5.615856080749047630e-01
-1.843957871238157964e-01 2.580670238312621767e-01 -8.258709779849316979e-01 3.422184129993552926e-01 2.944078300026428119e-01 -8.923063304926944772e-01
1.942947199759463908e-02 -1.814449156471871494e-01 -8.520451298731150924e-01 -6.538501368527029900e-01 3.607256288365289221e-01 -6.650992551778961426e-01
1.239019459815812567e-02 -3.160893592407872099e-02 -8.078897198384182854e-01 -7.913973712738635591e-01 1.388573556931714803e-01 -5.953224634689323613e-01
-2.302137447460622915e-03 6.202618178605384669e-02 -8.300899460846599132e-01 -6.467106909760993450e-01 -1.649434081700880406e-01 -7.446871519493615255e-01
6.561800904695963554e-02 3.381736193070826457e-02 -9.346639888689979303e-01 -8.898871147882363442e-01 -4.459375014734632270e-01 -9.612839181778366771e-02
2.742024579285235950e-02 -9.138896014059723349e-02 -8.310892644774098281e-01 -8.201305978542271502e-01 2.978201487876561138e-01 -4.885580430607670555e-01
-1.833475407283645039e-02 -1.246524074604110910e-01 -8.017925757896944283e-01 -5.031474048316102454e-01 4.412615524012973856e-01 -7.430551334750420400e-01
-4.925472721248911473e-02 9.446774612899418166e-02 -7.898049177904010731e-01 -6.519153426333580414e-01 -5.159478097437520949e-01 -5.557015778813809703e-01
-5.145798978192141215e-02 3.854409661134570314e-02 -7.657797351860698987e-01 -4.481943021613492006e-01 -1.390751650340796841e-01 -8.830515081131137256e-01
3.727904012569004805e-02 -1.439452622027608264e-01 -8.554515650810751159e-01 -8.282535398695887174e-01 3.547979120856431523e-01 -4.337217025618662070e-01
8.800474005872161234e-03 7.511914878806361107e-02 -8.467730630822756233e-01 -6.946365324984244971e-01 -1.410048449463910947e-01 -7.054060684600106379e-01
-3.048997970543058586e-02 1.882228450033862077e-01 -8.870479456465888424e-01 -7.343552226014896656e-01 -6.172143358691312143e-01 -2.824338340842749706e-01
-1.020770489334440756e-01 5.876541211244391827e-02 -7.481179257238805835e-01 -4.028344473077046239e-01 1.173341577562837940e-01 -9.077208290470807350e-01
2.725703034053850171e-02 -2.167459866112561306e-01 -9.164259950869142468e-01 -5.394796422796817037e-01 7.558671847690215939e-01 -3.709804773234576247e-01
-1.361997853300274744e-02 1.144470173002394148e-01 -8.417198452773659856e-01 -6.509487778566649396e-01 -2.243420927857883995e-01 -7.252146675374173679e-01
-1.214037622386368448e-01 9.256555777345328029e-02 -7.497736458322130648e-01 -3.197350178976376966e-01 -9.897013243286495454e-02 -9.423239523731836709e-01
6.120021732164986419e-03 1.341828957652682064e-01 -8.805165797930485372e-01 -7.469215609893881114e-01 -5.643202318258376815e-01 -3.516402389960636699e-01
3.277006054904010174e-02 5.449854634960381305e-02 -8.633752529279435928e-01 -7.987633774618478899e-01 -2.622363245604732440e-01 -5.414879286805529546e-01
-2.972923225221660651e-02 -1.237250485227176788e-01 -7.907599342098836637e-01 -2.441173075402905124e-01 2.160190158391517568e-01 -9.453795666054789493e-01
-2.133930331360302940e-02 -1.692865887157987415e-01 -8.134610331661170646e-01 -3.608282004899069362e-01 4.248463450772496097e-01 -8.302461037582277159e-01
4.964256117363909787e-02 -2.148696589984511185e-01 -9.630999659106243005e-01 -8.713694611230793363e-01 4.104519296569496545e-01 2.687833247486920429e-01
3.330019116819450675e-02 -3.924967456655322623e-02 -8.423922542545010383e-01 -7.899047131796907983e-01 -4.209531662468095070e-01 -4.459248545700230659e-01
-2.040908584306283871e-02 1.855135072260575557e-01 -9.169565213564074835e-01 -8.261465524060181975e-01 -5.586083499233923666e-01 -7.374676496982589258e-02
8.941801394870818598e-02 -8.959351789833311375e-02 -9.935039789038875302e-01 -9.685821830130122434e-01 2.234895222720906793e-01 1.090916503878283927e-01
3.807878684010974901e-02 -4.180497980783569323e-02 -8.640627990996379015e-01 -4.784166575292403412e-01 -3.795368432000154058e-01 7.918770652394955256e-01
-4.878837556341847174e-03 -1.697700621156181255e-01 -8.236982934388418220e-01 -5.078385004915825229e-01 3.646733345835309614e-01 -7.804571842594497655e-01
6.427164888716238589e-02 -1.823636863074288850e-01 -9.529749031952051697e-01 -8.876305087758878942e-01 4.157798094612943918e-01 -1.980889445036955188e-01
7.053452753264263797e-02 -1.072747024844528246e-01 -9.111402247160602652e-01 -7.922679041607217920e-01 7.876328116484099251e-02 -6.050685197371661328e-01
4.869390906899610100e-02 -1.282771293047187122e-01 -8.969818131993514410e-01 6.718650574744443604e-01 3.809732714192493042e-01 -6.351824234099813227e-01
-6.522208376990416574e-04 -1.863024791718904394e-01 -8.368796156315589929e-01 -4.524701436376546426e-01 3.874898277589901574e-01 -8.031951210632620741e-01
-1.882989566436563678e-01 2.565541662397859413e-01 -8.280960758302620128e-01 3.989044993918022808e-01 3.953844341471313140e-01 -8.273731622424843613e-01
-4.727976592177886989e-02 1.767016101786459958e-01 -8.469083231438757631e-01 -5.679234592023039152e-01 -5.398935693710783523e-01 -6.212711793085572420e-01
8.275297133499502633e-02 -5.381426031886276523e-02 -9.341707748451371085e-01 -9.706001624041048492e-01 -6.951609835945078697e-02 -2.304405277072687774e-01
4.316009196737161102e-02 8.278595177818823259e-02 -9.155652624059376077e-01 -8.215917578318480130e-01 -5.588722700497142926e-01 -1.124667472289158227e-01
-1.219242540915727452e-01 4.097640432004750338e-02 -7.450301180801296441e-01 -2.667628049522244305e-01 2.231646565843573016e-01 -9.375687398509013892e-01
-3.479166152561430359e-02 4.331905099589873284e-03 -7.707547466777868728e-01 -4.653883339128512819e-01 -1.095546917224096001e-01 -8.783003291468289842e-01
6.029986545877299292e-02 -1.755784525054627787e-01 -9.348076369837616806e-01 -8.812794329047956010e-01 2.151276914465458379e-01 -4.207928677055748912e-01
-1.988276947282631435e-02 1.828855732493276653e-01 -9.435081830898179867e-01 -9.347997676148199764e-01 -3.445315076566560775e-01 8.629852083964076326e-02
5.098997411066469310e-02 -1.244599962797195009e-01 -8.938090192118306465e-01 -3.580539555964307868e-02 4.251285276477467234e-01 -9.044245179277685676e-01
2.450053748473673965e-02 -1.362983268125255165e-01 -8.327942198095269477e-01 -8.321984406721119054e-01 3.246590048444564225e-01 -4.494911410876885061e-01
-5.074526221190509001e-02 -8.084640417324342326e-03 -7.644160228056795514e-01 -5.141423426039375411e-01 2.110785357838375620e-01 -8.313263518457034706e-01
-1.183971611908492816e-01 2.178434468454698014e-01 -8.232533950907211517e-01 -6.716710167038836277e-01 -7.239690663074634935e-01 1.572476910796176963e-01
7.945440185497849514e-03 -2.152939384453442517e-01 -8.877543225604088706e-01 -5.865396069988659811e-01 7.690168499199918628e-01 -2.541345587690672092e-01
-1.953653179783982896e-01 2.527864654988625226e-01 -8.442788845110056339e-01 3.923170375804468368e-01 8.042671539979631135e-01 4.463649706508330262e-01
-2.927849690796019075e-02 1.080540106097492709e-01 -8.231185355400214565e-01 -7.126628655273302693e-01 -3.498161712824479075e-01 -6.080627322963177983e-01
4.302725530573464630e-02 -3.643944794999706693e-02 -8.653231630799445018e-01 -6.678652911529571190e-01 3.205903723392684035e-01 -6.716976745802720750e-01
-9.067756626888306970e-02 1.880500712029822274e-01 -8.225697013483284081e-01 -5.866514488602683208e-01 -4.598765716857444175e-01 6.665985421261543253e-01
-8.804868956023158277e-02 1.860195188682601808e-01 -8.163489697317687366e-01 -4.988096490736428357e-01 -4.367888907716758196e-01 -7.486016289652850375e-01
-7.316447728609223530e-03 2.988315242257513077e-02 -7.994461500535737786e-01 -7.600776690693369364e-01 -2.325260718500340162e-01 -6.068060339944852943e-01
8.117329363803371667e-02 -1.428593053479904063e-01 -1.007008924065963651e+00 -9.925029413662356248e-01 -4.500943540729402531e-02 1.136312549595708959e-01
-3.211518869321351027e-02 -8.039733658463139865e-02 -7.785904233159262056e-01 -4.812072553767728356e-01 3.726573758013324578e-01 -7.934519882347121911e-01
-9.084213279866068524e-02 1.746290611290074457e-01 -8.211332176389755100e-01 7.213816394073347960e-01 6.513564255777439804e-01 -2.352516465076719965e-01
-7.322013487040462953e-02 7.208687644767591829e-02 -7.631257684459021862e-01 -4.846371816203399741e-01 -2.609304830349550852e-01 -8.348904630035237640e-01
4.937482056383310502e-02 1.281928355744423563e-02 -8.744062395631726492e-01 -8.558675082827944536e-01 -8.116937493803903780e-02 -5.107860029777328004e-01
-2.962592591156686106e-02 1.355211441694464600e-02 -7.744330118307403144e-01 -5.670352464850885177e-01 9.511159386223944079e-02 -8.181838509507378676e-01
4.361257768107801996e-02 3.066007971713772401e-02 -8.711959497956317522e-01 -8.469669483042098213e-01 -5.027803402362885504e-02 -5.292627965150888958e-01
3.132871319902402057e-02 -4.355273543300185873e-02 -8.345626173744684628e-01 -8.429029263246639037e-01 -2.716373161647717138e-01 -4.644650958469516699e-01
7.835357472627885178e-02 -1.583657964078150765e-02 -9.823776440263854992e-01 -9.715362552444021249e-01 -6.770520695404669970e-03 2.367941401200561458e-01
2.955044066401160338e-02 7.730172230211970752e-02 -8.703859282131930497e-01 -8.711380323670255832e-01 -2.114802511169396049e-01 -4.431643396655728928e-01
6.620244106645974125e-02 -1.752668933430633624e-01 -9.902551127718605128e-01 -9.621840540706416700e-01 2.502556729819843673e-01 1.075822672772717981e-01
-7.697704705469264608e-02 1.575425193952260661e-01 -8.238745830387685931e-01 7.597786723358700423e-01 6.386747060199953197e-01 1.217825478211687629e-01
8.609145932296061871e-03 -1.813698496009877315e-01 -8.409457724058269079e-01 -5.793668151482703754e-01 3.867954895864489373e-01 -7.174422225799990116e-01
-4.801655315897210285e-02 1.937883684997734612e-01 -8.572603884658296369e-01 -7.200540394339818295e-01 -4.197673498805269410e-01 -5.525554743816092351e-01
4.100761547598177903e-02 7.203019665667531601e-02 -8.893715611667540877e-01 -9.080491800930982071e-01 -3.176065727698261787e-01 -2.730801191329338407e-01
