-6.141650040481214101e-02 -1.669199602648631375e-01 -9.276297309819558912e-01 9.295912479529887529e-01 3.632082291808663710e-01 6.276857481657512061e-02
2.079733520922356083e-01 2.264340298676176533e-01 -7.427350160068042495e-01 -1.048642045030701436e-01 1.622259181030493713e-01 9.811657607711150586e-01
-5.807059344931000261e-03 -7.477039913891321554e-03 -7.386553011165127858e-01 8.275980399921666342e-01 -1.163586660100662112e-01 -5.491285323542040020e-01
3.008284800635486686e-02 7.133330701465005752e-02 -7.277226226129072106e-01 6.746687249689220511e-01 -4.567185253947733670e-01 -5.798536885370590976e-01
1.837246514847228618e-01 2.220204337571413666e-01 -7.428457267575031553e-01 8.830931832461498543e-02 -2.720612336141028931e-01 9.582192595963693327e-01
-2.115869791364134375e-02 -8.920898635315518965e-02 -7.546780721371223466e-01 7.344402543679534601e-01 1.919009297826597682e-01 -6.509773774198964746e-01
-4.462866512960475540e-02 -1.161426453666697528e-01 -7.917915593145229414e-01 8.197101088663805157e-01 9.809253699169785679e-02 -5.643165703829712276e-01
-7.285889214766236299e-02 -6.161995597187494567e-02 -8.992116744756734059e-01 9.892720299535109341e-01 -1.333991846126384440e-01 -5.954417096864364489e-02
-3.809425644043428621e-02 -4.073107655983023573e-02 -7.882618612598609742e-01 8.978746607732447371e-01 -2.354302204027913792e-01 -3.720130439412355772e-01
-5.252346056255616236e-02 -1.254121716416982113e-01 -8.141964515866915164e-01 9.263130904190313153e-01 1.623193550896625259e-01 -3.399948315513334762e-01
1.773964285518698225e-01 2.239723825288837677e-01 -7.404646991217620489e-01 2.955129568158200160e-01 -6.033609522424623339e-01 7.406940351204673867e-01
1.566181458239014916e-03 5.460954496635000988e-02 -7.952817703377558223e-01 -2.063443754542677866e-01 -2.711851792343306644e-01 9.401492420259838223e-01
1.100299092651329039e-02 1.177359498681915945e-01 -8.991968505464953410e-01 7.842327562994746426e-01 -5.262542143059711908e-01 3.286875201040245220e-01
6.088229343007097588e-02 1.561975372577968091e-01 -9.084638733001372257e-01 -1.940708693445020866e-02 -9.768343359627846834e-01 2.131150981532378141e-01
2.044647690429980125e-01 2.382581349228636569e-01 -7.210188213063885021e-01 1.536012850942197749e-01 1.478427269112761802e-02 -9.880223026320804625e-01
-2.008687469084068089e-02 1.616569723013348836e-02 -8.033636287451744185e-01 9.444718604588290267e-01 -2.515744692884097078e-01 2.113839899417477020e-01
-4.404314589635834054e-02 -5.041435158830064045e-02 -8.434271134602341347e-01 -5.138849675777038550e-01 -2.842138079831106889e-01 8.094101256158101609e-01
3.009434407649774074e-02 8.954935583285070222e-02 -7.746786989339508045e-01 -5.888820948178653536e-01 6.713418199907423833e-01 -4.500200430363520132e-01
1.265151540714633781e-02 1.267791175812494342e-01 -8.582988529925920096e-01 8.304670349812641739e-01 -5.547919085709690501e-01 5.030349882075187823e-02
4.873961259686599053e-03 3.968392650449792391e-02 -7.450974974861022115e-01 7.283113638333199580e-01 -4.111317592476818605e-01 -5.482091150730309392e-01
1.537748091826447380e-02 1.874428908894541085e-02 -7.218350132690951604e-01 7.350477624486291273e-01 -1.204773534560441978e-01 -6.672255947005412136e-01
-3.338539836702803659e-02 -9.528978456540448949e-02 -7.702894888004423457e-01 8.422154050552438376e-01 1.699579905330078078e-01 -5.116517301266689799e-01
-1.300646864619728685e-02 2.551809407134432786e-02 -7.689318172008269281e-01 8.161036538854121725e-01 -4.544211340961168411e-01 -3.570381758323308286e-01
3.646930971672619759e-02 1.555672131496984301e-01 -8.372881626570065627e-01 7.910714828470577498e-01 -6.084660053638826227e-01 6.304783376672494499e-02
3.840436129871455800e-02 9.792606212391467835e-02 -7.743671990508387282e-01 -7.891422436772589366e-01 6.116240884871361194e-01 5.630713654858947315e-02
3.726718656031410837e-02 -6.076586356782368026e-02 -7.061738575289960851e-01 6.593515187977971870e-01 4.172202725763582976e-01 -6.254460958470740017e-01
1.259492724181141554e-01 1.796647782660833192e-01 -7.455161383541356601e-01 -4.354176482165471596e-01 8.371018921871862251e-01 3.311674708032229519e-01
-9.227873836718431672e-03 -1.305162070773433804e-02 -7.399909048100912212e-01 8.679041641328527623e-01 -3.599590562390168197e-02 -4.954257327381868525e-01
3.005250312124744388e-02 -6.231378158768670350e-02 -7.081344771223956336e-01 3.063969195247152055e-01 -1.204094164512860554e-01 -9.442576449971827879e-01
-5.790258138710760449e-02 -1.608127395524497905e-01 -8.997229424555539534e-01 3.933872824235750687e-01 5.066760430335478516e-01 -7.671543739321705635e-01
6.020899570417907742e-02 1.347234400541254540e-01 -7.626865257912751606e-01 4.464046334969822283e-01 -6.275568312383726921e-01 6.378834742791800183e-01
4.325549725566107256e-02 1.626712274224046129e-01 -8.456366679143655363e-01 6.998177472429013557e-01 -7.119268887943033253e-01 5.843993202882918903e-02
1.596207046148378217e-01 1.976187951904850304e-01 -7.437338746406644274e-01 -3.824099730414455278e-01 6.157605421645132582e-01 6.889133234534703387e-01
-7.269158695464934816e-02 -5.576932904386617401e-02 -9.121223053119438262e-01 9.990130705015444201e-01 -1.107111863688605390e-02 -4.301529145785409208e-02
-3.495281462009117157e-02 -1.925957458345618212e-01 -8.151920820779176013e-01 8.168767940784834591e-01 3.309028244674023234e-01 -4.724570076266774166e-01
1.051710371082236195e-01 1.578524615903995620e-01 -7.121752222421638967e-01 5.292622076862035785e-01 -6.337448503411011735e-01 -5.641356044261529590e-01
-3.503099171606023632e-02 -1.957967787699541745e-02 -8.287267424131582461e-01 -3.302630846145112042e-01 -2.908219431795691090e-01 8.979693159045957218e-01
-2.121476153784003851e-02 -2.179806452761172131e-01 -8.242613774132688809e-01 6.883837756007464836e-01 6.721609002344957062e-01 -2.726307056910748927e-01
-1.290247509816221626e-02 -2.567345471686830610e-02 -7.438753350800072495e-01 7.641419029471715474e-01 -1.448125360771006787e-01 -6.285829154178420586e-01
8.944170301329333606e-02 1.966474238053660117e-01 -7.911768288686698014e-01 6.093216929189479991e-01 -7.546469622194552640e-01 -2.433824910533521624e-01
1.914974472156821261e-01 2.354770540501344989e-01 -7.366327413865273455e-01 3.542941097212203849e-01 -6.785666447483035268e-01 6.434461845810239833e-01
-3.815771721642674530e-02 5.162367546811159197e-02 -8.825092885627673356e-01 9.097201391377340851e-01 -4.123777450288603763e-01 -4.851663479811902518e-02
-2.328277494556256488e-02 -4.968209348750930038e-02 -7.541841516525414901e-01 8.248563633776708759e-01 6.449875665528917446e-02 -5.616510395123339716e-01
4.631505210443473408e-02 1.077622664702990729e-01 -7.682210979072543466e-01 -6.529588903990799498e-01 6.822788565270697658e-01 -3.288468479169543435e-01
-5.788576431797990557e-02 -7.563856710689389161e-03 -8.618925954763396735e-01 8.980800667304702500e-01 -2.364031145398847455e-01 -3.708985861084350133e-01
-5.562365248226445319e-02 -1.038421877162288703e-01 -8.180943499001318564e-01 9.869940750959474984e-01 9.420606694911441703e-02 -1.302609407131468666e-01
-3.660185607929684198e-02 4.903412545824496066e-02 -8.489064398976754466e-01 8.619009337664849113e-01 -4.540367207804461569e-01 -2.257818339800622132e-01
-4.771528537200969006e-02 -6.433503934323601958e-02 -8.003593418731560494e-01 9.396495007374248143e-01 -1.833776707384570381e-01 -2.888450201032487508e-01
-3.860576628343823785e-02 -1.907873425284846089e-02 -9.746359994482639566e-01 8.097661573036281091e-01 -1.985269880627116845e-01 5.521465434977056441e-01
-3.554694583568594746e-02 -4.537518311804105038e-03 -9.780916276879090265e-01 7.891976592385284706e-01 -2.930329882169642811e-02 6.134397862305589477e-01
-5.923711600458030080e-02 -1.340449066646501597e-01 -9.757516532108070351e-01 8.870355559214657681e-01 -1.739829783365858321e-02 4.613731914227217068e-01
-6.711548100564651564e-02 -1.338574178150306326e-01 -9.551183633472435375e-01 9.186561589182252741e-01 2.784566002861926792e-01 2.802370129705704649e-01
6.026804078091047706e-02 1.226116694411245045e-01 -7.324393106937586717e-01 7.988220842483524375e-01 -5.435087800611045905e-01 -2.578400351256721068e-01
1.537948490321369537e-02 5.422015268739305283e-02 -7.382499729598501759e-01 8.419972708466584299e-01 -3.379002004695681460e-01 -4.205520781180428491e-01
-4.819550733847282470e-02 -2.123987565489878770e-01 -9.167301873961959391e-01 7.700481492105697434e-01 6.099212041413779595e-01 -1.871415844650982652e-01
-4.867950220070679790e-02 2.313060359761335422e-02 -9.180330947659747221e-01 8.501804966813130138e-01 -4.546960574213793072e-01 2.654140509245309087e-01
2.584443470354986713e-02 1.464920789340621587e-01 -8.320325551849943047e-01 8.707062501494338136e-01 -4.861181060624462091e-01 -7.456415297562055122e-02
1.310597263038508209e-01 1.613901702114194647e-01 -6.935020726679336223e-01 5.642697304855993634e-01 -4.161118400992981359e-01 -7.130572261655335753e-01
-5.179622267402395758e-02 -1.065870389298232829e-01 -8.050459153404535551e-01 8.967912125559440728e-01 -3.382315656964850897e-02 -4.411592854764643801e-01
-7.583147152280607546e-04 -6.579691828287550885e-03 -7.307017142351917016e-01 6.668559330047012512e-01 -1.836285449736926034e-01 -7.222075339452460607e-01
2.973438532950543542e-02 1.444279698978034043e-01 -8.760641187473644509e-01 6.074365682430552527e-01 -7.760877782414623560e-01 1.694360529088506651e-01
-4.587370625320632417e-02 -1.046705404610943912e-01 -7.947520356257220531e-01 8.608188464759493064e-01 3.805325173016683993e-02 -5.074868112420030108e-01
-7.101091236379664107e-02 -1.179118041097011738e-01 -9.082460980427971009e-01 9.561501412297565006e-01 3.244285481568182777e-02 -2.910745069526451401e-01
-6.259922145570481766e-02 -5.787722915751729313e-02 -8.650221478950671505e-01 8.814485203216094744e-01 -4.180071187890468248e-02 -4.704266218117996168e-01
-4.753086583676404547e-02 2.448403426581517543e-03 -9.498612509925941083e-01 8.980897439740325172e-01 -1.821475864660334620e-01 4.003212066744100128e-01
1.435140799568869752e-01 1.454220263680532366e-01 -6.806081709127167478e-01 1.303239747548092520e-01 -3.309038278263615740e-01 -9.346220189648696275e-01
-6.605560486983497182e-02 -2.942417113631714751e-02 -8.749717773633960416e-01 9.839236730948992538e-01 -1.559126409191541850e-02 -1.779076108755829611e-01
-9.171553281475244629e-04 1.105215954984600651e-01 -8.817763390805897217e-01 8.848834341902009903e-01 -4.132030209331545301e-01 2.150455100379245754e-01
-2.904120807443775695e-02 -1.310062293117534860e-01 -7.737680470179185699e-01 7.141242844734981832e-01 3.536446183233635243e-01 -6.041208407728844154e-01
-5.984286082252051643e-03 4.746697314481956864e-02 -7.982321686792760440e-01 4.153521270731933002e-01 -5.576973628127301907e-01 7.186489143159542348e-01
-5.823377657703087545e-02 -1.656692945804339456e-01 -8.879226214816080542e-01 9.774566290226296417e-01 3.519518969409460296e-02 2.081822206676499920e-01
-3.508098488340288118e-02 5.889445092616860111e-02 -8.693145658237931839e-01 9.321027338781188165e-01 -3.615471063162328802e-01 -2.163754633260321636e-02
-5.190357589242121372e-02 -1.760439397248094173e-01 -8.355406655919627168e-01 8.993255944823298487e-01 1.649168179593645533e-01 -4.049887878240110983e-01
1.225658412888086107e-01 1.064882833099671799e-01 -6.644178297795402255e-01 5.603266218922212660e-01 -1.608168605746899960e-01 -8.125097009597805897e-01
3.706873640566715408e-03 1.181330038007343541e-01 -8.740565911048215897e-01 8.669529793631035597e-01 -4.538275777862791349e-01 2.059928669009603586e-01
4.889311475302631632e-02 1.679997831970848898e-01 -8.368994984163632411e-01 7.161088823976168305e-01 -6.978569226754551824e-01 -1.355669669130376252e-02
-7.356720565905505368e-03 9.959505166520321584e-02 -8.802970631909361465e-01 7.450333176962991022e-01 -6.519143399885741763e-01 1.411844497092619444e-01
2.111636374973073771e-01 2.340732885185860812e-01 -7.213484538750604136e-01 -1.334898042936236498e-02 3.360694643477705190e-01 -9.417425974513943254e-01
-6.189644202677477974e-02 -6.405364496192472723e-02 -9.731628456833925078e-01 9.270308627634475940e-01 5.636605230101376235e-02 3.707244901973125728e-01
5.663239057268071308e-02 9.771148832414466856e-02 -7.141302935986367784e-01 7.428535197514144484e-01 -4.568685162899843721e-01 -4.893258699638953768e-01
-4.374591776480975941e-02 -5.096951975138995505e-02 -8.410727875803575282e-01 -9.071567063653127594e-01 3.292251737615058960e-01 -2.620639140708695414e-01
-5.643511584257188823e-02 -8.484168103516193105e-02 -8.314992742249830426e-01 9.924846072066676461e-01 -1.214655829100480533e-01 1.484643479590423525e-02
-1.457936773270628907e-02 -1.354747800573496697e-01 -7.631636431475212756e-01 6.832002737285503002e-01 4.405390866224980773e-01 -5.823767673379913745e-01
-7.003378219089990975e-02 -1.356337131452311218e-01 -9.258550536458901581e-01 9.363700078291160578e-01 3.477235363310542393e-01 -4.795363093163182433e-02
-5.741976791023263582e-02 -1.228490275211876759e-01 -8.780078323862537948e-01 8.433988917644959227e-02 4.937910614623053918e-01 -8.654808898604484657e-01
1.902785101993039463e-01 2.119474848186391203e-01 -7.346680715281919127e-01 -3.889042430676291628e-01 8.731287248908139453e-01 -2.939382919841094233e-01
-5.064390825570108667e-02 -6.259089323326923193e-02 -8.352698290543048021e-01 9.678251840054488131e-01 -2.419365550870948844e-01 6.914561820830203431e-02
-3.577775807955350940e-02 5.136688265666496112e-02 -9.025491704663777259e-01 7.641581304543637598e-01 -6.131340529961082364e-01 2.003222022569071115e-01
4.874960953382610068e-02 7.147317998166873021e-02 -7.085516273214753635e-01 7.104782422354321003e-01 -3.087294064464287113e-01 -6.323818632007771612e-01
-3.160813331240695107e-02 -2.307644504852135181e-01 -9.420870422314693293e-01 6.000181178480409327e-01 7.974054771403040753e-01 -6.420874769638901247e-02
-4.155294178342353040e-02 -3.002386506920739009e-02 -8.283624537716148817e-01 6.923050497188344699e-02 4.545250223786676536e-01 -8.880394930480340898e-01
-5.135827609895360357e-02 -1.753570321005896160e-01 -8.338005489487860800e-01 9.060256689411880782e-01 3.127969471435562698e-01 -2.850886828292975572e-01
3.423699052437660650e-02 2.812356643692801722e-02 -7.073585424209287709e-01 6.753274522525761769e-01 -1.246441845634323059e-01 -7.269089760682292400e-01
1.509487864217610997e-02 4.912765924090903985e-02 -7.348919097629191821e-01 7.140560677325274996e-01 -3.547911425598617718e-01 -6.035289365850057264e-01
6.854603159160878312e-02 6.898314927590981638e-02 -6.894453420774701025e-01 5.361984646134332344e-01 -1.828325959318438110e-01 -8.240530616477436121e-01
8.328001983910260364e-02 1.034872303149582257e-01 -6.868529647253370785e-01 6.989236034336478998e-01 -2.321347311374818423e-01 -6.764756190455453178e-01
-3.693105718067378473e-02 -1.561480316530565737e-01 -7.943604599149831635e-01 8.008101209209155247e-01 2.055153289707555841e-01 -5.625536416988790034e-01
-1.964543731397538212e-02 -2.290321616465159082e-01 -8.643438626572597094e-01 5.535493430425113548e-01 6.619764066150125581e-01 -5.053418267888377668e-01
-6.426229547968416445e-02 -8.867137515460611630e-02 -9.750895822559835224e-01 9.143366161808487158e-01 -2.527016071771197026e-01 3.164339584195348110e-01
8.907278501114812563e-02 1.216533151007177793e-01 -6.908226764192385572e-01 5.204721935714001768e-01 -4.394470284485164635e-01 -7.321167973122482131e-01
6.696817633412262272e-02 9.499325127287380766e-02 -6.973670127513119654e-01 7.101485404319760608e-01 -3.086044989696313245e-01 -6.328130164100899124e-01
1.794201019227868038e-02 3.324833377930794254e-02 -7.209070228588315699e-01 7.808515607980787143e-01 -1.189384395250692311e-01 -6.132898887170290525e-01
-5.785709640232165885e-02 -8.343679098286167772e-02 -9.865555591932617663e-01 8.629972110051411516e-01 6.265907528978433005e-02 5.013079433653302441e-01
-3.061578400677509790e-02 4.294617566735344644e-02 -8.273206179535876892e-01 9.322872621717324115e-01 -8.668945960192846190e-02 -3.511771609690202411e-01
2.899920337856334504e-02 1.397050766949544942e-01 -8.871788209177391415e-01 6.399106812487671547e-01 -7.298187310309308673e-01 2.405804228530254163e-01
1.443489083699370755e-02 1.286041834369353876e-01 -8.647202294955020907e-01 8.912883666461896004e-01 -4.373201258631859156e-01 1.198171732105827864e-01
5.445180679461038634e-03 1.193716025536121494e-01 -8.421135117958254979e-01 8.612474506886578229e-01 -5.080375274837602984e-01 -1.227596637644569680e-02
-6.468581005114483473e-02 -1.138295945748722671e-01 -9.703966957719893927e-01 9.061863030257178986e-01 -1.817559928890348508e-01 3.818260641411256318e-01
-3.487552489870993089e-02 -6.386984566906867000e-02 -7.707706264064720925e-01 7.867264327525338441e-01 -1.089782684690769610e-01 -6.076061693317100776e-01
-6.737737383834398186e-02 -2.168190734459402719e-02 -9.068554629706362391e-01 9.731469820889336875e-01 -2.294149266872276827e-01 1.880804785974075910e-02
-5.243327978513569188e-02 -9.077259595990294638e-02 -8.645865049914522871e-01 -5.199276988253224152e-01 -3.436674502240086304e-01 7.820280504244928599e-01
-3.366153226173272672e-02 -2.295471973130924215e-01 -9.218038563730781565e-01 7.622052103255201327e-01 6.446382811057570494e-01 5.903138051616591692e-02
-6.828877462315662006e-02 -5.875818893339145033e-02 -9.536454143378543247e-01 9.481353426437921783e-01 5.093282067008080005e-02 3.137598122901150144e-01
-2.031677526461515837e-02 1.535232084064063612e-02 -7.830687991071217935e-01 9.490554247004565624e-01 -2.606530251460684733e-01 -1.770700463907970423e-01
-3.386093159768626543e-02 -9.703640102804912682e-02 -7.711962124532566465e-01 7.988688448498908468e-01 4.549149540965952143e-02 -5.997825377364647270e-01
7.728633150094875448e-02 2.124128374778188819e-02 -6.796245290756305346e-01 2.781724958586661023e-01 -7.176756789138255543e-02 -9.578462709363732008e-01
-5.020065752208651040e-03 -2.110412737242452208e-01 -7.955054575850848408e-01 4.795005766207515729e-01 3.439324743256778616e-01 -8.073349058009218204e-01
6.618288849477399483e-02 1.241488972981002886e-01 -7.211859802925753016e-01 8.158082547004180674e-01 -4.855254058156850405e-01 -3.142005281188627874e-01
3.575155048697428034e-02 9.685414506793253719e-02 -7.490477138158674331e-01 8.943106758103743781e-01 -4.010100046082153979e-01 -1.984927992036746025e-01
-4.774297510393300109e-02 -2.072866175806494238e-01 -8.964078448070680327e-01 7.626760143770341394e-01 6.274782202358408778e-01 -1.568323315634354287e-01
1.042568777707567583e-02 1.038662040315032065e-01 -9.186815635477365571e-01 5.265995379914318875e-01 -8.106932195256821849e-01 2.558699482203695141e-01
-2.233808810884191712e-02 2.941487424088675903e-02 -9.643121081714080001e-01 5.883339153715690939e-01 -6.482172067204763355e-01 4.834021689391376775e-01
-2.570240135081401991e-02 6.640570134203169217e-02 -8.408515405615805127e-01 8.636496625070989586e-01 -3.935919614772823150e-01 -3.149517872815451591e-01
-6.410794910692863002e-02 -6.530152631329680379e-02 -9.680983233372184582e-01 9.194749393754811928e-01 4.886039985016533277e-02 3.901006244380246235e-01
-2.042491432605902241e-02 -2.474734877445869397e-02 -7.534016319881867707e-01 8.944561712999243852e-01 -8.567130408491665031e-03 -4.470735531207857827e-01
-3.724175557735422137e-02 -9.919815063821578460e-02 -7.761578030412507045e-01 8.586324592238880893e-01 2.408519909818648552e-01 -4.524827271921103566e-01
2.761958459894206519e-02 1.384157440597228728e-01 -8.037747542399706902e-01 8.890473652393604542e-01 -4.076884696716766565e-01 -2.082904079829828448e-01
6.720939654949360798e-02 1.677369267059941604e-01 -8.966980981524903527e-01 4.842690510334391463e-01 -7.895331088927511898e-01 3.769893316439065778e-01
-5.996227223427649800e-02 -1.091850335376793185e-01 -8.729317112725801797e-01 9.953151484403199856e-01 -8.295330578761131446e-02 4.966391390265927075e-02
-5.622659520913687176e-02 -1.574172449527831141e-01 -8.379916735414438822e-01 9.584299320462994487e-01 7.988096443251128942e-02 -2.739180477424910665e-01
3.606282231015849049e-02 1.516485587436627036e-01 -8.159248817300095435e-01 8.586921098701569832e-01 -4.586857203028821273e-01 -2.285941172405018817e-01
2.581053524071833319e-02 5.107429319842195919e-02 -7.233206006788639453e-01 8.083780739433676921e-01 -2.445130308840070543e-01 -5.354794742056202539e-01
-2.718940802312266088e-03 8.390351757612288242e-02 -8.073033269894182018e-01 7.514235643508839768e-01 -3.623012937713861459e-01 -5.514529893561121998e-01
5.214558983975259299e-02 5.578009642459585277e-02 -6.947842738450210609e-01 7.007362908186859363e-01 -9.591577460569326863e-02 -7.069432897421542572e-01
-2.732748392137212753e-02 -1.765082106713844745e-01 -7.921713637126603924e-01 7.665465567457059315e-01 3.722074901543114267e-01 -5.233239537937570685e-01
6.174346486568333542e-02 6.568568773458034922e-03 -6.853010043771864401e-01 5.857956743085706020e-01 1.935764930255850780e-01 -7.870016323421969995e-01
2.408878500061669911e-02 1.375489669843114882e-01 -8.249606340537229965e-01 8.770477984059195098e-01 -4.515493455942395928e-01 -1.639827667919510346e-01
1.234031898113907913e-02 4.038512436295529917e-02 -7.318721463292241491e-01 8.366589519681159048e-01 -2.578736892871962838e-01 -4.832214383334255126e-01
6.441405735108650388e-02 1.853265350160011593e-01 -8.168868493947668563e-01 6.558227494609003561e-01 -7.355218675666783668e-01 -1.700120690444375526e-01
-2.203029816200521851e-02 -3.597396466130604875e-02 -7.559428629003357436e-01 8.554078122040889021e-01 2.417436860322548509e-02 -5.173906403510307728e-01
7.930670695051111885e-02 1.787083912806936847e-01 -7.741298323670551262e-01 7.300672691570919692e-01 -4.697274826759996191e-01 -4.963445119313545373e-01
1.364510325307334571e-02 1.035529753043228640e-01 -9.244818328338565427e-01 4.617043530698228260e-01 -8.081023186697993133e-01 3.657864580829508494e-01
-2.832111911837579057e-02 -9.695061768141151337e-02 -7.639281980892169699e-01 7.536855756229224879e-01 8.659930829386840168e-02 -6.515048832518199884e-01
3.999721670085919223e-02 1.362261054609210653e-01 -7.854984702162870480e-01 8.721726838185821506e-01 -2.786770971096447780e-01 -4.020620414155422484e-01
-6.099841696514121669e-02 -1.383793768178430417e-01 -8.611025780039250899e-01 9.921658944989765194e-01 1.191265510863373372e-01 3.762582383576424522e-02
-2.354081039141810508e-02 6.068143631750536060e-02 -8.278779232313440151e-01 8.070820822125960303e-01 -4.338837364567705301e-01 -4.004540121033777211e-01
8.956134219543224195e-02 1.923179832477438511e-01 -7.806375228546474920e-01 7.092500247229908128e-01 -5.911946205475349103e-01 -3.839965143931555747e-01
-5.175641544811698108e-02 -6.542417590295847296e-02 -8.317232350728862578e-01 9.420461903862997755e-01 -3.353236230886837421e-01 1.034615761227710568e-02
-5.739981200415848750e-02 -1.769209512275200513e-01 -8.628536600530856138e-01 9.288071594752151938e-01 1.835219445397948956e-01 -3.219269426126285527e-01
1.647231900607396271e-01 1.997155213258630935e-01 -7.367455063165825324e-01 -3.949539477895358530e-01 8.469093571543754306e-01 -3.560279762740886089e-01
-4.311775153019443280e-02 4.015445289818841967e-02 -8.988282229660320422e-01 8.421066668350106754e-01 -5.189819659885908099e-01 1.466767897475444449e-01
-6.674300122677512270e-02 -1.155103188414558085e-01 -9.648374221279826246e-01 9.475918037326660492e-01 -1.407550604063025346e-01 2.868061827588286872e-01
8.769275466807481545e-03 1.172222490728196814e-01 -8.279067549142280491e-01 7.700924808363853735e-01 -6.052406927225091327e-01 -2.015968125542635658e-01
4.337771210382194292e-02 6.781896283310493052e-03 -6.948092658800774091e-01 6.316935914886544490e-01 1.102825831219208380e-01 -7.673336681862209518e-01
-2.582828239595801739e-02 1.385407197679148356e-02 -8.076570846929682634e-01 5.181563157617350424e-01 1.140083448402112315e-01 -8.476533075161215569e-01
-2.213157701051220172e-02 4.410787041808419268e-02 -8.139013594812111174e-01 8.125179584101239749e-01 -1.988643431808481687e-01 -5.479667328153178252e-01
6.576785523822625823e-02 1.242978659293486055e-01 -7.223706121635754540e-01 7.716270914785647861e-01 -4.472983618381838888e-01 -4.522342392977424241e-01
8.049060378531237847e-03 1.170501061859667707e-01 -8.300688901772104167e-01 7.959069006530753443e-01 -5.734257970726954756e-01 -1.942036579067440427e-01
-1.651422160618419913e-02 5.213551795620212370e-02 -9.519262884335014663e-01 8.182251201093609927e-01 3.713070387467191230e-02 5.736976238854341048e-01
-3.555556987597756347e-02 -2.987036046662316230e-02 -7.820902037562702525e-01 8.900792962356681715e-01 -2.858780314810117629e-01 -3.550107005840236751e-01
-4.517437322136837186e-02 3.734013224739982095e-02 -8.873621910226786591e-01 8.868522687148617800e-01 -4.496618491798243245e-01 -1.062886394093153913e-01
-4.010995977867991280e-02 -1.764030248773747200e-02 -8.268432920628051574e-01 6.153035727696303248e-01 -4.992602265927897354e-01 6.100333921019768235e-01
1.264414691132218979e-02 7.635244780023008222e-03 -7.197879523801391510e-01 7.064410290465189535e-01 -6.037046642309191330e-02 -7.051925122004301105e-01
-4.720848836308314672e-02 -1.202526076423047902e-01 -7.983098862554605102e-01 9.273482427933628092e-01 1.594581725726967603e-01 -3.385237477457651578e-01
4.019342781424367628e-02 1.247694465328476332e-02 -7.002355728555514913e-01 5.312403318252822970e-01 -1.869343346975058939e-01 -8.263408887095959887e-01
2.511260096520145924e-02 -9.370595611765655808e-02 -7.223777475932653402e-01 2.536250148247617964e-01 7.205844004904096711e-02 -9.646149143947744253e-01
9.305705057151715531e-02 9.502102179579155483e-02 -6.785880563978133884e-01 5.645787308929643977e-01 -2.872905585553806596e-01 -7.737667552875524546e-01
-4.798768796043395568e-02 -6.857876925596984030e-02 -8.521220238310894812e-01 -9.103169126648724685e-01 -9.074840759981391003e-03 4.138124765899112711e-01
1.601306830669861070e-01 2.143253532917469839e-01 -7.413976968078975771e-01 2.796550420475703014e-01 -5.785409704400609199e-01 7.662136797132013122e-01
-3.498239994389882451e-02 -9.482888647775386537e-02 -7.725085509888957036e-01 8.195866256755168777e-01 9.775254597524248024e-02 -5.645548713536874263e-01
4.696501122746776086e-02 8.975747306760331612e-03 -6.955705910232893308e-01 6.709050519547911096e-01 4.409470442773995996e-02 -7.402310911485474598e-01
-3.139068535307314861e-02 -1.719640667229348219e-02 -7.820368992086427218e-01 8.867995640076867803e-01 -2.673582117929168556e-01 -3.769696537689346538e-01
-6.028320155746699771e-02 -1.569494633899861658e-01 -8.537251339151683549e-01 9.716478436291343668e-01 2.356686717147471744e-01 -1.899329205429622219e-02
-1.494827459816491788e-02 -1.727559387620727915e-02 -7.479550045945078107e-01 8.552601981324080560e-01 2.439720004399925299e-02 -5.176241591353007987e-01
2.355051000356167198e-02 1.351580515263973159e-01 -8.209498626827181900e-01 7.712193971470208131e-01 -5.761119091173051432e-01 -2.707687382941383336e-01
-5.205033114038214864e-02 -6.763506036170850722e-02 -8.530852143646570074e-01 2.311906367071238366e-01 -4.945894998794350683e-01 8.378138910927444005e-01
-5.311341513962599716e-03 -1.038230153125573318e-01 -7.431638534909735805e-01 6.553844006028066715e-01 3.376037513261180845e-01 -6.756441330589886274e-01
-6.160437410105921302e-02 -3.642295961996535464e-02 -8.606635317856730083e-01 9.285399350463141577e-01 9.358916192956354130e-02 -3.592417818037156874e-01
-5.738498616470737168e-02 -1.840841160583678582e-01 -9.014673757562184919e-01 9.593693102672874451e-01 1.148918269141460252e-01 2.577021432305116599e-01
1.237532539340040622e-01 1.798252216915517121e-01 -7.405217413865449183e-01 -2.473611815980466810e-01 7.038773882761590883e-01 -6.658596459554755320e-01
1.652231774278507259e-01 2.200613346919548796e-01 -7.383229977613608996e-01 3.839840349486366988e-01 -7.139676396494183397e-01 5.854967723548969438e-01
-4.237202579265163943e-02 3.380910141777370564e-02 -9.113321620590216776e-01 7.971856367350084183e-01 -5.780081128197845919e-01 1.743607814214827578e-01
2.427204955317613030e-02 1.131199526750536061e-01 -7.897864386990545160e-01 8.481282052748619904e-01 -1.869188326286955748e-01 -4.957215926565708419e-01
7.963449757296602038e-02 1.447845500568811505e-01 -7.525784503968789840e-01 -3.004322612391462366e-01 6.136898749367500905e-01 -7.301542260419022767e-01
-5.757531243557496847e-02 -8.836209696622705778e-02 -8.599918681163845058e-01 9.184131172392677733e-01 5.397053471490118742e-02 -3.919241348340752329e-01
2.709806434941136946e-02 -5.547235555442165539e-03 -7.082354014839024048e-01 5.316864940735127609e-01 -1.273036718033123127e-01 -8.373190832443812015e-01
-3.629250815363481431e-02 -1.832341392456388399e-02 -7.995172999948372272e-01 8.912403864698700273e-01 -4.258215723004055708e-01 -1.560979246775788254e-01
-2.619092352546192881e-02 -3.524659385277291446e-02 -7.624724158655492579e-01 7.787652488842712328e-01 -2.824241682204460258e-01 -5.601439782191790506e-01
-1.772157873467230388e-02 8.340654744430232859e-02 -8.880382644696211969e-01 8.766443833855445122e-01 -4.604409264440980643e-01 1.396022146453253510e-01
4.437629383820895779e-02 1.602407901200587903e-01 -8.687542219336633620e-01 8.188451317907005089e-01 -5.293754094324175652e-01 2.219331566731983785e-01
-1.616762668839095626e-02 -2.268955398156352332e-01 -9.653332989427569899e-01 3.762782303532506978e-01 9.133627712691052558e-01 1.555092968984368162e-01
5.597671583672799572e-02 1.087470045200199242e-01 -7.250264325658057896e-01 8.181122512584297901e-01 -4.353929866973600959e-01 -3.756664630701230800e-01
-4.717248701022830337e-02 -4.840272617600408639e-02 -8.433709997110347967e-01 1.577559207320060608e-01 -4.992385447347066352e-01 8.519823618627143658e-01
-4.315646558447157333e-02 -2.006469661219586684e-02 -9.680188912342955199e-01 8.230076741813449059e-01 -6.918170287387302719e-02 5.638016142457242807e-01
4.724474273911454664e-02 1.599499884002886785e-01 -8.777079730097997468e-01 7.251488755988277912e-01 -6.352883750409197283e-01 2.656459838876231716e-01
1.554165830181343522e-01 2.125014299782327365e-01 -7.409176381758235674e-01 3.319144462840554755e-01 -6.423455943527311973e-01 6.908146913345035722e-01
-3.614378556259962433e-02 5.547959045515899607e-02 -8.834186306537732403e-01 9.336741146152720550e-01 -3.427734787687335971e-01 1.037255510959957383e-01
-2.179208675813285295e-03 1.012776105922621184e-01 -8.965606177412216438e-01 6.840333008889890598e-01 -6.913428873676166209e-01 2.326874628361415009e-01
1.488575453917012625e-01 1.911324615678106353e-01 -7.396197919691254175e-01 -4.257774548402785686e-01 8.762585611958206844e-01 -2.255759137868333652e-01
1.938280975140800610e-01 2.153573665559570527e-01 -7.311914978142013410e-01 -2.953557579620983975e-01 7.773430072477582886e-01 -5.554303064486543207e-01
1.616316916780105237e-02 1.268830045076329849e-01 -8.213624774122721961e-01 7.673474815697282070e-01 -6.084526001273494744e-01 -2.023938633626612138e-01
-7.324791803618554975e-02 -1.117812308091458290e-01 -9.141555983218225823e-01 9.590531524334192648e-01 2.670013445644016659e-01 -9.448456386268613838e-02
-3.891277930218620812e-02 4.429284682412416851e-02 -9.105799947192030341e-01 8.500911637633218332e-01 -4.546485872127291050e-01 2.657812548638268102e-01
-1.694317358285291064e-02 1.713214529043501425e-02 -8.075449396909432087e-01 -6.956557447881491774e-01 5.787168293385290818e-01 -4.256171004360668753e-01
-3.468020096644280209e-02 -1.795366973101784336e-01 -8.077547176335662105e-01 7.166696100488521015e-01 4.354360055051016420e-01 -5.447753253793594652e-01
4.022028052301041684e-02 7.639333913125567754e-02 -7.163321233378020514e-01 7.509530271691352565e-01 -3.348702544468078468e-01 -5.691497726189850281e-01
8.220942348683957755e-04 1.146643146473938640e-01 -8.686262951622593098e-01 7.365255915891161242e-01 -6.678789162899009257e-01 1.070878429595533560e-01
-2.447409715897319593e-02 -1.987372543521149504e-01 -8.056926710526904900e-01 6.657732404753391453e-01 5.402125257389386315e-01 -5.147003198966587645e-01
7.666832931912871685e-02 1.933659805444897239e-01 -8.099643933617597380e-01 6.438477472060678553e-01 -7.493618840472752174e-01 -1.546507198650858839e-01
3.498642965112665898e-02 1.233953580570301412e-01 -7.792471534980484060e-01 8.339093500417286142e-01 -1.046329541993810813e-01 -5.418921855945995070e-01
-4.101812706941544186e-03 4.811999951702444767e-02 -7.912243496958426547e-01 5.499706160468639284e-03 3.902387311411835702e-01 -9.206972824709908076e-01
-4.108026042350457208e-02 -6.724989228024402799e-02 -7.816839375032492709e-01 8.725089584009518839e-01 -1.463752864636684303e-01 -4.661570475952981352e-01
-6.772995595343489494e-02 -2.151141114547670125e-02 -8.945722253194977602e-01 9.966510808351076722e-01 -6.063118979376341117e-02 -5.486785848203248883e-02
1.138009910684172760e-01 1.936169210821432063e-01 -7.518713081563659362e-01 7.450867295864520568e-01 -5.325122709386218567e-01 -4.015923887400715819e-01
1.393613314736872610e-01 1.127577945682094324e-01 -6.680219614842686227e-01 1.897615229229740741e-01 -2.582797063308786556e-01 -9.472497863370508142e-01
-4.716155628209634659e-02 -1.572003386950179271e-01 -8.111527651584415910e-01 8.602695534130645472e-01 3.567692852911535928e-01 -3.642141849836793566e-01
6.288686944636616427e-02 1.822054811725377643e-01 -8.433027465171184511e-01 6.661933809855861144e-01 -7.260626190721615192e-01 1.703509680543879024e-01
-4.934079527345811012e-02 1.458519146799263158e-02 -9.306089697136121774e-01 8.617542800503927847e-01 -3.169969654039748730e-01 3.960965598682981703e-01
1.958448993498351429e-02 1.166694875632086070e-01 -9.177253353109052769e-01 5.037808287024660991e-01 -8.117123765701362847e-01 2.955129343272770437e-01
-6.138403520547418973e-02 -4.573946544077562432e-02 -8.700486368105169177e-01 9.214377314758002147e-01 -4.782952795032793802e-02 -3.855708018882911259e-01
1.122806537958010303e-01 1.867321842065253201e-01 -7.424102196791206865e-01 5.442450165113938976e-01 -7.981683657911248231e-01 2.583110951020834434e-01
1.863509425252828089e-01 2.193571977879892054e-01 -7.436523161961645645e-01 -1.430944358862046642e-02 -6.624937836702550487e-02 9.977004859626794619e-01
4.691983162785184208e-02 1.457516016864626729e-01 -7.884706953284920106e-01 8.475910694669714918e-01 -2.932522121698921125e-01 -4.422584301257580508e-01
1.844801439842482654e-02 1.356223850483147808e-01 -8.531003036484560154e-01 7.285732691139413797e-01 -6.849466162414704629e-01 5.396705660293575797e-03
1.034194271477477250e-01 1.976001883547681415e-01 -7.673694455072167520e-01 7.191341589501449860e-01 -5.742241969307607663e-01 -3.912960938858072724e-01
1.022482979210820146e-02 1.009972886689299854e-01 -8.005252549593346867e-01 8.319639638641305179e-01 -2.221224581087043182e-01 -5.084265693639846706e-01
-7.417061192164688121e-02 -7.553729805339000347e-02 -9.189654088567676959e-01 9.927076830262488993e-01 1.203796605407529280e-01 -6.339825608777705651e-03
7.036657067652887830e-04 -3.111577966322975116e-03 -7.299251822625617558e-01 7.924361386487610570e-01 -6.889041587918216802e-02 -6.060520412996187600e-01
6.978309165812049408e-02 1.018297104573884365e-01 -6.975957908418960463e-01 5.891318336004855993e-01 -4.650721399463855765e-01 -6.607810433753521506e-01
-1.938684350484928820e-02 8.069432072941141272e-04 -7.628316169300496385e-01 8.360051797327353595e-01 -2.586343348804618913e-01 -4.839458856948549159e-01
1.130988962170888755e-02 1.239687404811499888e-01 -8.794360967840211263e-01 8.444465407647258059e-01 -4.986387218763533857e-01 1.956258286525717205e-01
2.130460721483405651e-01 2.233729631020640316e-01 -7.399991842091034888e-01 -3.305491066804645550e-01 6.926197081805552935e-01 6.411046934102334616e-01
5.083566578060414592e-02 -3.174894869190573836e-04 -6.935122577679142530e-01 4.168349046254979373e-01 2.536990222618894231e-02 -9.086281034322489791e-01
4.400946872674325883e-02 1.604722776642066029e-01 -8.668259888785545542e-01 8.226449561339197469e-01 -5.040948868637363800e-01 2.629517468762245236e-01
2.432510547441480916e-02 2.777805734482321001e-02 -7.135604607378298603e-01 5.978361444705222461e-01 -2.679416579735763859e-01 -7.555125493908038115e-01
-5.886479978974931693e-02 1.284439961818762722e-03 -9.191756854427352019e-01 8.925124367374043244e-01 -4.089264870483329539e-01 1.902647588476921725e-01
-2.588396338310094622e-02 -7.183599808230063666e-02 -7.576531808876721952e-01 8.197303949140253287e-01 9.814843011689139418e-02 -5.642773833139919093e-01
-5.557001706288554332e-02 9.069798165551670038e-03 -9.157961340435539777e-01 9.015514215889851579e-01 -3.996247024235896061e-01 1.658467106810906644e-01
3.529444462064142835e-02 1.509863186523550393e-01 -8.183060254453300431e-01 8.486108686440493321e-01 -4.741493959886913245e-01 -2.346101956496164931e-01
1.023401542180280566e-01 1.972219997054414087e-01 -7.686280466908065323e-01 6.639603680733308089e-01 -6.127062529011960690e-01 -4.286579957071871005e-01
-6.441630920660005970e-03 3.358236119588800528e-02 -7.618510842322414600e-01 8.959218156461070670e-01 -2.927792946849805400e-01 -3.340724245626214839e-01
8.991981886117722533e-02 1.665368925322150417e-01 -7.453496523097756787e-01 6.100709246309901079e-01 -4.200871206325566543e-01 -6.718186347508801060e-01
1.576601257670533773e-01 2.083149795665751869e-01 -7.293686166013286787e-01 1.067834004699459854e-01 1.326724559024231587e-01 -9.853909502471058790e-01
-5.996727667428283087e-03 9.148527537383094321e-02 -8.198534506947932066e-01 8.271344015208775824e-01 -3.832744807127678177e-01 -4.110344927801773407e-01
-3.727476688694155577e-02 -1.323242507499673981e-01 -7.853348170989162824e-01 7.528226106628149727e-01 2.361825115834988997e-01 -6.143907047611757433e-01
8.886475873222832167e-02 1.325897724155176982e-01 -6.987456014506928659e-01 7.623987559865365027e-01 -3.631634893042751666e-01 -5.355935183574620506e-01
-4.476164199382429154e-02 -1.291000477487254938e-01 -9.986534526332084827e-01 7.567010758699598272e-01 -2.189387605693990935e-01 6.160107960884944056e-01
-7.431502652446321522e-02 -7.494160281976733340e-02 -9.167844251305007353e-01 9.805669007487820554e-01 1.961244667848353884e-01 -4.873056976084818616e-03
-4.177490651603726207e-02 -2.211282712158020303e-01 -9.199527395330652224e-01 7.397077127167336341e-01 6.352219109772443417e-01 -2.220937269753384402e-01
4.214691249836384664e-03 1.157747713139919560e-01 -8.838504971273151156e-01 6.802594557313383916e-01 -7.038203125916865366e-01 2.046559074921703303e-01
-6.849993183113728401e-02 -2.953350835605990723e-02 -8.895394502625900701e-01 9.601932901220281424e-01 -2.409985148758567175e-01 -1.412393763518736689e-01
-5.067168412777010855e-02 2.326864277366625516e-02 -9.100176445088271615e-01 9.656926375083364489e-01 -2.177596583742535397e-01 1.414866108397574151e-01
1.620629226454792585e-02 1.181096253773183252e-01 -9.097614280044359347e-01 8.549732582550882976e-01 -3.109714153576137452e-01 4.151114386513101717e-01
-7.179930464930468770e-02 -4.473052697540653294e-02 -8.987383836023711270e-01 9.991281310793371784e-01 -3.583903842837715681e-03 -4.159487130832371926e-02
-4.696932205180464476e-02 -1.497867308016004040e-01 -9.782503093301184727e-01 8.407358295875100307e-01 6.910180883318804701e-02 5.370178813259225414e-01
6.228752020762522157e-02 8.443643029910173625e-02 -7.001109857454249630e-01 7.668780902333959260e-01 -2.971094953249158732e-01 -5.688795500874972433e-01
-6.948871531322452222e-02 -6.309534379247717928e-02 -8.813962710970653092e-01 9.642913069595928643e-01 5.263052344949597366e-02 -2.595617524281887967e-01
-3.450752878054735850e-02 -1.213119536654703665e-02 -8.083392319166269324e-01 9.645531134063433099e-01 -2.419941942119390177e-01 1.052430586112181599e-01
3.231808645284325182e-03 4.714706243109256095e-02 -7.556685175763651063e-01 7.704510868793537082e-01 -4.917404284050517771e-01 -4.057049097539228710e-01
3.404929250675272495e-02 9.147569057022657268e-02 -7.425642930481114456e-01 7.390609090057949082e-01 -5.751296254114720563e-01 -3.507347812145065191e-01
-6.028060255395975217e-03 -1.550130079896847035e-01 -7.611292531715754262e-01 5.973520153886506812e-01 4.975324931315346366e-01 -6.289928361988208483e-01
-4.460234875712133784e-02 -7.391692434264411637e-02 -7.889678683766698786e-01 8.528620156752156900e-01 -1.205199835279090748e-01 -5.080367268110057566e-01
-6.301965289279999605e-02 -2.764685466783704110e-02 -9.195598838248086881e-01 9.790392017427640425e-01 -8.675479481320308439e-02 1.842711236949789722e-01
-1.745645372158395603e-02 -1.649292407868800658e-02 -7.525795373103520980e-01 8.703680748462778727e-01 -1.501747816279517256e-01 -4.689423730602523821e-01
-4.203368206214740804e-02 -3.194284779585991607e-02 -8.136048313086523542e-01 9.732703035848060402e-01 -2.029077931428115156e-01 1.075794759322316330e-01
4.151900013321677824e-02 1.083032320195276982e-01 -7.656351612212299873e-01 -1.595153309524481311e-01 4.888379041085637033e-01 -8.576668133359698354e-01
1.411819004300008534e-02 1.092842083205407960e-01 -8.028323063192042142e-01 8.614643289049364050e-01 -3.192540132378003936e-01 -3.949127562588045093e-01
1.469584445148787166e-01 1.910390633250518000e-01 -7.380687019548946015e-01 -3.631907472094501599e-01 8.222853993191495681e-01 -4.381086659813840933e-01
5.823209523524625758e-02 1.754917541770637246e-01 -8.145319752812644198e-01 6.635033478663271422e-01 -7.125540926077776893e-01 -2.281007945582000096e-01
-3.561919998254438335e-02 5.372622037385609006e-02 -8.536385269119926011e-01 9.386026931689526176e-01 -3.020552902619629831e-01 -1.666960887386088330e-01
-4.297537397318394042e-02 2.382106962491440522e-02 -8.465088257283872597e-01 9.539700526540866310e-01 -1.785111636841165694e-01 -2.409873504549600864e-01
-3.459636859573928663e-02 -8.550245211243226451e-02 -7.710483247221774361e-01 8.614090234483183783e-01 9.610447844044486820e-02 -4.987368279418561423e-01
6.095593990890144781e-02 1.804453562588404503e-01 -8.284386444558783369e-01 8.112500673113222094e-01 -5.840229694769659696e-01 -2.811582135883228598e-02
6.484379275170716606e-02 1.194442344357121155e-01 -7.176379757121023051e-01 6.130678962480514693e-01 -6.736290092673328234e-01 -4.127610839983585911e-01
-3.617058182633771379e-02 -2.900405776811045694e-02 -7.843153375360846224e-01 8.686592844933417323e-01 -3.211389927227633057e-01 -3.772277757754918803e-01
8.461027671407635176e-02 1.210683838272089835e-01 -6.977120970220278551e-01 7.623230760083681279e-01 -3.632578327970823473e-01 -5.356372603700254587e-01
8.727286209086275448e-02 2.014185928802265657e-01 -8.469060587491382686e-01 6.733756596257596261e-01 -7.286009662530466002e-01 1.253229946925136229e-01
-2.780583540003482221e-02 -1.406351682263504987e-01 -7.760944173416014502e-01 7.413601929790801792e-01 1.711713861951344451e-01 -6.489109498336863568e-01
-3.156457308822555735e-02 -9.147871933360463004e-02 -7.675095546335213292e-01 8.042253589772805356e-01 5.889905814161702780e-02 -5.913987427513643924e-01
-3.339395368965852873e-02 -4.639280540707850612e-05 -8.180687520606861884e-01 5.825897002387889767e-01 -5.528534286042486867e-01 5.957703648690529930e-01
-4.646302902778749050e-02 -6.256957613087191228e-02 -8.484115573148299783e-01 -9.521871134821733307e-01 6.106932442213038742e-02 2.993496927225937632e-01
2.501232217263031632e-02 3.004557347772222192e-02 -7.137634490673376852e-01 7.011675553319148824e-01 -2.937082179871277621e-01 -6.496918823847899205e-01
-3.006004690134116142e-02 6.453069125396332373e-02 -8.545702862339871198e-01 8.654281087059209066e-01 -4.967812093854940825e-01 -6.513538718069136757e-02
9.762517955231767020e-02 2.508914080597070967e-02 -6.700958980361311212e-01 7.295450406955917844e-01 3.539335244679305270e-01 -5.852308039177158694e-01
1.830056147067995187e-01 2.330647190867562446e-01 -7.281237242925959752e-01 5.082752130429465387e-01 -7.038013825876948681e-01 -4.963062780922647410e-01
1.866595387888742019e-02 1.311392263550960335e-01 -8.210853115615764919e-01 9.036740342827076500e-01 -4.183457921904490950e-01 -9.143324296863560019e-02
9.333475137971955493e-02 1.515244564599650123e-01 -7.169982963779354401e-01 6.421883229423975825e-01 -6.610100681716497562e-01 -3.881492595022453806e-01
-7.607097715887555130e-03 -4.192238949229156603e-02 -7.351097078484498670e-01 7.993056735889454423e-01 9.236407982409017281e-02 -5.937838974970367500e-01
3.587698008786048554e-02 9.872554908922999417e-02 -7.558913879238162714e-01 8.625783442551254732e-01 -5.059226863485057901e-01 -9.140350088880149979e-04
-6.089202939514796326e-02 -1.597271818670362997e-01 -8.676095919531900957e-01 9.931315051852861453e-01 -5.368796739802420004e-02 -1.039587204859538372e-01
-1.570119478479484534e-02 -1.509185481731442902e-01 -7.675172641368724902e-01 5.940253435235948176e-01 2.036832411144765820e-01 -7.782332738586660303e-01
5.736755354365604548e-02 1.331599434842253016e-01 -7.624276323211710560e-01 4.731897859898648862e-01 -6.408880634679250399e-01 6.044451311237427626e-01
9.541080725517717132e-02 1.166346076005016635e-01 -6.823429799282438868e-01 7.253765825712541471e-01 -2.807223085108713212e-01 -6.285091876508850373e-01
-4.766264525626118242e-02 2.504576472125275011e-02 -9.191245402601357917e-01 9.497974004830511685e-01 -1.879972948090413432e-01 2.500838163098940692e-01
7.511450530923304003e-02 1.387249755605881596e-01 -7.597746256311219692e-01 -6.843368844420163466e-01 5.713512399597310276e-01 4.530350860459620432e-01
-1.114126056697862903e-02 -1.005556100382876267e-01 -7.473073013833254619e-01 6.450070089010067065e-01 1.387992303753545487e-01 -7.514657225155287890e-01
3.706785696520888129e-02 8.812047412765197651e-02 -7.309148350413753326e-01 8.318388409904279301e-01 -4.009092254634020192e-01 -3.838175810955467004e-01
-4.642475490227258167e-02 -6.939227654997519312e-02 -9.966312478605870995e-01 7.605554652793851123e-01 -3.700642547025340678e-01 5.334864868252203740e-01
-5.443019877872325163e-02 -1.626027305607976037e-01 -9.489314675505086116e-01 8.608639349166681276e-01 4.374220385906355535e-01 2.599523912469413056e-01
3.179376474141498016e-02 1.396897482852131056e-01 -8.935797333738297876e-01 6.098939270573091598e-01 -7.155247638635403584e-01 3.406665672422791724e-01
1.467106564239073208e-01 1.900112900350598988e-01 -7.435964115576333411e-01 -4.610225016386375607e-01 8.186204058235885261e-01 3.425184435210391065e-01
-5.859833459357309537e-02 -4.749054778377737041e-02 -9.639625834414542460e-01 8.667147494049519674e-01 -3.592343076289665760e-01 3.460581676340673818e-01
-5.654571673328947362e-02 -1.254307792515288456e-01 -8.797105308604538099e-01 -2.345210390078843188e-01 4.953438619227767403e-01 -8.364414747716011345e-01
1.264877762341077294e-01 1.805542192410783120e-01 -7.410095366458999688e-01 -3.389266991511354354e-01 8.156722768769808507e-01 -4.688362500242888586e-01
4.886382301898577196e-02 1.679070743090363693e-01 -8.351607307923180068e-01 7.002985898320879254e-01 -7.132821919376949316e-01 2.846752085704347748e-02
7.934478492739729938e-02 1.972096441346114226e-01 -8.226305919053039650e-01 5.625861456709441155e-01 -8.265672770053831275e-01 -1.683345725088526354e-02
-3.991361155105949132e-02 -1.101808107267374659e-01 -7.850797086908155586e-01 8.561532738591924874e-01 2.314527698117793408e-01 -4.619861329159586916e-01
-7.032658087199970820e-02 -8.995372249166525003e-02 -9.587261384756979865e-01 9.309921678962695957e-01 1.069677539147965845e-01 3.490150182130098977e-01
4.879432306577408812e-02 5.617094049970337843e-02 -6.981713409124339353e-01 5.657799782023789081e-01 -2.280228937547764678e-01 -7.924005150105679629e-01
1.111451170062951466e-01 1.840157385280337121e-01 -7.455479725048046458e-01 3.831559493380671810e-01 -6.506431496886566634e-01 6.556332894614708140e-01
-5.733873317277492915e-02 4.936851768867135670e-03 -9.208297025028254756e-01 9.501585373634152676e-01 -1.852814086117602344e-01 2.507380176563923091e-01
3.048197962930855598e-02 1.498809947922097596e-01 -8.673592760370480992e-01 6.291293503790530428e-01 -7.696355949177779987e-01 1.088912830633763790e-01
