6.309470920246589010e-02 1.580314491221907480e-01 -7.592607080997858526e-01 7.240057081877649958e-01 -5.543726898963493577e-01 4.104712599057563915e-01
-3.844326652898034241e-02 3.704028763412760272e-02 -7.227168298174243555e-01 9.581015630585256737e-01 -2.305443597370609721e-01 -1.699726244376975060e-01
4.585915538824782839e-02 1.550648164114641903e-01 -7.262327210614624162e-01 7.522679876217143180e-01 -6.153653196396255964e-01 2.354111258721595934e-01
3.351792781836889640e-02 9.754241799194132700e-02 -6.129625542654322246e-01 6.351898183094748518e-01 -6.985989020426305318e-01 -3.293834676798569339e-01
4.046200753189819338e-02 1.000987728933865478e-01 -6.041859318211300067e-01 6.982368816636396192e-01 -6.485991426123397519e-01 -3.029594185483830970e-01
2.218994110715975451e-02 1.325052367973754697e-01 -6.989391096996303565e-01 8.757899425528854476e-01 -4.825086499421532005e-01 1.331838031497679063e-02
-5.727389308457771222e-02 -1.004183575928094957e-01 -6.702224428552733260e-01 9.249352599394483621e-01 -9.244669384167991666e-02 -3.687117759422497421e-01
-2.666394346736199530e-02 5.374886066958479980e-02 -6.973715294162915468e-01 8.221285387733644479e-01 -4.630812327494968628e-01 -3.311501738027309849e-01
1.193199947586184861e-01 1.839172852843317385e-01 -6.066094925651834835e-01 7.498958625513701959e-01 -6.615078013259346745e-01 7.976472482512987974e-03
-1.926147460761938254e-02 7.271779424500164624e-02 -6.999209868604918672e-01 9.244671765211368575e-01 -3.126992789685609231e-01 -2.181274867309930809e-01
-5.057190713126217402e-02 -1.992336959545671915e-01 -7.132571842172703569e-01 8.745898631914522658e-01 2.904374629166454058e-01 -3.882507583216023850e-01
-3.474615264449267688e-02 -7.156202055547603372e-03 -6.803472110231139069e-01 3.270078574863827248e-01 2.638729251384097640e-01 -9.074342623689415355e-01
-6.312051765442244777e-02 -3.989979476902022482e-02 -7.588431361903441585e-01 9.769208826982107574e-01 -2.104161820560568052e-01 -3.675077246944725290e-02
1.023669710183726655e-01 9.506179128012996749e-02 -5.282195687537460937e-01 4.963154641062831329e-01 -2.351863575051510724e-01 -8.356783695492089326e-01
4.759941821698033398e-02 1.603136905333482909e-01 -6.996979462936853134e-01 8.330832459649626376e-01 -5.530944843453083903e-01 -7.667899274197842105e-03
-3.575527172849610191e-02 -1.730957684764425075e-01 -6.481010525613591922e-01 6.691845891382561806e-01 1.768850685609863749e-01 -7.217365573254819200e-01
-2.569596438101904440e-02 -1.762958106169881453e-02 -6.190888398691385408e-01 9.236634950382111020e-01 -1.543608862215554434e-01 -3.507398818764311255e-01
-6.040664880857637067e-06 -6.688884501071906165e-03 -5.854196140760549172e-01 6.945632232917084981e-01 -1.725298119749717751e-01 -6.984378231671830584e-01
-6.028733722397391914e-02 -1.454389327732926764e-02 -7.343988112960930792e-01 9.466076706488518733e-01 -2.532257895346266552e-01 -1.995259817249873391e-01
9.928669415860366665e-02 6.624503305870141356e-02 -5.242093427717149368e-01 2.493816602114774517e-01 -2.115002239287369912e-01 -9.450272180356824592e-01
-2.231678343246826235e-02 -8.984193390287478764e-02 -6.085167653485726857e-01 7.145816353889196115e-01 4.633054202674122962e-02 -6.980161654577963226e-01
1.481155320786594343e-01 1.797141672666602574e-01 -5.677263612202043674e-01 3.719211326613396373e-01 -5.921041247316871647e-01 -7.149037533511969356e-01
8.897270883486040061e-02 1.675836004624381148e-01 -6.138545850315765273e-01 6.891357500009402948e-01 -6.120255377288686960e-01 -3.879647654598685769e-01
1.844023420208857700e-03 1.002194827044779329e-01 -6.842554348713310031e-01 8.855605120695703159e-01 -3.961079520951260036e-01 -2.426542184881315123e-01
3.302373403247731848e-02 1.083113710349715153e-01 -6.372146541284677834e-01 7.331615193885846482e-01 -6.629367970453960979e-01 1.516212043581423308e-01
-3.229189794769531108e-02 5.209009246201504878e-02 -7.138848592362974088e-01 9.546935077531264469e-01 -2.415543245139231410e-01 -1.738154612301613111e-01
1.271816326556215460e-01 1.643986842644921675e-01 -5.594230091529529547e-01 3.921778081094674517e-01 -6.244087372527689084e-01 -6.755074356873183028e-01
-4.242541202552992802e-02 -6.154971484063471304e-02 -8.529753845014085289e-01 7.543158543543895256e-01 1.371303371549653372e-01 6.420302660321965948e-01
8.407338078463970008e-03 1.145709259178973871e-01 -6.979190442135541073e-01 9.009385792275464988e-01 -4.124678014973253148e-01 -1.348331902293090079e-01
-1.987280794612478890e-02 6.863324151703824316e-02 -6.958984388252856812e-01 8.128796332763387200e-01 -4.755971107232860873e-01 -3.362054283859606252e-01
5.249565009797584753e-02 1.173231848645331504e-01 -6.054693478227831660e-01 6.447646360943825039e-01 -7.192044256034073602e-01 -2.588890848115298904e-01
-5.681800471237342248e-02 -8.076720096910591784e-02 -7.172106845537037367e-01 6.045214614469932579e-01 -4.123806505414782109e-01 6.815394351825716512e-01
-2.250297629424989621e-03 8.613505486337484640e-02 -7.753792525036750094e-01 8.610079223753769329e-01 -3.279046731017312699e-01 3.887722764869989689e-01
-3.826441336873635801e-02 -3.649009568819211284e-03 -8.191139821668605991e-01 8.356954828680074332e-01 -1.946389350279025543e-01 5.135452705314420552e-01
-6.992760660210912971e-02 -8.045367963021567148e-02 -7.954636726186726792e-01 9.909654020106271055e-01 -5.953365342766277907e-02 1.201803483414459056e-01
-1.924229318810350559e-02 -2.329311706201909471e-01 -8.123321116979107526e-01 4.155602253826264358e-01 9.081942154157227609e-01 -4.992961210905413894e-02
-2.536527503885088047e-02 -2.096749332807733845e-01 -6.627001023565081139e-01 7.016367346326752852e-01 3.162877443617907458e-01 -6.384888059946920436e-01
3.460684156951733537e-02 9.779012766517117261e-02 -6.089263865895426786e-01 8.690185151681505404e-01 -4.713310746935673867e-01 -1.505119208672520137e-01
6.380000132603054486e-02 1.637058470360554518e-01 -6.517986562494177960e-01 6.988063941062968576e-01 -5.710561400892908424e-01 -4.307719912232866877e-01
-5.506935342738294298e-02 -1.127880105336946104e-01 -7.298460829821690199e-01 -3.221652856896797257e-01 4.200126357256201426e-01 -8.484096383984004452e-01
-5.519409933481480776e-03 6.927073539596564911e-02 -6.695723080454707432e-01 8.774042232852726775e-01 -1.072259267192541277e-01 -4.676156857937555089e-01
-1.043231316977514742e-02 -2.179725049176722274e-01 -6.533847166997609479e-01 4.385756214639160433e-01 2.245987632554811292e-02 -8.984135897307992114e-01
2.296966447388971641e-02 -7.479506482645814636e-02 -5.687022716383082210e-01 3.699598921862127798e-01 -4.804452786504096601e-02 -9.278046138685619448e-01
4.990728741574886398e-03 9.306526118449072460e-02 -6.694480345206348382e-01 8.366312385320880951e-01 -3.262488818492702558e-01 -4.400111791811263107e-01
-1.283263492377141862e-03 1.003968703728266576e-01 -7.375708426553626573e-01 8.509202390179637643e-01 -4.985825654628415760e-01 1.653788748483394355e-01
-3.048451615132356449e-02 5.266095509920511175e-02 -7.568208055615072150e-01 8.216019498613524874e-01 -5.282786294137038485e-01 2.142240081988994738e-01
1.175786694811778166e-01 1.992709163203919276e-01 -6.234239903252479786e-01 6.351417513953372396e-01 -7.136385707358320341e-01 -2.954910252318718733e-01
-6.948273372642664591e-02 -4.923962896954989926e-02 -7.724914780845659745e-01 9.654974654454819838e-01 -2.491395632297754570e-01 7.578998780859629025e-02
4.390323814528167279e-02 -4.239559792317608433e-02 -5.520044542107570562e-01 6.298423477436400353e-02 -2.971428869161645836e-01 -9.527534260893609774e-01
-2.658757326929697684e-02 -1.437274371312178556e-01 -6.250321159760304779e-01 6.961420940227566190e-01 6.895533533421817352e-02 -7.145847372135492037e-01
-6.121994785973267073e-02 -3.378072199795587038e-02 -7.732308955509873405e-01 9.708198599584285660e-01 -9.347700368810878124e-02 2.208412309596889667e-01
9.070565602571568214e-03 6.798194515079146460e-02 -6.399265582694568799e-01 8.986848018903087487e-01 -4.158235488957424675e-01 1.394862109139351491e-01
1.924297324447142923e-02 9.056542864250920200e-02 -6.444647645934117319e-01 5.514052019899863266e-01 -6.564089600154224824e-01 5.148587965936429756e-01
-5.845956889571519120e-03 9.414762217266327282e-02 -6.990741561068175569e-01 8.051010976983824508e-01 -5.535612973233553502e-01 -2.130307785052280301e-01
-4.715730897498628810e-02 -5.259767467065711716e-02 -7.005352431158410331e-01 -1.760258343793347224e-01 4.626268076693592080e-01 -8.689023779785143287e-01
4.224384928282253621e-02 -7.235095036219042069e-03 -5.504859303789260139e-01 3.476962700714620325e-01 -1.679870614083820157e-01 -9.224357164473683257e-01
-6.949381544570416847e-02 -4.861071882930254745e-02 -7.683299866274930778e-01 9.886450098860056768e-01 -1.485916557250496761e-01 -2.239563074325207764e-02
-6.044279069499633450e-02 -1.717073693780777066e-01 -7.081353123601470401e-01 9.658905598504943235e-01 1.642993975494865533e-01 -2.001527775389952413e-01
-6.540734053248337121e-02 -3.002932493293700156e-02 -7.490325261475004881e-01 9.906054573172011768e-01 -4.155768428530016295e-02 -1.302834863297031021e-01
-4.937405818030956954e-03 -8.803766907146137743e-02 -5.958313544465729805e-01 5.877415193335860932e-01 8.190965990628799875e-02 -8.048917405871949260e-01
-5.866607055231085055e-02 -1.846338036151553841e-01 -7.550170154599574746e-01 9.378376114489710424e-01 1.574950225912413737e-01 3.092829326210442820e-01
2.630566822019898138e-02 1.354281737761871551e-01 -7.272524844097189023e-01 8.052200791217083431e-01 -5.746903472067689256e-01 1.461219662015040832e-01
-2.737158523492246032e-02 5.993601750232230817e-03 -6.671684875348876664e-01 7.698024525246387473e-01 -6.367454190892228860e-01 4.426573568733724318e-02
-3.619269603106881061e-02 -2.260370738919181138e-02 -6.876176772071918020e-01 -4.180379128041866177e-01 4.704508890467264393e-01 -7.771230690524276730e-01
1.841170704394149149e-01 2.330695921528549153e-01 -6.008136067655622803e-01 3.917871390048832114e-01 -7.633820414122063358e-01 5.135666427638198028e-01
2.911264730657670691e-02 5.192441608736579617e-02 -5.746560413818437851e-01 6.208508998365301901e-01 -3.841834240193994221e-01 -6.833353912105687433e-01
6.853516710323213912e-02 1.712167010591991445e-01 -6.513769471590221682e-01 6.710014015226786199e-01 -6.373665227476991157e-01 -3.788417015523871112e-01
8.428774554664213159e-02 1.950882412409501165e-01 -6.842510066684744929e-01 7.216311583682467612e-01 -6.909668559680537392e-01 4.258256950590729589e-02
1.980381658192401639e-01 2.150568971761237791e-01 -6.051320761791613156e-01 -3.875549932097475114e-01 8.744886218322432958e-01 2.916689519371850614e-01
1.972920962613145535e-01 2.384277603444753257e-01 -6.025114570228338184e-01 3.290641251217222285e-01 -6.750723506448312872e-01 6.602985104880501055e-01
-6.487673053454486027e-02 -7.375719735405229793e-02 -8.145124103782501734e-01 9.411805121529602802e-01 4.011998249980448100e-02 3.355139796606197433e-01
-1.338077605021785119e-02 2.495820238223558571e-02 -6.681176621336146759e-01 -7.823965487568341759e-01 5.467593594323389983e-01 -2.981775366564916596e-01
5.850524376840073038e-02 1.714238136974567672e-01 -6.971988472251372526e-01 7.373346101305559008e-01 -6.749676386222485114e-01 2.750199113386144270e-02
2.653409593487499052e-02 1.089901796107725813e-02 -5.631030638434344482e-01 5.235921442539902548e-01 -2.299596925335816444e-01 -8.203473692804588158e-01
1.449378808187353485e-01 2.094071235677883447e-01 -6.023927105324941023e-01 5.512763836244573001e-01 -8.169019819877261224e-01 -1.696039524376268814e-01
-6.434255944951355888e-02 -1.510813329583816089e-01 -7.868025326604524139e-01 9.413545350664919154e-01 3.315749543403830879e-01 6.252750565888330614e-02
-6.073622771730709247e-02 -1.195756737826935839e-01 -7.348195957150942537e-01 9.909654020106271055e-01 -5.953365342766277907e-02 1.201803483414459056e-01
7.737228095616677237e-02 1.411111178022879664e-01 -5.907502495907016593e-01 6.524372192475734744e-01 -7.172159251112532052e-01 -2.447999013629356679e-01
6.775361053780977645e-03 7.052168476152288756e-02 -6.481002144487015837e-01 4.465955133296840018e-01 3.170821626825058581e-02 -8.941739408498114994e-01
5.526821598986986217e-02 7.969665042514811892e-02 -5.646526529993065591e-01 7.272046168334308502e-01 -2.972875032532631967e-01 -6.187031482589889775e-01
-6.892428272392613076e-02 -9.766472075160036181e-02 -7.509952446371537249e-01 9.356215707675324955e-01 3.115296582745935572e-01 -1.660167109956417197e-01
-6.328529789208145462e-02 -1.543170818327400939e-01 -7.899631532163212677e-01 9.846786242841844006e-01 1.410031539969517356e-01 1.025968685716968226e-01
-5.693755494329767047e-02 -1.063669415023086318e-01 -6.700333012265635713e-01 9.747639628493494079e-01 1.194498619332722972e-01 -1.885920125942634473e-01
-5.743890506660208339e-02 -9.908882867250072557e-02 -6.712433648245821338e-01 9.204241549063320038e-01 -1.628168145882881168e-01 -3.554012661095732328e-01
1.180346337105393079e-01 2.015969076106340352e-01 -6.271960216452405756e-01 5.653412006580306182e-01 -6.325313794537112955e-01 -5.294274084753465281e-01
-5.094932499886792310e-02 -5.586539142087978971e-02 -6.821637402643188075e-01 9.832472581323802308e-01 -1.638193004617790882e-01 7.992537876901156801e-02
1.135777145949192629e-01 1.766732860086734080e-01 -5.900697985286063041e-01 4.997070440446524930e-01 -7.950769329218795312e-01 -3.437230583881344947e-01
2.751934500556801194e-02 5.358602564041663879e-02 -5.771611275757311255e-01 6.230367658703079847e-01 -3.871660239672337633e-01 -6.796526011568490011e-01
-5.239478160126324890e-02 -9.483339591336717445e-02 -7.227297766115151623e-01 -9.860474292119667528e-01 1.484015741743469063e-01 -7.541511869013693692e-02
-1.446123219295110569e-02 -1.657145199432299709e-01 -6.245521773099245166e-01 6.441098696993514672e-01 4.425267983633984770e-01 -6.239330961618597682e-01
-3.330714486616492137e-02 4.586507713976380879e-02 -7.613310382117014496e-01 8.250819865343703707e-01 -5.364042444742093130e-01 1.775111320637378087e-01
-5.095424615759689552e-02 -1.750785152639762823e-02 -8.084815073953131037e-01 8.367161173842836419e-01 -3.252494513630275752e-01 4.405893022957086402e-01
7.356296292931939484e-02 1.505618591708438314e-01 -6.280451527716773841e-01 8.665776094719289668e-01 -5.173634518222550160e-02 -4.963532989203384149e-01
8.637556594528120191e-02 7.386632082813658629e-02 -5.329179637356894483e-01 6.381985705693081767e-01 -1.189527367064378838e-01 -7.606266041582695481e-01
-1.928169493346954672e-02 -1.909168438172405835e-01 -6.433306379127688990e-01 6.753021760135097251e-01 4.905796646811764750e-01 -5.507254884901578995e-01
1.905468649761543343e-01 2.309711936258280474e-01 -5.901681457997967062e-01 2.098053580112586858e-01 -5.820666267530383298e-02 -9.760090656187425662e-01
1.773095551451932816e-01 2.229602440150909026e-01 -5.925807337542058351e-01 2.141289877813582765e-01 -5.492453708896440773e-02 -9.752600021621383730e-01
-2.238222949399436626e-02 -2.272120793655498516e-01 -6.918169268189845456e-01 6.242553333210024702e-01 3.963478554304181722e-01 -6.732114499293608834e-01
-1.463997102453311154e-02 3.304692846009518042e-02 -6.692305961266644676e-01 1.254782540658627987e-01 -4.129159833328231999e-01 9.020840307115909340e-01
8.724813816490052665e-02 1.643958843053084651e-01 -6.229992677758674491e-01 7.378950461865481092e-01 -2.155099512319818833e-01 -6.395829592268238439e-01
-9.368322588134858631e-03 -1.536528242538043321e-01 -6.125058941663242829e-01 6.194808767903048352e-01 1.337821876890565864e-01 -7.735281310645691910e-01
-5.909123169801960146e-02 -1.687201419193938567e-01 -7.573169540159551127e-01 5.543531531903415077e-01 3.880591545564633926e-01 -7.362762213414532075e-01
5.050664232731209846e-02 1.417769019631814342e-01 -6.499868155415942095e-01 8.739891094891301115e-01 -3.361506469203899283e-01 -3.509213288892557570e-01
7.512120174953698659e-02 7.766472294763711315e-02 -5.413415120440893125e-01 6.564516287726973598e-01 -1.558477439234502437e-01 -7.380939911661953401e-01
-4.662410198366474107e-02 -7.813509476848309876e-02 -6.443303254706923555e-01 9.275537770305686269e-01 2.374083049287851934e-03 -3.736821569810383492e-01
1.471020687364897328e-01 2.087883751615745853e-01 -5.993561379083992557e-01 4.461600586467255325e-01 -4.887870358387955694e-01 -7.496855578602766856e-01
2.916072527921633947e-02 1.950097419819625533e-02 -5.633091942499950378e-01 5.306760528890636097e-01 -2.226863377439771419e-01 -8.177980935856107303e-01
4.679365222154184545e-02 -1.102185065879738267e-02 -5.479247040304345839e-01 5.703784282192787547e-01 1.914251951709316779e-01 -7.987645731226916679e-01
-5.975736031548845723e-02 -5.364631990111911469e-02 -8.110321720497902787e-01 9.372184235965308474e-01 -5.254006438117533873e-02 3.447624807110773459e-01
-3.108364472840692214e-02 -9.317981912646369422e-03 -6.816337912110088659e-01 -4.095571132132865833e-01 4.969033977823180126e-01 -7.650816847165972101e-01
1.405930852099740924e-03 1.082470994252898028e-01 -7.227010711803735221e-01 7.678818891753540488e-01 -6.404809449271301469e-01 1.189804445023819393e-02
-3.667886744438725311e-02 4.415337298407299993e-02 -7.271160901653471731e-01 8.766351364440412297e-01 -4.571552028891875952e-01 -1.500665119974576578e-01
2.132613713986832582e-01 2.399966918216465683e-01 -5.999129952183386294e-01 -8.095054058561695909e-01 -5.698164515992842905e-01 -1.414574472286226625e-01
-3.133709698071489302e-02 -1.623014621740779817e-01 -6.375774957152335887e-01 7.176852304977079378e-01 1.348206571760039441e-01 -6.831919937499870699e-01
-9.002915944986361954e-03 -3.330079682868289370e-02 -5.925617779582506017e-01 7.682187403009417270e-01 -1.510844009727031478e-01 -6.221040675266108488e-01
9.302048882360601512e-02 1.679761257181854595e-01 -6.187276881659369288e-01 1.261027954119632311e-01 -4.249039344706426191e-01 8.964121437489880329e-01
-5.840762468308431654e-02 -1.754129831537817319e-01 -7.610290388380969162e-01 9.528654072549737064e-01 -3.033270449255568990e-01 -6.341882492003568170e-03
-3.378431166657694384e-02 3.069879360262881690e-02 -7.847059837144044758e-01 7.710759610298787425e-01 -5.663087858022979315e-01 2.910948667444616111e-01
2.923194891111416394e-02 1.439604990018771569e-01 -7.018157939905934617e-01 7.565646130098725441e-01 -6.401280956243800002e-01 -1.335889498930446784e-01
6.290527712589086273e-02 1.416585637359877026e-01 -6.230688358958571538e-01 7.355118885151284980e-01 -5.317406394016255256e-01 -4.198501569151304458e-01
-5.521919637633625894e-02 -3.277699276024742536e-02 -7.145390551521186850e-01 8.646726577167339611e-01 -1.692350424246719109e-01 -4.729700787709507637e-01
-3.738692053450661662e-02 -2.027957395136376351e-01 -8.063344027756429444e-01 7.304798823090218329e-01 4.062155150942257098e-01 5.489882483610468711e-01
1.161933796769884682e-02 5.942445519990691150e-02 -6.069474160621859404e-01 7.973331765389211068e-01 -5.076284918908887667e-01 -3.264553871678879116e-01
1.688375970746888721e-01 2.133406024180651006e-01 -6.104450669137059249e-01 7.068818271683498244e-02 -2.776969340727820645e-01 9.580645038987555262e-01
-5.306838417893539050e-02 -3.902245186826445306e-02 -8.235627096377076128e-01 8.445957557085671530e-01 -3.683994358814804415e-01 3.885098004957935891e-01
3.717418371798458104e-02 1.918111757496957989e-02 -5.599666363714876915e-01 5.105516294783213338e-01 -1.783974529387352403e-01 -8.411369581833880726e-01
2.063790359662782403e-01 2.445095615174213421e-01 -6.007269793257662416e-01 3.508234379362326627e-01 -7.128213458775624067e-01 6.072961750710297313e-01
7.743583154716107697e-02 3.840782576093587641e-02 -5.369906050728731062e-01 5.789173586359314116e-01 2.565028584398932471e-02 -8.149826714146247708e-01
-1.464118638610730112e-02 -5.096773992501949305e-03 -6.049997338308101824e-01 8.480755753899025251e-01 -9.105200784275412074e-02 -5.219936305117995889e-01
-2.893519867537228812e-02 -8.110129497111569219e-02 -6.151947420284841206e-01 8.531386900229915859e-01 6.994496125599014569e-02 -5.169739625752463041e-01
8.528433115237214757e-02 1.131016420522233112e-01 -5.508183275971946236e-01 6.670837750129215982e-01 -4.031524095075633696e-01 -6.264721636455653497e-01
2.207408868166230997e-01 2.276384587160902029e-01 -5.928799770001582647e-01 -8.185935723949014919e-01 -5.578304801561019266e-01 -1.368565622926644354e-01
-6.328320279998894682e-02 -5.765013313576077686e-02 -7.289762600870597353e-01 9.074120299437924420e-01 -3.599018533103539447e-02 -4.186981185450007747e-01
-2.819251454018883649e-02 -3.501433139625372698e-02 -6.196098367454637712e-01 7.931282436947936221e-01 -2.272243142955028272e-01 -5.650811446567217677e-01
6.460743859757019092e-02 1.512149520610781223e-03 -5.400880259213470813e-01 7.305309332298673963e-01 3.335367399739593841e-01 -5.958840480176008647e-01
-3.081064254646341018e-03 4.941724933323460300e-02 -6.315647987507693184e-01 8.707238098961669337e-01 -4.700303721591405082e-01 -1.446080776714903926e-01
2.509509177796341930e-02 3.370095015712171183e-02 -5.708573617510891429e-01 7.645454980103237874e-01 -1.562938023023822398e-01 -6.253338539004665853e-01
8.529798848532557654e-02 1.439662108509595084e-01 -5.738256958548267894e-01 8.000360172114242552e-01 -4.664185697513055229e-01 -3.773540631232534248e-01
2.764232081408541514e-02 -3.726422914348507393e-02 -5.607874638915374410e-01 6.803935511769677591e-01 2.818574575735521837e-01 -6.764768947473138727e-01
2.015005963170461017e-02 1.300155966583439737e-01 -7.051492858555836740e-01 7.246716312128929083e-01 -6.745212015407984207e-01 -1.409687042829105563e-01
-2.824699666689553870e-02 1.358506748985315732e-02 -6.735402718363503460e-01 8.635460174302749259e-01 -2.344272333270509823e-01 -4.464662899424050035e-01
-1.309269703071746192e-02 3.898961785019754156e-02 -6.663142322233553960e-01 3.692466782034768413e-01 -5.232237844163707408e-01 7.680454166627839196e-01
-4.263024163412574424e-02 -7.154742093694817229e-02 -8.559932820020846878e-01 7.293412232067958412e-01 -4.400915017652994865e-01 5.238137552653405749e-01
-4.592305638056795591e-02 -5.009070710629585227e-02 -7.009053800203330908e-01 8.626860308946507905e-01 -4.578229453948364780e-01 2.148742952733766753e-01
-1.284113863324774611e-02 2.829676468972289888e-02 -6.703926731048911458e-01 -5.579059559498251719e-01 -6.996270273711337195e-03 8.298746872377594785e-01
-1.773030208342516595e-02 7.701492677973587053e-02 -7.386069090831591799e-01 8.981368583661087923e-01 -4.140167867613602781e-01 1.481225301027984109e-01
-6.666898142246335812e-02 -1.403457546164188774e-01 -8.028301934183997846e-01 9.712899102636821658e-01 1.985962406003848324e-01 1.309787900362592294e-01
-3.647256334519222154e-02 -1.987705154028272456e-02 -6.914104629946631331e-01 -3.307788997159930022e-01 -2.718549754680055774e-01 9.037035973237946829e-01
-6.065405141349394791e-02 -1.358615139681606521e-01 -7.411499442527810233e-01 9.459671697045822780e-01 1.439371419596315038e-01 -2.905653334546208777e-01
7.760416819794317689e-02 1.570020787600977241e-01 -6.187608861592897025e-01 7.069796599911476465e-01 -7.072145069914114179e-01 -5.234640359776987321e-03
2.725188475684882025e-02 1.316890602161606139e-01 -6.809528400557672834e-01 8.023616868447487338e-01 -5.660051111757525844e-01 -1.893513601920340517e-01
-3.179797360126909028e-02 -2.325122312353121445e-01 -7.461436429699455086e-01 6.413280152625407959e-01 7.127047851983578930e-01 -2.841659127952765873e-01
-3.364774251083686718e-02 -1.756826290293079240e-01 -8.286645799194347628e-01 5.267130528669720091e-01 7.122760117681056213e-01 4.639356022114234368e-01
1.456206961576253511e-01 1.925733850451333551e-01 -6.030479734598808150e-01 -2.188293097847610613e-01 6.578267419902344981e-01 -7.206786459314850068e-01
3.381977370184188758e-02 1.485153459248540198e-01 -7.186624775954616462e-01 8.407654900085378413e-01 -5.402466295637916582e-01 3.531246317756008696e-02
-6.297678547184744346e-02 -3.835926340134933332e-02 -7.993966659583839895e-01 9.443849835691443539e-01 -4.062865368336596866e-02 3.263224100624779744e-01
2.049144339257731318e-01 2.349972751256133863e-01 -5.876852459388058891e-01 1.089233351514162645e-01 1.197593194225506641e-01 -9.868097144186105396e-01
-5.962230233957894338e-02 -1.539179710206451390e-01 -7.527342257915257129e-01 3.241881955629630774e-01 -4.006389786329918046e-01 8.569658235061321516e-01
-5.692557285789991151e-02 -1.784067454874628186e-02 -7.185678779238647840e-01 9.455484901852195812e-01 1.070449550417770512e-01 -3.073750645523410374e-01
-7.165946627459000851e-02 -9.474302866191210148e-02 -7.634795173440284133e-01 9.409408879601214304e-01 2.706250200505752601e-01 -2.034510847536679379e-01
3.015454189371257702e-03 5.244576332930904472e-02 -6.185789961773446866e-01 8.962195694073696872e-01 -3.749720389078229910e-01 -2.370368187615143063e-01
1.072899118852334993e-01 1.939820285939150568e-01 -7.458377664169733023e-01 7.201739628412643368e-01 -4.742138703550923262e-01 5.064293320971378076e-01
-5.367941720842831638e-02 -1.940998543134344057e-01 -7.299635686215609764e-01 9.346875280904927141e-01 3.224188787285042213e-01 -1.496839719927907930e-01
5.628596481128878698e-02 1.614277354132403752e-01 -7.401995072082178106e-01 8.374125515755286298e-01 -4.586348405248272808e-01 2.973117917616607264e-01
1.207301450165931683e-01 1.084382105105608923e-01 -5.244510750305914071e-01 5.636996355595432773e-01 -1.299759833565324596e-01 -8.156892573894428677e-01
-2.197283526963159789e-02 1.476495183783878978e-02 -6.395620373955430704e-01 9.371690106469223736e-01 -3.220297909071869191e-01 -1.342052877175200221e-01
3.638241403014545738e-02 5.667590310708155860e-02 -5.687373795646768482e-01 6.746330568367927549e-01 -3.984293923781144220e-01 -6.213889747269830677e-01
-3.487442111362683284e-02 -2.041337879915079145e-01 -6.708243036659181646e-01 7.546280004529788421e-01 3.507644461979218531e-01 -5.545276225904390843e-01
5.574937498742893460e-02 1.232890064939348579e-01 -6.171971381540458657e-01 9.018249428285635139e-01 -4.320172236363139517e-01 8.537621087238846801e-03
-6.807730207202088157e-02 -1.433142141784030377e-01 -7.874541163702236668e-01 9.921015733345964760e-01 3.757874855734406189e-02 1.196758365079689940e-01
-2.084460334520402830e-02 7.320542977441754640e-02 -7.088985453559785155e-01 8.271011699084862556e-01 -5.342646543343191334e-01 -1.745420690408006903e-01
-5.947417566972981740e-02 -9.724917722443464363e-02 -6.935343782209543173e-01 9.520446861030842367e-01 -3.029868279148497101e-01 -4.254289333105008147e-02
4.345883653802198876e-02 1.120236605381245837e-01 -6.311560468824585213e-01 -1.300753497389120494e-01 4.144929574633279823e-01 -9.007086052678766608e-01
3.744760579868414846e-02 5.160777261554190531e-02 -5.655044808200744288e-01 5.089723956087222057e-01 -2.929574757299457377e-01 -8.093966999699571119e-01
1.318561564362528971e-01 8.814779405295122827e-02 -5.155341088964902063e-01 -6.951187671621224251e-02 -3.669473155785690222e-01 -9.276409685784000603e-01
-6.541221325239032769e-02 -3.192258292222051319e-02 -7.457806306538288244e-01 9.691419353161327965e-01 -1.741113421998416733e-01 -1.744968473327526970e-01
1.231746279161006763e-01 1.408971851104388884e-01 -5.441606045455852358e-01 5.839365980175135196e-01 -2.948331637566458108e-01 -7.563672752340491190e-01
-1.036641185413933464e-02 8.276798505528229488e-02 -6.925262227069106657e-01 9.452249874581126754e-01 -2.482091094336782711e-01 -2.119951911694012148e-01
3.706437232897535905e-02 1.455390924599002656e-01 -7.404371895717998253e-01 5.838215120881961040e-01 -7.744692466374162310e-01 2.436182013641945698e-01
1.055053624447625238e-01 1.827651012818888587e-01 -6.096501712218309610e-01 6.109255981087595710e-01 -7.867265081135224047e-01 -8.849471739577696727e-02
-3.257306452107198297e-02 4.922104826857836429e-02 -7.107214317010879245e-01 9.508217285029518795e-01 -2.401394036892400274e-01 -1.956300268425971711e-01
-4.871549928194147949e-02 -2.181266089145724452e-01 -7.779980635784833343e-01 8.434744044483046821e-01 5.086686958071030551e-01 1.726472905853972950e-01
1.761496312969813502e-02 8.680021366762770418e-02 -6.422239507726100749e-01 4.999793640934935279e-01 -4.276650756684462207e-02 -8.649807288669505434e-01
1.039351560355109838e-01 7.189628223870594970e-02 -5.247019698868108373e-01 3.240188627691110712e-01 -2.345317682798060133e-01 -9.165187538928810662e-01
-3.404641356802673435e-02 2.592026529893394146e-02 -6.962965010760265860e-01 9.378760339531004853e-01 2.271253321533713357e-02 -3.462263504867084118e-01
-3.547002946610069291e-02 -1.331851803399359269e-01 -6.320990032896548483e-01 8.414471555958570326e-01 2.834922569903298717e-01 -4.599987223527588487e-01
1.936028960455641601e-01 2.377581356374997568e-01 -5.915982420487883031e-01 4.284737590671061636e-01 -5.229773643548198958e-01 -7.368208155063140641e-01
1.996970557709872585e-01 2.322291546068613599e-01 -6.073428940196743397e-01 1.260515992699538235e-01 -3.390953141304568486e-01 9.322689323667574524e-01
-2.333264683039634399e-02 4.484967596316056723e-03 -6.779628551055637553e-01 -9.132887147592918531e-01 4.026406215978526326e-01 6.151628510090371982e-02
-4.077564832508698278e-02 -3.490579398232302594e-02 -6.531650251977222377e-01 9.002024659190919209e-01 -3.681394168126019828e-01 -2.326131770602504201e-01
2.011397849256220394e-02 6.455306934278659536e-02 -5.980351955381690843e-01 8.304006498310133599e-01 -4.092470958274138093e-01 -3.780893747740844968e-01
1.728897664200562123e-01 2.039938517530303086e-01 -6.084800866149964182e-01 -3.849029874984591926e-01 6.705156099981757212e-01 6.342385252911836302e-01
3.175785700449518939e-02 7.405679144396391800e-02 -5.844962662818014021e-01 7.908261507759497544e-01 -3.375481845569426320e-01 -5.105440454566159136e-01
1.972486014235213386e-02 -3.153800400706608959e-03 -5.675731341824734599e-01 7.164685654985384344e-01 9.040044805314309539e-02 -6.917373444048380282e-01
-3.764781071898509746e-02 3.168100194672702347e-02 -7.102856833740953668e-01 9.215413071511647791e-01 -2.902925303367842602e-01 -2.578601676195646508e-01
-4.426095162147762607e-02 -1.187328864842803755e-01 -6.417037001628409509e-01 8.456537812184419245e-01 4.639305960006624707e-02 -5.317117323624676040e-01
-5.553750906920040115e-02 -1.689492588426159125e-01 -7.572323130855055373e-01 -6.055414100224573160e-01 3.228641525269886903e-01 -7.273777146442167441e-01
1.563283863494460690e-01 2.144090255653127441e-01 -5.975298877657818641e-01 4.461600586467255325e-01 -4.887870358387955694e-01 -7.496855578602766856e-01
-5.851520274773621549e-02 -1.116217327050141317e-01 -7.285454530400666817e-01 1.341177542979166692e-01 4.398805446075203518e-01 -8.879850981057481052e-01
-4.955218772253335013e-02 -5.224871913902780912e-02 -8.303674909486731259e-01 8.265231182290272427e-01 -2.496823325830373752e-01 5.044980355054510257e-01
1.998085550845966896e-01 2.283385725232888741e-01 -6.086031148903109367e-01 4.270498026697710364e-02 -1.965898326616202785e-01 9.795553697236687452e-01
9.393312323848035383e-02 1.921635314892275181e-01 -6.450079456809524325e-01 7.865023597763768359e-01 -5.506910113080478730e-01 -2.795593821189158446e-01
2.004720183349020524e-01 2.419895384279353578e-01 -5.906904238713462929e-01 4.717387392478964991e-01 -6.389143722711082551e-01 -6.076602560627284433e-01
-1.974946064329818202e-02 1.311521946411383678e-02 -6.758233266733010280e-01 -6.559968921719590007e-01 3.196473272115477743e-02 7.540864229800164908e-01
1.634484362537413360e-01 2.117497219749088500e-01 -5.953104728965074033e-01 1.162830859679514078e-01 1.230204087709545896e-01 -9.855679697228382219e-01
1.735281606090413875e-01 2.061893843614941990e-01 -6.098315555691983247e-01 -2.694457961059315565e-01 3.893945814480159195e-01 8.807785322654981819e-01
6.937528758219820013e-02 1.628213702118601336e-01 -7.561287517527962576e-01 3.358647061688320723e-01 -9.052395305383349466e-01 2.602619670656061701e-01
-5.759977070284197365e-02 -1.040865302750107191e-01 -6.725486801255012859e-01 9.937753203978750838e-01 6.345381920321686853e-02 -9.156541594197223355e-02
-3.351239295588052947e-02 -2.307438878529136650e-01 -7.457487110766558569e-01 6.495670631554515406e-01 7.369458873585632563e-01 -1.870117364469446319e-01
1.562080006886502198e-02 1.102173350755651232e-01 -6.716287288143364398e-01 8.678659615426134177e-01 -3.940108188198210848e-01 -3.025956831295668614e-01
-2.081308123153600195e-03 1.040102840575687082e-01 -7.190481766199360303e-01 9.013097354110489734e-01 -4.322953599830001714e-01 2.759497400674927256e-02
8.454376491573149799e-02 7.446277714196350428e-02 -5.342511086518703101e-01 4.965894022498872351e-01 -2.355819656797408512e-01 -8.354041554957513105e-01
-5.525651514749753412e-02 -1.350275821113486319e-01 -7.424824383604149425e-01 -9.459671697045825001e-01 -1.439371419596315593e-01 2.905653334546209887e-01
-5.739833448995043663e-02 -1.913419768854103531e-01 -7.473574706938537204e-01 9.144151526594282986e-01 3.523748726631041328e-01 1.991905562583116407e-01
1.514378275615729449e-02 4.572817141622719656e-02 -5.887050448691675264e-01 6.991620490697613155e-01 -4.366093739540418128e-01 -5.661666571920606073e-01
-1.295491402797163336e-02 -3.844475417085790186e-02 -5.957086247572315196e-01 7.898950750178258540e-01 -3.070575175740819854e-02 -6.124727971686545480e-01
-5.812746902871544080e-02 -9.062667433109686255e-02 -7.008978260239500102e-01 9.909654020106271055e-01 -5.953365342766277907e-02 1.201803483414459056e-01
1.579702729525563620e-01 2.175269080494022234e-01 -5.996212339617201792e-01 5.448653377271932552e-01 -7.950110167855494181e-01 -2.666069146384589805e-01
3.897212082592790838e-02 5.627191436012825981e-02 -5.659464532715746676e-01 6.976975421271266464e-01 -2.437020679450010163e-01 -6.736671595002212687e-01
1.623507354431348859e-01 1.997514653628301717e-01 -6.104320455076744922e-01 -3.227259803858288922e-01 4.755039995762125882e-01 8.183788169124557310e-01
2.032480844514268914e-01 2.454509526007695730e-01 -5.951636819727758043e-01 5.070870659841665296e-01 -8.613820816229138533e-01 2.972569545940000404e-02
5.161609772455426348e-02 1.614121230345936242e-01 -7.253914600713750049e-01 8.038717682523666141e-01 -5.575596955210033734e-01 2.071650697809346020e-01
1.951442334210031215e-01 2.406613270774311253e-01 -5.956273129831306523e-01 5.051840502928121035e-01 -8.603781238639935935e-01 6.736883037446830813e-02
1.239055076314001386e-01 1.863371751138290233e-01 -6.038222742188972259e-01 -1.670945907277675583e-03 3.403822157888187760e-01 -9.402856773951568936e-01
-3.480961396396532737e-02 -2.162656321305078677e-01 -6.971864491297834476e-01 7.094930665882572818e-01 6.754846969686837399e-01 -2.008482328135257344e-01
-1.193440013480841742e-02 3.149483592199110032e-02 -6.637556074096313541e-01 -3.525713326902885081e-01 5.508242645325057696e-01 -7.564959252813052704e-01
-6.222683256921214545e-02 -1.600970709637490885e-01 -7.086574571404598011e-01 9.700659661804795775e-01 3.289938091108364493e-02 -2.406026849268319001e-01
-3.296373597787315840e-02 -3.586461035234341649e-02 -6.261289101737190776e-01 9.160120412850142335e-01 -1.733198400969866715e-01 -3.617764133406380367e-01
-5.647131261874092922e-02 -8.875364243216438695e-04 -7.368461332214844006e-01 9.952579341824792092e-01 -9.455399037683859254e-02 -2.282952804244747086e-02
1.725439527988585284e-02 8.820424445933734703e-02 -6.434165071734971875e-01 8.110761258560970077e-01 -5.379678084115062653e-01 -2.296653112230608029e-01
-5.311957499842833580e-02 4.977614844427036105e-03 -7.239991406796608686e-01 9.796559364766848077e-01 -1.237620820884643563e-01 -1.579784579084057561e-01
-1.480447193714909751e-02 -1.090291876456720849e-01 -6.036773820762076914e-01 5.979082854709706352e-01 5.062214850663160348e-02 -7.999644243625693152e-01
1.816034321864500381e-02 7.423326539924118839e-02 -6.477925766581050793e-01 -5.803544692398600047e-01 6.191208640870636826e-01 -5.290350136667779646e-01
-3.190798800009334718e-02 -2.065780072308920079e-01 -6.684570175366608691e-01 7.044996751475538499e-01 3.322966866269709829e-01 -6.271037551902620688e-01
4.374127765438205057e-02 5.009657664192004867e-02 -5.588844044546957823e-01 7.570249125725398986e-01 -1.251934440052701603e-01 -6.412798790876238497e-01
-6.543964391163847871e-02 -2.961904981362336806e-02 -7.509485040927202926e-01 9.745074525934624976e-01 -2.149312813293536018e-01 -6.434103780576393150e-02
8.888999377199001406e-02 1.227178147339535730e-01 -5.503035331507791783e-01 6.056364939564241601e-01 -5.161809304140070331e-01 -6.056085239369574102e-01
1.159078336483647109e-01 1.760244286478434561e-01 -5.838375123004176936e-01 7.007183556829584825e-01 -6.757214801265447601e-01 -2.288979408045482833e-01
-6.103181842487520603e-02 -1.405666376912641236e-01 -6.901145392970243764e-01 9.754175761373077291e-01 1.181200328257421550e-01 -1.860328197057313504e-01
1.335828009077152101e-01 1.889843883123640822e-01 -6.031509582582256224e-01 -5.997914172716052594e-02 4.455916345546053758e-01 -8.932248304725011190e-01
6.585318860936953400e-02 1.366381090924943253e-01 -6.100847239968185676e-01 6.831781541258071799e-01 -7.297408841921645406e-01 -2.731028494345249732e-02
2.804541756061027652e-02 1.329057512158521026e-01 -6.808340562013518449e-01 8.579620388001140130e-01 -4.875409000773538448e-01 -1.618796180181910072e-01
-3.180589502431109550e-02 5.580864489432452863e-02 -7.370729103387361203e-01 8.960979479546419268e-01 -4.431772420520153077e-01 2.454383422877024976e-02
-5.419261732419757699e-02 -2.001997876259585529e-01 -7.574197110107585562e-01 8.772599199734660846e-01 4.744074811760523591e-01 7.316129176238919674e-02
-3.840240298442298278e-02 -2.474902298431893438e-02 -6.473316845894234728e-01 8.418690402992781152e-01 -3.935482088007294932e-01 -3.692916548411430688e-01
-2.867172204459243409e-02 -2.380856014722780231e-02 -6.245880849780357513e-01 9.171797267537361575e-01 -1.704182219921487607e-01 -3.601929738972941553e-01
-4.517822287311647894e-02 -2.038402273802566722e-01 -6.924251027493041333e-01 8.531605312954346765e-01 2.772120270928665753e-01 -4.418943311186007694e-01
4.762590917939250879e-02 3.975989437874825894e-02 -5.534964552192929155e-01 6.872398623163491482e-01 -1.993843907054694276e-01 -6.985322013954792242e-01
1.545822672428009692e-01 2.127898019453907941e-01 -5.975482721714008294e-01 3.840594814667672718e-01 -3.511328530434610351e-01 -8.539344437420457457e-01
-7.038895069661917081e-02 -5.975285610015857590e-02 -7.680959710173260735e-01 9.909803369555033603e-01 4.148430959787259044e-03 1.339431307985933239e-01
-4.123255260157827895e-02 -2.100906700933504734e-01 -7.024680754647765202e-01 8.259125537376215132e-01 5.100940486166851695e-01 -2.401510256993280856e-01
9.266716763722541994e-02 1.668708155616665245e-01 -6.192994038637174015e-01 9.444095261754544002e-02 -4.570930015112226186e-01 8.843906910625822793e-01
-3.742190771448343414e-03 7.964399763735928927e-04 -5.917071263777827772e-01 7.222504517274639380e-01 -2.218881395826136083e-01 -6.550724681224523449e-01
1.520887902452697400e-02 1.407804622225619119e-02 -5.771102812564220530e-01 5.945491980220064532e-01 -2.176219785568814791e-01 -7.740490459785978050e-01
-4.527862464920970331e-02 -7.209673471451411020e-02 -6.424845082828649634e-01 8.766660587286657647e-01 -1.088321012355376871e-01 -4.686279923498010147e-01
3.609494817225798041e-02 1.420470402200333104e-01 -7.402520326133401607e-01 7.543665186463696104e-01 -5.940129710295120047e-01 2.794275322763464797e-01
-4.656139601757185859e-03 -2.203436136447203542e-01 -6.502521813874564405e-01 4.375027590475899508e-01 4.113475068080960258e-03 -8.992076596363105523e-01
1.563197485531494244e-03 1.029873822577588582e-01 -7.486133494798128396e-01 7.353457076297661432e-01 -6.378571362463042460e-01 2.289213052779101032e-01
3.732210242834597957e-02 5.514170521326702823e-02 -5.671037915180231481e-01 6.733438881383959629e-01 -3.364244494882470127e-01 -6.583514244635590984e-01
6.031893688633495343e-02 1.153092868319709197e-01 -5.787045977884153203e-01 8.303844096769822380e-01 -4.091454437798259791e-01 -3.782350301064392739e-01
-7.214112720837781434e-02 -9.907782935778131073e-02 -7.966921917773925887e-01 9.759223567807429056e-01 1.455284055356869111e-01 1.624716489660918695e-01
-3.589752111317108529e-02 2.865853458282631439e-02 -7.023372489868886515e-01 9.516658238881013920e-01 -9.795639329097272086e-02 -2.910956967335751600e-01
4.740454139654234206e-02 1.482353499163892585e-01 -6.626222016553869887e-01 8.240308488481551397e-01 -4.729536418229086103e-01 -3.119102640713137253e-01
1.265636238832830440e-01 1.952345384495615122e-01 -6.029476854447021195e-01 4.198896904512928741e-01 -3.903611887633490207e-01 -8.193355784780632645e-01
-4.798193224500509058e-02 -1.003910974520752647e-01 -8.540288068659109832e-01 8.167704584262061029e-01 -3.186461230909410358e-01 4.809892581766849751e-01
-3.298979399873501472e-02 -2.301572196543571203e-01 -7.585216788052610015e-01 7.007183556829712501e-01 5.915281800315038696e-01 3.988586193597550289e-01
4.006979688072140333e-02 6.388677768547275024e-03 -5.532276926129249262e-01 4.154592343002115329e-01 -2.226553228528999895e-01 -8.819400386874114428e-01
-6.018965268948470865e-02 -1.293671989517424514e-01 -6.844237454011792288e-01 9.628331151836034829e-01 -4.289909637352996852e-02 -2.666684455202233406e-01
-1.899998403817102638e-02 4.362097786250311582e-02 -8.036458920759622648e-01 6.978880236393204539e-01 -5.244350834126033645e-01 4.877705913099097401e-01
8.743801676947275670e-02 5.779003963078217787e-02 -5.291891702382799378e-01 7.143892984129115442e-01 6.791369999440549643e-02 -6.964450155368892004e-01
-2.892203895097136129e-02 4.794193229349209134e-02 -7.735764887888428865e-01 7.581325625427364212e-01 -6.104264060046009632e-01 2.293787707367229700e-01
-5.221640336737297383e-02 -1.045168255240902094e-01 -6.546823670142984941e-01 9.463311976870465436e-01 1.436014803414858154e-01 -2.895442610861659327e-01
1.200362306630848724e-01 1.804597305411311803e-01 -6.151328226252996689e-01 -1.734301609007560807e-01 1.518114145630008460e-01 9.730751634371924697e-01
4.945963437881072816e-02 1.119386776084126817e-01 -6.354570840162591105e-01 -7.737581976382205129e-01 6.063249163528620089e-01 1.834893658971750718e-01
-3.893853863133244636e-02 3.306259332827209824e-02 -7.171110720069455713e-01 8.609012870125056782e-01 -4.399344830410772400e-01 -2.555516085873684728e-01
6.373523122535541818e-02 1.524977472219568309e-01 -6.386401524612163039e-01 8.526561282169404787e-01 -2.916148941079561019e-01 -4.335184892810250989e-01
9.923627611710583718e-02 2.051474530391846421e-02 -5.268500218099648746e-01 -1.179655042962147876e-01 -3.025569270150961776e-01 -9.458030692016817786e-01
-1.198142265894593453e-02 -7.790826026053884745e-02 -6.001731847770752637e-01 7.640968045325948754e-01 1.866272044777357308e-01 -6.175162830662063174e-01
5.927813748573912411e-02 1.637228743835339173e-01 -6.587348644463102421e-01 8.541067594547092634e-01 -4.162063293631091399e-01 -3.118876958968767044e-01
9.566012598242570886e-02 1.736085595639724477e-01 -6.113601739622523956e-01 6.412800471361393972e-01 -4.319242215806060048e-01 -6.341934783305949175e-01
-5.048204237283614171e-02 -8.351092903890844354e-02 -6.531991252702378237e-01 9.522212891230948939e-01 1.629094849598264685e-02 -3.049741325716866513e-01
4.578485405528497088e-02 1.412277584806024000e-01 -7.636490827013788785e-01 8.586500754917895106e-01 -3.568633372529262382e-01 3.679247292350008025e-01
-5.064732155905735111e-02 -1.703072991259082236e-01 -6.756786472337573679e-01 8.420195562300513137e-01 1.895742882796045969e-01 -5.050392619880447187e-01
7.624623499356521228e-02 1.183740988141720324e-01 -5.609191039972940551e-01 7.614935778354330331e-01 -3.719864125231602259e-01 -5.308047096753575333e-01
-4.790375418744565600e-02 -7.698119952801986410e-02 -6.478842849503879675e-01 9.354370972785317484e-01 4.257951212842399358e-02 -3.509193955625992678e-01
-2.895479007777579730e-02 4.115560896419011988e-02 -7.873991507869910755e-01 7.336678092272264085e-01 -6.252879960127940562e-01 2.659820816258609555e-01
1.016179849204997404e-01 1.406924827664027267e-01 -5.534003682794182977e-01 6.795911906032278127e-01 -3.377312787542031680e-01 -6.512245365505955341e-01
-4.332983300956122497e-02 3.085937218907092161e-02 -7.433222326269298685e-01 8.791334860019995867e-01 -4.748756557308858595e-01 -4.021722745458141540e-02
1.814683698387528285e-02 7.654376358259375179e-02 -6.225067894364874066e-01 7.552084571425091708e-01 -5.950400949677641105e-01 -2.749317581531552923e-01
1.279157952532141394e-02 8.078656231965347656e-02 -6.491041857708197416e-01 4.731640174965114909e-01 -6.181086659826221519e-01 6.277399856499060737e-01
-2.569061016298919420e-02 -1.003691766052748069e-01 -6.130554558329389669e-01 6.903109759698391468e-01 -4.092759112962704470e-04 -7.235126736614893028e-01
1.517336110012377226e-01 1.397893433926973572e-01 -5.378554150692015368e-01 1.463254588700556823e-03 -4.123155636706417604e-01 -9.110399194552176727e-01
-6.275243418846981891e-02 -1.311756628144979675e-01 -7.041396970123126042e-01 9.998811805231152539e-01 5.441859727223222892e-03 1.442258639810477944e-02
-5.564894758121646107e-02 -1.031154546007893302e-01 -7.244556073774023330e-01 -1.770177837445514046e-01 4.642091494303097754e-01 -8.678563071288676323e-01
3.840764285060265654e-02 1.101726003115137825e-01 -6.392300297233424189e-01 1.375490000097692733e-01 -4.045655942264212990e-01 9.041056091876298328e-01
2.714827419275435069e-02 -5.828241336665451744e-02 -5.634379471768171666e-01 3.853334089058860767e-01 -6.045051968915023805e-02 -9.207952533817064245e-01
-7.267421117615183689e-03 5.151734410254341784e-02 -6.570022894182241391e-01 7.862004841091154717e-01 -2.648610470121846583e-01 -5.583345095569517413e-01
7.765391197889540131e-02 1.421508172668610182e-01 -5.925607844602163166e-01 7.942073080140926722e-01 -5.770258578088813817e-01 -1.904623619430686754e-01
1.358480013328223213e-01 1.997995097861913760e-01 -6.007118931788726357e-01 2.567219091990144975e-01 -1.102919275703008878e-01 -9.601716263512687366e-01
5.308547822980346637e-02 1.146281807846029482e-01 -5.974679347374995952e-01 7.947655626179652710e-01 -5.211475308950824781e-01 -3.110513647591152120e-01
6.337122694466433559e-02 1.320271993164643387e-01 -5.995615508116195480e-01 6.450588764151374832e-01 -7.189940451295956381e-01 -2.587404278929393842e-01
-5.122091421093553920e-02 -2.117817642326774441e-01 -7.630035413286665458e-01 8.636578591136769845e-01 4.971454648356380956e-01 -8.331559988704217989e-02
-5.564819325195097949e-02 -3.711626004522693839e-02 -8.173285268734268305e-01 8.772191745984369016e-01 1.169077354404453144e-02 4.799477529177307855e-01
1.852034995269877804e-01 2.339384655391292256e-01 -6.001579951167855809e-01 4.553661990868880793e-01 -8.320836395415625031e-01 3.166677147049060670e-01
-6.090543091408983506e-02 -1.488048365048562638e-01 -7.353018386980814114e-01 9.204126773558760632e-01 1.065029966902746039e-01 3.761616873879894962e-01
-5.118320784967544945e-02 -7.321114420790256205e-02 -6.582046637155999358e-01 9.363195045687146001e-01 -2.240150398118552766e-01 -2.704127350963519416e-01
-6.785501322597690954e-02 -4.464204699665629689e-02 -7.803640033835501644e-01 9.788318053946591935e-01 -1.848033917178707186e-01 8.795455165824705990e-02
3.971087016634288445e-03 -8.265735800647558418e-03 -5.808155819172249323e-01 8.002912295197229797e-01 -1.273152033954682780e-02 -5.994763184177118731e-01
5.803319318030069666e-08 -1.094626904504735487e-01 -5.925783113319406104e-01 4.759809417723575020e-01 7.770129347347946858e-02 -8.760163537640422993e-01
-5.390958514985295935e-02 -6.806074295396434548e-02 -6.849993014516387868e-01 9.402279821012557992e-01 -3.395372294774103850e-01 -2.618800245542001262e-02
-5.093842108451542700e-02 -6.307714220809569616e-02 -7.106014959959285893e-01 1.958708253994124460e-01 -4.100241864912373968e-01 8.907944691395159875e-01
-1.973532608144445283e-02 -1.343449944088246362e-01 -6.180852812035839694e-01 5.943884905383570727e-01 1.362942062254517694e-01 -7.925441386225171581e-01
