1.743681437312656624e-02 3.968996623674293789e-02 -6.841543244472324536e-01 -2.245592365928714418e-01 -1.600320903249338733e-01 -9.612298785030867210e-01
-1.409147610579369533e-03 6.180456214483328464e-02 -6.785815067024112412e-01 -9.414888101447840274e-01 -3.317700324806783230e-01 5.939247359665138920e-02
-7.987310545035597453e-03 8.083636071849552296e-02 -6.792605169259656739e-01 -9.392188372350728232e-01 -3.314259244614637945e-01 8.958142875430322172e-02
-9.854420879936139077e-02 1.557828308773198667e-01 -6.511272335518173415e-01 -9.575564626130281254e-02 -2.523608582480126317e-01 -9.628836136488181374e-01
7.380187896807739734e-02 2.193690157753021980e-02 -7.197416861668829435e-01 -7.198743934493658791e-01 -1.648211264048442815e-01 -6.742513284722144729e-01
-8.878092134814881409e-02 2.382444307648760307e-01 -7.019866980255805577e-01 7.187591276869398360e-01 1.995845407907238245e-01 -6.659964920658856258e-01
-8.048360651933818277e-02 3.134232856715896826e-02 -6.381539239224592874e-01 -8.606074629718224456e-02 -1.072391569232420544e-01 -9.905015452633904038e-01
-7.195036156724632370e-02 8.927461310552248230e-02 -6.435528434232157258e-01 -2.877403717865222865e-01 -6.601469138928366120e-02 -9.554305516179245616e-01
-7.869110592466170562e-02 2.247627093184998148e-01 -6.956259150837577065e-01 5.684486458259508934e-01 5.797311266658768808e-02 -8.206736594203507540e-01
5.706600153642377854e-02 -1.954149450672676147e-01 -7.859656708933072666e-01 -7.236973064590291882e-01 4.833825630701161225e-01 -4.925479736469448588e-01
-5.093826148849320973e-02 1.830464656531372858e-01 -6.839599638193912812e-01 -4.589361727246601963e-01 -3.416909998882026733e-01 -8.201370921743761366e-01
-4.248964834336864393e-02 1.577796194251364359e-01 -6.900293693231569492e-01 -4.740279417931229644e-01 -8.931688267262283265e-02 8.759680387257404721e-01
8.329771974253356859e-02 -6.228116663682232296e-02 -7.335784060431631559e-01 -6.872835564332477887e-01 7.443721948182266401e-02 -7.225651620527259178e-01
-5.350255012759792296e-03 -9.755728824001888566e-02 -6.786694522685621234e-01 -3.943088645297691541e-01 1.790000467098766812e-01 -9.013764488997403346e-01
-6.598016929892826232e-02 1.681052634084143349e-01 -6.698457855669328609e-01 -5.475265014071794001e-01 -4.079839163423992776e-01 -7.305914414108148902e-01
-4.911650167252072652e-02 -8.631217048255521163e-02 -6.548858982710208387e-01 -1.962765080697867759e-01 2.418174295474881386e-01 -9.502630494484022305e-01
2.247245273498502463e-02 2.159587815657753110e-02 -6.865389433434205824e-01 -2.914944932029243652e-01 2.049158454385491268e-01 -9.343663396765610196e-01
1.729692060094693840e-02 -4.047041965390695689e-03 -6.857566517792719196e-01 -9.187740036024882873e-01 -2.688953688276541354e-01 2.890494956357732015e-01
-8.772728284457816106e-02 2.503645746582371934e-01 -7.172932901254818194e-01 -8.430676314495295642e-01 -2.809747140718307779e-01 4.585740712843818234e-01
2.823750718455014797e-02 1.735845168791400051e-01 -7.245112076706935467e-01 -6.568784239750908860e-01 -4.786154746875489474e-01 -5.826130478333052531e-01
-7.355311119841480283e-02 1.654009995450392845e-01 -6.637346452611937453e-01 -4.547402451172994353e-01 -3.490268222768320161e-01 -8.193848831910405250e-01
-5.278812280999933826e-02 7.264955166911832296e-02 -6.466414553966918222e-01 -3.328080584915125151e-01 -1.193403640640520735e-01 -9.354125687140243395e-01
-1.936534952584183927e-02 -1.271695312911691744e-01 -6.784458150983347924e-01 -3.629375011411274943e-01 4.522357535000052220e-01 -8.147141790356398072e-01
2.471550798536363211e-02 8.265761079818646773e-02 -6.898339601746098504e-01 -4.060396920551332389e-01 -4.636299598907411140e-02 -9.126786077687423226e-01
-1.217188889898386389e-01 -6.297029493845117398e-02 -6.610402981697025560e-01 4.425934376998038045e-01 -4.899320211232529587e-01 -7.510510392664095924e-01
8.574314389043588558e-03 -2.226040012449313488e-01 -7.790096412297662365e-01 -2.674383037867217872e-01 8.863433315874224006e-01 -3.779844602866494485e-01
5.373419438965600092e-02 7.675572602594540883e-02 -7.107655457389643328e-01 -6.779643885222840227e-01 -2.862660711403749447e-01 -6.770642690391064367e-01
5.019464267941903951e-02 -1.211142033572765314e-01 -7.302658034086024763e-01 -3.592727215678965802e-01 3.237325074470575603e-01 -8.752830257460940677e-01
-1.184027406282319866e-01 1.385210064935955832e-01 -6.469806867228926617e-01 -1.532293789498211101e-01 1.831928326362071077e-02 -9.880208303914240764e-01
-1.201570222433025470e-01 2.885571877499272797e-01 -7.220547629232132447e-01 4.603626274250963157e-01 -8.321182478710298369e-02 -8.838224049467531263e-01
1.119201033293319852e-01 -7.431948737741135569e-02 -7.863407832387105945e-01 -9.343730694102415635e-01 2.243102046196307486e-01 -2.768246724271218873e-01
-4.693325586413332751e-03 -2.009520345790619111e-01 -7.389802369207215671e-01 -3.773426343210667389e-01 7.448916763746267211e-01 -5.502262505473869414e-01
1.033416344069651854e-01 -6.760776968586672264e-02 -7.678711158844651052e-01 -9.115780473010413054e-01 -9.830344582214324903e-03 -4.110095230091582175e-01
2.034029371871757044e-02 -2.775333658443348769e-02 -6.878284383080461861e-01 2.433972740112990210e-02 2.694485118964361492e-01 -9.627071606188637443e-01
7.158534648314225472e-03 1.520233528464904338e-01 -6.999555475232630553e-01 -4.345572297089176361e-01 -2.467793383334165591e-01 -8.661754858453521999e-01
-7.280816287898134176e-02 -1.848304482776455815e-01 -7.027056094585654167e-01 1.609825744570258510e-01 3.503953772025347746e-01 -9.226633678413169726e-01
-1.073784935693993803e-01 2.589286424344428572e-01 -7.301769417385775007e-01 2.580970955764402830e-01 6.259567219274291272e-01 7.359103692222804805e-01
1.009547136209835577e-01 7.510488334200191886e-03 -7.679691076296132346e-01 -9.224857792576551807e-01 -2.753953047346910377e-01 -2.705132403367410121e-01
3.878727507758481657e-02 1.543718064872365292e-01 -7.303990401207949290e-01 -7.203011911816388224e-01 -4.200683663906098486e-01 -5.520043129724951925e-01
-4.433850873808799220e-02 -1.961692590581263496e-01 -7.154732462618672573e-01 -4.179752286681841233e-02 5.914389777714124108e-01 -8.052657341864886131e-01
-4.304940291396869290e-02 1.613634330823464635e-01 -6.899577113915732474e-01 -4.733977176760553740e-01 -8.885897500568341878e-02 8.763553408635341713e-01
4.829643193692964576e-02 9.635983998702112030e-02 -7.107380066418137465e-01 -6.537304282025101498e-01 -1.915638426412326345e-01 -7.320791087271156794e-01
-2.205235775187501523e-02 1.962720675340279552e-01 -6.989260725613792857e-01 -3.045177497816073942e-01 -1.832425329450790841e-01 -9.347144559638617123e-01
1.402175481709517016e-02 1.716196646701361739e-01 -7.094241143472602706e-01 -6.164892420543445217e-01 -4.319087069576055260e-01 -6.583280969892361112e-01
5.572917523113059268e-02 7.626972373507247271e-02 -7.126408652142086630e-01 -6.685196407212916636e-01 -2.837556546578615113e-01 -6.874330646830741909e-01
1.140145124111466707e-01 -7.456071492863590444e-02 -7.922460085746996228e-01 -9.213520007185626026e-01 -1.008294700095209023e-01 -3.754249708656862139e-01
-1.282657945401368960e-01 2.821502071620856644e-01 -7.361744770151437134e-01 8.161012218945810082e-01 5.568824505921577961e-01 -1.544691938369744111e-01
6.107276338854923659e-02 -5.067189187358274449e-02 -7.119695612277786578e-01 -5.783508799143042278e-01 7.938164291709673415e-02 -8.119167534114150042e-01
9.682840844098890287e-02 -8.176774728952336535e-02 -7.559892784095021412e-01 -8.341044867769499271e-01 3.008161777551205396e-01 -4.623627713596334399e-01
6.075249343224214948e-02 9.523061418565412217e-02 -7.242449097764782628e-01 -7.476607625681184199e-01 -3.456669667338626573e-01 -5.670253364930621931e-01
9.295781393793670078e-02 2.116141582215932265e-02 -7.474611909146927635e-01 -8.857151063138959390e-01 -6.500356908802874811e-02 -4.596556172322732170e-01
-1.268145582575417041e-01 1.140248649980485085e-01 -6.445054298955953387e-01 5.277154764808269366e-02 1.397095451392954268e-01 -9.887853188411513949e-01
-8.116189372855912854e-02 -7.083629164434601666e-02 -6.509126414091834789e-01 8.720357855798664681e-02 3.621053141490330196e-01 -9.280491783045288212e-01
-2.590032138777782766e-02 -1.324109814200741531e-01 -6.785997429343472165e-01 -2.238425469013111679e-01 3.807096957092634404e-01 -8.971926447478792976e-01
-1.006055463008314055e-01 1.331148348910240475e-01 -6.470069966597499223e-01 -1.006739292109741918e-01 -2.415724907663768795e-01 -9.651463576484928808e-01
-2.392076589116483992e-02 2.067063751505421876e-01 -7.041123626357050913e-01 -4.260796392716360570e-01 -2.987831809457538457e-01 -8.539231533235817073e-01
-1.598988563380362299e-02 1.175739767615040510e-01 -6.834549875691842136e-01 -1.485566972436003774e-01 -3.191009446995217436e-02 -9.883889181769450749e-01
-3.301929214261019319e-02 6.802271007725620156e-02 -6.547368782788570707e-01 -4.233975576177974043e-01 -2.773380375626996464e-01 -8.624489092834164428e-01
1.378197640414295135e-02 9.837111479672558390e-02 -6.893754363538185936e-01 -3.866470858765421736e-01 -1.246371828579900254e-01 -9.137667118211308948e-01
-1.043557917201269336e-01 1.406034556037449312e-01 -6.482943646447949515e-01 -2.667829675445118967e-02 -2.124960783108698348e-01 -9.767976684988464164e-01
-4.448643881998959326e-02 -1.878863599870856937e-01 -7.054945380942952982e-01 -1.308580316183561298e-01 4.984336664119723426e-01 -8.569947816341052516e-01
-1.155736249853728526e-01 2.895784838862359156e-01 -7.206534568865625712e-01 1.390688641327013086e-01 -3.251614867850774471e-01 -9.353768537549761453e-01
8.856775783142267766e-02 3.884657324594398796e-03 -7.392316521262846107e-01 -8.344533949302808118e-01 -2.149796063281818326e-01 -5.074162990605531887e-01
8.503138806632380697e-02 -1.704758439132307221e-02 -7.350185393294684788e-01 -7.861692739940456809e-01 1.113828004474799521e-03 -6.180102199922355988e-01
7.091314137540741247e-02 1.101752168915311192e-02 -7.147784328732356141e-01 -6.591444025262843676e-01 -1.348543870031540803e-01 -7.398262978052830841e-01
-1.259819666099482038e-02 7.164083150721485549e-02 -6.818043209372152136e-01 9.295847551433785716e-01 3.247108663876753787e-01 1.744564021605121140e-01
-2.455945744553648946e-02 2.439760035233076187e-04 -6.511616404217706044e-01 -4.700893809826786618e-01 -2.731417471321470267e-02 -8.821960721670993877e-01
-9.221877586429261253e-02 1.779982449446232129e-01 -6.610266059918021853e-01 -3.834874619304042276e-01 -1.723498649723124998e-01 -9.073218230518885763e-01
6.285527591625619803e-02 1.153198627169209067e-01 -7.395820408616344821e-01 -8.439618308997566265e-01 -2.346270769575234116e-01 -4.823676634505046357e-01
1.002157350449961182e-01 8.897569070460681698e-03 -7.667121799712953711e-01 -9.467285647892778044e-01 -7.355551011529174420e-03 -3.219486301902076963e-01
-1.947947245590329760e-03 4.248881764414138423e-02 -6.766797112114248947e-01 -8.282695357434463057e-01 -2.992043480583129189e-01 -4.737576746210407919e-01
4.529831464240773216e-03 2.300980031017304528e-01 -7.620023163084348461e-01 -7.789149866118072474e-01 -5.137308896558963056e-01 -3.596832170742607082e-01
-7.092545603980296431e-02 -1.987462107816340418e-01 -7.190362163286139197e-01 1.219691911372391135e-01 7.958303463783295006e-01 -5.931084017249085294e-01
-2.801801630963922374e-02 -2.617298308187825454e-02 -6.516268150955536465e-01 -4.287352169222479747e-01 1.850362457562022278e-01 -8.842780679894097773e-01
2.651844238956127444e-03 -1.990565240870021124e-01 -7.412697263679437487e-01 -4.561156171185969388e-01 5.811592467728039502e-01 -6.739528720251799498e-01
-8.775867525066713762e-03 3.103233280225151103e-02 -6.662030978898695333e-01 -6.587988804962841005e-01 -2.311838984874370062e-01 -7.159176210549599295e-01
8.224821724477401896e-02 -5.330977118659494668e-02 -7.306707688546330015e-01 -7.032457618080185657e-01 1.238943045339308685e-01 -7.000682822433204056e-01
-7.739605447666118854e-02 7.147291254964321938e-02 -6.412920337176659658e-01 -2.682980540568932759e-01 4.888458844907779197e-03 -9.633235474955472721e-01
-1.302223311608876610e-01 1.447049692490501582e-01 -6.462772476836926572e-01 2.008158839323493858e-02 -6.014098603022065281e-02 -9.979878714728538380e-01
-1.700110797763104351e-02 8.507624997080301399e-02 -6.789483829551521410e-01 8.956189721373531976e-01 3.258785341834101734e-01 -3.027702721637368088e-01
-2.941487012768967402e-02 2.228432729597774192e-02 -6.505696337184840861e-01 -4.217406171080891886e-01 -1.095393682854495232e-01 -9.000755405391887010e-01
3.533336269570379329e-02 1.450897910553385906e-01 -7.230186346230162986e-01 -6.958888208476996518e-01 -3.692130429138450465e-01 -6.159711665017264526e-01
1.029986320984064598e-02 -5.689058115325228843e-02 -6.769841120571463700e-01 -7.269108418083193301e-01 1.489638707097485082e-01 -6.703807823056164850e-01
-7.256449191558786427e-02 1.602257059311988086e-01 -6.629828968418715052e-01 -5.323578131876126607e-01 -7.205839382572995500e-02 -8.434469435698720430e-01
-4.321552607497938098e-02 1.637734679324149845e-01 -6.894867486049627292e-01 -5.797706215647622230e-01 -1.790845000452880309e-01 7.948551869453570617e-01
1.077894250871989090e-01 -9.339659850434725574e-02 -7.851352967930930182e-01 -9.187732484255499710e-01 9.208471376328269953e-02 -3.838959800111184095e-01
-3.053573224562380548e-02 -6.340854619880559317e-02 -6.538715189019933538e-01 -4.575578922034330698e-01 3.642034740411352334e-01 -8.111698988366862206e-01
-7.054357080662794488e-02 1.830964176585002934e-01 -6.744213512788717058e-01 -6.546263214262881824e-01 -1.874690885688187203e-01 -7.323385283644869848e-01
-2.010830797037865131e-02 5.724378889164493528e-02 -6.636530651622806198e-01 -5.793434935499236493e-01 -3.421890121168763010e-01 -7.397755041009711485e-01
-3.608860996152175177e-02 1.392818526693595238e-01 -6.881357403969425857e-01 5.045269624086222600e-03 1.132879533250496784e-01 9.935493872404337345e-01
2.534751441977499756e-03 2.176843054204799788e-01 -7.292838271991308741e-01 -6.935969218048495533e-01 -3.686076912464371635e-01 -6.189116899985075415e-01
2.734176298111373055e-02 -1.679165811846978704e-02 -6.919830890977158866e-01 -2.587409348461827685e-01 3.186611852676410339e-01 -9.118707022592322797e-01
7.284918562572560707e-02 4.379513011289140612e-02 -7.228809957790875984e-01 -8.025484451245226136e-01 -8.001501533398469590e-02 -5.911967443663008748e-01
-8.736558692471017851e-02 1.211119595963951745e-01 -6.473666430976255937e-01 -2.267967716503695441e-01 -1.849959954018391417e-01 -9.562111200222745966e-01
-1.107540856544964175e-01 -1.347703522858133100e-02 -6.450217552078215677e-01 1.149133941191036318e-01 4.359089307351403653e-01 -8.926243980294142899e-01
-3.812733630607451768e-02 -1.125447269277422419e-01 -6.712282833487428491e-01 -2.135784104715072740e-01 3.022453452274996843e-01 -9.289951635335749192e-01
1.812270156592131129e-02 1.384371890510536218e-01 -7.027904805909735986e-01 -5.398892447436901554e-01 -1.518061062712536546e-01 -8.279338799136368721e-01
-4.948760940950213544e-02 1.573594262939004285e-01 -6.793417700246754398e-01 -6.199149936033986341e-01 -5.443152653327034685e-01 -5.651781069994545881e-01
-2.875412661334090722e-02 1.917063457657200709e-01 -6.954465081464229481e-01 -2.263008249348092138e-01 -3.654705517556084970e-01 -9.028949066382397914e-01
6.661572985705963013e-02 1.351049838197059851e-02 -7.108759227961802818e-01 -7.688402089273974616e-01 4.240781787833999145e-02 -6.380331575390681964e-01
-1.053469378218249708e-01 2.060719393928807652e-01 -6.722348436471766719e-01 -1.626805182992155097e-01 -1.510495455650562591e-01 -9.750482468834494876e-01
6.363911826073587186e-02 1.131732750131659582e-01 -7.395646903341666079e-01 -8.098156943252383666e-01 -3.611180731935985655e-01 -4.623767710833613376e-01
-2.811988277409353809e-02 -1.810677187093800711e-01 -7.043648970743637827e-01 -2.932037746361857433e-01 6.540268795524558643e-01 -6.973380725028356375e-01
5.321566454281970171e-02 9.958220710067200443e-02 -7.192764788837545664e-01 -7.351258450654606369e-01 -3.813655000704552211e-01 -5.604911660970262055e-01
8.506909550919337926e-02 -2.618569323109497943e-02 -7.305607781487400976e-01 -7.824484378673426388e-01 -3.266535501207725595e-02 -6.218580357773710876e-01
-9.669329695044256989e-02 -3.708694771686144032e-02 -6.456495032842858306e-01 6.552218309921627182e-02 3.454647355700446454e-01 -9.361415277613913677e-01
-8.664237452326341293e-03 1.517016130807700147e-01 -6.921407275206568066e-01 -3.306769320282470503e-01 -1.139644273394889024e-01 -9.368376998848672033e-01
-3.657194936117151574e-02 2.357299780808658207e-01 -7.172318256574745643e-01 -4.853860414883698349e-01 -5.078463293584492000e-01 -7.116828622956999917e-01
6.882987439383357609e-02 -8.429580970379177418e-02 -7.255965978600955602e-01 -5.826663812911193618e-01 3.450565714714744492e-01 -7.358232468449629193e-01
4.831137813580399509e-02 7.381113940778456783e-02 -7.044799265011605360e-01 -5.525309040949291095e-01 -3.402286992764583240e-01 -7.608902892064595136e-01
-3.045952972151889579e-02 1.371540933478578861e-01 -6.844849701604241998e-01 -8.829038680225037572e-01 -3.145610078273011201e-01 3.486145897485846690e-01
-4.121966682625616968e-02 8.573950639966174125e-03 -6.448565595925284111e-01 -2.796457908033641582e-01 2.807101128097519091e-02 -9.596927893923266062e-01
7.666711189003716509e-02 1.572850374252108413e-02 -7.216470003427660762e-01 -7.864017744947735533e-01 1.204283448126841410e-03 -6.177141723911211413e-01
8.661270259130082749e-02 -1.651628544903873952e-01 -7.901552047282669466e-01 -8.028127614282017932e-01 3.583910996407562721e-01 -4.764950049961855782e-01
-2.249824709808138576e-02 1.737750109758893352e-02 -6.530104854192262387e-01 -5.467442985805425204e-01 9.049820299099131660e-02 -8.323945862540625962e-01
1.176417176104680995e-01 -6.928118145156537955e-02 -8.062242528020691079e-01 -9.600665845499491979e-01 -1.628813050753340208e-01 -2.274683135901607589e-01
-2.466859077994018948e-02 2.236765470178145865e-01 -7.159733111823854967e-01 -5.660962955069159808e-01 -3.153641751106750490e-01 -7.616301079067909763e-01
-9.342381607044446257e-02 2.499539437392286900e-01 -7.232331797797068029e-01 -5.449643890056140583e-01 1.011997345648505825e-01 8.323295191447563912e-01
7.403161339848027267e-02 -2.793674162496950775e-02 -7.188199154067621555e-01 -6.957437228311003086e-01 4.976927314243503875e-02 -7.165638084581127387e-01
9.243649955402188922e-02 6.700178315083969716e-02 -7.704869197521611035e-01 -8.559463876639066271e-01 -4.920415289413619941e-01 -1.589053656808234183e-01
-5.844151093481691345e-02 2.016004548885280412e-01 -6.927291433238565999e-01 -8.625384897966749120e-01 -3.584122275409853953e-01 3.571666680534177907e-01
-1.699053988056294373e-01 1.259170080309196527e-01 -6.519725949567924950e-01 1.612845619769925909e-01 2.600788693243670791e-01 -9.520222013161503405e-01
-1.604696644976152942e-01 1.903199599145273258e-01 -6.788076825313295037e-01 4.040154606859474584e-01 3.852168561831136734e-02 -9.139406913273123712e-01
-7.020054509979227475e-02 5.613491635490214932e-02 -6.385837029464251913e-01 -2.473569423941197887e-01 1.056900968686633885e-01 -9.631428484255720734e-01
4.825489006316394797e-02 -5.939864186808731239e-02 -7.073004566383225278e-01 -3.490632064916780464e-01 3.540610296393780221e-01 -8.676379804759882797e-01
8.019426595514464462e-02 4.124600426519235002e-02 -7.323276542981915771e-01 -7.923908732353280859e-01 -3.225243230515538739e-01 -5.177786834676482153e-01
7.853064697132951244e-02 -2.520184381083936248e-02 -7.232581568079858858e-01 -6.565711641734670589e-01 3.187638759573526576e-02 -7.535902084619630070e-01
-6.995266387751300496e-02 2.209446599776839215e-01 -6.925298844833135403e-01 -4.435638915309542130e-01 -5.032284521359684515e-01 -7.416280732892689409e-01
-1.026572193889914580e-01 2.612381679171379423e-01 -7.306479876053568745e-01 -4.473827787209043172e-01 2.108422185353557576e-01 8.691341715679181679e-01
7.661222848535297059e-02 -3.742688796929678069e-02 -7.220468474782665291e-01 -7.410320296234566007e-01 -5.513462348397311225e-02 -6.692022895697691265e-01
-1.287629911630074064e-01 2.969377685595786520e-01 -7.539940571745110676e-01 -4.479052107615297817e-01 2.681163313430029449e-01 8.529329135634516890e-01
-3.639406133000887972e-02 2.788158382654222153e-02 -6.463579364166680552e-01 -4.976293944414292292e-01 4.962362038946283721e-02 -8.659690999610198947e-01
1.115139511858742431e-02 2.976317845027537119e-03 -6.895714686272771399e-01 -6.748971226331818007e-02 -1.398135046870774001e-01 9.878751553945119834e-01
1.571817809625732781e-02 -6.246784604149847181e-02 -6.859627001195585105e-01 -8.328664627400221843e-01 7.924410586576628723e-02 -5.477716923394804205e-01
1.598695564483721895e-02 9.705744441204215700e-02 -6.901921132560423500e-01 -3.648197401378939220e-01 -2.018344118721982772e-01 -9.089386268554787707e-01
1.465054339888825254e-02 4.038404669312550474e-03 -6.821903817838659290e-01 -6.818776273757705120e-01 -4.093664884746060773e-02 -7.303198559984040994e-01
-1.653870957591910620e-02 1.757618098949639829e-01 -6.949670515243387969e-01 -3.472929310709021999e-01 -2.563500820197492369e-01 -9.020378348365714061e-01
-8.081866917073336765e-02 7.901638551980394443e-03 -6.376599810802120460e-01 -3.429259575499443713e-02 -7.577191286550549743e-02 -9.965353155293026344e-01
-7.512051671978765832e-02 -4.418438433693944872e-02 -6.446390016004355239e-01 3.567830337757417480e-02 2.378522631556720390e-01 -9.706458466298728549e-01
-6.702720617266541558e-02 1.525860927864567673e-01 -6.625998310032545913e-01 -4.664254564871982978e-01 -1.389049925642342198e-01 -8.735861128597677272e-01
-1.047734978589118585e-02 2.093664159645128586e-01 -7.127461979830594929e-01 -3.832146043581209915e-01 -4.316318924071519403e-01 -8.166030103199898305e-01
5.933198450414813724e-02 1.531080271660084646e-01 -7.734296151074526726e-01 -9.324292502330484567e-01 -2.064553356482245472e-01 -2.965668351185180018e-01
9.600700366894611426e-02 -8.260632335829817818e-02 -7.550573063448280386e-01 -8.338305398475972519e-01 2.989567577394330322e-01 -4.640597890567451644e-01
-3.285174978056092793e-02 2.172864409120518758e-02 -6.489347052825018558e-01 -3.544558606358433339e-01 -6.077548100281303378e-02 -9.330955919785390851e-01
-9.052296125900696766e-02 -3.555343731744793623e-02 -6.446462852533040300e-01 -4.386518446488945483e-02 3.725607600070865999e-01 -9.269705096144122969e-01
8.205122095903184809e-02 4.179035023338433658e-02 -7.355414672064285453e-01 -8.341510988231929380e-01 -2.910539864924928666e-01 -4.684864152554352179e-01
-1.381506263653783095e-01 2.416336635173675640e-02 -6.461606023813096789e-01 3.893492607223329460e-01 4.425441064870682534e-02 -9.200264671807590888e-01
4.885094220659757375e-02 -1.327993485533586204e-01 -7.352047408543701534e-01 -3.593068448263701531e-01 3.243504577308889414e-01 -8.750402115506930034e-01
-1.019577877637912605e-01 2.786978805810272908e-01 -7.229847153641909552e-01 -8.725119076801991502e-01 -4.718189448639871220e-01 1.269246005457325965e-01
1.027664603648987263e-01 1.004266411420991385e-02 -7.755803901351957519e-01 -9.666420810657148088e-01 -8.455103400023511462e-02 -2.417730542521960846e-01
-7.963666696469126616e-02 2.373842677586941730e-01 -6.989702811781016711e-01 -3.524679226243802588e-01 -5.233493530824443463e-01 -7.758039817821514861e-01
-4.168561906536229905e-02 1.845262582284331460e-02 -6.453150906141916776e-01 -3.654557238505687367e-01 -2.845091599888950260e-02 -9.303938194569442155e-01
-1.026482197306783639e-01 2.550635599837702827e-01 -7.281333645209173699e-01 -5.479294852659686438e-02 4.855892743514250154e-01 8.724682168575643715e-01
-2.550420799680962886e-02 1.066034657762301302e-01 -6.801912781407525310e-01 9.159229804906025008e-01 3.922677008090632578e-01 -8.491845918987706021e-02
-1.969144583101363824e-02 7.683568453816763677e-02 -6.687040368066441420e-01 -7.990599412347568764e-01 -2.624107500107675933e-02 -6.006784633201817103e-01
8.470989582607803270e-02 -7.825003717713154006e-02 -7.382413377555655520e-01 -7.810653388503671080e-01 2.816986084250971412e-01 -5.572995877065811676e-01
-5.037040141164266654e-02 2.242836652521716934e-01 -7.036158288167930763e-01 -2.808024481302609510e-01 -4.527374336864669613e-01 -8.462734790025290277e-01
4.596462229542456340e-02 1.196612778317607956e-01 -7.174038696076612265e-01 -6.962293627934407203e-01 -3.697917929569249917e-01 -6.152387376018695342e-01
-1.817053581229161330e-01 1.187566577346542418e-01 -6.567399578930078752e-01 2.098778560871432664e-01 3.898529120352927646e-01 -8.966415072379074758e-01
-8.728141454245894049e-02 2.790621470390771200e-02 -6.379346307612693279e-01 -3.986664577201771281e-02 1.787604837741669228e-01 -9.830846046987585796e-01
-1.109315319825165957e-01 2.821919655827804796e-01 -7.384996461894001163e-01 -7.443562240334130609e-01 -8.976376162924601387e-02 6.617222067007327846e-01
9.967298073605987407e-02 8.563035212043764582e-03 -7.649862790547407032e-01 -8.965619876344252948e-01 -2.237198842001462129e-01 -3.822643270598002352e-01
7.390235150697446742e-02 -7.419245060924829771e-02 -7.282195119784102832e-01 -6.816709171122080635e-01 2.594250993001105399e-01 -6.841223418486850338e-01
-8.418875059931038574e-02 1.256046278753067402e-01 -6.486896174828287176e-01 -3.636192038742405153e-01 -3.471052120244589451e-02 -9.309007757498746205e-01
5.378181298136542471e-02 6.668409523971011166e-02 -7.061324201317225047e-01 -6.257517193781843012e-01 -2.989187499958541050e-01 -7.204737098577311816e-01
7.082090556498144007e-02 -7.768631748404529469e-02 -7.263633587811849646e-01 -5.804911268748967901e-01 1.028189181173429223e-01 -8.077489224361067421e-01
-3.528283274515675583e-02 1.511842224753674191e-01 -6.828767900581783623e-01 -9.059825975801024667e-01 -4.220167245118830457e-01 -3.312728655160004920e-02
-5.040642845272078065e-02 -1.508840869665037110e-01 -6.801422205900191642e-01 -1.127811578027771572e-01 6.495822655556463543e-01 -7.518798379530194920e-01
-1.337861549230480174e-01 2.934759763649380515e-01 -7.529069881378099849e-01 1.149358506241837941e-01 6.404223195434345373e-01 7.593740862525547586e-01
5.231533709505512691e-02 1.357985457649473759e-01 -7.396893273525352308e-01 -7.817106038763629305e-01 -4.355923555902061484e-01 -4.463046398354237887e-01
5.715613526799516453e-02 -9.676524609678206768e-02 -7.234098103883860320e-01 -4.639186344107026905e-01 4.299418575989204516e-01 -7.745511601765877607e-01
8.702559350192151655e-02 5.796901516196019399e-02 -7.490303301698973959e-01 -9.001613994785118145e-01 -3.541083872551478023e-02 -4.341146477483142085e-01
-7.435037867720206695e-02 9.841992692055297198e-02 -6.454903770778368521e-01 -3.125156576673838171e-01 -1.366102128789083679e-02 -9.498143714484920119e-01
6.407414917655321340e-02 9.257503456433457956e-02 -7.259772035996358008e-01 -7.985834418438090276e-01 -1.147521284493932953e-01 -5.908438333682004551e-01
-5.435291337258413985e-02 1.227176505408052731e-01 -6.586240807780018303e-01 -4.330880533072458127e-01 -3.893957950387732514e-01 -8.128995343144574948e-01
7.853907327415471373e-02 7.816193223027480264e-02 -7.484793066212179768e-01 -8.445547468292647908e-01 -3.295884558027639688e-01 -4.220174515463857023e-01
-2.468169738559297666e-02 1.190592750918731679e-01 -6.846480758163403513e-01 -5.434033733213748940e-01 -1.726630512613643031e-01 8.215231248066399150e-01
-1.068966508788155162e-01 -7.733296105847366209e-02 -6.577995795677016311e-01 1.230074336232401949e-01 6.939353262946192924e-01 -7.094525595089530290e-01
-3.211229042421009233e-02 1.220237658815836318e-01 -6.831807014701164471e-01 9.261412595680520443e-01 3.677610525805238284e-01 8.375067480664005748e-02
-8.228829223150890826e-02 2.213978111604500976e-01 -7.053009985271971871e-01 7.757196396881244072e-01 6.283474312579959697e-01 5.863911862915823642e-02
9.003513708959483275e-02 -6.813340082399851894e-02 -7.444534738173939070e-01 -8.400951498185648125e-01 2.368211367645469689e-01 -4.880121806193682965e-01
-2.944041580197058472e-02 1.368417644766348751e-01 -6.823297663603303809e-01 -9.288492442919875636e-01 -3.485798426737829470e-01 1.254239796040787225e-01
-8.506241375613769751e-02 -6.058794680752156193e-03 -6.405120425095069958e-01 -6.327433616000020800e-02 2.417393321781073912e-01 -9.682760214224008788e-01
1.109333823188858453e-01 -1.370037975201965630e-01 -8.356973868255559434e-01 -9.591419523270459102e-01 2.794507712181492631e-01 -4.420386580204033883e-02
4.043396578310887168e-02 3.508342994320112762e-02 -6.936504405944308171e-01 -4.597485201285422263e-01 -1.197991229233385385e-01 -8.799315134636410685e-01
-7.833685774914031508e-02 7.116759085558736590e-03 -6.391330188142111401e-01 -6.972805326567856066e-02 2.587862442575428190e-01 -9.634145931896890280e-01
-4.432451741114462780e-03 1.520243571513122316e-03 -6.660330372211553662e-01 -7.195884721105212378e-01 -1.244376934000767237e-01 -6.831600773368671220e-01
5.408180434923242491e-02 -2.008965717395784778e-01 -7.889782248428431899e-01 -4.720473160340778462e-01 8.050776233652082725e-01 -3.591954228294832463e-01
-1.345385207417257589e-01 2.973781183861324284e-01 -7.333325909707267831e-01 7.589318785093068787e-01 2.776436086912752454e-01 -5.890130986109058941e-01
-1.157591120226868775e-01 2.765225531331507725e-01 -7.194746140249415056e-01 6.620956494276928339e-01 1.204160762456214229e-01 -7.396819043281580575e-01
-6.235844773016910314e-02 3.597954113889352545e-02 -6.401129740808533253e-01 -3.124596435776150205e-01 1.629910844892658861e-01 -9.358434043750923914e-01
-1.110280380329520811e-01 2.859439397258050630e-01 -7.189949205774119889e-01 -7.127512026213049523e-02 -4.478205924942395555e-01 -8.912780565961035961e-01
-1.305814116703168104e-01 3.040718609830178609e-01 -7.363757136542660175e-01 4.831406776377313861e-01 -8.287240023093679353e-01 2.824740936937345515e-01
3.497108283886673358e-02 -1.232709571716072844e-01 -7.269682916936670569e-01 -2.069566305704546860e-01 2.237980743815499163e-01 -9.524092476273182672e-01
1.454214035209754757e-02 -1.096764662262319223e-01 -6.924812315215347347e-01 -6.103976760589686634e-01 1.746396271446061244e-01 -7.726031825540218279e-01
9.571927207753376521e-02 5.296431635818483682e-03 -7.533203400020734852e-01 -8.968036830114733959e-01 -2.707662992914810496e-01 -3.498982213516566020e-01
-7.402000045873047274e-02 1.052873930360752885e-01 -6.435638176201338156e-01 -3.133865316524760414e-01 -1.367330015625727556e-02 -9.495272100585997466e-01
-9.066970174196048449e-02 1.167600687022770922e-01 -6.457643423170962294e-01 -4.837260702496945508e-02 -1.742137582602591717e-01 -9.835190172652705787e-01
6.588052701473624817e-02 2.105238019991889295e-02 -7.115541587576451610e-01 -7.207908745245173998e-01 -1.651994730149470569e-01 -6.731787647555180776e-01
2.377465375065568320e-02 -2.760830448888131061e-02 -6.941642432009349495e-01 -6.120059637995244051e-02 9.407723393093901654e-02 -9.936820221069924131e-01
3.787428718006100731e-02 -2.263545305897662341e-01 -8.069029722535792093e-01 -8.044004697826983019e-01 5.909270197557735527e-01 -6.119756151950705297e-02
6.205421344688519247e-02 -1.752758102956517849e-01 -7.703529261747494861e-01 -6.896753625825604583e-01 3.371382196523967090e-01 -6.408476535778420136e-01
-3.809264461903113380e-02 -1.913655322245206777e-02 -6.477911627822376950e-01 -4.304212858717969548e-01 1.899515807897957653e-01 -8.824148194720703442e-01
-8.486626927900510486e-02 -1.006297441789471281e-01 -6.607375380006301757e-01 9.098681979920393570e-02 6.069692030148524653e-01 -7.894997056455067552e-01
7.853188197163989137e-02 -1.652918559228062356e-01 -7.778321622562569537e-01 -6.988343047634428817e-01 4.790489041312089302e-01 -5.311711230257938343e-01
-8.681892329680519077e-03 -2.055508597862965581e-01 -7.425558398474325639e-01 -1.115275337607220252e-01 6.593092385618876117e-01 -7.435542597283636423e-01
2.848766478191268672e-02 -1.077770157553951252e-01 -7.193408542769247349e-01 9.928946433202353594e-01 1.167127295938285153e-01 -2.320271571908025590e-02
9.499878812176067167e-02 -6.676432842458616956e-02 -7.516893356856663155e-01 -8.387062041152937297e-01 2.517320537627893429e-01 -4.829108367875829533e-01
-9.941936461992693930e-02 1.877954905201026370e-01 -6.652115876162759678e-01 -2.566355682037915753e-01 -2.984669902201646519e-01 -9.192690796940976572e-01
5.687205524127905698e-02 -2.071125404048759777e-01 -8.113633289486407163e-01 -4.587222975652310297e-01 8.670732288266650434e-01 -1.943138429669316602e-01
-8.614197950631796719e-02 2.265340918015572580e-01 -7.085608231665594392e-01 7.459214786940416841e-01 6.504130621403584334e-01 1.434015209825080794e-01
-7.181022139789814719e-03 5.815911318485483816e-02 -6.837141034571920795e-01 6.635928472619020413e-01 1.855120890531890832e-01 7.247273955619201180e-01
-3.090437892988224730e-03 -9.596269591541845001e-02 -6.796035864594913711e-01 -4.105198320675900736e-01 2.237312316859574324e-01 -8.839783953510866876e-01
8.234189957752659217e-02 4.732938347635246013e-02 -7.377971702367489559e-01 -8.529019340679293570e-01 -2.784438861285788713e-02 -5.213280933212421919e-01
8.864630762879643910e-02 4.394645145428830585e-02 -7.489921279189353243e-01 -8.755170449833127311e-01 -2.980922626682765975e-01 -3.802774077972491118e-01
9.439698218214349901e-02 -2.085311789211098318e-02 -7.440771793953991908e-01 -8.678909577076245885e-01 -8.360471162173176152e-02 -4.896688041155873861e-01
4.198252216428278311e-02 6.537005278777972828e-02 -6.966470541648298598e-01 -5.207223315569039501e-01 -2.273275102285428340e-01 -8.229036738958172004e-01
5.292567253186028498e-02 -2.024252445845161896e-01 -7.897708827446391355e-01 -7.135336390810206320e-01 6.177049739443805088e-01 -3.306210989398108424e-01
6.233950728074286185e-02 1.113328069074840873e-02 -7.071885566672473367e-01 -7.153908281080596510e-01 -4.600426609940599237e-02 -6.972084125708177815e-01
3.816763769452685001e-02 -7.918383213719400182e-02 -7.098170572624580288e-01 -1.727212315914919971e-01 4.082241773136102148e-01 -8.963929926177158780e-01
1.016949794471739554e-01 -1.556738807846708983e-01 -8.218797570155181864e-01 -8.408581193084847527e-01 5.282738024395622345e-01 -1.178321384387318732e-01
-2.796491722409074482e-02 1.128913020294686348e-01 -6.803154292639618239e-01 8.161623113735994028e-01 2.808096723427926378e-01 -5.050000093188489192e-01
8.575096547236135680e-03 1.361138063479440108e-01 -6.962546953100742231e-01 -5.209410128533897844e-01 -1.273011245166690564e-01 -8.440467314219491923e-01
3.264062274686691661e-02 -1.332946953933667467e-01 -7.316390808038421012e-01 -1.043767532374742235e-01 3.649297749687651082e-01 -9.251657974248993499e-01
1.066207780620511275e-01 -1.360189131159783016e-01 -8.052051205546896240e-01 -8.616104544203885274e-01 4.320928813873318175e-01 -2.663140377221692168e-01
1.073293692210456340e-01 -1.436045258741042163e-01 -8.213223054586692440e-01 -9.646404199466153129e-01 7.329491993293289764e-02 -2.531732902919317518e-01
1.507640779147878182e-02 1.146963021047564535e-01 -6.918072645109846208e-01 -4.185713692404697261e-01 -3.110787629790410236e-01 -8.532455754796434144e-01
-5.855453064627306331e-02 6.804288858100782100e-02 -6.438753890387332035e-01 -3.124324153884828759e-01 -1.687304548155146022e-01 -9.348347551478112250e-01
3.447130469511905382e-02 2.015172618023017559e-01 -7.581875431885174432e-01 -8.916258242143503265e-01 -2.183842355908270638e-01 -3.966254092207039395e-01
-7.133322248447224179e-02 1.162864775444989035e-01 -6.493180253362093035e-01 -1.881657411157631188e-01 -2.742433720891752635e-01 -9.430716975583107731e-01
3.796744063377661960e-02 9.966721516762974686e-02 -7.044123869123626314e-01 -5.640373904578446229e-01 -2.955524666131478795e-01 -7.710451099931761032e-01
-7.818382119979477851e-02 -1.209727361542254215e-01 -6.727133912230467416e-01 -1.279189377740605829e-02 5.517817189470713979e-01 -8.338904616851080531e-01
-1.019944600307063909e-01 1.249643587168348113e-01 -6.457907474553328253e-01 -1.196808638009536213e-01 -4.565338531664471511e-02 -9.917621989413528683e-01
-8.079902286018746105e-02 2.193999305958778123e-01 -7.039305608817122417e-01 7.447269330252095365e-01 6.518587688038851580e-01 1.430452402575776161e-01
8.844768688625195829e-02 -5.012281455163541954e-02 -7.375148884744598954e-01 -7.713542184617758757e-01 6.161868356112613215e-02 -6.334159829822870735e-01
-1.195119677466652680e-01 3.068943411019231515e-01 -7.337619912020816315e-01 -7.892555454173559859e-01 -5.843383629336021956e-01 -1.887441697961284859e-01
7.626829003381294103e-02 -1.849249469066283069e-01 -8.271112352861142991e-01 -8.469953071395300848e-01 5.182421268342086718e-01 -1.184231719638060010e-01
-2.027808749220095727e-02 2.213811161252026150e-01 -7.178183969595743896e-01 -5.009087761540879091e-01 -5.106268235030372304e-01 -6.988208962896085286e-01
-3.590456435705893790e-02 -4.983827426777604278e-03 -6.463560601245489368e-01 -3.604417186582472010e-01 -2.712811919668432423e-02 -9.323871688303841943e-01
-9.298507320621318684e-03 2.104132920756844882e-01 -7.142872406442404287e-01 -5.072942729317548860e-01 -4.993410413891646304e-01 -7.023610503402267780e-01
-9.681990303451894209e-02 -8.285457838408789855e-03 -6.415399259185258218e-01 9.982414798217185969e-02 3.636140670896720883e-01 -9.261856993573917007e-01
-5.668454587339517847e-02 1.705819095986602918e-01 -6.796673833546839072e-01 -7.128526099852474651e-01 -3.464364227354989056e-01 -6.097728769299691765e-01
9.550379795964777929e-02 -7.072330578069556395e-02 -7.536878881325717039e-01 -8.400797157987113239e-01 5.896222893558592144e-03 -5.424309224769051641e-01
-1.148437407392911315e-02 -8.764013857758624904e-02 -6.668764518295314803e-01 -4.655534777320429751e-01 3.565317096882890113e-01 -8.100278386317013579e-01
9.192853038820522626e-02 6.686866448139844321e-02 -7.687659068206205148e-01 -8.610320378673802511e-01 -4.131681775361676356e-01 -2.965061328832646614e-01
1.131669388934968545e-01 -1.295586877395336900e-01 -8.269931952451788915e-01 -9.770388605386306491e-01 3.888532562941753035e-02 -2.094826877048998059e-01
9.718420604690977682e-02 -9.556267747992737427e-02 -7.633143766856831380e-01 -8.254770877289182573e-01 3.336302540463430555e-01 -4.552784106670955122e-01
4.365320182872260701e-02 2.651584592299910739e-02 -6.948067078482502712e-01 -5.654770762525345162e-01 -2.127132339625348659e-02 -8.244896646009926000e-01
-8.572965207326836701e-02 2.076585097097112809e-01 -6.791372456678342884e-01 -5.747638416670682870e-01 -1.526533511372065444e-01 -8.039548996670734526e-01
-2.707733800343795072e-02 -1.336499818142231899e-01 -6.787408816200806161e-01 -3.125342256803412821e-01 2.883849654856291966e-01 -9.050726321463056223e-01
-3.033451179954089680e-02 6.139351526634315159e-02 -6.555431282855597175e-01 -5.229695829769279714e-01 -1.971683839478661215e-01 -8.292330454415846042e-01
9.222660160670427543e-02 7.349156655931066151e-02 -7.810277470145698953e-01 -9.056222774055228131e-01 -3.976978416249101200e-01 -1.472573170804170883e-01
5.601875625588798729e-02 -1.665964718173839065e-01 -7.585023768341396799e-01 -5.108395109115774213e-01 3.358967273771177320e-01 -7.913383490195344816e-01
8.919795197974583756e-02 -1.364898767532587431e-01 -7.710063559636778363e-01 -7.813383780500241516e-01 2.201828119328010647e-01 -5.839776265538966227e-01
-6.209803553115536556e-02 3.362341910917752974e-02 -6.403531248774312346e-01 -1.466163517468902222e-01 -4.206246458232156676e-02 -9.882987374643827927e-01
-1.418832778915986859e-01 1.230085514905063931e-01 -6.473291889968713075e-01 2.297274923237539457e-01 -1.881058239037191882e-01 -9.549039104978797043e-01
5.566015019000315062e-02 1.318998372390458862e-01 -7.352299739328783668e-01 -7.611906886051489352e-01 -4.807386131055473300e-01 -4.352919956192329853e-01
6.778628723639801811e-03 3.504972072872170746e-02 -6.811871687255535157e-01 -8.915916168140345377e-01 -3.193981355364882146e-01 3.210128032380500374e-01
-9.330697886319737344e-02 2.611782563954371250e-01 -7.209084999516377490e-01 -8.460268745678602986e-01 -2.944578937668623775e-01 4.444469330609913671e-01
7.709575922578112972e-02 -1.587558751068277596e-01 -7.694993323543257713e-01 -7.032877460911192147e-01 3.123663763451214881e-01 -6.386028445967738554e-01
-1.350221085524061504e-01 1.774190802300143754e-01 -6.610819859062877502e-01 1.081664541542416147e-01 -1.107008510158278003e-01 -9.879500694772331837e-01
-8.043446879723915866e-02 -8.430651339533540289e-02 -6.545052517648938251e-01 1.167389659267099172e-01 2.630476320796966694e-01 -9.576940832497750078e-01
-1.056063244600478068e-01 2.715133803077458552e-01 -7.131618093401387304e-01 2.854153199818729725e-01 -2.105898749955160132e-01 -9.349812830581252232e-01
5.824630995908124803e-02 3.748417834953690631e-02 -7.060079452418226431e-01 -5.264709586470603941e-01 -2.051734447078002455e-01 -8.250649594353045568e-01
3.629796521100865647e-02 5.644054425541361608e-02 -6.922953499038352332e-01 -4.398675844676205871e-01 1.332842375776774335e-01 -8.881170081402325334e-01
3.011164454739729060e-02 -1.131450028789301593e-01 -7.187346110662498067e-01 7.653318217054418948e-01 3.256500883266990609e-01 -5.551749477937949484e-01
5.939583940073121099e-02 9.107344156305580141e-02 -7.194371280483202735e-01 -7.380085796426413269e-01 -7.432010340599649878e-02 -6.706861103404283542e-01
3.021928279174624157e-02 3.375420893791317156e-02 -6.889342218956687747e-01 -2.946472138776549121e-01 6.927223850794340942e-02 -9.530920083214600158e-01
-3.236168894932800466e-02 -3.692858624589275690e-02 -6.509205521989659404e-01 -3.377520637912002077e-01 2.882322968665694818e-01 -8.960165659449644826e-01
5.736785792756491503e-02 -2.316855844524843069e-02 -7.072051499863348800e-01 -4.985285097783972441e-01 -5.102079671846068698e-02 -8.653705583392261591e-01
-8.458771397275093029e-02 -1.026494314814115627e-01 -6.616371536908145501e-01 1.771571283429039800e-01 1.499631163979473769e-01 -9.726902978839213620e-01
-7.140512229456200122e-02 1.275698618670305096e-01 -6.539610553471886245e-01 -4.460131083659474860e-01 -2.507279364826160983e-01 -8.591902053869764355e-01
-1.462415205315747424e-01 3.052874116143841285e-02 -6.491371737563716993e-01 4.999617030058325917e-01 -3.140565892739461962e-01 -8.070977352595680721e-01
-5.972021310501367947e-02 8.098628956148329339e-02 -6.464778777793769304e-01 -4.261098362059256850e-01 -6.248934795325722207e-03 -9.046498539780366555e-01
1.847035274849487610e-02 -5.080717534420900461e-02 -6.864444691596885972e-01 -8.143564317858829060e-01 3.306581975704418475e-01 -4.769578161519434922e-01
-1.220864556519159899e-01 2.896525322900669330e-01 -7.482705347661995354e-01 -5.691251293513870380e-01 1.465662952652381779e-01 8.090827573450012355e-01
8.723109798841956197e-02 -2.426938368811135116e-02 -7.334495710878465857e-01 -7.837268752164949781e-01 -1.105500371443450119e-01 -6.111880842676603587e-01
-1.172096116705326069e-01 2.977220745480577135e-01 -7.425911895956088804e-01 -8.356185994789216975e-01 -2.406305978149700930e-01 4.938000319968557372e-01
8.048832343334830219e-02 6.446382635096974123e-02 -7.398378675494632351e-01 -8.362249933386567413e-01 -2.858616666776022108e-01 -4.679859699179743093e-01
-4.581933617402163261e-02 -3.336158838268844188e-03 -6.428333328068088770e-01 -3.249923717994550598e-01 2.217566110935629831e-01 -9.193497504804485354e-01
3.818628853612545532e-02 2.003680101546331804e-01 -7.658649657269769317e-01 -8.836882992508373613e-01 -1.819748503847579690e-01 -4.312541519737611018e-01
-5.385491727239575394e-02 1.783838573852054854e-02 -6.403442091930765523e-01 -1.886954659954927782e-01 -4.172982499649931232e-02 -9.811486344170822216e-01
-1.110393150116305711e-01 -7.841840196851433686e-02 -6.595256075883915159e-01 1.547580726428796072e-01 5.851754146949740276e-01 -7.960023071501903802e-01
9.178648970087209535e-02 -1.079918666872370508e-01 -7.582216300599052827e-01 -7.389695777951852396e-01 3.509183015236256309e-01 -5.751350352299706703e-01
-4.503783174256461436e-02 -1.780046328098660036e-01 -6.982013373857854921e-01 -8.973041682061895508e-02 6.633791089660450169e-01 -7.428839815776175914e-01
1.146230763239330652e-01 -3.325543609479136853e-02 -7.945743225732645465e-01 -9.710741505841650190e-01 2.044578352803955723e-01 -1.233368868574899607e-01
-4.095506950590455802e-03 1.853570429872034298e-01 -7.058337226843154344e-01 -4.290998967774937722e-01 -4.228458241258304384e-01 -7.981695857428365848e-01
1.179074403106092489e-01 -3.747044296216928139e-02 -8.165308088347533744e-01 -8.482989121628951024e-01 -5.008519703498321984e-01 -1.718611632101320619e-01
-1.774594932068602679e-02 8.678322064762104826e-02 -6.792643645789901985e-01 7.986242179487146320e-01 3.248781847285839297e-01 -5.066098336918302136e-01
1.637091297269116508e-02 -2.887014141095296110e-02 -6.930854191616881987e-01 9.770782942966187434e-01 2.128491118708515095e-01 -3.641756471849186359e-03
-9.822483000288299848e-02 1.393314790071861209e-01 -6.482375805973473737e-01 -1.950438012351619621e-01 -2.639144284926794523e-02 -9.804393950388123891e-01
5.802730512937943896e-02 1.329879937967890502e-01 -7.401857892989026633e-01 -7.439556090504201302e-01 -4.422079612411685678e-01 -5.009812080081924579e-01
8.663475386171265447e-02 7.373908600703876770e-02 -7.601208860688339897e-01 -9.411860998985167592e-01 -1.332035306645523720e-01 -3.105246282926955592e-01
5.534640630343334172e-02 -5.734119169122944837e-02 -7.100430011398650709e-01 -4.618206450504568350e-01 3.584188069821822031e-01 -8.113307898795959483e-01
-5.481429868894129726e-02 1.842032928160920180e-01 -6.946512338937178566e-01 -3.730110156967937907e-01 -1.035056914963197738e-02 9.277691781295200890e-01
-1.096206892432623065e-01 2.899097491289789330e-01 -7.237176026485814262e-01 -7.242122176991038218e-01 -6.046310546997814006e-01 -3.315689240987094166e-01
8.371323162701499454e-02 5.367036995566139973e-02 -7.404820019164034539e-01 -8.361615248319302918e-01 -2.860519187981526157e-01 -4.679831237797327237e-01
3.166269243866740024e-02 1.203760851166614104e-01 -7.042442721619732726e-01 -5.693716665535843990e-01 -2.974201121015250249e-01 -7.663923161433121578e-01
5.333626142765995892e-02 1.343206093350453323e-01 -7.334829791094730211e-01 -8.344083493941804042e-01 -2.762775073378574420e-01 -4.768998274275840776e-01
-9.626234751103436571e-02 -1.711235684105681110e-01 -6.958860873161043514e-01 2.966008616005247692e-02 9.107953594464441860e-01 -4.117913215450280662e-01
-5.065406531636963000e-02 7.285451390551926643e-02 -6.475749052088726199e-01 -4.272454736218665450e-01 -1.319833355685356424e-01 -8.944505041654514654e-01
-6.623958536949492437e-02 -1.580888312901216619e-01 -6.838273648298990315e-01 1.401584177006934100e-02 4.697162526763331569e-01 -8.827061788336929560e-01
1.388835259113555508e-02 8.074955823880248726e-03 -6.818749383588501578e-01 -8.580481195175657660e-01 -1.219496120155877383e-01 -4.988804633593273974e-01
3.171215842063626611e-02 7.219906165715375690e-02 -6.924889426937965720e-01 -4.186276843674532899e-01 -2.412576599776794783e-01 -8.755259010350511240e-01
5.856985119502678555e-02 -6.088809631197319994e-02 -7.128155306363229693e-01 -5.496670879810908739e-01 4.006026857536216373e-02 -8.344227149784799735e-01
-6.215291925148461183e-02 -1.438213482188040737e-01 -6.794056688470913041e-01 -4.132656792010355740e-02 4.612784508521360904e-01 -8.862924492307256985e-01
3.341141446305363055e-02 -1.492803709706882476e-01 -7.413557782177766509e-01 -4.022560656273849733e-01 -4.443315543948443969e-01 8.004745638900955251e-01
-1.139523103413273286e-01 1.110504599944669851e-01 -6.425343927679993961e-01 -1.972946130077078419e-01 6.819560452538681039e-02 -9.779694244717244134e-01
-6.797464809047921996e-02 1.518087619198329741e-01 -6.618963602490010034e-01 -5.550241628054461973e-01 -1.845867161646111421e-01 -8.110955078889778846e-01
-1.015084316161798256e-01 1.234529829136157136e-01 -6.455778895974837450e-01 -4.851618698687860248e-02 -1.742683133654224503e-01 -9.835022798941672750e-01
-4.853977878133704932e-02 -1.379059799598692237e-01 -6.767800149388875086e-01 -9.223563032226025915e-02 5.975966803457057885e-01 -7.964739770631853455e-01
