-2.097957455592280515e-02 8.390998030409829722e-02 -7.359441364694621068e-01 3.430069042321626238e-01 3.868939465561721525e-01 -8.559552194871281605e-01
4.514343552788843000e-02 8.341217711461189344e-02 -8.220159242075766315e-01 -8.226485646970201904e-01 -5.311196658840419138e-01 -2.028823292284382407e-01
3.749763447591233229e-02 -1.555822624082615624e-01 -7.799793120328535334e-01 -8.526436667542499626e-01 1.675243175922874195e-01 -4.949084567464029361e-01
-7.434540302239743548e-02 2.059284044449161410e-01 -7.523022779234177504e-01 -6.432887369219790763e-01 -4.385607173347946808e-01 -6.275699946301729337e-01
7.778913144813665026e-02 -4.593553084151164728e-02 -8.251197028495087515e-01 -9.149703365549745060e-01 -7.977028943338548839e-02 -3.955578139137068683e-01
5.528848961509585935e-02 6.348575927844293809e-02 -8.649638918706358259e-01 -9.822617294346132066e-01 -1.260656295851840247e-01 1.388140912350541156e-01
-6.574867697065014949e-02 1.605804751762993088e-01 -7.289693891058777186e-01 -8.039445634650135286e-01 -5.720263110483995161e-01 1.626623445773745513e-01
-8.572802910573472379e-02 1.120804578639408508e-02 -6.661396779492485543e-01 -1.382215041301396163e-01 -4.357548072784499238e-02 -9.894422637402037202e-01
4.860011732881959479e-02 8.256589673890694925e-02 -8.567554316015757454e-01 -9.454856339212429628e-01 -2.917236793249472493e-01 1.447556940837243511e-01
3.654251708507850332e-02 -7.420816563146287459e-02 -7.546785110611626823e-01 -9.002776694463372475e-01 -1.108493983356785423e-01 -4.209661848472980861e-01
9.117403494090044191e-02 -8.865703612630636277e-02 -9.103352173747489839e-01 -9.859226071330370322e-01 -1.635740378108525572e-01 3.464313638008073570e-02
8.771325159247746195e-02 -1.296293056222270201e-01 -9.087939489821144079e-01 -9.998034391628135564e-01 -9.545552591899892497e-03 1.737715350468056752e-02
7.011953188004656570e-03 7.286551636876584248e-02 -7.543617079805324810e-01 -6.460007527557622975e-01 1.368710282279139538e-02 -7.632140529728907996e-01
4.200542112557937441e-02 -6.858826435112930220e-02 -7.876236728784362651e-01 -2.001281822554968337e-01 -3.902530821581635112e-01 8.986941874370638628e-01
5.051769757109030035e-02 3.221801148776542306e-02 -7.914763363665432427e-01 -8.336964679230374209e-01 -2.612916369807325445e-01 -4.864944807668233895e-01
7.205228575809256852e-02 1.935657155067747881e-02 -8.415973773985935269e-01 -9.797597375494236926e-01 -1.798091428247422241e-01 -8.797459197811668963e-02
-1.343090568522444794e-01 2.345897229500001624e-01 -7.333690835089142768e-01 -6.788137745265052647e-01 -7.340067357961783667e-01 2.111803302673475116e-02
5.961316169451118946e-02 5.583257313460437965e-02 -8.371818525775700515e-01 -9.767947224636348569e-01 -1.941603248040690843e-01 -9.040928292586533632e-02
4.957165495334218963e-02 -9.452653827883536475e-02 -7.967966560001087384e-01 -9.351056392413910068e-01 -2.070789192187921512e-01 2.875687129611400050e-01
1.350299353086535474e-02 2.231420257181917013e-02 -7.492721234332292424e-01 -1.358719213547152915e-01 2.266781392555911601e-01 -9.644458731162680598e-01
7.791375216877298449e-02 -2.305982649266466369e-03 -8.829379275670451444e-01 -9.829229226106985795e-01 -1.251517745124185732e-01 1.349057505921650579e-01
-1.936564830080329119e-02 1.408909745022249305e-01 -7.617373245446737995e-01 -6.774725227862908872e-01 -3.062843710364933636e-01 -6.687457401197843820e-01
2.131176607944817655e-02 -8.018236377614702814e-02 -7.331106910566692614e-01 -7.006554040360036817e-01 5.835829853274848190e-03 -7.134759616728988396e-01
-1.179881585397734300e-01 2.006787016537079360e-01 -7.320492815725037072e-01 5.862413846034117970e-01 7.336261541609297998e-01 -3.436767447898072536e-01
1.559766033991097020e-02 -4.434019385977341909e-02 -7.223716221581336638e-01 -8.469604189476919176e-01 1.061843795892924575e-01 -5.209442640697632410e-01
6.407286357901439966e-02 -1.831891901834688807e-01 -8.756345328983947685e-01 -9.282218647589691729e-01 3.631078673322084560e-01 -8.097435683497272718e-02
-1.632374412449940637e-01 2.491597884471430657e-01 -7.498297992846516546e-01 -4.206633398528339951e-01 -2.441661839734888539e-01 8.737420838598102257e-01
7.957335715649996311e-02 -8.664672884759938923e-03 -8.485225982126741728e-01 -9.975488766948881203e-01 -3.381551613482317725e-02 -6.125968881166889840e-02
8.221750409828051942e-02 -3.235172324725216902e-02 -8.408876540360212815e-01 -9.097408019193511386e-01 -1.768075723857729931e-01 -3.756471158816281908e-01
-1.125406482718548096e-01 1.456993580346390704e-01 -6.784166102932520648e-01 -3.814041456259197882e-01 -3.175604777635989695e-01 -8.681510356279702467e-01
5.306783962838726443e-02 4.403290715030979546e-02 -8.005561251291836156e-01 -8.872288811891650973e-01 -2.483910159638901827e-01 -3.887503254947173303e-01
-6.132605560536042583e-02 3.464200046134196381e-02 -6.736973421318041000e-01 -4.898784465801369059e-01 4.564368452265955139e-02 -8.705950618051011558e-01
-2.843984494480253020e-02 1.072209319242749120e-01 -7.343252645638412845e-01 -8.152750631489531496e-01 -5.553083313697390055e-01 1.641926567140768456e-01
4.969948637469011332e-02 5.697395305558417000e-02 -8.037987864593629794e-01 -9.368132323664036809e-01 -1.996093954760250477e-01 -2.872926328691817743e-01
6.082462344411282418e-02 -1.110082422887784387e-01 -8.154680529899246411e-01 -6.262322400142239509e-01 1.252384670551311696e-01 -7.695118634150146519e-01
8.439778256296040504e-02 -2.373439249770582446e-02 -8.649309258701443071e-01 -9.764592778093390546e-01 -1.845382160130797644e-01 -1.116822528908425621e-01
-8.695377561343752004e-02 1.722264061895804055e-01 -7.287586850299956343e-01 5.924967190345746815e-01 5.203820506272653912e-01 -6.149391509070035733e-01
4.276043691929729863e-03 2.305625709856761255e-02 -7.271403829929524720e-01 -9.205633496248580849e-01 -6.339613618762907077e-02 -3.854141269387267310e-01
-8.057483344636660189e-03 7.107651995791842980e-02 -7.431564739709768386e-01 -6.377891927991119481e-01 -4.810094152497753073e-01 6.015437540110665227e-01
8.318509147550437466e-02 -4.112866016811166092e-02 -8.417432322251900967e-01 -9.239544995452861897e-01 -1.277057504160763191e-01 -3.605541902137410215e-01
-1.795788076444878034e-01 2.706724263481864456e-01 -7.350451545250558105e-01 -2.534716162151299801e-01 -4.518405456383350893e-01 -8.553316673025391781e-01
-1.122682139590378513e-02 1.751659784427215261e-01 -8.665219328628456230e-01 -9.930075641679558807e-01 -1.551980058976545201e-02 1.170261222756567160e-01
1.605859807305716046e-03 -1.057492819651373317e-02 -7.137705095574354841e-01 -7.451075878189755697e-01 -1.603021831809907927e-01 -6.473931515254047753e-01
-1.749004307826715066e-01 2.577781318405094613e-01 -7.330188380057541808e-01 2.631737773537023428e-01 1.636638722397316392e-01 -9.507647973273309905e-01
-2.097225787403706951e-02 -4.951802063465406134e-02 -6.950851919398219891e-01 -5.160645243807785443e-01 1.464966696549648180e-02 -8.564244239472863507e-01
3.242445467761054245e-02 1.124754523865998806e-01 -8.532368390958392501e-01 -9.764745708527236001e-01 -2.016361478070078650e-01 7.642170094639302858e-02
5.721894115329584363e-02 -7.906280510566938979e-02 -7.996004314916151934e-01 -6.430365799993286169e-01 2.527217369104676759e-01 -7.229354607955841283e-01
3.921330366382059368e-02 6.188379588514467122e-03 -7.726264493077780182e-01 -6.994602455334747448e-01 1.110898200873788738e-01 -7.059847142758867156e-01
-4.072662746018717445e-02 -8.361381160811195978e-02 -6.919258170239128702e-01 -4.365549033611399454e-01 4.985749946532634369e-01 -7.488943791068566336e-01
2.672693223726187520e-02 -1.561086082671013335e-02 -7.676861495779544464e-01 -3.600334588627104176e-02 -3.378270878386820386e-01 9.405193340954927095e-01
9.193830684825354468e-03 3.900312746640977740e-02 -7.493102588862844415e-01 -6.258230473627567347e-01 -4.792222951741310633e-01 6.153791556411631891e-01
-3.641924812882565282e-02 1.149872773671388460e-01 -7.376363009991148134e-01 -4.643924582979853111e-01 -3.992891053700022286e-01 7.905111352844924610e-01
-1.571249844385022854e-01 2.291762936390369931e-01 -7.419915961114277314e-01 5.908297684968941699e-01 8.067950788994874278e-01 -1.373070091581298858e-03
7.059229877715532397e-02 -8.373006503318487781e-02 -8.172093778929102603e-01 -7.788995974816128598e-01 2.032149443235010608e-02 -6.268193151993780576e-01
4.640272858056664063e-02 -1.485885972483791395e-01 -7.999637556752070555e-01 -9.474858056618039592e-01 2.743123446128475362e-01 -1.643879121541629573e-01
6.061854563463563855e-02 -9.607077162025276507e-02 -8.100893167074315615e-01 -7.153890378296121622e-01 4.400446221909837807e-01 -5.427515592184107840e-01
-1.539189860648600972e-01 1.671955446867111339e-01 -6.820889026424556967e-01 -2.442075646583239112e-01 -3.931190201876978013e-02 -9.689258174511180544e-01
-7.488470172158706584e-02 1.128226052397984791e-02 -6.683650854088979409e-01 -3.234908161726018361e-01 2.110193263330333580e-01 -9.224015046420602770e-01
4.164530568969366901e-03 1.497178992891725069e-01 -8.601189617552774669e-01 -5.923760980527910114e-01 -7.875528618006455428e-01 1.698559634671781005e-01
5.778421142387698412e-02 -5.969655108019424061e-02 -7.961333597449976596e-01 -6.751581037600928870e-01 4.919701669629281994e-03 -7.376566487618461121e-01
-6.164194984762577699e-04 1.522437431233993055e-01 -8.061840197939352803e-01 -8.952912940776616146e-01 -3.674289698562477335e-01 -2.518917443250626720e-01
1.433969719078754743e-02 1.175749901993657642e-01 -7.852901925149582407e-01 -7.850723454643855348e-01 -4.267206969530642491e-01 -4.489664343566677207e-01
4.415431820855449802e-02 -1.804210725755197309e-01 -8.267145334281685853e-01 -8.347472406482023821e-01 4.305217617458328982e-01 -3.432900477635151271e-01
8.230214506682620446e-02 -1.073941211064239343e-01 -8.463639101769775408e-01 -9.104228228651188859e-01 2.740664714326553897e-01 -3.098674762584188169e-01
1.206058267603147410e-02 1.385583509354247900e-01 -8.042194381084232235e-01 -8.016034869940334984e-01 -5.616173045622914195e-01 -2.049825671982685726e-01
-1.594446918214390344e-02 -4.017474092984389678e-02 -6.970998836345470018e-01 -6.731376179749655186e-01 1.745385750938268643e-01 -7.186250991102427488e-01
-1.768459063835541370e-02 -5.461507212369885039e-02 -6.993706427340814491e-01 -5.134015555746410664e-01 2.524931565699818914e-01 -8.201622087238996661e-01
8.489793348816956908e-02 -1.282566277238637031e-01 -8.661124110563327427e-01 -9.231593693750838048e-01 2.804283079688071334e-01 -2.629386674202740526e-01
7.800996472157738226e-02 -1.486419159477215812e-01 -8.645695589523872959e-01 -8.518293737482359740e-01 3.778024704208610141e-01 -3.628388228450512010e-01
-1.259714270366681932e-01 8.810549754935045885e-02 -6.613413323934758115e-01 -2.738962979610549686e-01 7.862266548145330214e-02 -9.585401892648115485e-01
5.488852673847014613e-02 -1.888386296655348018e-01 -9.202142842716436455e-01 -5.964280309727448826e-01 7.903295967821233337e-01 1.401882032133260902e-01
-5.991482578112115182e-02 2.211719023524350847e-01 -8.033678976558730200e-01 -6.086102566172013617e-01 -7.848196295743624651e-01 -1.168405091357637982e-01
1.508664359019199624e-02 5.106675999949719658e-02 -7.564234063505265171e-01 -5.675333671568161265e-01 -1.758254182795598308e-01 -8.043576937224284906e-01
7.771952101459323956e-03 6.823190401370853898e-03 -7.257216074444112763e-01 -7.654389335290833207e-01 -3.258278667936026496e-01 -5.549229137984752480e-01
-6.195263840253006221e-02 1.524308217912493379e-01 -7.265783379787177365e-01 -4.452231899187401587e-01 -2.362046283284091885e-01 -8.637034703616858211e-01
-6.765512703603672462e-02 2.162190303843948003e-01 -7.710170543550105560e-01 -7.241457558555862706e-01 -4.975491637143979462e-01 -4.775539278065306092e-01
2.433380505469156727e-03 5.197234549058024622e-02 -7.425394901188724361e-01 -6.303018704250864523e-01 -1.338880705348710898e-01 -7.647179458513360117e-01
1.911695292271099397e-02 -1.408382257663229609e-01 -7.469879384214365148e-01 -7.302775647544398341e-01 3.820488522521146013e-01 -5.663332525193687239e-01
4.983278722679394118e-02 -1.847691319938203347e-01 -8.413380737357328831e-01 -9.521398798998100821e-01 7.780314090537215899e-02 -2.955948584966151538e-01
5.550906739802152767e-02 6.229531777143129667e-02 -8.655524283377844519e-01 -8.485615817631112501e-01 -5.105618855126825562e-01 1.388157160317996519e-01
5.276723649880591532e-02 -1.581251274292173326e-01 -8.293625751556171766e-01 -9.416414536289124948e-01 -1.430688613096112172e-01 3.047009578770636384e-01
2.269968263344175965e-02 -5.084261197578852226e-02 -7.326425224217274490e-01 -8.555771764826805015e-01 1.474354072673896288e-01 -4.962363305581556916e-01
-9.159902854281534723e-02 8.984016145033585365e-02 -6.715538202159414549e-01 -3.113242412299648820e-01 -1.698850198196439065e-01 -9.349953459047086746e-01
-6.071817088174203368e-03 -2.648561905102965117e-02 -7.055918349807164258e-01 -5.975627857117034036e-01 -1.034818270564663717e-01 -7.951164874416356554e-01
2.033080518125321076e-02 1.233810200587231592e-01 -8.078219477816699357e-01 -9.021098305270769391e-01 -3.439701568468416237e-01 -2.605424818818757315e-01
8.947123277268949348e-02 -5.368294303322632133e-02 -8.829970983041499633e-01 -9.948324165070675518e-01 1.013409610881266763e-02 1.010235772617760208e-01
1.108764194038288492e-02 1.242242405600997718e-01 -7.850236192260802159e-01 -8.006230528784806788e-01 -4.985133332627506020e-01 -3.323961247650210060e-01
2.784664285728592065e-02 -1.717192176535017600e-01 -7.751214102534066397e-01 -7.406435434055708145e-01 4.359012924214726858e-01 -5.113093045084649013e-01
4.359879413974805662e-02 -6.109415493845551243e-02 -7.825136037358775276e-01 -6.816596672876736873e-01 -3.901597841155777791e-01 6.189631983019215911e-01
-1.733633709562054093e-01 2.507726617480894316e-01 -7.532974865515839058e-01 -2.282468702906036151e-01 5.929036487339228723e-02 9.717962846377445896e-01
8.105614191825029347e-02 -2.535408312810542159e-02 -8.401068919419161229e-01 -9.378368590257760706e-01 -2.724712709879622552e-01 -2.149917029535585167e-01
7.613072156415731651e-02 -5.948756763383111767e-02 -8.233131362575184520e-01 -9.179053854637102550e-01 -2.656538708471726986e-03 -3.967904310071101448e-01
1.420833582937910088e-02 -9.312662162577226010e-02 -7.253889658379751859e-01 -7.209871183137448458e-01 3.336259779198054720e-01 -6.073477439512685594e-01
-7.874301403807584809e-02 2.012387068705442927e-01 -7.454267064850532698e-01 -6.042549731601050134e-01 -3.865058223570584373e-01 -6.967705337450591507e-01
8.185141900805335824e-02 -5.954720517398277152e-02 -9.280125913584624797e-01 -9.129039516121539855e-01 1.654391679997234688e-01 3.731437482023158836e-01
-1.839803287739297244e-02 -5.648851218859293755e-02 -6.991322341728914980e-01 -4.555351035683914418e-01 9.294499656834656620e-02 -8.853524705053039678e-01
-2.068279542170356824e-02 1.903820297174061704e-01 -8.348688694233875607e-01 -7.554278105696178303e-01 -6.539551354251055271e-01 -4.088402951184573475e-02
5.419862739679935258e-04 -7.072455735480649708e-02 -7.107396032491493099e-01 -6.945313768972745105e-01 2.361074036379810226e-01 -6.796171425534437427e-01
8.456456803760728502e-02 -1.284033863361348227e-01 -8.647513262005541712e-01 -9.112447983767674176e-01 3.377756390742081005e-01 -2.356703949996584724e-01
-1.900985367406183013e-01 2.643692386102349801e-01 -7.582362986264081783e-01 -3.029300039994783922e-01 -2.834952538740818234e-02 9.525910544862284945e-01
8.442961697752270067e-02 -6.225421048827583376e-02 -8.418885610403542552e-01 -9.557161620871584828e-01 -7.293512436306345825e-02 -2.851089005266880250e-01
4.847435247603935210e-02 7.710155726406071365e-03 -7.825028843024982583e-01 -7.061062036342964365e-01 -2.393562505663124618e-01 -6.664252505000077820e-01
3.086750241637024883e-02 1.062882875483960043e-01 -8.110437396594051274e-01 -8.162686852452045727e-01 -5.137461469271844550e-01 -2.641407390114913212e-01
3.991641281381496514e-02 -6.960094414276329911e-02 -7.766338327113797568e-01 -9.832209407130458878e-01 4.493124369494484738e-02 -1.767986569049056489e-01
8.739156353630798957e-02 -1.274192957607507837e-01 -9.135171328184454875e-01 -9.998034391628135564e-01 -9.545552591904298695e-03 1.737715350467939138e-02
6.129437783655274086e-02 -8.537296879313477360e-02 -8.062204057724856598e-01 -6.486166416878111907e-01 3.554956814200083692e-01 -6.729927730795848273e-01
2.889125037372583873e-02 -1.402127085698929854e-01 -7.601132549727223076e-01 -8.094653024277145281e-01 3.158141919634472883e-01 -4.950023437521118841e-01
7.670699526246937960e-02 -2.821948540403722283e-02 -8.248279376943203900e-01 -9.384159155627762594e-01 -1.122146487664806430e-01 -3.267773584884542948e-01
-1.015777064033803745e-01 9.921358969267106420e-02 -6.697151727023396006e-01 -4.715179347873847404e-01 -1.013558131536645007e-01 -8.760124635607642318e-01
2.987440101540429771e-03 -2.173164799461206331e-01 -8.078557565010254793e-01 -4.345853227797639162e-01 6.522671581887401482e-01 -6.210339375370668158e-01
1.648615989226578232e-03 4.224206434986976788e-02 -7.403312123465003447e-01 -7.042192918535646884e-01 -6.451318997449004833e-01 -2.964456457983480342e-01
2.058447297177450064e-02 9.146196054865217417e-02 -7.739458142019591813e-01 -8.430240663007835256e-01 -2.395515314876514312e-01 -4.815864277568597251e-01
-4.604686104637350369e-02 7.515362834954917529e-04 -6.787462689659931048e-01 -5.081910041384649634e-01 1.224739583179914187e-01 -8.524916614528623704e-01
8.273232379746280063e-02 -3.995751672990002085e-02 -8.408252968586470422e-01 -9.733220560475902561e-01 -1.142064750823682251e-01 -1.990001413581206358e-01
-1.400049416331399822e-02 4.158322785883399042e-02 -7.118824239622018046e-01 -7.743106081504935734e-01 -2.742513652052468998e-01 -5.702887608823019594e-01
-7.102348523926198254e-02 -8.029546328935721622e-02 -6.870967508222716180e-01 -3.102728597142269673e-01 6.348279960285656554e-01 -7.076186600020599737e-01
1.341416214060260625e-02 8.352658304801167943e-02 -7.624053412059470514e-01 -6.999710656866281466e-01 -2.970233895008575487e-01 -6.494748750267005377e-01
2.621809474849104600e-03 -2.461973655899476754e-01 -8.889508967577527399e-01 -4.065210624403768347e-01 8.541863720613820377e-01 3.242009678840600539e-01
-3.824998490051024352e-02 4.047881337963270265e-02 -6.878129631938679767e-01 -5.999230794468140004e-01 1.144681467294224493e-02 -7.999757928718188582e-01
2.853679076157259603e-02 -9.156396870225716467e-02 -7.498342979837095967e-01 -8.131574105483536652e-01 3.623119154741277770e-02 -5.809150767791717573e-01
-8.377318293392968518e-02 1.924037655309523698e-01 -7.380185679403133969e-01 -2.786808465121350942e-01 -4.056760561419252009e-01 -8.704963660236689771e-01
-2.055340396886747370e-02 1.781017714641226490e-01 -7.848391036732175197e-01 -8.318842537990034369e-01 -3.845372561946429624e-01 -4.001245891963788326e-01
5.945391202873103603e-02 4.279310789600838938e-02 -8.174748797056603511e-01 -9.645219901495835080e-01 -1.799335792975541581e-01 -1.931870532904764737e-01
8.322012648634040735e-03 -1.864419780729368870e-01 -7.642686555358634282e-01 -5.397396256937198045e-01 5.052087803301371638e-01 -6.733834158437069783e-01
4.708407321280144026e-02 -1.735367243859219366e-01 -8.393371849534265738e-01 9.423596528401481098e-01 1.410420230804205199e-01 -3.034228607477977291e-01
-2.426448078786789045e-02 -2.200287369032959996e-03 -6.923486264781459898e-01 -6.293425359494440041e-01 5.381906317949420454e-02 -7.752622013765435582e-01
1.356443275517245188e-02 1.139183498957157537e-01 -7.801169638324831901e-01 -6.985392085930804962e-01 -4.951222317208106571e-01 -5.166207019796600353e-01
-5.717853619929780425e-03 -1.174168836827370471e-01 -7.237263256357324703e-01 -5.412188601524012821e-01 4.334321749250318323e-01 -7.205683140099153894e-01
4.889791211797760162e-02 -2.378909246131932775e-02 -7.816348227810241411e-01 -7.077229294350747546e-01 2.375515457381183193e-01 -6.653551820413415863e-01
-4.205841027190825206e-03 -9.573057650934133078e-02 -7.134309756158874194e-01 -5.939336253510736352e-01 2.882607605883330537e-01 -7.510982509514759764e-01
-4.243183852910260151e-02 2.154554521701827485e-01 -8.192630077932823163e-01 -8.285878708667875348e-01 -5.518870832431569395e-01 -9.414237941439908275e-02
-9.160628531162054444e-02 1.838122021830230213e-01 -7.342675668503179098e-01 -1.719034805156364476e-01 -1.565933620297229600e-01 9.725881514571511621e-01
-3.337692278206579738e-02 -9.391919877035646846e-02 -6.973677782493625799e-01 -3.739031238354609266e-01 4.381312644176059701e-01 -8.174579188716161182e-01
-2.666569913174242704e-02 4.896671124670532588e-02 -7.002121702999768438e-01 -7.058957464813985228e-01 -2.073326535067867016e-01 -6.772919354970234895e-01
-5.777216678088187979e-02 2.004846178597672335e-01 -7.598113806770602219e-01 -5.900004361535505781e-01 -4.796936694583839311e-01 -6.494562870741732441e-01
-9.252840283323447712e-02 1.777783417942767619e-01 -7.304629371952344741e-01 7.589734642663278352e-01 5.833209896911150105e-01 -2.893024429992726021e-01
4.010657538746881939e-02 -7.184826547654800388e-02 -7.765234147589301639e-01 -8.825733292536230845e-01 -3.161713899906423708e-01 -3.479942106437420857e-01
-6.536141610434850757e-02 2.199124222717870891e-01 -7.816407554545877767e-01 -7.763359080232997700e-01 -5.292664399368225414e-01 -3.423150500200664581e-01
-2.236872539352490960e-02 9.752700959854414264e-02 -7.358582628719896324e-01 -8.497856588349192997e-01 -5.220181038816175123e-01 7.322180862518196109e-02
-1.655714649909396097e-01 2.354164893304685757e-01 -7.424477890264820079e-01 5.878585474074632389e-01 8.025899987827167514e-01 -1.013490113121276598e-01
4.242012079924372542e-02 -1.559666697010793079e-01 -7.916046487165160350e-01 -8.752616019229405575e-01 3.513349462676912949e-01 -3.323866479423723264e-01
-2.924245191113402503e-02 -1.471528517861529495e-01 -7.168373518434544289e-01 -3.141464210999308504e-01 1.675289156251320299e-01 -9.344763713115341597e-01
-2.121916559591072171e-02 1.910875615789365267e-01 -8.334445562986216860e-01 -8.656085725768714045e-01 -5.007093388329105776e-01 -3.457902101081911182e-03
-1.200161291477663261e-01 2.065957484905976693e-01 -7.396804709451872961e-01 -1.317696453480815266e-01 1.450380259388178994e-01 9.806124268010332212e-01
3.340423611896882472e-02 1.097183618929886556e-01 -8.343671555989645716e-01 -8.755152889691234508e-01 -4.747073617967900172e-01 -9.014377092868754160e-02
1.894900651972884764e-02 1.116703531612816824e-01 -7.913829200636793848e-01 -8.713636024628821364e-01 -3.752950532063505928e-01 -3.160365411495176802e-01
-2.728553450729453642e-02 -3.630136277618622315e-02 -6.911131174270231936e-01 -5.730279873474175556e-01 1.460887026327253313e-01 -8.064099557170999466e-01
-2.000556042124737241e-02 1.892218326523169847e-01 -8.452348271998582074e-01 -6.458720751826891870e-01 -7.573017943267544849e-01 9.666051318239748946e-02
2.039362241406598650e-02 1.247609681171182316e-01 -8.103626496437708049e-01 -9.013695452130821018e-01 -3.769168889502111375e-01 -2.132289890855737502e-01
3.928812403515365148e-02 8.751706464182634759e-02 -8.120961737802693259e-01 -8.045450922969057395e-01 -5.576208203796982898e-01 -2.043678427249149554e-01
8.124596871731931680e-02 -2.028042979122696848e-02 -8.444955700736098692e-01 -9.861226708862698143e-01 -4.763528623031801357e-02 -1.590375976613245534e-01
-7.085218946174469401e-02 3.420271401915860737e-02 -6.712437242992523867e-01 -3.111499060358691726e-01 -1.693847120326855971e-01 -9.351441361113665973e-01
-8.056812684726480378e-02 6.131424212411537046e-03 -6.673234925249869054e-01 -3.566771418481193834e-01 2.586891902226358120e-01 -8.976977884260457508e-01
4.760558440587983609e-02 -1.795712311139414374e-01 -8.296642781015122203e-01 -9.625911813278197338e-01 2.592388486156550487e-01 -7.882535758461288455e-02
8.850881289981735178e-02 -4.814690984144202879e-02 -8.810543310033653874e-01 -9.997943596100837826e-01 -1.000216976407663702e-02 1.764072254396404846e-02
4.550992831007198008e-02 7.759437601978788623e-02 -8.114834983662871926e-01 -9.398135095524212668e-01 -2.908330754944470908e-01 -1.793507442449081002e-01
8.183540235277332597e-02 -1.195935671208726847e-01 -8.534017592273669406e-01 -9.231024673871854880e-01 2.807517699204746253e-01 -2.627932236383032638e-01
-4.077882541817383182e-03 -8.852702002498630263e-02 -7.101478720419468482e-01 -5.510330736398360019e-01 1.568688916972013903e-01 -8.196064315101041498e-01
4.525455188961288039e-02 8.768240320672186783e-02 -8.393450101895283400e-01 -9.237681699490343235e-01 -3.737763877786751121e-01 -8.332814727412186928e-02
4.962031163999281597e-02 -1.225133196166694055e-01 -8.127008254589601632e-01 -4.283423843774326611e-01 -4.217912224055879178e-01 7.991338851828618806e-01
4.663637054121112790e-02 -1.063427450579349370e-01 -8.002123368531742775e-01 6.810374398253922212e-01 3.923576722710324094e-01 -6.182584108333119000e-01
6.181103219613875294e-02 4.524725628598538080e-02 -8.303640405608869735e-01 -9.641988821274998234e-01 -2.047303356969315535e-01 -1.685408121183165353e-01
2.386728950495792603e-02 6.207798838433986784e-03 -7.569896226502079717e-01 -9.324276304141715377e-01 -3.590397507623208084e-01 -4.085549427854056476e-02
-1.496915459587347397e-02 1.324336450087855444e-01 -7.595605131694090906e-01 -6.756661787504337768e-01 -4.215016547099872946e-01 -6.048235858244366270e-01
-1.281842763241791971e-01 2.079424075771336422e-01 -7.382409123456237232e-01 5.038871200797520045e-01 7.737386374350776475e-01 3.839613146631352669e-01
-1.289109390703165221e-02 -9.218266123686330582e-02 -7.054984580229500812e-01 -5.063215759931285476e-01 3.186883386190731970e-01 -8.012965771248805602e-01
2.725458611672078920e-03 4.715858919856356912e-02 -7.496463259837975457e-01 -5.065967199651716379e-01 -3.967112876275417088e-01 7.654932511717051913e-01
6.411105919059514879e-02 2.241207861384255859e-02 -8.170204488553425293e-01 -9.550134358665802736e-01 -1.197386812412514767e-01 -2.713152880486375262e-01
4.366428063693403305e-02 8.678741849876286940e-02 -8.722413513004547703e-01 -7.653289036672643597e-01 -6.142104709409751395e-01 1.923984578886450136e-01
2.563167082003517394e-02 -7.381309178598076393e-02 -7.383811676379619104e-01 -8.329665473917151619e-01 5.264168299401922324e-02 -5.508135656806967262e-01
7.186015315878320486e-02 7.763890275722376208e-03 -8.813663059380978382e-01 -8.880194501459316436e-01 -4.572013625718779339e-01 4.887095481915083861e-02
6.912371329663775932e-02 2.572760524994076661e-02 -8.572800003437389682e-01 -9.752440564067492712e-01 -2.052057932660208972e-01 8.239910711514131236e-02
-3.846562494916773434e-02 1.208128742202047301e-01 -7.352722611640960526e-01 -6.234849875061976299e-01 -4.732944886814844931e-01 6.223012111012869996e-01
8.056021195556588299e-02 -5.446517009675679033e-02 -8.342533570324592862e-01 -9.539412569244437590e-01 6.109798207093948552e-02 -2.937058305929106661e-01
-8.037842490052282685e-02 5.504361366519191362e-02 -6.699231267941839763e-01 -3.256925490390988887e-01 -1.103095945739840933e-01 -9.390187201783239956e-01
-9.927435903658263228e-02 1.855453352957487922e-01 -7.311014118444281173e-01 6.891366361385422579e-01 7.186840150371570646e-01 -9.264978824436415072e-02
8.624953414778151195e-02 -1.046747665908469571e-01 -8.568525496961922894e-01 -9.672215936002055425e-01 1.498804868702626747e-01 -2.049834835517541920e-01
7.811172536680076328e-02 -9.661225302368023045e-04 -8.487190120069610932e-01 -9.345525543604614738e-01 -3.225742810462350896e-01 -1.501910661319151019e-01
-1.764646204080528302e-01 2.679219891349774452e-01 -7.345150666112357785e-01 -2.534716162151299801e-01 -4.518405456383350893e-01 -8.553316673025391781e-01
8.286436786601750204e-02 -1.320323373628411456e-01 -8.628251627322530704e-01 -9.235208031546804364e-01 2.800637766742714030e-01 -2.620564960757088002e-01
3.015630280953622566e-02 -2.170081369184005682e-02 -7.695847677256464348e-01 -2.258701684755591299e-01 -3.856421820978321868e-01 8.945740742832005710e-01
-1.166229966608006013e-01 2.171312436637909404e-01 -7.340170490193549391e-01 -6.815225591800901928e-01 -6.650957991795050095e-01 3.052451133800441196e-01
1.989046669923360752e-02 -3.878113581735324498e-04 -7.574397456698931386e-01 6.735708160196963723e-01 4.324914855800546798e-01 -5.993775694062278836e-01
2.915375082700323583e-02 -1.698016557660895487e-01 -7.753439520639420213e-01 -8.269787365454636108e-01 4.142380645894233049e-01 -3.801486487505611467e-01
9.365550977122953993e-03 -8.391469407291077959e-03 -7.256455300725054292e-01 -8.471866587187226738e-01 4.518835363225946755e-02 -5.293701710381993886e-01
-1.348750724409174540e-01 1.766943195913259212e-01 -6.880240942815586402e-01 -3.253923239673741641e-01 -3.136622766018540287e-01 -8.920402523093076130e-01
9.796456907529532687e-03 -3.890790756895460417e-02 -7.198621966374895154e-01 -6.954118138221030421e-01 -8.519904381142862082e-02 -7.135429434380745617e-01
8.607191121416178647e-02 -4.333079449480185114e-02 -8.766556500934737928e-01 -9.955662488568839397e-01 -3.834100711816151863e-02 8.589418670782146548e-02
-8.250498490324477407e-03 6.524096706859069950e-02 -7.463955500014672895e-01 -2.814535511330872875e-01 -3.421848950329879346e-01 8.964894846933998407e-01
-1.076257097922126288e-01 -1.911527093281081835e-02 -6.693239708976468361e-01 2.089172378362068039e-01 -2.524007333399098663e-01 -9.448002209696849674e-01
-7.772429262626645574e-02 1.669052573412071472e-01 -7.347618648603118086e-01 -1.012382563491135978e-01 -1.322618406539183000e-01 9.860312474552865858e-01
-6.218575557424315531e-03 -9.571689702813353240e-02 -7.118264181306930283e-01 -6.423680430733845759e-01 3.823469175093163752e-01 -6.642094036591130735e-01
-1.880408179855058703e-02 1.509946017686153441e-01 -7.659440494866701643e-01 -6.062746369895986032e-01 -5.218566806904625377e-01 -6.000805523943125719e-01
9.118007030413179809e-03 2.762095344864224158e-02 -7.484512369636970863e-01 3.213433068599403364e-01 4.046283835767097714e-01 -8.561625723777097630e-01
3.529750629961253550e-02 -5.032157943025965252e-02 -7.762359117855247570e-01 6.731597566448164205e-01 4.344116982522547299e-01 -5.984500133306739356e-01
-6.725437824831613509e-02 7.571362723245460280e-02 -6.802460963537846350e-01 -3.592906361752795652e-01 -2.351261826917997455e-01 -9.031201010771189308e-01
-1.519114608848943504e-01 1.412023565891400989e-01 -6.711833941309481855e-01 -1.691464225579415726e-01 -1.230344465964054029e-01 -9.778813898866092202e-01
7.799056895047244697e-02 -1.496840710872817115e-01 -8.659230762794392078e-01 -8.725819040353191003e-01 3.525461505516084837e-01 -3.381006247869707826e-01
3.415079003995180607e-02 -2.306845386408141671e-02 -7.655626190561675148e-01 -9.527609610899264725e-01 -2.747830099184040975e-01 -1.293864308309873590e-01
5.289098442630991298e-02 5.412305883566654457e-02 -8.102201244888033171e-01 -8.675045481571134198e-01 -3.361452514729350582e-01 -3.666636453739582913e-01
2.642826488572141974e-02 -3.304760008139726729e-02 -7.404144577584204079e-01 -9.509701543989622641e-01 6.451363798937773120e-02 -3.024793479822871500e-01
-8.323509961629989296e-02 2.499307693290710522e-02 -6.671196815003405112e-01 -1.529584758656743482e-01 -1.243706518002071215e-01 -9.803752575578607020e-01
-9.174268772066280012e-03 1.166444746419108558e-01 -7.546500783080543062e-01 -6.784787389111596179e-01 -1.104398088778059950e-01 -7.262710578431142983e-01
-1.420586644294416223e-01 2.295135271958760048e-01 -7.450492244533964969e-01 -3.004656789949307072e-01 -9.142044587875006179e-02 9.494012206761932582e-01
-8.843015259098755548e-03 -2.229105158955385982e-02 -7.029566044145889592e-01 -6.751522258046959157e-01 1.112907547062933350e-01 -7.292351060583059930e-01
8.179949848330325679e-02 -1.865574518124336195e-02 -8.495465702717395207e-01 -9.893393227948238389e-01 2.808816140700685048e-03 -1.456015622298299228e-01
-1.690479686574997836e-02 -1.646975557236208809e-01 -7.313313966182464210e-01 -4.626789131356750517e-01 6.432745796023972007e-01 -6.100213427224899787e-01
7.171485889668749274e-03 -5.610559941082097352e-02 -7.146026811080202767e-01 -6.984667336899957890e-01 7.590307796496520779e-03 -7.156022702283599823e-01
-6.762643732815072639e-02 4.789269359140695126e-02 -6.755021153318518934e-01 -3.931705072693045255e-01 -1.085554901317495602e-01 -9.130348612051203405e-01
-1.108832635393951632e-01 1.106338329317515939e-01 -6.685258575825643312e-01 -3.276532179879574347e-01 -2.686772606893547133e-01 -9.057902065768875799e-01
-1.663967063178903305e-01 2.630482130642794458e-01 -7.364926999451268941e-01 -5.985326438771756408e-01 -7.421135632838158358e-01 -3.017053751652365445e-01
-8.299328222503343788e-02 1.678545846455301582e-01 -7.342483845370570972e-01 4.027596520147661008e-01 2.904631678036470599e-01 8.679952827397249271e-01
8.884110588080255944e-02 -5.311224366724059953e-02 -8.695375720266128594e-01 -9.932737877937182214e-01 -7.196141662307811715e-02 -9.071238614169234438e-02
-8.319314763775791099e-02 -6.266930623931160627e-02 -6.790020740843693003e-01 -3.445249449559902311e-01 6.830469641624172805e-01 -6.440104091174129186e-01
-7.204999590472277449e-02 1.523827749260784903e-01 -7.315546377078753215e-01 7.670352376345435097e-01 5.895055787144066750e-01 -2.532589917288459724e-01
9.153867329795387087e-02 -7.630262224109909952e-02 -8.886761164090727361e-01 -9.864655691419067507e-01 1.029117215070255303e-01 1.276513159900618255e-01
1.652004381942254294e-04 1.592153216762453305e-01 -8.440450301314397219e-01 -7.764890536068208560e-01 -6.288417158965839970e-01 4.028456251498355872e-02
-4.003558323362559068e-02 -2.716227240622008741e-03 -6.837681343002881551e-01 -5.333574978328577965e-01 9.916575563318492936e-02 -8.400571006873120972e-01
8.367077448887115521e-02 -6.321806388301903779e-02 -9.313800203875985950e-01 -9.170259324058278594e-01 -1.920189572708369541e-01 3.495599510010298228e-01
-3.314610598656475560e-02 1.143286142860698712e-01 -7.327645951629871979e-01 -8.157792245257201591e-01 -5.729514494698272342e-01 -7.893600814988532832e-02
7.671132186147050502e-02 -1.567993781821646060e-01 -9.057166191984126202e-01 -9.797422074253276936e-01 1.967241357020689252e-01 3.748094744827220465e-02
-3.816586596150342570e-02 -8.521773741983808270e-02 -6.936010249410354822e-01 -2.886250574183895079e-01 1.062686635654543632e-01 -9.515264302026736898e-01
9.121277600722223211e-02 -8.079789673474127576e-02 -8.778075448300962647e-01 -9.926686207045324339e-01 1.187254239337284661e-01 -2.265575380157571622e-02
-7.728205862466111520e-02 1.600634629898389227e-01 -7.296063960389748138e-01 6.646158431492978913e-01 5.581872129547365002e-01 -4.967019391232248560e-01
7.249021936947687428e-02 -1.370538925694584631e-01 -8.426865868782171809e-01 -7.884841266597262255e-01 3.878349386223098882e-01 -4.773644754162987835e-01
8.734543182977355658e-02 -1.317504794954128255e-01 -8.871318808311394744e-01 -9.585724296838867842e-01 2.848122148972377921e-01 4.571574702428785400e-03
-9.259082552011280512e-03 1.766715593401577133e-01 -8.492244004454547746e-01 -7.957596936610765725e-01 -6.001703340748909543e-01 8.100666664456353250e-02
-1.604448158567680638e-01 2.545631954987475076e-01 -7.451163956127438981e-01 -6.020688248344899796e-01 -5.393897540231323839e-01 5.887035106208224899e-01
-1.627799937166000271e-02 1.869425153886986601e-01 -8.272736614854143689e-01 -8.418811130606886906e-01 -5.355778739790576504e-01 -6.627618256786253770e-02
-8.446885266158804528e-02 5.106383170990403536e-02 -6.681412642233783838e-01 -2.146006440471789067e-01 -1.368872351533924059e-01 -9.670617603993015843e-01
6.885099566896292489e-02 -1.713974255170046257e-01 -8.791771812640838402e-01 -9.611748284230436923e-01 2.687314587937723598e-01 -6.266061171504587468e-02
1.849363120359740972e-02 -1.811380651488162519e-01 -7.703762377039042875e-01 -6.183203870835918270e-01 3.968532513252235328e-01 -6.783711342837313030e-01
1.086813929736758777e-02 -2.180485572324882826e-01 -8.276471693784187567e-01 -3.583428533698139185e-01 8.450069262945365534e-01 -3.969303389173468588e-01
-1.552170142949272080e-01 2.523795974684735488e-01 -7.335517787180044769e-01 -4.576435953110153942e-01 -6.182638889624251233e-01 -6.389930385190952800e-01
-9.366494281654812182e-02 1.056592698867768743e-01 -6.745615561213141875e-01 -5.319114547088804601e-01 -1.078550018734492077e-01 -8.399032699783713918e-01
-9.681194613575408101e-03 -5.147144429326400844e-02 -7.039582352926001541e-01 -6.277117664776648009e-01 -2.144144045099165286e-02 -7.781505014178659030e-01
6.679493947509203278e-02 2.046727366158703626e-02 -8.250803681455441962e-01 -9.251044848242911955e-01 -3.321168694890335171e-01 -1.840654154337174886e-01
9.441298509000997695e-04 -8.439507783904008631e-02 -7.128599857894724057e-01 -5.669696218693347500e-01 1.777752878329612318e-01 -8.043266717654286024e-01
2.862275999788740574e-02 -2.994725928808465720e-02 -7.465707514368641329e-01 -9.522701123316037464e-01 3.650066988471656337e-02 -3.030665508727779511e-01
4.516676864994604440e-02 7.202786693302432042e-02 -8.046512611535182602e-01 -8.470418056058669487e-01 -3.791309845950945889e-01 -3.725317115037413140e-01
7.981368961334686651e-02 -1.512524774541234296e-01 -8.734390584090960807e-01 -9.510892361250038451e-01 1.772803510690233453e-01 -2.529840747003663237e-01
-9.476102436374923832e-02 1.830197649400956417e-01 -7.271909066255535237e-01 5.782669641529777360e-01 5.096981449662113528e-01 -6.370361992754427494e-01
-2.994751952619879171e-02 4.206888040715636712e-02 -6.958816149991297051e-01 -7.167876158369801409e-01 -3.697102904902186543e-02 -6.963107472916055807e-01
-1.795023992835601268e-01 2.694408732781189419e-01 -7.511021911469214496e-01 -5.814141306969313749e-01 -4.856897452129964599e-01 6.527350764443919928e-01
3.401410640619821624e-02 1.090367038140710870e-01 -8.365322302262704346e-01 -8.039967689216507285e-01 -5.920149121137283643e-01 -5.574530830949112753e-02
-1.526973276471280290e-02 6.953569305259273137e-02 -7.447684352748249470e-01 7.502701824007627085e-01 3.155968888781612303e-01 5.809416985642807951e-01
-2.472079139254747260e-02 1.849027569345584043e-01 -7.885264004111125491e-01 -8.365273471450972442e-01 -4.321958945456115253e-01 -3.367917846627272449e-01
-6.149631367191790016e-02 8.160572466795983082e-02 -6.856681128965673722e-01 -4.860805356454191983e-01 -3.079216056098861287e-01 -8.178691812663514416e-01
5.428750755643856063e-02 6.824398574292590836e-02 -8.347546777239733817e-01 -8.724305124710796111e-01 -4.691559692577038643e-01 -1.369586704787763565e-01
1.107827088201856873e-02 1.409746048346666170e-01 -8.057884764825602453e-01 -8.446518744991101668e-01 -4.273717000221846640e-01 -3.223610412647403001e-01
8.398532200192382335e-02 -5.137088525724064353e-02 -8.475495666540409090e-01 -9.894311411062490791e-01 7.015736484583817364e-03 -1.448336854836082821e-01
-1.334572582587273681e-01 2.577256012985116793e-02 -6.605953772165236160e-01 -3.653638485879843745e-01 6.134194919540544300e-01 -7.001612564515450332e-01
2.685872280053718322e-02 -6.296891262812479018e-02 -7.372633984167037413e-01 -8.612146255649819615e-01 -6.712895196936989606e-02 -5.037887181353528643e-01
7.721438651861037977e-03 -1.109213317451178960e-01 -7.317959597192641441e-01 -6.949697568162883643e-01 2.281324257042124382e-01 -6.818890184282345723e-01
-1.127977611696622667e-01 3.369509926374039677e-02 -6.616681027654501834e-01 -2.081412796263573950e-01 2.191941017609504716e-01 -9.532214608729244754e-01
4.506500648325957592e-02 8.810243377564852540e-02 -8.546000157778850248e-01 -9.633636868568243861e-01 -2.667940026985727298e-01 2.741107385164107471e-02
5.161951575084080396e-02 -1.437568324993282465e-01 -8.190254762515900566e-01 -3.359435075053113784e-01 4.719281135837032903e-01 -8.151231903058310246e-01
4.584526384708121488e-02 -3.777733203423514277e-03 -7.781747180463866043e-01 -7.399688664205010813e-01 4.209521496232349058e-02 -6.713226270621560632e-01
-1.090733450153489464e-01 3.552564155011495722e-02 -6.622901863380571408e-01 -2.074453958146404431e-01 2.186998493943840272e-01 -9.534866457534584283e-01
4.450414324562386448e-02 8.485474141793980518e-02 -8.227840915722176574e-01 -8.693188414481539672e-01 -4.724588214801018204e-01 -1.451461811721987405e-01
6.533283224493612040e-02 -1.817328462715568360e-01 -8.792983355772722165e-01 -7.771923512433118741e-01 6.291185139902250034e-01 -1.348868131521913961e-02
2.251192901356929496e-02 -1.697840575489540094e-01 -7.666424881382307710e-01 -7.336076144479242167e-01 3.907692546734798378e-01 -5.559849437043766773e-01
5.208981441615664898e-02 3.710971367522298420e-02 -7.957240825368796511e-01 -8.863355890607711451e-01 -1.095112552821976976e-01 -4.499072221367573787e-01
-7.595389828091189677e-02 8.019473639003228682e-02 -6.733083395295196283e-01 -5.194460241593431560e-01 -1.505041678167886587e-01 -8.411446507318626198e-01
6.960081339068933948e-02 2.765500262636937101e-02 -8.804734565208202079e-01 -9.786516259485431579e-01 -6.509297515531722866e-02 1.949458889376798065e-01
5.606239341932926779e-02 5.684013334879078894e-02 -8.256261329033370844e-01 -8.652358355702827186e-01 -4.610758292141844961e-01 -1.969162983590918292e-01
-6.927647426556215798e-04 -1.727600204138184450e-02 -7.112690472743600223e-01 -7.481101571929283933e-01 4.501322270685866739e-02 -6.620460727821855240e-01
-1.564137201614413941e-01 2.377256333854066428e-01 -7.487390374893196920e-01 -2.570613039067687899e-01 -1.871764595641510834e-02 9.662138147240505459e-01
5.734511786737903766e-02 -3.826318535755872385e-02 -7.915151579047691177e-01 -7.902524077376658074e-01 2.151603317809976934e-01 -5.737657742430382068e-01
-7.545418123723394987e-02 1.183273013457503686e-01 -6.900358641267128057e-01 -5.284400615144257962e-01 -4.566895591138626087e-01 -7.156715363789563078e-01
6.185023651592973931e-02 2.801983277896576835e-02 -8.994791187633968121e-01 -4.770041189912594404e-01 -8.678078131551626440e-01 1.392001073714631554e-01
-7.886262020695132893e-03 -2.030450266690139727e-01 -7.691217354647313931e-01 -3.618610873825880425e-01 5.707328374867604026e-01 -7.371028297684131259e-01
2.866244847155877129e-02 -3.381418417359349088e-02 -7.454221824715466793e-01 -8.551938903263733849e-01 -2.151463275180969525e-01 -4.715458277876274917e-01
-8.517662237336415254e-02 9.179231962743902851e-02 -6.738407110077704321e-01 -5.301495847664332572e-01 -4.928319536215062385e-02 -8.464706636540184626e-01
1.742869772744235282e-02 -1.198404537322095287e-01 -7.362961286664523319e-01 -6.949697568162883643e-01 2.281324257042124382e-01 -6.818890184282345723e-01
8.281651994564104280e-02 -1.481131918564932703e-01 -8.863250412852121674e-01 -9.824499247370164223e-01 1.078657301768844862e-01 -1.521746681863918038e-01
-2.341016110332544767e-02 3.121414243834337576e-02 -6.984704615502566050e-01 -6.198283062755934880e-01 -2.209653753613897709e-01 -7.529855069195749984e-01
-7.930610588656167304e-02 9.565912347533379878e-02 -6.779139963901814614e-01 -6.301032855956462120e-01 -1.174409794982628763e-01 -7.675789638962626782e-01
1.175609307883350441e-02 -1.917019782525080651e-01 -7.743082609766552826e-01 -5.663249747265243217e-01 6.175180588155103623e-01 -5.458456467150082370e-01
-4.833272824332845996e-02 9.555272429028213721e-02 -7.038394923759773159e-01 -6.668046795580619968e-01 -4.387494084747857181e-01 -6.023873138459142629e-01
4.661048444208136521e-02 6.307640294079114307e-02 -7.993001535821119274e-01 -8.631815519457023411e-01 -2.519401207519853525e-01 -4.375428938242329480e-01
4.933310776260508776e-03 3.841091728240193792e-02 -7.452914548814958406e-01 2.443932302427583303e-01 3.503306462092301010e-01 -9.041793999744374144e-01
-3.694002758742701009e-02 5.164639901296613766e-02 -6.915336769693180008e-01 -6.659158894909371629e-01 -1.446654378667810159e-01 -7.318660664426972495e-01
-6.097553245865222626e-02 3.155883081719616096e-02 -6.740820642880988034e-01 -4.903882530348771529e-01 4.516889137745995486e-02 -8.703327711497095276e-01
6.924111649577047688e-03 1.414870270200998814e-01 -8.719987223166240087e-01 -9.756578901801727932e-01 2.052396715372550584e-01 7.725515229713687815e-02
6.867253758858769819e-02 2.708366752772770752e-02 -8.489584451438243473e-01 -9.859063463132031746e-01 -1.671350103848767144e-01 7.386785701349969299e-03
6.122822707941448506e-03 8.722998169329934659e-02 -7.578554527408991603e-01 -5.100165876574019874e-01 -3.835092360838628367e-01 -7.699374949647999067e-01
5.477732077117206111e-02 -6.815800657515065641e-02 -7.950692887732421221e-01 -7.209871183137448458e-01 3.336259779198054720e-01 -6.073477439512685594e-01
4.135790465432306884e-02 -1.506148636822202125e-01 -7.852137578977936849e-01 -9.071412123893936030e-01 7.451881264951289163e-02 -4.141760101044097975e-01
-5.207806414832175101e-02 1.178785713114573752e-01 -7.129408183273581168e-01 -8.483870267867162918e-01 -3.273660118308424627e-01 -4.160179648500343386e-01
-1.041734082849118531e-01 1.870024703716607339e-01 -7.132609385808950098e-01 -7.115427253327326618e-01 -4.781198844689577565e-01 -5.148867119099677092e-01
-1.894100756725054235e-01 2.624474951349919927e-01 -7.367686620883485693e-01 3.821135674235731083e-01 3.477410284009019303e-01 -8.561923841973331228e-01
-1.388526401919370767e-01 2.381813498382531202e-01 -7.319473877639532944e-01 -6.084852732455485746e-01 -7.215198969363416648e-01 -3.303856997030306664e-01
-3.426460656395999976e-02 8.041784615098293565e-02 -7.097455530494227727e-01 -6.929006775875961033e-01 -3.577853709737079946e-01 -6.260018205371741251e-01
5.182066380744544676e-02 5.337989352519793840e-02 -8.065073418240503722e-01 -8.607514553371966581e-01 -3.970090232697828792e-01 -3.185761566364800901e-01
8.923755593376705986e-02 -9.987358000775514721e-02 -8.656756116763745235e-01 -9.415612329764302402e-01 2.489187991329494531e-01 -2.269402476294475057e-01
-1.663606827178594830e-02 1.670285478831151638e-01 -7.795883247907994251e-01 -7.852207155044839126e-01 -4.268599782242631369e-01 -4.485743939783098377e-01
6.552585134360332242e-02 1.194460873817318990e-02 -9.035721209815058552e-01 -9.584814953193971920e-01 7.987016292757534441e-02 2.737407171105807890e-01
-9.280842947366545539e-03 1.758709904222707232e-01 -8.547041780353984430e-01 -5.863920846158644506e-01 -8.027622624323557110e-01 1.082454299928937991e-01
-1.929706129014838872e-02 -3.359222775031218966e-02 -6.959254623220983982e-01 -5.094779214316191851e-01 4.638106944317792885e-02 -8.592328229129890804e-01
7.584900160319640872e-02 -7.109088757603460821e-04 -8.346134450588924558e-01 -9.819545760443340043e-01 -8.564674353037596277e-02 -1.686115236519565019e-01
9.150564960341985021e-02 -9.948657203909719304e-02 -8.815788972382421207e-01 -9.889203069768934817e-01 -1.052872007656891346e-01 -1.046481333022823007e-01
2.568100290665595656e-02 -2.292690296262593630e-01 -9.137688879872184478e-01 -7.286941586677386784e-01 4.524646695410867725e-01 5.140822365542223604e-01
7.080362211407448259e-02 -9.261564085026570761e-03 -8.151000537031697357e-01 -9.149812299058773801e-01 -7.971943038920566160e-02 -3.955428691537096753e-01
4.005028374754948661e-02 -1.827923410977597973e-01 -8.142598499330984119e-01 -8.272745755006071233e-01 4.771614693126535189e-01 -2.965361848639724851e-01
5.998398757520367192e-02 4.875384662443398021e-02 -8.830153252471040215e-01 -8.530162125138088802e-01 -5.120271087872003690e-01 1.009533607940652084e-01
2.282083764371961934e-02 -9.997750922172561616e-02 -7.438014491855908794e-01 -7.483299715182147871e-01 1.105538146862010684e-01 -6.540490102323197608e-01
1.542017829182777862e-02 8.057726268181266555e-03 -7.593686326270422393e-01 8.239846287346389575e-01 1.708993689439435859e-01 5.402247100083458209e-01
-1.167824545250123747e-01 1.076554122761579219e-01 -6.660070871549567117e-01 -2.893568879882639222e-01 -1.537194410594532601e-01 -9.447978221895499962e-01
4.105841617226695106e-02 -2.245242337717633652e-01 -8.779122461454499371e-01 -8.076180696556550798e-01 5.896991887115258235e-01 2.814320280593190539e-03
5.629141449174131229e-02 -7.842449907283932653e-02 -7.984753589449129496e-01 -6.485786100136207155e-01 3.519217260896267407e-01 -6.749050935790137373e-01
