-8.456842403863149005e-02 1.311953914817048650e-01 -4.998503561571358000e-01 9.219375909439931904e-01 9.461986009058399871e-02 3.756037279911165205e-01
9.365799610513432516e-02 -1.205445306281602846e-01 -8.756563933204498662e-01 -6.837803251760642409e-01 -3.133585387509291165e-01 6.589771567315502176e-01
-1.241663209363051863e-02 4.084057434695286676e-02 -8.016715297002340312e-01 -4.016144507995506596e-01 -8.490189002449215483e-01 3.433259965919840950e-01
-4.734242622363715042e-02 -8.172172200482376303e-02 -9.194287303199975003e-01 -1.728703193659801018e-01 -4.092898684609267423e-01 8.958781481080678732e-01
-1.468157675692003672e-01 5.406334520981272151e-02 -7.605200229497824926e-01 6.244643174781498995e-01 -7.762744214826609035e-01 8.626899065312101933e-02
-1.380352820302504146e-03 3.289661138101063892e-02 -7.983168261262253429e-01 -6.599791976648450298e-01 -5.650423514043942941e-01 4.951308915519819220e-01
-1.627041166320292859e-02 8.644469922871775291e-02 -6.942120459438825275e-01 9.167857010560325204e-01 3.928398109676529693e-01 7.197819988091837262e-02
-4.886471355479191786e-02 1.356431703886285256e-01 -5.819105030450085758e-01 5.352173188562501238e-01 -7.831673994354284574e-01 3.165300081475300731e-01
-7.106626237213566066e-03 -8.149471535002997258e-02 -9.087291825512393562e-01 -4.984955325225527423e-01 -3.740346153267142815e-01 7.820487904168470505e-01
-1.138194753596714903e-02 6.307653653001214777e-02 -7.632839746936702641e-01 -5.889474396134956047e-01 -5.849312584735315568e-01 5.576704548685350593e-01
-3.106679629836380657e-02 8.397293877635697568e-02 -7.397657812313386261e-01 -4.144964374513768757e-01 -8.145897244541246973e-01 4.057539699791855581e-01
5.674011370112019836e-02 5.120670192515018593e-02 -7.409178659482570373e-01 -5.670653686823204920e-01 -7.201106167391727597e-01 3.998469298377974601e-01
1.102866269007631989e-01 -1.318869643874650277e-01 -8.598555487739710790e-01 -7.614236802476329613e-01 -5.121594740896593528e-02 6.462282150209418541e-01
-6.413740751347110636e-02 -1.345246094776691437e-01 -9.364035624073255848e-01 1.147179393555464513e-02 -7.600759798134872069e-02 9.970412443790906964e-01
1.180639584221360172e-01 -3.613582143305437561e-02 -7.622694376426809582e-01 -8.491764756224901012e-01 -5.207828782959836866e-01 8.766131942377555775e-02
5.553869393711637070e-02 6.961113381009968737e-02 -6.987789062922797889e-01 -6.120125674111461800e-01 -6.450977295617932317e-01 4.574817336736372586e-01
-4.613570590393867299e-02 -4.195813813978764226e-03 -8.659812147199288379e-01 4.567962746647932781e-02 -6.447093639390648612e-01 7.630617325510501425e-01
3.640939073234038953e-02 -1.802627327009085900e-01 -9.172173942007987302e-01 -4.585955793244729239e-01 2.883005404048355133e-02 8.881773035875629718e-01
-1.997764996860262182e-02 -2.366900816961079942e-02 -8.757128943556952150e-01 -2.639853086815900918e-01 -4.618664050374136076e-01 8.467533175004992030e-01
-1.604527881965980190e-03 1.195473453007250414e-01 -6.224411635180049363e-01 -2.725848120427658561e-01 -8.052614824652590819e-01 5.265467359137872005e-01
2.081876822365136270e-02 -9.431729843993726103e-02 -8.920032513115713213e-01 9.518812117552711838e-01 -1.614580840453296029e-01 2.604869397949306498e-01
8.692084317168598251e-02 4.276267904733313530e-02 -6.858783458011132872e-01 -7.573374839091333577e-01 -6.497603859881049271e-01 6.520257868192093353e-02
-3.301779150276835245e-02 -9.426911445545921309e-02 -9.226708835471243431e-01 -1.230440479211629412e-01 -3.489782522208788595e-01 9.290179447933366585e-01
4.548054729716383138e-02 8.865613553860184071e-02 -6.633451315078499055e-01 -5.262706322022340233e-01 -7.360584742489101329e-01 4.257430494650816799e-01
4.728475312540560832e-02 -1.047486590394029055e-01 -8.947143274104116806e-01 -9.470193236210587562e-02 -3.156342106543330583e-01 9.441433096047968654e-01
7.010595995315908879e-02 6.974026663850574348e-02 -6.534435402291373096e-01 -7.266930368499083803e-01 -6.787194619604500767e-01 1.060995860028439430e-01
-3.894122243014883078e-02 1.198058311815236171e-01 -6.019009488214714931e-01 -3.112976901716794642e-01 9.338070504203996869e-01 -1.763466491854332185e-01
3.128171373832228791e-02 9.028484818968854353e-02 -5.533959111322988011e-01 -8.320542085640580954e-01 -5.256787581508648444e-01 -1.770526397425456200e-01
2.445273489186939805e-02 -1.021243745006562009e-01 -8.976047296015260413e-01 -8.893965205498780557e-01 -2.015674131685132042e-01 4.102979492787212079e-01
7.390976107190655280e-03 2.405105395752172442e-02 -7.955424536174117156e-01 9.905157073922105093e-01 7.066848375746738464e-02 1.178329275403510318e-01
1.197257667122262059e-01 -8.711792054292780141e-02 -8.093540302380949347e-01 -8.941641591231432873e-01 -2.435466350700155602e-01 3.757066582929757259e-01
-4.985640172338962062e-02 7.001378925724512092e-02 -7.809760243109080680e-01 -2.436935432159308967e-01 -7.652559322247971529e-01 5.958160917511557964e-01
9.760736560768615289e-02 -2.622895417665744092e-02 -8.054941876484127405e-01 -6.965813645975630353e-01 -4.051879296996379054e-01 5.921124421265931970e-01
7.860661188707271374e-02 1.829465525058541694e-02 -7.715623828184008381e-01 -6.128401869997232021e-01 -5.069364943274259350e-01 6.061701872553318937e-01
1.136317917045703701e-01 -6.214484620343184093e-03 -7.170124516378905133e-01 -8.829503073601431273e-01 -4.675972865568877035e-01 -4.185131225260170507e-02
8.611984758118246264e-02 -4.072397843688375929e-02 -8.347304726056263835e-01 -6.018298626478311153e-01 -4.086106607007357616e-01 6.861764673806590720e-01
-7.736912886689389923e-02 -7.539787338955761253e-02 -9.131219514142114857e-01 3.027325256214454807e-01 -5.502270810336967743e-01 7.782050997185758767e-01
4.294156667615511846e-03 5.931470551266104091e-02 -7.525110084530675092e-01 -9.797088126645621120e-01 -8.224668469126475423e-02 -1.827734259806102213e-01
-6.817623298930895748e-02 1.464157928496294669e-01 -5.131786193362787296e-01 -1.931480072506914503e-01 -9.800120215900096632e-01 4.764750606431636393e-02
5.440047283041708065e-02 5.147183567671904936e-02 -7.433179003545977714e-01 -4.656033545255038320e-01 -8.027384589621928690e-01 3.725915763374175182e-01
2.034635428977824359e-02 -2.943170123546610256e-02 -8.524026196145781942e-01 -1.621087513863399832e-01 -6.122668559832576962e-01 7.738540235653871280e-01
6.950087474338897953e-02 -2.453227423489645620e-02 -8.326243914062403384e-01 -4.923256839219895542e-01 -4.548430623981598031e-01 7.421140138408712783e-01
-1.603645930432245348e-01 9.248612593899291356e-02 -6.910235139353745337e-01 2.969414689747582603e-01 -5.053351781919649399e-01 8.102235010691849482e-01
5.953703920450124226e-02 -4.908799531988138759e-02 -8.591297079887805221e-01 -3.208194704356766014e-01 -6.474723340636661106e-01 6.912701671644165824e-01
3.890503220176909360e-02 6.411838964267725649e-02 -7.338655465123945509e-01 -3.110342658075006539e-01 -8.257443593510193081e-01 4.705357993750991508e-01
-1.044873666306689597e-01 -1.093690703667881681e-01 -9.163198728251088498e-01 3.885970754632705471e-01 -4.062807550590075145e-01 8.269995532103242564e-01
-9.690493297620238200e-02 4.727224171188064428e-02 -8.068552870705596458e-01 2.390778921390233069e-01 -6.192067861738248524e-01 7.479470017632562362e-01
1.016993441751544436e-01 2.587640300708394722e-02 -6.547901453082608514e-01 -9.040235074369522561e-01 -1.750148520343146608e-01 3.900144863576195942e-01
-2.585389104116521744e-02 1.090205861302303986e-01 -6.407992907693206286e-01 -6.001083776062277053e-01 6.565303569101847980e-01 -4.569877739964238184e-01
-5.208045141079029744e-02 8.716057569071239408e-02 -7.478569786934542440e-01 -2.575955850529025870e-01 -8.346973891935566270e-01 4.867491993159440700e-01
-2.827724552405043792e-03 5.700210555329560808e-02 -7.470333191006012230e-01 9.055893401652580499e-01 4.217614263398244412e-01 -4.500273581516234939e-02
1.955474511470584043e-02 -6.377270211097109398e-02 -8.699081519924605210e-01 8.311877470481201513e-01 3.569820544157534248e-01 -4.262519700625185259e-01
8.251925657564432304e-02 -1.200715133974270127e-01 -8.845958241727267524e-01 -5.316326602135718060e-01 -1.668584085418449992e-01 8.303764122933185998e-01
-8.946042874144885526e-02 1.038759434147444038e-01 -7.166563041277898005e-01 -8.899685485517437947e-03 -8.166472773678872255e-01 5.770684707778407363e-01
6.942166358728034392e-02 -1.681049608836617804e-01 -8.957334578901227085e-01 -6.881662917374299360e-01 -2.530466459788924607e-02 7.251115975254726065e-01
9.263817441038488254e-02 -1.045540218036463409e-01 -8.685489875295542284e-01 -5.373760994569795058e-01 -1.824996975022114831e-01 8.233594525746358306e-01
-6.932307969758610966e-02 8.103422265376625244e-02 -7.644891650212841672e-01 -3.085981187212792978e-02 -8.805141961759423985e-01 4.730141883113557766e-01
1.719487296894198908e-02 4.599987709540968167e-02 -7.693086399657772523e-01 7.615280430516571664e-02 -8.889470148164596575e-01 4.516347586771464750e-01
-2.074403277500455178e-03 5.834423487454991342e-02 -7.419849715475540508e-01 8.711401877180612041e-02 8.561764058655754184e-01 -5.092868639308602008e-01
1.258596238063695305e-01 -7.118410674917376169e-02 -7.911425115401515828e-01 -9.248051430611077262e-01 -3.380011058675290170e-01 1.746158635406637183e-01
-4.069224694594038988e-02 6.398170865115357375e-02 -7.865835687265784193e-01 -3.056450701572077655e-01 -7.256183635059512138e-01 6.164893199655130385e-01
7.349167857246989566e-02 -1.571028014047391383e-02 -8.213277124837023990e-01 -4.924653411137172032e-01 -6.617034364358473919e-01 5.653551538729796322e-01
-2.297452734723819459e-02 1.055112452679892593e-01 -6.504240524042895766e-01 -6.312827743828619553e-01 6.340536493235168214e-01 -4.466072419330066601e-01
1.141972402727173680e-01 -2.300356191925111149e-02 -7.636755844526785797e-01 -7.901903463875665778e-01 -5.729036654562599251e-01 2.176708675562246953e-01
-9.341912649565704829e-02 1.361080294770279919e-01 -5.845913339810847598e-01 3.615366708147963459e-01 -9.189506827468734151e-01 -1.575464323150750356e-01
-1.365203412586192822e-01 1.229494780565551781e-01 -6.566620509335482359e-01 3.878212748854842906e-01 -8.369321317692302031e-01 3.861855325596874611e-01
4.244457928113821998e-02 9.245272571092327807e-02 -6.511940854924552768e-01 -5.701244080191956165e-01 -8.041607289285991333e-01 1.681775295031589790e-01
-1.243708843462278946e-01 9.444206788238329597e-02 -7.196045532107425702e-01 3.535800132324100065e-01 -8.217622247114636513e-01 4.468646554381253688e-01
2.206162221315481273e-02 -1.448861360739237270e-01 -9.153357600601012001e-01 -5.842653398858960179e-01 -4.790325613718809938e-01 6.551044327078802132e-01
-1.099388117654000740e-01 -1.369997764213789215e-01 -9.226538356734210744e-01 4.992254158551747700e-01 -7.438665462179240295e-01 4.443383233326211323e-01
-1.108830108685248395e-01 -4.094347812049823482e-02 -8.796575203472333238e-01 3.056938929767955559e-01 -2.044463863877977461e-01 9.299209207721174097e-01
8.282190974285996710e-02 2.604318090721905246e-02 -7.508274433004418213e-01 -6.217994798985913008e-01 -5.927431208055610190e-01 5.118798682655192334e-01
6.165224777561169323e-02 7.214994057342775935e-02 -6.761272455987664687e-01 -5.822149208302929146e-01 -7.842400133671774132e-01 2.144606896296494536e-01
-4.688841726643907387e-02 9.162573724773252770e-02 -7.391179694374784281e-01 -2.784531975752783661e-01 -8.421833492895729467e-01 4.617261341309371603e-01
1.161741116045096611e-01 -8.059841181233567964e-02 -8.278151959288752026e-01 -6.760551033448668479e-01 -1.334835437222622045e-01 7.246596723957449138e-01
-3.285140243161979723e-02 1.243182428029558778e-01 -6.094235940924188633e-01 -9.377030494830934648e-01 1.771991183013560678e-01 -2.988535819817607075e-01
8.122202584525226032e-02 5.828833111566275593e-02 -6.064389212777346883e-01 -8.639191655115713298e-01 -4.799857282687904347e-01 1.525036921522532618e-01
3.396676441838603761e-02 6.224625075570957428e-02 -7.387987116341672156e-01 -2.497777252949565652e-01 -7.301568915251068770e-01 6.359889949557857580e-01
-6.382307397066556975e-02 1.227778965861563987e-01 -5.451880979485191903e-01 7.164174721200590179e-01 6.509901086412195337e-01 2.509140970380049351e-01
-3.213342251036307995e-02 1.130926344255323845e-01 -6.464603624611255928e-01 -6.576028897838319676e-01 -7.165734188338679367e-01 2.325531654669426296e-01
1.172118960100750409e-02 2.491626763310687484e-03 -8.170821940689129148e-01 9.347166716961661237e-01 3.222605788588983611e-01 -1.498427941769941707e-01
-1.549424619343422885e-03 5.090048313589221052e-02 -7.676998086867400373e-01 -6.557586346198348570e-01 -7.209616652918282576e-01 2.240421618829002981e-01
6.389543305006546714e-02 -3.760270536827049412e-03 -8.172061705300164292e-01 -4.975020147127131032e-01 -6.730302094934954571e-01 5.472861065895361365e-01
1.223452437703866219e-01 -1.465430503341337287e-01 -8.429508276415994539e-01 -8.777948421749063312e-01 6.019538254947739281e-02 4.752396563533533014e-01
4.380141457583037329e-02 4.071542851795289381e-02 -7.710650787034522002e-01 -3.793072895098660302e-01 -6.735440885756855955e-01 6.344007730681195945e-01
-8.359165594981535219e-02 -9.156943316043207604e-02 -9.202846190097565549e-01 2.402073089712988829e-01 -5.383880990841661829e-01 8.077367785865051664e-01
2.047114687644618902e-02 1.113510541179987684e-01 -6.301723746779204216e-01 -4.536165240397663223e-01 -8.247183704130561788e-01 3.377449609118001739e-01
-8.318020189909201834e-02 1.114016426610044408e-01 -7.055429132684490900e-01 -6.187646626046437032e-02 -8.335195858455594076e-01 5.490140279946995605e-01
-6.947843396326938703e-02 7.976078694312201123e-02 -7.670308270036859666e-01 1.224930561875317570e-02 -9.089653283173726450e-01 4.166917162948521325e-01
1.205268763757992578e-01 -3.989043895280695862e-02 -7.584670824240519194e-01 -8.430566340706364681e-01 -5.309083774273127831e-01 -8.597561588605742711e-02
8.409746518339103472e-02 -5.875397829283385276e-02 -8.508658082903673980e-01 -5.109225636598818676e-01 -5.022041553471711106e-01 6.976740788471711419e-01
-6.864349852745114944e-02 1.335613784306901031e-01 -5.391903848151377021e-01 9.081989243976013038e-01 -2.051294037687583227e-01 3.648241239727901264e-01
-5.163760649935039693e-02 1.225220269198228767e-01 -5.806087941168599498e-01 7.506099576208324908e-01 6.019906874565214006e-01 2.723819078721579912e-01
-4.924988213614223814e-02 1.203358865805004563e-01 -5.799842367496713669e-01 3.246450095189040153e-01 9.398619724827913524e-01 1.061371305209796723e-01
-3.824350392116544761e-02 2.498404041527387681e-02 -8.345274063750124371e-01 -1.345115153091900884e-01 -7.976042437844799160e-01 5.879916007446135406e-01
-8.419118209900863792e-02 1.243932305559200535e-01 -4.960344294192133852e-01 8.138149505227806335e-01 4.662483579670271272e-01 3.468684116472050549e-01
-1.166166932017792673e-01 1.107555278962087976e-02 -8.342349575105805215e-01 3.996530051594818223e-01 -6.835208376300838662e-01 6.108000818536813981e-01
8.672810678621153957e-02 2.274154689631912099e-02 -7.485576616506806058e-01 -7.304605809535836825e-01 -5.269397749612666493e-01 4.344672752195758991e-01
-1.759997798172471123e-02 -2.023402271418108800e-01 -9.292799400276448019e-01 -3.413524984840773935e-01 4.634480840421195680e-01 8.177373326297182610e-01
6.600655625925266889e-02 -5.030309097480124836e-02 -8.569664953557425413e-01 -4.085871490555386676e-01 -5.451221477376589908e-01 7.320508081223247032e-01
7.550531456410772280e-02 1.636432578761235976e-02 -7.774597635339604018e-01 -6.119331554352462899e-01 -6.988867507265041912e-01 3.702635857575140022e-01
4.530241504694371840e-02 9.073472891097798809e-03 -8.101604748627238006e-01 -1.875712783837262532e-01 -6.028119846942077142e-01 7.755222283303845332e-01
-1.366519678512802538e-01 5.372437276746019896e-02 -7.731450997124024171e-01 4.142561312752512381e-01 -5.065838798620643235e-01 7.561511954396152868e-01
-5.327629727699446927e-02 1.407239316849887290e-01 -5.542822444999370157e-01 -2.427608415143202025e-01 -9.680615029684774830e-01 6.264263961289952276e-02
8.349896815095160518e-02 4.716570124823359772e-02 -6.953331115907664950e-01 -7.435309395592374360e-01 -6.484957569561256019e-01 1.631410283406938833e-01
-5.198475621882943376e-02 -4.970931754481659054e-02 -9.005230124214397280e-01 -5.541639250839590532e-03 -4.858804116821565100e-01 8.740077321042368785e-01
1.029273916673025535e-01 1.334122322076981490e-02 -7.260561360377347784e-01 -8.268983115353354396e-01 -5.440781030975383459e-01 1.421907173826612025e-01
-5.038673666976731247e-02 3.891862256102100737e-02 -8.217421243386447971e-01 -1.604361530195375918e-01 -7.456960917915863574e-01 6.466819770884647545e-01
-3.734669014498911651e-04 7.169066899604456533e-02 -7.367802904280940091e-01 -8.035719369623853803e-01 -5.724825815925282946e-01 1.628982378654680874e-01
5.846188470539435966e-02 4.615314961884681849e-02 -7.518522255736331816e-01 -3.878172953307597037e-01 -7.481857897414357916e-01 5.383453997865296214e-01
-6.652734230432166829e-02 5.488731944830360816e-03 -8.535898988388460618e-01 1.195296276663782020e-01 -5.654142778342281517e-01 8.161000934512476768e-01
-3.764780278075064573e-02 1.157697811135454113e-01 -6.671041366392088667e-01 -5.237195175715336770e-01 -7.505395408425775683e-01 4.029990875255833882e-01
8.430216087620977239e-02 -6.958019690679788372e-02 -8.566257597546039770e-01 -5.901691145461742671e-01 -3.559576829057539693e-01 7.245650724511576435e-01
1.119158875593657398e-01 -1.348028547917810849e-01 -8.582264808497621633e-01 -8.105647044650653443e-01 -2.268625624625569548e-01 5.399242887927748757e-01
-9.703847682216487983e-03 5.252192071151433328e-02 -7.808106764026893076e-01 -4.913722566381934498e-01 -7.306491175812074301e-01 4.740307715582317005e-01
6.016560335189707204e-02 3.796181398369606608e-02 -7.630991297443251442e-01 -4.961584514134954049e-01 -6.042632702005747980e-01 6.234522366448524977e-01
2.154688885661110165e-02 -3.430744080376416094e-02 -8.497998650077184246e-01 -9.255056678346897936e-01 1.975495865403570639e-01 -3.231306541688646616e-01
-1.508247247399452928e-01 8.742489012623926026e-02 -7.133487947519721040e-01 3.896788582962913972e-01 -6.426536877447471818e-01 6.596564446929749082e-01
-1.515730919374602137e-01 7.553420950113283461e-02 -7.237351700999116177e-01 6.128083864918772994e-01 -7.871063040049787185e-01 7.021073736148687738e-02
-3.898559697376022259e-02 1.020978710633662218e-01 -6.986181403329323469e-01 -3.474904551836050515e-01 -9.095788234208692646e-01 2.278524688051409564e-01
-4.356566404159836758e-02 -8.421882653566243118e-03 -8.697658532502837714e-01 -1.482986870919106026e-01 -5.076770965343219144e-01 8.486880846702730130e-01
-4.672690023580604313e-02 5.835622621811237948e-02 -7.975766710742898669e-01 -2.035152515053643141e-01 -7.449461919917911290e-01 6.353241011024512996e-01
-1.216917306753882710e-01 1.093207142586900271e-01 -7.011639166347624075e-01 3.424343883519208598e-01 -8.587115673847591779e-01 3.812520606025049941e-01
2.846762190369479459e-02 -4.365090919420303202e-03 -8.279553717631019660e-01 -3.454609684660969737e-02 -5.226433317650827082e-01 8.518512281813993559e-01
8.689059460433885829e-02 -8.415046436753263748e-02 -8.641899088128555118e-01 -4.907436939133839049e-01 -4.051892339794318509e-01 7.713574473299704692e-01
-1.084054540884663159e-01 1.109437685252367689e-01 -7.052572951318254457e-01 1.114163479392485806e-01 -8.568158040980294876e-01 5.034412331739698265e-01
-1.079228132708123095e-01 3.449437535829768652e-03 -8.463220857029369881e-01 2.151955091733435410e-01 -4.210644190610166593e-01 8.811331612375248312e-01
4.763809834416098815e-02 9.735669218465972663e-02 -5.961284630676657592e-01 -7.677871333987911218e-01 -6.245114326965474083e-01 1.431376547892715401e-01
1.208026305540464695e-01 -1.533283935389269659e-01 -8.467508076468382994e-01 -7.403325088333302384e-01 2.959943974450049420e-01 6.035686315952109027e-01
-5.679106040842216846e-02 1.272321770318168288e-01 -5.705437955096056557e-01 9.333392619476698071e-01 5.214729260687359091e-02 3.551879530343786118e-01
1.807629903177444125e-02 2.828871066902746007e-02 -7.910171999501003359e-01 2.338481989920427467e-02 -9.024312550325637172e-01 4.301987681742400760e-01
-7.334972942566177212e-02 1.209589818667148459e-01 -4.939772078073403350e-01 -5.039105419197736913e-01 8.551582618335127339e-01 -1.215669073391479893e-01
2.180783335197442052e-02 -1.685840042244231562e-01 -9.287882088953004489e-01 -9.319568427821073309e-02 -3.076752279727046346e-01 9.469163207611643873e-01
-5.608347795562173069e-03 1.160042472762732313e-01 -5.548361669216328451e-01 -4.024948625117573675e-01 -7.889938481666222136e-01 -4.642053351770817349e-01
1.148757720730641911e-02 1.098981501225852891e-01 -6.410260222299040134e-01 -2.092371290653627924e-01 -8.941164410228130688e-01 3.959490039300304631e-01
-7.516146731440966067e-02 1.109466098554819785e-01 -7.056380073313396339e-01 -5.010948571227907822e-02 -9.200181453618986316e-01 3.886587856288640230e-01
-1.426552900636801624e-01 1.117879806619891531e-01 -6.808244978835347183e-01 4.257643267995228076e-01 -8.818588007343141077e-01 2.026074865161361649e-01
-8.027492477274816851e-02 1.239781742754030025e-02 -8.484762758308806996e-01 1.353025808018837872e-01 -6.739769966955718727e-01 7.262563043124421469e-01
5.975488648618939441e-02 1.264842125733789749e-02 -7.966546761447620417e-01 -3.645016004715025959e-01 -6.221949030387210477e-01 6.928290452098190277e-01
-1.196646665453172768e-02 -1.037447816969530173e-01 -9.222426125790191831e-01 -3.913893888585354142e-01 -2.212426298100858835e-01 8.932334773415399054e-01
-4.987760348091639651e-02 1.117653231443936357e-01 -6.916825381104665382e-01 -3.116394066001027530e-01 -8.422267656827134852e-01 4.399260794969666599e-01
-1.129178140869745578e-01 1.123143462147073723e-01 -7.011541038515648472e-01 3.093276050512919761e-01 -9.041567651249281523e-01 2.946472074058352209e-01
-5.295990964586943725e-03 1.258742038426209631e-01 -5.906118630929080293e-01 -4.615899625756246794e-01 -8.504231771860507605e-01 2.524185535063071528e-01
1.214583965409708755e-01 -2.391956179835125207e-02 -7.283427041283685455e-01 -9.004924750878249284e-01 -1.013291962680342023e-01 4.229015207987284475e-01
-7.541874429802727930e-02 1.313564083149010020e-01 -6.608402740026784183e-01 -1.564990082560717422e-01 -9.742169768264961061e-01 1.625095150380687359e-01
-1.779006753853636449e-02 9.176868062304265050e-02 -6.920097385850201288e-01 9.676623744447142572e-01 -3.122857449576437600e-02 2.503084201919305030e-01
-5.106658513683143968e-02 -1.170310334192543184e-01 -9.336541809972099815e-01 8.772366437264775274e-02 -1.918923314979520678e-01 9.774875404941564261e-01
1.184971555286245537e-01 -3.558877736496549732e-02 -7.597880757661499285e-01 -8.785249152142817763e-01 -1.610557015565892147e-01 4.497277335720513691e-01
2.527889246791558547e-02 2.980305930998995712e-02 -7.894480766541291938e-01 -1.034032474014823927e-01 -6.028298001389781335e-01 7.911409485617766357e-01
9.500466836988014085e-02 2.243371259325089434e-02 -7.317402474711482974e-01 -7.935739698657252594e-01 -4.589443808057164231e-01 3.995127152900275758e-01
-6.183871597608225912e-02 1.311871953709428107e-01 -5.095596062314239338e-01 -9.268229673815762126e-01 2.570123565379942021e-01 -2.737587180726788194e-01
-5.932227837533587261e-02 1.295569096866766301e-01 -5.641445094057456755e-01 9.344014372129170187e-01 2.898853737810617309e-02 3.550403059303453568e-01
9.872523879779201983e-02 2.624879478190015811e-02 -7.055235023299047947e-01 -8.034761845363996846e-01 -5.931051683083977677e-01 5.150029328747993129e-02
-5.641617304062418459e-02 5.586575184000077549e-02 -8.028616096687289927e-01 4.743332381924193070e-02 -8.690732939835589255e-01 4.924039901097728711e-01
9.579444734478000448e-03 5.052181853333552464e-02 -7.634732273842760319e-01 -2.366949344150663399e-03 -5.664997906818829421e-01 8.240584837911594240e-01
1.547692334447850959e-03 4.416684147732336668e-02 -7.667018930865505677e-01 9.182799438851382279e-01 3.873002348550505514e-01 -8.222209398653224088e-02
1.041259150782398307e-01 1.454004792806482850e-02 -7.050289150409141392e-01 -8.485198227608321542e-01 -5.269711289808758359e-01 4.812005405802284586e-02
-6.402778702639676245e-02 1.221075234489435030e-01 -5.425465029508261816e-01 5.761067213778072738e-01 7.944908481967025704e-01 1.920555589276128905e-01
7.130596383133042115e-02 -5.089021794807558480e-02 -8.546223365366157898e-01 -4.905028274020854506e-01 -4.067808291874920323e-01 7.706726499079205039e-01
-1.006642447669284512e-01 1.344848004378142170e-01 -6.337694456356876005e-01 8.106757404231833275e-02 -9.736175025174115261e-01 2.133002748020999262e-01
1.099722232598231327e-02 -9.688437033636268514e-02 -9.039847856617470034e-01 -6.634687346509415828e-01 -2.243744503131717138e-01 7.137684107519332022e-01
-7.987185325163416449e-02 1.248542674740571040e-01 -5.070140978276308497e-01 8.425396345164510858e-01 4.068767358804386558e-01 3.529564931661758331e-01
-6.445306261160840822e-02 1.289593266125276805e-01 -5.505421318773316974e-01 9.335481145140442916e-01 7.154799110342630053e-02 3.512389540702123836e-01
1.776763697734944428e-02 -4.273869775229135332e-02 -8.575799097657951231e-01 9.961870045646425975e-01 2.928308182853155486e-02 8.218243763206498076e-02
2.425001101626321140e-02 -7.744445672106507750e-02 -8.803075934507347267e-01 -9.522206945620044216e-01 1.609264815086881018e-01 -2.595735279204864354e-01
-5.212016238736421475e-02 1.233639850023699053e-01 -5.518441261804181153e-01 -7.263097465904136962e-01 6.386503074035667638e-01 -2.541651763344033310e-01
-1.193972651376144917e-01 -4.628008189483975160e-02 -8.782094289170693235e-01 4.400336748746800364e-01 -7.751223841729213415e-01 4.533824594427651178e-01
-7.761170512787414488e-02 1.246054516419438790e-01 -6.782255875531556510e-01 -2.644822049586726190e-02 -9.456558031044695056e-01 3.240919525187916372e-01
-6.315164639021574045e-02 1.552335142129217076e-02 -8.482728976101318041e-01 7.930256708562383183e-02 -7.508350985513173592e-01 6.557116421393351935e-01
-3.385827534188354249e-02 1.168095906914148469e-01 -6.168239180402562694e-01 -3.915081760712187942e-01 8.410226913470044696e-01 -3.733660143998501768e-01
1.265796858353746696e-02 1.702162901677185119e-02 -7.990542687134044586e-01 -6.188212598651243734e-01 5.264187452470270312e-01 -5.830467845649142111e-01
-4.906443894097103214e-02 -1.214999373603690980e-02 -8.728692208475936631e-01 3.725105129311532398e-02 -6.149830806488264523e-01 7.876599327712667797e-01
-6.140757487260541103e-02 9.253199765801942145e-02 -7.432854797313526163e-01 -1.265596482843384940e-01 -8.121103776443531208e-01 5.696133688287967622e-01
3.724060064857545507e-03 5.524901512781954516e-03 -8.280366524797513339e-01 -5.952314873648727467e-01 -4.968976218168615344e-01 6.314999840713761969e-01
9.788547256621325798e-02 -5.154712083168903891e-02 -8.304990342407304604e-01 -7.075544232003254663e-01 -5.101800651812611331e-01 4.889611838390636178e-01
-2.356630155901520002e-02 1.163207645391732409e-01 -6.470129258240531200e-01 -8.452514243940262295e-01 -5.341636527169995041e-01 -1.480613642725560168e-02
-2.035926720493836523e-02 -3.326709815578485913e-02 -8.825300253583541199e-01 -2.558105608195331837e-01 -5.194210600084331331e-01 8.153298224601571720e-01
2.400642748233166104e-02 -6.411821634951286875e-02 -8.724756332121498259e-01 -9.541591363984236462e-01 1.455174282937922170e-01 -2.615435345983060933e-01
4.982273001605896229e-02 4.340397805864814468e-02 -7.614462539009234643e-01 -3.831827318803596727e-01 -7.811873336536314660e-01 4.928664562818554362e-01
5.065879054395554942e-02 -1.655169083193383517e-01 -9.058242848227278099e-01 -6.340083525615575200e-01 -1.104983107675184227e-03 7.733254087992399439e-01
-6.316621773863249911e-02 1.348323710226914940e-01 -6.227333573169882008e-01 -3.305106254701657975e-01 -8.688134539863231476e-01 3.686813103802183411e-01
-1.371187355689020828e-03 6.932256812314641081e-02 -7.291984079114589568e-01 -8.505458105821245285e-01 3.316356566785779170e-01 -4.081539113135693730e-01
-9.210922964633178056e-02 -7.333137145589656292e-02 -9.058312954626080993e-01 2.487964913119584121e-01 -2.979239423530182784e-01 9.215973255623597371e-01
-5.637501919970244052e-02 -4.883260719564233576e-02 -9.001756370964527632e-01 -2.036458911922253354e-02 -4.061345641519559235e-01 9.135863392756625734e-01
-6.504816962701431837e-02 -5.389640531366402670e-02 -9.026643694210769731e-01 9.698421557124316250e-02 -6.075882196568038740e-01 7.883087068302022660e-01
-2.273828474302530891e-02 1.140181672128546819e-01 -6.555363970783509853e-01 -4.460604369291478744e-01 -8.567314827547367617e-01 2.589232570926137678e-01
-7.982754638198181693e-03 4.028428008437693469e-02 -7.973160221808224257e-01 -5.837756972657821564e-01 -6.375607436264862926e-01 5.027148629872518759e-01
2.999191574213685638e-02 -1.258641424191011826e-01 -9.056862231169624522e-01 -1.859333684580057044e-01 -5.553128626077697971e-01 8.105901597701660188e-01
1.217571036606863999e-01 -5.861217696039458525e-02 -7.936150871043005095e-01 -8.806717491794083807e-01 -4.339232830316845924e-01 1.900732875505809494e-01
6.044161005398161757e-02 -1.517125371393344690e-01 -9.021562979340758126e-01 -5.040766256096506082e-01 7.392398028563627703e-03 8.636272969084379802e-01
-6.025324854297431365e-02 6.727193379842880128e-02 -7.867993773794861312e-01 2.803263199280955908e-02 -8.314266915367933830e-01 5.549268673832052912e-01
-1.282329945276232119e-01 6.871659059863678698e-02 -7.586258585944791744e-01 2.823195449864478457e-01 -6.124342268876421524e-01 7.383901355348545525e-01
1.114879215939168638e-01 -1.889008296078043339e-02 -7.644788009646839022e-01 -8.112485621049503326e-01 -3.549677081816655089e-01 4.646221008851242340e-01
5.933984706946454635e-02 7.377696120693302134e-03 -8.046942308587869963e-01 -4.851548447416458298e-01 -5.730747431398780511e-01 6.604620469026757368e-01
-5.206795752984006570e-02 -8.550229420730230678e-02 -9.214786596773417715e-01 2.229813153389298419e-02 -5.660619175922025903e-01 8.240611013644166816e-01
9.570680238415761598e-02 -6.315512479082240581e-04 -7.703623973698530136e-01 -6.954769418925068614e-01 -6.278151986649480598e-01 3.495138046217035610e-01
-4.934560741963165548e-03 7.516260537586684498e-02 -7.167936955371693175e-01 -8.369331658871833612e-01 3.504444490583963900e-01 -4.203945336968758495e-01
-6.450771832565872776e-02 9.031752212237288691e-02 -7.480536868967536668e-01 7.099149735450176364e-03 -9.264635456939966929e-01 3.763175528368841172e-01
-8.290308943712856871e-02 7.916282007865657611e-02 -7.634633734517840553e-01 1.511878028721272416e-01 -9.024928436153346611e-01 4.032975520453923046e-01
-6.146059986317988638e-02 -1.554844923258658362e-01 -9.356820888116643697e-01 2.576785928393772740e-01 -2.191602658290130179e-01 9.410475655747029267e-01
-3.410014845943762796e-03 -4.368358597168051777e-02 -8.831689527448854937e-01 -4.527741787346061808e-01 -6.184077847342051015e-01 6.423140624735971249e-01
-5.335068187635876730e-02 -9.484511835381390088e-02 -9.241193247816538170e-01 5.959765515762944360e-02 -2.970322481923187707e-01 9.530057518365400160e-01
1.109055169688187292e-01 2.629610945889745109e-03 -7.174193111484069574e-01 -8.765130774664071645e-01 -3.808340661088907564e-01 2.944320619792232252e-01
-6.327324033258115155e-02 1.329963451817935405e-01 -5.035967849082083614e-01 -9.555282794795110224e-01 8.509937250158962352e-02 -2.823540400184865740e-01
-8.540853993889893636e-02 2.615534449014322513e-02 -8.338847899381103268e-01 1.877569548795664234e-01 -5.209410307641960669e-01 8.326870770948049394e-01
9.449730323199252713e-02 3.329606057908156974e-02 -6.138993557747188801e-01 -9.167782902571226522e-01 -2.688010218777952542e-01 2.954040912896773174e-01
6.648056058409446134e-02 -6.956470992991299618e-02 -8.690128924174552738e-01 -3.549859088498015791e-01 -3.555756703842004041e-01 8.646102862844663450e-01
-7.346095891366541397e-02 4.603014226453978203e-02 -8.127341037364713694e-01 4.508051613920883993e-02 -7.294137091012216079e-01 6.825858100193855638e-01
-4.206564566339843214e-02 1.205008372023736174e-01 -5.904361695442900126e-01 -3.219693295864359817e-01 9.389321343169130252e-01 -1.214174532460120803e-01
-6.267000860052156230e-02 -2.895305644931912142e-02 -8.860166911929691080e-01 1.365089827985417337e-01 -6.787009295156715138e-01 7.216164811656332612e-01
9.368339812892834129e-02 -1.042232404946002305e-01 -8.676060599214646674e-01 -6.477118694857413317e-01 -1.864930351195490943e-01 7.387081169035472072e-01
9.067752656547863055e-02 -7.685167744069415496e-02 -8.550344352309997564e-01 -6.229461036605138391e-01 -4.533886268937714625e-01 6.374769838492720941e-01
7.705540817481326687e-02 5.395317750240212484e-02 -6.888122439767793148e-01 -7.313406930489707580e-01 -5.546360527787390637e-01 3.968874395199106786e-01
1.816692443905245855e-02 -4.126869345689826440e-02 -8.533801867583811207e-01 8.724791281699336709e-01 3.678737923821966405e-01 -3.216349542356566893e-01
-2.464239300059111251e-03 -1.125668267241243248e-01 -9.211888118546889270e-01 -3.812576787501526510e-01 -3.684654360813032214e-01 8.478654402718985850e-01
1.275767618073754203e-02 2.929880886939710549e-02 -7.931934259133379683e-01 -9.783517169140585334e-01 -2.068191176081652649e-01 -7.332844134019697070e-03
-3.694547766831426244e-02 1.304142197285681481e-01 -5.947083957199333915e-01 -9.544427235229422379e-01 -1.962541805132045347e-01 -2.247740735609847496e-01
3.735329068181206247e-02 8.307499785339098053e-02 -6.882092936530327387e-01 -4.249653677134297425e-01 -8.699561924723150375e-01 2.501612668325409183e-01
-1.151785069296623748e-01 -9.934129257071401542e-02 -9.109974069884734238e-01 5.180248646448499805e-01 -3.771604380515964361e-01 7.677240673434777563e-01
7.785708597014778798e-02 3.149368356251001921e-02 -7.475443208605409007e-01 -6.045284309250607002e-01 -7.288884697733843954e-01 3.213517929539189688e-01
1.099852611901816768e-01 -7.467909558524764291e-02 -8.204941203781838110e-01 -8.196882835525549638e-01 -2.747973102806340329e-01 5.025908435986424783e-01
-1.135344670153049240e-01 1.101147895540258020e-01 -7.050387670043062327e-01 1.994839045225590968e-01 -7.251915333016349940e-01 6.590170042298285624e-01
-7.633583778792848995e-02 -1.601393597211574760e-01 -9.317013535545823899e-01 2.510420363893927642e-01 6.227812076673424485e-02 9.659706681050054256e-01
3.420722337820577413e-02 5.123201410981381709e-02 -7.601785524034677666e-01 -2.493121559271180010e-01 -7.332330113942929772e-01 6.326237427639187505e-01
-3.087667178396096002e-02 2.176820725929190167e-02 -8.375259427887545849e-01 -2.316316499861028055e-01 -6.432483986225789874e-01 7.297796080969948251e-01
6.593160214939294828e-02 8.265366294776568812e-02 -6.079012605680144121e-01 -7.216330793823395595e-01 -6.908512660304400033e-01 -4.438723876634298460e-02
-6.273382678445292571e-02 1.256426289968729237e-01 -5.140004219602659630e-01 -8.259460582147422070e-01 5.053592226859212611e-01 -2.498502851025210525e-01
9.625792337533983778e-02 -1.207777836231322365e-02 -7.842626792580449369e-01 -7.822734395197342705e-01 -4.605967893193005369e-01 4.194029845991995020e-01
-3.339656415743764983e-02 1.098368772265054943e-01 -6.756233353714875545e-01 -5.977773488899513765e-01 -6.932941313595116783e-01 4.024990541312634118e-01
1.465150427833604614e-02 1.669732371452975137e-02 -8.098373981789143139e-01 -5.570119909896615873e-01 -6.325660801403478750e-01 5.381429142426833456e-01
-9.154539068336346730e-02 9.223903160277927005e-02 -7.433255326654077955e-01 7.195178451309519607e-02 -8.021530229770240661e-01 5.927676344354528837e-01
1.050917299660925480e-01 -2.626765501165355052e-02 -7.917897198990061502e-01 -7.802448438594488112e-01 -3.673298714645308327e-01 5.062477152151855231e-01
-1.317731330982879409e-02 -4.254100672610151845e-02 -8.879062983858976299e-01 -2.318455152368668615e-01 -6.423233647905998156e-01 7.305260790065156717e-01
-1.902459897416544643e-02 9.916386416628079903e-02 -6.653278380350419186e-01 -7.126606898395057010e-01 5.329798197993941278e-01 -4.561219714550979187e-01
-1.381402110758572430e-02 7.270189621267450497e-02 -7.411934406313471779e-01 -5.465045326720712193e-01 -8.209335994847827278e-01 1.655319334927225494e-01
1.084394498855416611e-01 -4.345929680911283371e-02 -8.069267589879699498e-01 -7.609924763766728883e-01 -4.988987520312014312e-01 4.147173569068559051e-01
-7.200350628855237134e-02 7.680257067863276166e-02 -7.726525859952267927e-01 -7.288986021933786287e-03 -8.780818702101560458e-01 4.784549089423232315e-01
-9.316909611179473305e-02 5.578396899659670422e-02 -7.980034271237883559e-01 2.104392124433848710e-01 -6.933755188039713024e-01 6.891630632800421763e-01
5.591709280552416284e-02 -1.736903765627358931e-01 -9.014728766429309648e-01 -5.778298951598087596e-01 1.882278695348161557e-01 7.941554516528792629e-01
-4.200875968950272543e-02 1.275503185979564580e-01 -6.074929421888907166e-01 8.694787062945489309e-01 -3.012343532778491428e-01 3.914902855827120387e-01
1.244497993985940326e-01 -7.585287208943769510e-02 -8.026954428598145341e-01 -8.964702693803656697e-01 -3.228446596869171126e-01 3.035002171807022475e-01
7.019675306004821702e-02 7.110681819883872545e-02 -6.448079270887507874e-01 -6.976099901801967595e-01 -7.044459327356762390e-01 1.307525504644126979e-01
3.024384903945783951e-02 5.255590122424170368e-02 -7.599630915519663965e-01 -2.270631267185479474e-01 -6.617530776668232306e-01 7.145104622629985247e-01
3.861775663442301026e-02 8.446154078972296919e-02 -6.840180439883782881e-01 -3.866876192406270563e-01 -7.551196199389771380e-01 5.294025356089923084e-01
-4.937150319652928304e-02 1.266466121019070301e-01 -6.469142995445472666e-01 -4.171807592055595260e-01 -8.865110508722763294e-01 2.001458738770430790e-01
2.936898848857476610e-02 -3.574742965445325965e-02 -8.516629647402297332e-01 1.250279691176760417e-02 -2.872252830639634991e-01 9.577814556767159093e-01
-4.215453342378674972e-02 1.314705394828341867e-01 -5.754680108572879371e-01 -9.592031789943735731e-01 -2.746818123329773653e-02 -2.813800995572044994e-01
-2.174923865495030292e-02 9.819579672031240880e-02 -6.775586466101055638e-01 9.335727993276183856e-01 -1.840699230908955375e-01 3.075062467152598900e-01
6.142117341722878876e-02 8.247885286081116374e-02 -6.283580519050460111e-01 -7.216416617594815230e-01 -6.414733858169030523e-01 2.602790950145873472e-01
-6.641827134657291021e-02 1.218661759816423718e-01 -6.835462166375743109e-01 -1.139912987821457002e-01 -9.315978845790645613e-01 3.451541181121438595e-01
-4.390037109603743548e-02 -1.915114455123187731e-01 -9.321171910950816208e-01 4.178489909070641772e-01 9.087927623977273481e-03 9.084710399178663742e-01
-3.736712939965512043e-02 -1.077866705203488762e-01 -9.302185079011000557e-01 -4.179017098013922647e-03 -4.921602208265737355e-01 8.704946024255593162e-01
1.344108326387174167e-02 -2.685337040850245549e-02 -8.513519796120375682e-01 -6.618243081412125139e-01 -6.437194325463777567e-01 3.842055144262963018e-01
5.835013392757870676e-02 -4.235919943098011287e-02 -8.493318779152296827e-01 -4.104479763788137503e-01 -5.545193227432561045e-01 7.239066095781260257e-01
7.450324972005788193e-02 3.748595667757421979e-02 -7.459651441686728779e-01 -5.685837434982715655e-01 -7.019546601195869595e-01 4.289197847685357057e-01
5.105600134467927487e-02 1.392189128702064904e-02 -7.999532629750674140e-01 -2.856369831724300812e-01 -7.076778489158804808e-01 6.462225437091660973e-01
-3.396476466943867956e-02 6.249649710251384271e-02 -7.853084042213513971e-01 -2.631973463673403235e-01 -8.241139510416134462e-01 5.015609161046855613e-01
9.636382712144321572e-03 -2.432678277655225818e-02 -8.539236842507756942e-01 -6.699996204742773021e-01 -4.810755581798502600e-01 5.653908523192338054e-01
9.237591621692679833e-02 3.740108196982749877e-02 -6.073880595131342375e-01 -5.564649158676808760e-01 -4.985608327294431819e-01 -6.646682582134481043e-01
-1.329988136283259681e-01 -1.161937997445929363e-02 -8.419593334591043421e-01 5.595223974860724647e-01 -8.238795922531547689e-01 9.031668827084397833e-02
-2.299448267017882228e-02 -8.388046713283210665e-02 -9.165922823379977213e-01 -2.587315287723309098e-01 -5.015388942941569894e-01 8.255402676607161983e-01
-1.139689609349628513e-01 -5.818485060536696118e-02 -8.856413270905006963e-01 3.266469554713357093e-01 -1.220772168737692745e-02 9.450675838332996959e-01
4.179581867013649338e-02 7.084884481710088111e-02 -7.166093615553872365e-01 -3.676521945048338291e-01 -8.509778094459011788e-01 3.750581710967451077e-01
-2.567067694376897694e-03 6.384653707608758944e-02 -7.334486911352452454e-01 -4.187636012792162465e-01 7.240601127185086749e-01 -5.480638643568122026e-01
-7.264075892969869275e-02 1.210641249510198136e-01 -5.139849085963386077e-01 2.872487774359148704e-01 9.463666674658589573e-01 1.479130507126966143e-01
-6.324870232560426964e-02 1.433842831404935070e-01 -5.114240533795346710e-01 -7.584319633858833676e-01 -6.297684936981251536e-01 -1.678469578509800830e-01
2.967739916393664565e-02 1.090682371007716533e-01 -6.123312519598275161e-01 -4.720991430264888100e-01 -8.737667174060620434e-01 1.168508566810269184e-01
-6.041056837495706322e-02 1.437729794824690321e-01 -5.298877037201248363e-01 -4.393321814514498658e-01 -8.979675600934329260e-01 -2.532775870378801975e-02
4.585605216867231354e-02 -1.263602476761517546e-02 -8.344836514242006675e-01 -1.849277654196459231e-01 -5.974140671470127284e-01 7.803192641167853161e-01
1.253888359436323707e-01 -7.087860619578130461e-02 -7.925789187298225569e-01 -8.848487046287994984e-01 -4.163411584261790255e-01 2.090521698454308186e-01
-7.398231634502860921e-02 1.240032395560946160e-01 -4.899348185717575244e-01 2.187828232405913120e-01 -2.142184832548594819e-01 -9.519687587767066139e-01
4.335637871495758716e-02 8.096366133545250185e-03 -8.119098629386741761e-01 -2.899912809653215073e-01 -7.888442129123107716e-01 5.418762448371848839e-01
1.054064686566403564e-01 -1.184755652946832723e-02 -7.694997314465985561e-01 -7.618188156385768961e-01 -3.752849753238673425e-01 5.280087872708182362e-01
-1.269778901621921490e-03 -1.392339131911184413e-01 -9.272219785438114981e-01 -2.592957227173673385e-01 -3.273912058810092840e-01 9.086147294052944190e-01
-7.378710749586327167e-02 2.661714222468820543e-02 -8.360117843370028501e-01 2.138384092685766680e-01 -7.854864997436498131e-01 5.807616494242312521e-01
-5.003265660419542460e-02 1.279067039868496958e-01 -5.879847375978384250e-01 9.279833427877440810e-01 -4.796799838984296821e-02 3.695212938911050515e-01
6.160072104496178841e-02 7.986982137158164796e-02 -6.387911667526228188e-01 -6.915430728378022529e-01 -6.732282444090518236e-01 2.617859991289753219e-01
2.305125670702290117e-02 -8.171043455742020567e-02 -8.873659389485478721e-01 -1.677784019689638473e-01 -4.723945859862728747e-01 8.652709188246180405e-01
5.324003516971871630e-02 -5.903173316846340238e-03 -8.245744269584180941e-01 -3.027154511405282244e-01 -5.253345278217614878e-01 7.952276337748036550e-01
-3.515067011489816234e-02 8.101012862510512114e-02 -7.516331614935634065e-01 -2.910779083188277938e-01 -8.189316375340202070e-01 4.945954147933278033e-01
2.227109674513366722e-02 -1.373477783628921367e-01 -9.090466923084757900e-01 -1.561604772425662646e-01 4.037119704381749719e-01 -9.014602322189815276e-01
8.464679532555424712e-02 5.381497983950923186e-02 -6.401511366785866963e-01 -8.588263867738609170e-01 -4.410511837810044411e-01 2.605591884127851365e-01
8.474600396438836114e-02 -7.177337327328268957e-02 -8.574624584554177975e-01 -6.017219138198451889e-01 -4.080710449656075323e-01 6.865921356159419009e-01
2.932993298132152010e-02 -1.185094073057123276e-01 -9.021655692192209752e-01 9.505614598787842651e-02 -3.633373438100446773e-01 9.267957184315174235e-01
-6.772466554088422963e-02 -3.035453175315854304e-02 -8.865574805525399116e-01 1.369010930022861172e-01 -6.786490612722081428e-01 7.215909799665805036e-01
-7.829414278154676887e-02 9.379960741900887633e-02 -7.425561773033088064e-01 7.245249660180905216e-02 -9.020005926327384627e-01 4.256119906985155188e-01
-1.480456913663573959e-01 1.086038891425898933e-01 -6.811954363721324235e-01 4.395602933870275675e-01 -7.785214363526502535e-01 4.479856265740188026e-01
8.683394624514012561e-02 4.944205598631244702e-02 -6.235856139026284550e-01 -8.299621895883606548e-01 -5.336882442367881785e-01 -1.622948607231549656e-01
-3.248336287679132878e-02 5.882189208562160765e-02 -7.913673962603356982e-01 -3.493232172022203708e-01 -7.149124634489668617e-01 6.057008003369483973e-01
-4.746613781876823923e-02 1.361913947742934283e-01 -5.603442456968916741e-01 -8.329621085567702199e-01 -5.203671583867977013e-01 -1.881280047762919350e-01
-6.685679367968833109e-02 9.235006695479873462e-02 -7.446716068017699142e-01 -7.750134160427415986e-02 -8.069422521624447509e-01 5.855234783717381264e-01
5.190728528537906505e-02 9.574156035765589434e-02 -6.128925017798081409e-01 -6.479374617112746426e-01 -7.127529974199880991e-01 2.686265258308881410e-01
1.702805530340804549e-02 -3.518477160033552792e-02 -8.511039209261394012e-01 9.859129773081133363e-01 1.278384317345477306e-01 -1.078560918404847524e-01
-1.036475191965296888e-01 -9.472468104502343444e-02 -9.147159005461025227e-01 3.317507033228880298e-01 -1.588363706860274061e-01 9.298991763584157910e-01
-4.880828729283299278e-02 5.410855374564816668e-03 -8.577952564059080354e-01 -1.336430800003898522e-01 -5.602977827084784090e-01 8.174386349200606361e-01
2.119717967313533222e-02 2.111332555410347367e-02 -7.973385745878247555e-01 7.615280430516585541e-02 -8.889470148164595464e-01 4.516347586771464750e-01
-1.004563554123873576e-01 1.302093708982042519e-01 -6.664436440059372524e-01 6.670316089288071126e-02 -8.867613034665421390e-01 4.573894172378911160e-01
8.902231890770850344e-04 9.657132734034730437e-02 -6.819422519438725905e-01 3.858233519457088256e-02 -9.282085367173072976e-01 3.700544767680148395e-01
-8.309590319010183579e-02 5.618016673488329671e-02 -8.001530476084052212e-01 1.010311010300023460e-01 -8.124363559448705141e-01 5.742298182467409084e-01
-2.077608031358130214e-02 1.005275062430369404e-01 -6.609938627089013696e-01 -6.085568233825733309e-01 6.642425181396439671e-01 -4.340973045412929165e-01
-1.592258453649727790e-01 9.160648994278494661e-02 -6.976645052371354128e-01 4.467444395676560265e-01 -5.785527837208531698e-01 6.824192861901196006e-01
4.531640323427295336e-02 4.426942113317561267e-02 -7.632291215251293393e-01 -2.577442807717211792e-01 -8.346177647849891690e-01 4.868070176515297276e-01
-3.665023040661993109e-02 1.321166456664048805e-01 -6.035326843468593605e-01 -6.525348845628859973e-01 -7.570708472879640327e-01 -3.227935276899603773e-02
8.378593882690965611e-02 4.478727878370485083e-02 -7.061802917038932925e-01 -7.226643757179374017e-01 -6.846093099214498601e-01 9.521708269570228200e-02
-1.231504046252742020e-02 -8.379473127848256764e-02 -9.125835638809659534e-01 -3.817129611759242924e-01 -5.351254531691360672e-01 7.536152630094709037e-01
8.730529901648888258e-02 1.556857172179734218e-02 -7.622985177606268481e-01 -6.790245969046836416e-01 -6.406998959864985688e-01 3.583702555756013153e-01
-6.453738874099662626e-02 1.285882139037417826e-01 -5.031046498120769206e-01 -9.089970428549708492e-01 3.172358443195905098e-01 -2.703438461658687064e-01
8.186204494053726799e-02 5.624969353636009861e-02 -6.625576510679538345e-01 -8.173655810990283488e-01 -5.014652772005977477e-01 2.836301863285629610e-01
-1.044572913244813800e-01 -2.165874434597000672e-02 -8.672622269292216135e-01 4.408894196545029009e-01 -6.448038503504326391e-01 6.243752991670735719e-01
-7.279904164454270750e-03 8.808699319528859317e-02 -7.070782623257136912e-01 -8.005765751081778125e-01 -5.862135533666447129e-01 1.242208405917132469e-01
-9.900878207943943424e-03 1.355806662557485203e-03 -8.477249430479781855e-01 -4.285324795219750960e-01 -6.892686727781610623e-01 5.841820013671938927e-01
-7.777552012243639512e-02 1.315451982515955243e-01 -6.610342533571059720e-01 -4.485102285024491348e-02 -9.774036881357700546e-01 2.065681876956879659e-01
