3.901771177830610365e-02 -7.161855879726754075e-03 -7.544812450187602382e-01 4.955750546858871397e-01 -4.215359443795013150e-01 7.594160998880402635e-01
1.839231283071697531e-02 -8.867266437243497001e-03 -7.429871089147107588e-01 4.446350275182499034e-01 -5.450035756425010147e-01 7.108240252275761506e-01
1.017003093202420438e-02 1.069236585962533292e-01 -6.614976410274541196e-01 2.986029686208969691e-01 -3.455383688168441325e-01 8.896288567746564180e-01
-1.528804120663754436e-02 -2.127871031429735132e-02 -7.238312783366511738e-01 6.939819683777657122e-01 -1.437654199717108006e-01 7.054931123596314135e-01
-5.355092951040632543e-02 3.678313540016847627e-02 -6.287392168703066497e-01 7.765771777517506136e-01 -4.810228857989725659e-01 4.068720564658555028e-01
5.977819420104100480e-03 -2.020466746068253494e-01 -7.912032971754041633e-01 5.952606321632075703e-01 8.064577328405143908e-02 7.994754774526081631e-01
6.584552892474455910e-02 9.362284847952777322e-02 -6.617663418579841084e-01 -7.216762521907830186e-01 -2.984217508450899281e-01 -6.246021498893646884e-01
4.894170683898994845e-02 1.107518816213930724e-01 -6.568734320454728826e-01 -5.472919041835477838e-01 -7.520290332706726089e-01 -3.673198942789839272e-01
-7.069849518704511213e-03 -1.419966475202343731e-02 -7.291136305267948980e-01 6.037772464815610585e-01 -4.228589804959202447e-01 6.757538895523245159e-01
1.507839172427827409e-03 -2.482049186401704133e-01 -7.967335727247054633e-01 3.783944742069667577e-01 -2.795740170274940151e-01 8.824148632546618964e-01
7.373824243156901215e-02 3.922626563416874851e-02 -6.880307882350518156e-01 -3.851271114472099716e-02 9.108943329924426013e-01 -4.108385147506698476e-01
-7.641344001111693984e-02 -2.749362815942347701e-02 -5.640139935067148835e-01 1.816433533618835028e-01 3.413912631608504583e-02 -9.827716989381735102e-01
2.479061892637535527e-02 6.187830928365619515e-02 -6.078209735285998727e-01 -2.494637504993846289e-01 1.910029795726240209e-01 -9.493606790789054228e-01
3.740481447515988517e-02 1.761849897998970238e-01 -6.315947448249275009e-01 -9.254699769986730606e-01 -3.130588910630799360e-01 2.133060064799632560e-01
-6.812754089248920786e-02 -1.840473639987818821e-01 -6.392154532433305114e-01 -1.640652922434978830e-02 5.571032735943817205e-01 -8.302811381389041401e-01
-4.219454170845487323e-02 -3.710902090798223404e-03 -5.739225894810989770e-01 -6.171797269261930508e-01 7.174811714013870634e-02 -7.835441227896196015e-01
4.695683033790703370e-02 6.859711809393165272e-02 -7.158490557260346332e-01 5.116014449193053704e-01 -5.916742699522603566e-01 6.230453593703583204e-01
4.731294141849288343e-02 -2.842726985503777129e-02 -6.918127827226002724e-01 -5.233038584754859945e-01 5.436986156103256196e-01 -6.561591934036157259e-01
2.983561296505067920e-02 2.860907222004046430e-02 -6.365325342220674587e-01 -9.341330072471821788e-01 3.552460525798486479e-01 -3.457986260486647229e-02
9.575227204465432129e-02 -4.319964001215449018e-02 -7.780007345798278795e-01 -9.250618341758906071e-01 3.211920566277884914e-01 2.027221391716961252e-01
9.993013546185758322e-02 3.117128954820184983e-02 -7.150367589083993503e-01 -6.197691012314737735e-01 5.556722860523544139e-01 -5.541791873321133544e-01
-3.715621655587041106e-02 2.262865766327494810e-01 -6.469016651154052555e-01 7.421149760495364678e-01 4.518610019133016409e-01 4.950626195471671820e-01
2.173789310115613327e-02 -1.886978311441169232e-01 -7.361157996134519710e-01 -4.271782834079507728e-03 8.546903618157516425e-01 -5.191205421582524293e-01
9.110521612389223256e-02 -5.896998658275413169e-02 -7.722305481311098063e-01 -9.386407405745075261e-01 3.447950852970361191e-01 8.361177473871751753e-03
2.862392419296706358e-03 1.151973424036285415e-01 -6.562725069804991040e-01 4.451193959784829346e-01 -2.139355446368224334e-01 8.695402843253994263e-01
1.821434319173487540e-02 -1.000669879646134269e-01 -6.935920795582931619e-01 -6.230408267437961278e-01 3.693047955142197969e-01 -6.895172921838924607e-01
-3.946971406500478924e-02 -1.987447443440547024e-01 -7.544030089756373902e-01 8.857735390950556287e-01 -2.820376691096395522e-02 4.632599539902538255e-01
3.886753062411853199e-02 2.499496346995473683e-02 -7.377793721675489635e-01 6.183482133460157515e-01 -3.369515030092533614e-01 7.100064588942802679e-01
6.366534367739632881e-04 -5.820248935192687267e-02 -7.496510396965109235e-01 5.862484254758172364e-01 -2.866535880112173196e-01 7.577219173993982038e-01
2.602568566722887264e-02 -1.974781113391105847e-01 -8.018017691894785415e-01 -5.385163915265737261e-02 -2.011116043370058115e-01 9.780869713688898903e-01
-4.590772456547151381e-02 -1.668133856351422528e-01 -6.368998861737177331e-01 -4.803879023269236881e-01 4.345997600430533958e-01 -7.618073981450024235e-01
5.774209779906090689e-02 1.091751093137356271e-01 -6.702080056494187366e-01 -3.719759093861396693e-01 -9.256812300134356075e-01 -6.890706231706254792e-02
7.017700911758358029e-02 9.892641587986011897e-02 -6.707687052135649086e-01 -7.237228241677071683e-01 -4.438139659150168725e-01 -5.284453022191629712e-01
6.964918064164213329e-02 -7.798308905216232156e-02 -7.647037103082955367e-01 -9.077734426098063025e-01 5.648737090789389403e-02 -4.156399328989635045e-01
2.925402861910646884e-02 -1.731947337404550757e-01 -7.367003321576334196e-01 -8.534236431084367691e-01 6.653821943268761752e-02 -5.169533351650329456e-01
-4.627981600441044736e-03 -1.824167983284795957e-01 -7.839988371517409016e-01 6.600430822860413604e-01 5.044860339621776851e-02 7.495318992155789450e-01
-4.000234768374733019e-02 9.391783643891395833e-03 -5.746763100191736306e-01 -5.903208693025296938e-01 4.418735086514959109e-02 -8.059582801171694122e-01
4.884116769435721539e-02 -4.346045959848598983e-02 -7.798780934251028363e-01 2.898456737875965694e-01 -4.089011086548853813e-01 8.653261632051926222e-01
7.101270305847673381e-02 -9.911055390385951902e-02 -7.916612080555603947e-01 -7.519970993130916659e-01 2.040492556250548817e-01 6.267888511321471068e-01
-4.102226133124916435e-02 -9.235504299208789972e-03 -6.800983299163188001e-01 8.772132177673483966e-01 -3.312216892361594667e-01 3.475473538293735176e-01
3.850011137697371272e-02 -2.159545756514389125e-01 -7.852153302476335694e-01 -9.805232992253123392e-01 -2.367246544390535709e-02 1.949709569554297084e-01
6.224926356499292657e-02 -7.427688002445616278e-02 -7.471159814977788027e-01 -8.982695197442368551e-01 -3.672781235357578944e-01 -2.412854116404685723e-01
-2.221211622710729527e-02 -2.562714714643317127e-01 -7.140978064047658336e-01 -7.280054218491972817e-02 5.427249136632567028e-01 -8.367495139806130355e-01
-5.682362616742132888e-02 -2.177052631958504847e-01 -7.261486070915023072e-01 9.465820641539913760e-01 -2.840972893921356324e-01 1.525487659144122987e-01
2.726215490878063433e-02 -1.765914068383289404e-01 -7.338424458307043485e-01 -8.638224374041184594e-01 6.342243863454827268e-02 -4.997883461174886244e-01
3.808583055691522334e-02 5.299384839113854828e-02 -6.267109982687205649e-01 -9.232086770540249843e-01 3.165885030247780341e-01 -2.178473281100488101e-01
-8.643409944425160807e-02 -1.656864607772011166e-01 -6.586704702199592809e-01 8.401472571053402172e-01 -1.051210986589208932e-02 5.422564724597953578e-01
1.082344095921939087e-01 4.920298857813394655e-02 -7.534616766988081471e-01 -8.524717466673144006e-01 -3.414076312839818828e-01 3.958948729587677962e-01
-4.623394799695606378e-02 -1.733005182131849287e-01 -7.278876169025780829e-01 9.306875001140112458e-01 -7.880544691729232665e-02 3.572260890076451867e-01
-7.221280666172176510e-02 1.168021894003588509e-02 -6.201621226935614128e-01 8.311619963418593882e-01 -4.734367404592859097e-01 2.915945620554358242e-01
7.196755440357789635e-02 9.199260100344820723e-02 -7.169730585794213962e-01 4.373777773591860929e-01 -6.508053993484816946e-01 6.206069706756454085e-01
5.971920366400442631e-02 7.340764136944027962e-02 -6.539682360891608814e-01 -6.823664833484872627e-01 1.056877693597747803e-01 -7.233298540848246416e-01
4.746483494437092610e-02 -9.791346472315028138e-02 -7.898933298267147851e-01 4.279910435634909360e-01 -1.574467519209004907e-01 8.899630256021832109e-01
-3.916191278682021326e-02 -5.566568351105150199e-04 -6.776557499098888604e-01 8.739577016152826339e-01 -2.825846083079819882e-01 3.954034331347632825e-01
-1.032967832922597196e-01 -8.659141110885955339e-02 -6.042399799724347265e-01 9.264625502222885167e-01 -6.648933320311431125e-03 3.763282273777978637e-01
-5.848475709130822320e-02 -9.350188272338558204e-02 -6.758561187998506359e-01 8.507350390660719519e-01 -1.708582237905637846e-01 4.970486502027569586e-01
-5.638961038159946183e-03 5.541835590856590554e-02 -5.982969158778073115e-01 -6.125139426608521287e-01 -1.742629154916851145e-03 -7.904578630703137376e-01
6.086083023298894008e-03 -2.445015590277556938e-01 -7.975234722157801270e-01 3.783944742069667577e-01 -2.795740170274940151e-01 8.824148632546618964e-01
-1.258332566589485599e-02 6.763061558070951329e-02 -5.953931898208848494e-01 -4.064051770729770197e-01 -2.347114015525966491e-01 -8.830319303567100153e-01
-8.581048317500018785e-02 -3.417398625570514104e-02 -6.196498700201281684e-01 4.321576779910373811e-01 7.404600356620151536e-02 8.987529864814185476e-01
-5.903292425197186055e-02 -1.256738877363350049e-01 -6.964746095363597567e-01 9.329117986856039213e-01 -3.599315151935385537e-01 1.117498293845575752e-02
-5.542913037856051633e-02 -2.121550463862113267e-01 -6.723753220509712802e-01 2.167853651969247342e-01 4.438380475772164546e-01 -8.694894438458010688e-01
3.453782157340194552e-03 -7.648233483784276469e-04 -6.284037018626577042e-01 -1.305212112138789092e-02 4.215942986975548812e-01 -9.066906249873488699e-01
-6.430692067897159081e-02 -2.038219914841640501e-01 -7.055394762174683754e-01 7.281312185949082583e-01 -5.350166566353720121e-02 6.833465447916751145e-01
2.989086929395639615e-03 -1.700037954555000952e-01 -7.111381419726858777e-01 4.500843064401962440e-02 6.962278835941904109e-01 -7.164083858225814838e-01
-8.533256290756488505e-02 -2.265867396930211150e-02 -5.672660369568151006e-01 4.697184721894303028e-01 -4.046042694303672582e-02 -8.818886044935692059e-01
4.850158866653078715e-02 -1.510047159179263854e-01 -7.733184715144075794e-01 -6.672726901274379507e-01 5.447407389379113063e-01 -5.079416151010570646e-01
-1.077193634827530201e-02 -2.590930156879418522e-01 -7.203494939353756177e-01 -4.821617287640850846e-01 5.040612090552687441e-01 -7.165489270391584009e-01
3.396803380961364860e-02 1.840473821241929153e-01 -6.336759644957749016e-01 -8.899212890858497760e-01 -3.306743307823439282e-01 3.141569451618544395e-01
4.785724330996005138e-02 -3.393935713498040518e-02 -7.740812141830725190e-01 3.113267579017689468e-01 -4.701122960476729062e-01 8.258753410286315821e-01
9.444351990386366802e-02 -4.735012229812272933e-02 -7.636732901917892002e-01 -9.286258846688054680e-01 3.237091217867952841e-01 -1.812908458668009148e-01
3.459175808158292814e-02 -1.143522993654737252e-01 -7.193734612382122195e-01 -6.918508375991063719e-01 4.532034535177446588e-01 -5.620934515122943953e-01
1.530103813186918342e-02 -1.499138428292965119e-01 -7.078224689723195961e-01 -8.698227933390224598e-01 9.309559932051660047e-02 -4.845013081252248499e-01
6.466047412040994147e-02 8.203074784451734602e-02 -7.197054599203972503e-01 5.472550742110703359e-01 -5.099726571310447820e-01 6.636563664494883330e-01
4.125588996543522874e-02 -2.155965403522869944e-02 -7.639901175011015733e-01 3.624268606368675760e-01 -4.807626666830587814e-01 7.984447563937648873e-01
-5.249757110306616566e-04 -2.363580527992678870e-01 -7.248683050376448778e-01 -9.669129534896474532e-01 -1.785219268231419687e-01 -1.822340857723376839e-01
9.989565961214641465e-02 3.821890362211182585e-02 -7.092385286078434214e-01 -7.529576445083623337e-01 3.328559367166020189e-01 -5.676809940177072189e-01
-3.095944712105118055e-02 -2.238222497450146620e-01 -7.697844675490128630e-01 8.556193496307129553e-01 1.583027228034052103e-02 5.173634419023497300e-01
-3.987909047189414080e-02 -1.376459788612394708e-01 -7.485008722896865363e-01 9.470757043847066736e-01 -1.282891813328441710e-01 2.942609320265951456e-01
-5.969647449314113147e-02 -2.422005609053678454e-01 -7.279325488182344372e-01 9.527262459127436856e-01 2.825511813696973684e-01 1.117028659238359090e-01
-4.366317451346184153e-02 -1.098081219493947241e-01 -7.223084060792821504e-01 8.840965330670008671e-01 -7.933378106412151964e-02 4.605208696693119941e-01
-1.581285399463449107e-02 1.946168623282885229e-02 -6.989494872432296946e-01 4.537917564370804735e-01 -4.308362140148419561e-01 7.800341008463068659e-01
2.534192805443312088e-02 -1.143392522981048626e-01 -7.170328210632034294e-01 1.127189881033627966e-01 9.348558174044849789e-01 -3.366586258897073525e-01
-4.377352474720768924e-03 -2.297466795645706182e-03 -6.212897247187851857e-01 -9.178426659830514200e-01 1.382725927855013026e-01 -3.720826932087807348e-01
2.721869438045928374e-02 4.214187312562902091e-03 -7.397542317941455670e-01 5.231912967753803434e-01 -4.593445192933418575e-01 7.178255216789553028e-01
-5.502242781369447167e-02 5.241633520715801436e-02 -5.859442890898207690e-01 4.711683174768403481e-01 -7.070299159989732463e-01 -5.273605166188765070e-01
4.367389791107106900e-02 3.319729328311668559e-02 -6.661562886230042446e-01 -7.698073011932701215e-01 -2.851406833326685653e-01 -5.710442274798971374e-01
2.350907950524684740e-03 1.984243466600837391e-01 -6.528547720479875860e-01 -5.030147325164861100e-02 1.685701258797218417e-03 9.987326570208764354e-01
6.454876001958809173e-02 7.544968513832277235e-02 -6.584095632799756848e-01 -6.996856251477930888e-01 7.141124961437003704e-02 -7.108730262079551165e-01
-4.396191805765382182e-02 -1.947077351176523460e-02 -6.824162201749471857e-01 8.664201908017395981e-01 -3.355478218143138625e-01 3.697616965651614462e-01
1.014853518563489793e-01 7.695408221175165098e-02 -7.183468390341207765e-01 -9.127250834378674016e-01 -3.906576526353374712e-01 -1.196641989100584863e-01
-7.278661874611738747e-02 -1.223254625586332606e-01 -6.667527264806120124e-01 7.529862785467275055e-01 -2.281485688157707803e-01 6.172194867854268185e-01
1.907396908433499697e-02 5.711590278925406799e-02 -6.076127465732757971e-01 -1.308333420418217319e-01 2.348281252846687595e-01 -9.631917712405226872e-01
7.852009430856143890e-02 2.081994824829901808e-02 -7.046069726925034971e-01 -7.747745766934129863e-01 -2.935705589060794152e-01 -5.599470352212920776e-01
-9.205411026225495882e-03 -2.895172130616841533e-01 -7.878707037899408405e-01 6.777565188120648898e-01 7.294839126488542602e-01 9.219176966665787454e-02
-3.779848230156539896e-02 -2.622143619787866697e-01 -7.523836079693422274e-01 8.259931845047537857e-01 3.508516564438576291e-01 4.411783928551997191e-01
-6.794897595370531784e-02 -1.276062381670529100e-01 -6.757564481099919140e-01 8.092450250386628019e-01 -2.393989759670619999e-01 5.364798409596543971e-01
9.185048716472453412e-02 2.345938719200355363e-02 -7.196227881075264454e-01 -3.801506734913677188e-01 6.963291601735583924e-01 -6.087784212141940099e-01
2.542411602799271933e-02 -2.759049913277873967e-01 -7.818971415316672280e-01 -8.271794881889902307e-01 5.599147468883185486e-01 -4.764000982777681636e-02
4.459701958395663121e-03 -2.809906797749724960e-01 -7.551113454949389681e-01 -6.273645452346136020e-01 6.342876826020822367e-01 -4.517663810885517717e-01
1.037543833758000078e-01 6.679587110711149300e-02 -7.436335134062518337e-01 -7.775135362608227574e-01 -5.102868869941806773e-01 3.675323031965741505e-01
-2.616824137105554920e-02 1.976422702880581972e-01 -6.374039561909995433e-01 8.530457581289239144e-01 3.959896770644180108e-01 3.398604275238105710e-01
2.441184841037033829e-02 5.424087193797517276e-02 -7.131780452217322264e-01 5.209103119675442262e-01 -5.861055626730679036e-01 6.205906189184318134e-01
-5.003427864546130394e-02 -1.301176831573235548e-01 -7.158864592746869704e-01 8.071672113905061785e-01 -8.420958225662514285e-02 5.842857512486835381e-01
4.990939069185756525e-04 7.500339516026251208e-02 -6.046307585018407815e-01 -5.917524382454917298e-01 -1.036812183371836477e-01 -7.994243283730065874e-01
-1.599769414991563873e-02 2.632895405966834690e-01 -6.168853972697061483e-01 -4.642386696978378358e-01 -5.263811642651898826e-01 -7.123238922456586186e-01
9.087652028168172538e-03 2.009347760752214218e-01 -6.040714376892194482e-01 -1.959139079672132799e-01 -2.039057731357712400e-01 -9.591872478024912052e-01
3.405816641991916104e-03 -7.896371388181870621e-02 -7.600868228643010704e-01 5.461325105656910095e-01 -3.347351370252774072e-01 7.679138421358766564e-01
-2.346735997847382814e-04 -2.937474008453033747e-01 -7.822855325472984900e-01 1.715420724279107523e-01 9.482786030809621236e-01 -2.670973761120772894e-01
-8.759191621717415943e-02 -1.630235191134019601e-01 -6.325308771431829014e-01 3.575202403521033356e-01 7.110608568234438875e-01 -6.054516790232594703e-01
-6.915996903017042341e-02 -5.445701978202080462e-02 -6.494125154998223737e-01 8.804568498863826198e-01 -2.652875176228560172e-01 3.929608994310384018e-01
-5.122936201003525786e-02 -1.228161833959736382e-01 -7.132859509071945991e-01 7.477449004481918626e-01 -5.172526676752527142e-02 6.619683229819625092e-01
9.487426881639489384e-02 2.001311381298657294e-02 -7.259734355145296414e-01 -5.710869455740540390e-01 5.930098139687827175e-01 -5.676258108398588575e-01
3.678262570208978843e-02 -1.610510922862128103e-01 -7.465943257584837234e-01 -8.089549851654936896e-01 7.989953358433872499e-02 -5.824155702837116033e-01
8.896877645603251672e-02 1.978569434665644958e-02 -7.752932014648431513e-01 2.447720155915822648e-01 -3.407396831230413148e-01 9.077351644221147708e-01
5.384398853342180213e-02 1.015996337071137096e-01 -6.527062972264000562e-01 -6.635465370790205597e-01 -3.886559669522329785e-01 -6.392593624522561191e-01
4.363463448409739265e-02 1.162356519786362785e-01 -6.368834786203884102e-01 -9.112748877426266603e-01 -7.069895989923743324e-03 4.117378966531438089e-01
-2.552197736006418111e-02 1.918440509479713840e-01 -6.297841341998334785e-01 9.206644188228252368e-01 3.826109994536669445e-01 7.736828168374559889e-02
1.116851733375472631e-02 -5.228295631343675420e-02 -6.753716800299791601e-01 -9.452167830580349150e-01 5.871602766139122700e-03 -3.263904981864154675e-01
-1.459518408495064090e-02 -9.921982238063789539e-02 -6.351470662187334026e-01 -7.902382456989742732e-01 1.424362967384510403e-01 -5.960162887086589700e-01
3.962402183467551159e-02 -1.272154819077434829e-01 -7.392160420071368643e-01 -9.519287705790036025e-02 8.294187595262999535e-01 -5.504569351941105415e-01
3.534805482457099163e-02 9.935199637568588663e-03 -6.624389090643230116e-01 -5.879888601906124723e-01 2.886126944897062230e-01 -7.556267682335874314e-01
7.810662385044985596e-04 2.062813592047532951e-01 -6.042210093253042036e-01 -2.809976486563948907e-03 -1.531865175885143426e-01 -9.881932983284437144e-01
-9.142361549955918543e-02 -9.437685693201249351e-03 -5.740537503696652166e-01 7.276203380861053782e-01 -2.282679030964035738e-01 -6.468867041603441059e-01
7.605835900312984954e-02 3.090562936271573635e-02 -7.664126917802444039e-01 2.797592741855473020e-01 -4.944340559943919411e-01 8.229639802446460095e-01
8.646722179216095872e-02 4.736378581076219202e-02 -7.592983223102386381e-01 3.090997892870299135e-01 -5.219897011600983516e-01 7.949742587942736360e-01
9.014149616527274145e-02 -5.892302641842270261e-02 -7.641984503078760316e-01 -8.689157743651537702e-01 4.209582816202840916e-01 -2.603449676769318821e-01
-6.786939869690992999e-02 -1.618817002521759640e-01 -6.261573128928150656e-01 -7.147920394374622510e-02 4.045698444008191674e-01 -9.117093639998797849e-01
7.787002120079028478e-02 -7.613892504579233833e-02 -7.915363598459417283e-01 -8.406955184643077894e-01 3.434933764910584331e-01 4.186207657782885505e-01
9.915018796099434040e-03 1.211180071643132988e-01 -6.039996874146542627e-01 4.027986720477730875e-01 8.771269166593936850e-02 -9.110761293751836742e-01
4.041315630996096531e-02 -4.313494073754869929e-02 -7.171429457064741886e-01 -7.301450573340458883e-01 4.486051100913438505e-01 -5.154043562588466187e-01
-7.930745079977974399e-02 -1.822021746579045864e-01 -6.779578834587531855e-01 9.090071289179809666e-01 -1.564626794142418287e-01 3.862971259623934617e-01
-3.274406157247938820e-02 -1.623525472550790549e-01 -6.453856078321557055e-01 -7.071382521182451031e-01 4.267105420061344523e-01 -5.638028074885615970e-01
3.895353322192174339e-02 1.177297552271778895e-02 -7.444040494901738025e-01 5.883184714446922925e-01 -3.685586617544449051e-01 7.197540475764991896e-01
-7.725143828400268808e-02 -1.882593776548548981e-01 -6.870047378302132079e-01 9.604897863007205716e-01 -1.503826316395963925e-01 2.341888863997296510e-01
3.920116408809450753e-02 3.985266982378578987e-02 -6.593136260627283640e-01 -7.857599553273116877e-01 4.886918424381618831e-01 -3.791590375270197377e-01
8.672373424851002877e-02 -3.029668986759272847e-02 -7.325806975548928568e-01 -7.442453107238512500e-01 3.921483794585306493e-01 -5.406649294651969528e-01
8.736505894232833580e-02 -6.697538442286581073e-02 -7.737765817296795579e-01 -8.769074502246673175e-01 4.793244394055427016e-01 -3.579672511606203644e-02
2.045708314649441473e-02 -2.763560697341740369e-01 -7.972330183087087407e-01 -7.802751051360420353e-01 3.766015434799198092e-01 4.993416042685415168e-01
-1.045730963292511723e-01 -7.811769448261654536e-02 -5.971248116636886927e-01 9.929474327250130683e-01 -3.290936252987057553e-02 1.138963111899719965e-01
-3.799043818271871913e-04 -8.408111259464980114e-02 -6.539557662178956399e-01 -9.352489951492880538e-01 6.186229442763946373e-02 -3.485432162593254390e-01
-5.313444939714660536e-04 -2.846434235535789670e-01 -7.563663275180672052e-01 -2.010280250325650331e-01 8.519490521329856625e-01 -4.834982375575051505e-01
-2.992296628404008535e-02 7.890584879909794125e-02 -6.194553574938381768e-01 7.940354350956535523e-01 -5.280528491400964253e-01 3.011111361731457770e-01
-4.653028781353708322e-03 8.975427312481579212e-02 -6.632452546074690813e-01 4.902537814039047981e-01 -5.406143744495309766e-01 6.836573176363395232e-01
-9.152574549451212085e-03 -1.794684515598079511e-01 -7.098440181360347045e-01 -8.959737946769306127e-01 3.917380184557532896e-01 2.092182691558782393e-01
1.193809774947801952e-02 -2.732303123291472957e-01 -7.715605601276591674e-01 1.482442177921935167e-01 4.155512799773096733e-01 -8.974078145416387597e-01
-6.101756309738116946e-03 8.091461461498763996e-03 -7.119713251864658865e-01 5.107357037488013951e-01 -4.711655703725167732e-01 7.191328432297872109e-01
-1.006345548921242783e-01 -3.921999513801914528e-02 -5.852808176010452224e-01 9.908265457103041518e-01 -1.212197073622253984e-01 -5.973724853726492673e-02
2.412243814424714847e-02 -6.453795157375578906e-02 -6.876635293186343922e-01 -7.919851415790152283e-01 1.503755654997575297e-01 -5.917319704213177545e-01
6.503327305667644387e-02 5.117115631082959359e-02 -7.455898723278807649e-01 4.182174300193897132e-01 -6.213601806455437693e-01 6.625750577376980921e-01
3.113059509742046108e-02 -2.251644227066067483e-01 -7.506949292318101374e-01 -8.239954806418150479e-01 -4.407224764171893683e-02 -5.648797083182147682e-01
-2.531651125113570933e-02 4.546621089820256784e-02 -6.741232398572504225e-01 8.157099751582390645e-01 -3.094884216181559289e-01 4.887066127152850381e-01
4.012124296817350805e-02 1.201188925679278763e-01 -6.435508983762626700e-01 -8.506061114136950208e-01 -7.043254676502087863e-02 5.210647748426925352e-01
3.355297948656500717e-02 -1.122107205876889807e-01 -7.164597081058201589e-01 -6.612284112298857375e-01 4.673798175140739253e-01 -5.867990238258000701e-01
-9.031785923530830096e-02 -5.195985678586494821e-02 -6.164950101039523567e-01 7.599304055980649064e-01 -9.120058189860615061e-02 6.435745741628675631e-01
-3.156378004807678522e-02 2.779433124052253512e-01 -6.417406287149051147e-01 -2.886696880943166038e-02 -9.549966914321816880e-01 2.952084305458456681e-01
-5.471338184374864577e-02 -5.168119681973788043e-02 -6.756886891724259714e-01 7.604112338095052603e-01 6.872282594691415947e-02 6.457955780974162785e-01
3.468300092333118090e-02 -1.319918400946697434e-01 -7.466399937092019767e-01 -2.256035299550433748e-01 7.149934105921739169e-01 -6.617306627938550623e-01
4.001704971007528228e-02 -1.706356160207600503e-01 -7.528916496784736623e-01 -8.207161885925907674e-01 1.343747412003456210e-01 -5.553092532178722784e-01
-2.023087338622731046e-02 -2.773991727175545430e-01 -7.422819309515836794e-01 2.120849422468528978e-01 9.082098607858387629e-01 -3.607974861934549748e-01
1.302519377302221483e-02 6.077470359593214327e-02 -6.069418038955769479e-01 8.620828613365535964e-02 1.255686715598141601e-01 -9.883322518893135067e-01
2.340193387855438872e-02 -2.620894856855704447e-01 -7.603621544379740582e-01 -4.485480351542805999e-01 5.813493227882522429e-01 -6.788502228421778861e-01
3.551776525722202815e-02 5.353516678940677814e-02 -6.189518086387885143e-01 -8.560548222719663869e-01 3.021682275837228038e-01 -4.193620196248384335e-01
-8.446083742333800395e-03 -1.160613554779434814e-01 -6.506318004150440926e-01 -8.493750291119999130e-01 2.316898521618794005e-01 -4.742171151763672210e-01
5.031682546049290328e-02 9.217550459856521661e-02 -6.458500491883292227e-01 -6.446553203874981763e-01 -1.466157153214464881e-01 -7.502821801941403912e-01
-4.789121367597174578e-02 -5.231541303721517350e-02 -5.804193170365202770e-01 -4.974027424397648445e-01 2.250766448368828609e-01 -8.378132344158646383e-01
-1.390859726879494634e-02 -1.947007026815310016e-01 -7.779777942129321167e-01 4.735981003956348800e-01 -1.441650967920195536e-01 8.688620512881164437e-01
4.954765380903219940e-02 8.022601069631227211e-02 -6.441107503652072630e-01 -6.350442708454784313e-01 -7.120340496506024838e-03 -7.724429265761634245e-01
2.267616456769299196e-02 -5.295820810780985793e-02 -6.836385529247536175e-01 -7.676586913558886005e-01 6.192931710014257934e-02 -6.378596187793005301e-01
1.965489300147559015e-02 -5.649121839320237447e-03 -6.421867602558430921e-01 -9.734681432518571542e-01 2.250117010955232089e-01 -4.158735918377565871e-02
-8.088373155634275002e-02 -1.550900371180077009e-01 -6.656897130028229803e-01 8.454144703060503252e-01 -1.276814216867493690e-01 5.186249395788740113e-01
-4.278563666824501677e-02 -2.541311003569731164e-01 -7.484042794313788827e-01 7.911326871688532103e-01 1.546999638483873285e-01 5.917575453496957127e-01
-8.289900870948049838e-02 -1.907365954709293598e-01 -6.626373200841545463e-01 9.433208001312567426e-01 3.307767409435529160e-01 -2.706687441296865698e-02
-4.000351574691476259e-02 -2.408602162376136807e-02 -6.943357555913404200e-01 8.594672059738602821e-01 -1.728869407101647493e-01 4.810677993665403718e-01
5.897479278746950611e-03 -8.200785512326355664e-02 -6.763253980559171818e-01 -8.931781935311530196e-01 4.428936627602851339e-01 -7.796100363133560973e-02
2.299607571834402092e-02 -2.769003676809616565e-01 -7.920123098190918753e-01 -8.398469695090999831e-01 4.171350217748032718e-01 3.473549213921048318e-01
-2.306018791117526653e-02 -1.005691700587135751e-01 -6.256686424051567386e-01 -6.786772851522444583e-01 1.465939161463271911e-01 -7.196578119962727671e-01
-3.323250552761036064e-02 -6.818419943704899511e-02 -5.977076110937256104e-01 -7.501401511563888791e-01 1.728000867302283139e-01 -6.383023450130004273e-01
-1.010198863556169696e-01 -6.367110275306243905e-02 -5.829439722175220329e-01 7.866679904035893678e-01 4.809614798044797856e-02 -6.154999865343792065e-01
-2.189997046713200099e-02 1.990380555818534458e-01 -6.140361069872888322e-01 7.103580450650330835e-01 2.404887802909021766e-01 -6.614806077018270392e-01
-2.643785886553485717e-02 -1.267586750272095553e-01 -7.540341606127821672e-01 4.762870835113657830e-01 -3.134238851945170823e-01 8.215327639661191839e-01
-6.893991949853806207e-03 2.245858603279233534e-01 -6.068101305641316889e-01 -5.786909906698524397e-02 -1.572575339011471340e-01 -9.858606571947705621e-01
-2.646756794718903641e-03 -2.266926949088114429e-01 -7.258760062327438423e-01 -9.277675425591764835e-01 -2.723695976506415040e-01 2.550729096735567802e-01
1.498411681822241041e-02 4.864824147185060899e-02 -7.072820265845635168e-01 6.801200811471960206e-01 -1.525555677914784414e-01 7.170519325377701092e-01
1.925027108310790533e-02 7.425846080730420795e-02 -6.050586162417828096e-01 1.585405520672485830e-02 1.027637837512311442e-01 -9.945794355820113397e-01
-1.318832575894680198e-02 1.401877948670616830e-03 -6.099097185859539971e-01 -5.881850146917602107e-01 -6.651111668456374804e-02 -8.059867615844729105e-01
-3.020158562835987409e-02 -1.910583084732896397e-01 -7.682816450874490055e-01 6.083316144587070928e-01 -1.435146151143161242e-01 7.805998988589817333e-01
-7.492008504150758641e-02 -1.971915752634827990e-01 -6.528304423483406449e-01 5.063346493818529082e-01 6.936324945958947108e-01 -5.123467432081834083e-01
-4.579066951631152738e-02 -7.945710239733520808e-02 -6.972556895951730338e-01 9.201665483898410214e-01 -1.535308225528441151e-01 3.601691404751014569e-01
-7.963887742388994773e-02 -3.606225627151190584e-03 -6.225916761160624757e-01 8.708071340046867892e-01 -3.612683620804008622e-01 3.334368094951243311e-01
1.324575385828080654e-02 -2.529813134545495501e-01 -8.022320102362221483e-01 1.674515553885470021e-01 -2.657964953357740412e-01 9.493746360974555376e-01
-9.869507376523896716e-03 1.545883721848366199e-01 -6.374849617242734912e-01 9.032481699190325619e-01 1.708777273281542330e-01 3.936286903175167384e-01
1.746440085389073735e-02 3.698661135880116843e-03 -6.298018802497499236e-01 -5.317269310085328549e-01 3.996264143687624504e-01 -7.467028858783213430e-01
1.869524974073754481e-02 -9.960265725378752988e-02 -7.772986521658736825e-01 3.616694839924778360e-01 -3.285890474439202014e-01 8.724817604102172997e-01
6.195237499972764544e-02 -8.304583502625095814e-02 -7.445026175107588573e-01 -8.425769792122580482e-01 1.607137585128370627e-01 -5.140380549397324250e-01
-1.328291585590308903e-02 2.094815859407147540e-01 -6.066831663891716353e-01 3.339163081193821658e-01 2.086871435861037058e-02 -9.423716867207655445e-01
-4.604790751843447841e-03 -1.012396651865367647e-01 -6.505788560474676796e-01 -8.785776257155648583e-01 2.019721522178652140e-01 -4.327916419254003721e-01
-1.008010522934191383e-01 -5.824408435420323077e-02 -6.052630531013991622e-01 9.570035194931464373e-01 -1.588367528281177665e-01 2.427244314624101007e-01
-5.733066931379656589e-02 -1.867988290057234491e-01 -6.428965361270646550e-01 -3.042983616309836714e-01 4.853134030431203727e-01 -8.196788443868761043e-01
-3.877763950064648524e-02 8.445445687079505478e-03 -6.724330715124288149e-01 8.512227011832649293e-01 -2.805789807351769527e-01 4.435034932893712201e-01
9.318165583173848576e-02 -4.708335686649776919e-02 -7.829438674297932721e-01 -9.009047908723908371e-01 3.020987903620405701e-01 3.116197661332885116e-01
-6.195211312441722268e-02 3.821817946502595320e-02 -6.128625693371830829e-01 7.627169832421207829e-01 -4.317330039564519772e-01 4.815282097331127220e-01
6.542879327194651984e-02 8.195391357096240559e-02 -6.590444073950393333e-01 -7.144080242263114444e-01 -1.682249350064914800e-02 -6.995271107208630434e-01
3.401493897188562210e-02 -1.017701311145557952e-01 -7.845975489685069748e-01 3.851162980752790288e-01 -2.611041807439260509e-01 8.851610270198503327e-01
5.055977608280270985e-02 7.828868130989594110e-02 -6.450268909449461407e-01 -6.508837118627737173e-01 5.660212217412961822e-02 -7.570644578879152098e-01
-3.986917557739649148e-02 5.307205855485741530e-02 -6.357868789327634218e-01 7.790246897304227147e-01 -4.975745834894179098e-01 3.814971384633846774e-01
-6.087391001622647485e-02 -5.032050553162462081e-02 -6.663858388129976218e-01 8.989401064392978924e-01 -2.749908253495799149e-01 3.410084031346742872e-01
-9.726623659745232964e-02 -1.060916252911878882e-01 -6.200972705584009148e-01 9.074800938638486469e-01 -2.215548371245632531e-01 3.569220270417176599e-01
-9.569077285769419031e-03 -1.476345302605553134e-01 -7.676271051274357049e-01 4.527610776773249857e-01 -1.344199422174565950e-01 8.814412548064237685e-01
-1.218836260196366024e-03 -9.560867705255222948e-02 -6.842083360437430928e-01 -8.262250435517276559e-01 5.316641179715559939e-01 -1.862402831545129922e-01
-1.627929499669000454e-02 9.670921522129492798e-02 -6.298549601126181008e-01 8.802142190022077539e-01 -4.163549361648224978e-01 2.277531466248497727e-01
2.577490739779595905e-02 -9.401035943085848945e-02 -6.992050354938114110e-01 -7.540444051827619454e-01 2.066859220771638528e-01 -6.234564657036507640e-01
3.225153590804489406e-02 2.501707009018365804e-02 -6.538361527664902084e-01 -5.513264515465294835e-01 2.547469841081595465e-01 -7.944451635656858413e-01
-9.532128194323998688e-03 2.630768656358030144e-01 -6.397386097076577238e-01 -7.454016410492759759e-01 -5.170477978118571682e-01 4.207588006197315322e-01
-1.043919407785383890e-01 -8.576011209499936894e-02 -5.943004106715852330e-01 9.921145457193234485e-01 9.074096671350792565e-02 -8.645695537108903650e-02
1.105904841548840667e-01 5.053389603952600923e-02 -7.302531080105566508e-01 -9.828037708999779465e-01 -1.570039269733671805e-01 -9.719318298998762262e-02
-1.651219656826719354e-02 8.685280273845041865e-02 -6.429885832775105170e-01 8.602916019106947587e-01 -4.332396687247022093e-01 2.687038316162259077e-01
6.107081360496153383e-02 -3.148441512247311669e-02 -7.777809434532133581e-01 3.360225756183400914e-01 -3.933895578718745734e-01 8.557648534686310704e-01
2.227638069373489259e-04 -7.534189398014409789e-02 -6.548417842489627771e-01 -9.741799241947084464e-01 -4.712183091317387676e-03 -2.257238813827772417e-01
1.986399947791617909e-02 -9.189370572301156642e-03 -6.619031964936997747e-01 -3.101223198530935199e-01 3.411437432838950734e-01 -8.873810304188316511e-01
-4.894349938941465472e-02 2.670127799837245797e-01 -6.229807621140955876e-01 7.422698461546713977e-01 -4.308703134967587500e-01 -5.132116994347706296e-01
9.835145555379520149e-03 1.938657250015242417e-01 -6.520556086063109547e-01 -2.008562933373160553e-01 -6.804432728868471669e-02 9.772546847933880620e-01
-8.542288084050621289e-02 5.417485250144695418e-03 -5.980497504960867738e-01 8.268161754262556284e-01 -3.164651720587419725e-01 4.649997923949319989e-01
-3.377857375671648732e-02 2.122349166998314940e-01 -6.370655142738850252e-01 8.574997086666680257e-01 4.481194643295636215e-01 2.527512518773437633e-01
-6.482951306166578886e-02 3.115690019098405622e-02 -6.144120188263052507e-01 8.013315826280902332e-01 -3.818866939271629013e-01 4.604674230433044579e-01
4.411886502115246189e-02 5.552372880441777681e-02 -7.272122956988836817e-01 4.352621655760054442e-01 -6.548395009862557625e-01 6.178447014955760208e-01
2.073169547585001701e-02 -2.035899785618379698e-01 -7.508987907666954120e-01 -8.616501082464614880e-01 -3.402849045908966641e-01 -3.765172966364565554e-01
1.084078249981476477e-01 5.845478764772803898e-02 -7.245626472762533021e-01 -9.643946297951916380e-01 -1.788308517662433594e-01 -1.948397405016621120e-01
3.545432963146314537e-02 -2.258171562293831702e-01 -7.940443232785131533e-01 -7.536436923540793531e-01 -7.903517784454507089e-02 6.525140807967221290e-01
1.733122035240103722e-03 -2.519393798340630597e-01 -7.453041420559332053e-01 -9.273001761441456159e-01 -3.379226430917910418e-01 1.610051881427874976e-01
-1.747379402205066767e-02 1.563949503850390818e-02 -7.000763981244197964e-01 5.081544243218170109e-01 -4.468404196887940660e-01 7.362830436554308466e-01
-1.935000584577186572e-02 8.654592093531181252e-02 -6.350179648825621248e-01 8.507016205673036957e-01 -4.262912284564329135e-01 3.075427471186215067e-01
8.265380061806928969e-02 3.314524486699580580e-02 -7.018122999045700583e-01 -6.347371017997596732e-02 8.874237118947383429e-01 -4.565635154969705511e-01
7.188534127239443183e-02 -1.044815836361119021e-01 -7.799183615380722578e-01 -9.685577931160774812e-01 2.214903419516575100e-01 -1.133041473921033715e-01
-2.892557667447399547e-02 2.193690360704886877e-01 -6.504345813406233745e-01 4.590013339906369727e-01 3.342399500310566651e-01 8.231654944165555099e-01
9.172971368355248289e-02 -4.631492687228491029e-02 -7.545077875685174407e-01 -8.409099008387859175e-01 3.641098488755898366e-01 -4.003680264745156370e-01
-4.402030900181055917e-02 -1.059247532556510524e-01 -6.031230447731115163e-01 -6.769752514471111260e-01 4.532944878112611375e-01 -5.798522365638052456e-01
-6.837681736293203805e-02 -1.250610823346897105e-01 -6.014472526017194953e-01 -7.725633318176897135e-02 4.470909815991944147e-01 -8.911459550241902505e-01
-7.681977034842239760e-02 2.511870473193480308e-02 -5.991333862049217363e-01 8.109292910307809299e-01 -3.764693454664042038e-01 4.479559318419750191e-01
1.724727496866454435e-02 1.096030464001948729e-01 -6.028174623393522946e-01 2.103340376201966178e-01 5.372047363247992036e-02 -9.761525000383330930e-01
4.978267785287184000e-02 -8.914029794516564742e-02 -7.897705778514242381e-01 4.425542582779281586e-01 -9.821589128429811244e-02 8.913469398496322027e-01
-8.910382818179444445e-04 -1.445024226668806810e-01 -6.935876215802950773e-01 -9.866416131589131888e-01 -2.576864047143466105e-02 -1.608549170881367341e-01
-2.291869587831607200e-02 1.949123156106468135e-01 -6.169407240560612626e-01 8.028074484210890871e-01 2.878101562312803674e-01 -5.221738357383931550e-01
-2.949881748882754538e-03 -1.722190246952626236e-01 -6.997462477917277823e-01 -9.350470696058131859e-01 1.159197612959973339e-01 3.350366943525149854e-01
-8.336301778929820772e-03 7.939390288389784611e-02 -6.687952624356942044e-01 5.468568561603475153e-01 -5.480521604015957671e-01 6.329189587534603811e-01
-6.002854713245071167e-02 4.332985085170833195e-02 -6.110710770004533776e-01 7.585049601935868191e-01 -4.542211655929436209e-01 4.672829529194416076e-01
9.624713186817730748e-02 -4.272184637836736604e-02 -7.758764767747061697e-01 -9.384087068963069544e-01 3.136272456430026501e-01 1.450070674539168936e-01
-4.568193103447968501e-02 -6.783574164154310138e-02 -6.929081578287888954e-01 9.106016100648798295e-01 -1.374047470482456790e-01 3.897751188003871770e-01
-5.184303673047336095e-03 -2.428461356324758749e-02 -6.271133301838753837e-01 -9.211236400110198730e-01 1.303493855327379769e-01 -3.667973248322385915e-01
1.278949185567500833e-02 -4.161222985403160990e-02 -6.612609596372236442e-01 -9.463582056726368430e-01 1.326806154343365511e-02 3.228468756220922997e-01
-3.135036471259685514e-02 -2.442275385461339654e-01 -7.078707015121763479e-01 -5.584420868573883867e-01 5.776175610135946270e-01 -5.953993523972553881e-01
-6.193815749839584606e-02 -9.647454568463446900e-02 -5.894584907271357421e-01 -2.032773119967966335e-01 3.735164395986870223e-01 -9.050766839206925152e-01
3.901235400584199958e-02 7.991616998421575968e-02 -6.990558247257115942e-01 5.463034915465880825e-01 -5.501635322611203582e-01 6.315636016221757298e-01
-2.127201750345681860e-02 5.253170435465559507e-02 -6.761310806123330686e-01 8.053923978376308357e-01 -3.353525496360077462e-01 4.887553099025937486e-01
-1.219575881958352009e-02 -6.762426639302431507e-03 -6.112877153872705582e-01 -7.270946035904448657e-01 1.055625613503798077e-01 -6.783730412323304426e-01
8.518149667290700333e-02 2.787989785358299319e-02 -7.105500623605660593e-01 -3.585781188103500661e-01 6.991946111390688889e-01 -6.185051563766598148e-01
8.431635756205018567e-03 -7.438594928465731837e-02 -6.693224103414899817e-01 -9.164974105673940885e-01 3.509200866550781783e-01 -1.920614203978873447e-01
1.531013003864636814e-03 2.493127859777740651e-01 -6.304594199666990750e-01 -8.675024590705930905e-01 -4.974039676824507095e-01 -5.364367644903467527e-03
3.583212376510419746e-03 -1.823202893732575949e-02 -6.368002952433395869e-01 -8.128324182187542102e-03 4.375931891103094218e-01 -8.991363251422210823e-01
3.016862270532501625e-02 -1.364992385831847177e-01 -7.414538504114045470e-01 -8.747462720312287887e-01 -4.234376786934190284e-01 -2.356257452618379933e-01
2.064778673731780881e-02 1.572303926526789353e-01 -6.023363450667188479e-01 -2.878212150576791029e-01 2.096117860451042654e-03 -9.576818649492305768e-01
-3.677045172287431163e-02 -2.021609434878180456e-01 -7.596639765391711707e-01 8.859486570018020313e-01 -2.440585916058071389e-02 4.631407250451395341e-01
-7.130803785652783076e-03 1.339043510262056813e-01 -6.180734443897083485e-01 8.931636710258161749e-01 7.412779473355378401e-02 -4.435805753272202279e-01
4.867600896284176443e-02 1.121789845694512178e-01 -6.635620214036686004e-01 -2.579031566936844100e-01 -9.645413172118639800e-01 5.608929629292148944e-02
5.504826195541762113e-02 -1.264441541134939118e-01 -7.536818586498195138e-01 -7.876999919349622070e-01 2.885613349603698974e-01 -5.442987035365318693e-01
-7.505122771229663647e-02 -3.019503080373004203e-02 -5.639371132282662291e-01 9.117289931151800753e-02 7.862586237430711777e-02 -9.927262846308786415e-01
9.785104773720316312e-03 -4.114120114872171080e-02 -6.474400851670214507e-01 -4.709810075901299520e-02 5.062350311704740813e-01 -8.611085077507495411e-01
7.757495692343891087e-03 -1.078314575339281295e-01 -6.975328172534777105e-01 -3.631822847893748096e-01 4.466885646591892134e-01 -8.176600480749214306e-01
-8.356412108832078633e-02 -1.420618079430317239e-02 -6.212304031564575002e-01 7.770185354953474954e-01 -1.839346867282965758e-01 6.020051715017311622e-01
5.682401966132843291e-02 -2.078609959636516097e-02 -6.944897852500303559e-01 -6.155914530568503684e-01 4.149829622630690773e-01 -6.699524639515279656e-01
1.775120446228425214e-02 1.823889157612310352e-01 -6.509591838826815913e-01 -3.032321997371841826e-01 -1.044599307233175650e-01 9.471738783960566010e-01
4.262847285643086431e-02 1.607518320560789513e-02 -6.663663786182458804e-01 -6.574817633257790117e-01 2.883536214626399308e-01 -6.961105658466940627e-01
-4.538279689428375424e-02 -1.415206154408819861e-01 -6.237678414261000892e-01 -4.404909004909531300e-01 4.048193846252055583e-01 -8.013045815520705162e-01
-9.309802942676170812e-02 -1.242703330591857364e-01 -6.458957310094943782e-01 9.756354767332456879e-01 -1.386363373611629590e-01 1.700452366359434253e-01
2.692417222661879286e-02 7.959582088154522339e-02 -6.052912468439031191e-01 -2.359652087345802673e-01 1.424315338713052492e-01 -9.612667051479069080e-01
-1.833169096774941303e-04 1.692622710980182799e-01 -6.500152290832755808e-01 3.803639993700521638e-01 1.370767037225209262e-01 9.146218919749227183e-01
1.053586402866545646e-01 3.417067701852732897e-02 -7.671020106301564834e-01 -6.078791957462442719e-01 -3.851178967720168544e-01 6.943825235162514042e-01
-3.072572400543918322e-02 2.072627225979469523e-01 -6.382883156552785486e-01 8.333091742245848366e-01 4.507106908660213351e-01 3.200870089400913998e-01
-4.658025968145116692e-03 -2.241840161192404646e-01 -7.135550793030317474e-01 -9.241210905851859891e-01 2.940853885734689629e-02 -3.809663341791796887e-01
2.659482704164023784e-02 1.363772752615481920e-01 -6.535740205035954764e-01 -2.960477545178786807e-01 -2.224476286918783130e-01 9.289094571239341347e-01
-7.126077767095877202e-02 -5.785837142610098655e-02 -6.471630172253715063e-01 8.667736278698995323e-01 -2.519321950083746042e-01 4.303877869404698631e-01
8.312909634580498142e-02 7.051546417330520344e-02 -6.791687498742216000e-01 -7.651950555210040861e-01 6.140785802631047730e-02 -6.408631694666404588e-01
7.952502440000305817e-02 6.046937336706007665e-02 -7.466729103120477440e-01 4.514207315507275942e-01 -5.102578645926426626e-01 7.320220179390524162e-01
2.449899762482402044e-02 -2.894795268221163689e-02 -6.806827444143832562e-01 3.586748736622526884e-02 9.888683876562552877e-01 -1.444051080957719224e-01
-5.120386861507872367e-02 -1.971282757430902755e-01 -7.254207188625506619e-01 9.191291723976888761e-01 -2.330702167662326574e-01 3.176158662662819099e-01
2.794656164422121974e-02 -1.221977789106595963e-01 -7.331497330807457136e-01 -9.145462068976667469e-02 8.241663796884379778e-01 -5.589148691399651314e-01
-1.034781464859118733e-01 -9.349378252226299424e-02 -5.967956040634768700e-01 9.436205044263346053e-01 2.092335080443916695e-01 -2.565183867437718090e-01
-8.175478726314597266e-02 -3.704263362931516784e-02 -6.237057410349083897e-01 7.476792321138790998e-01 -1.186956910909269663e-01 6.533659761435754998e-01
5.469830150510841121e-02 4.696129793551288845e-02 -6.628452108725428893e-01 -4.039855029177287227e-01 8.056517769889655067e-01 -4.332677320858682735e-01
8.345511720145042112e-02 -4.797458591476076728e-02 -7.912113708309512772e-01 -9.029233250580238901e-02 -1.153270253634050002e-01 9.892153314175281542e-01
-1.037959132134377328e-02 1.508325442511369574e-01 -6.182213245730239226e-01 9.121226367055902395e-01 2.384718753100473210e-01 -3.334118478628962934e-01
-3.494659515939085859e-02 -3.058127914103041310e-04 -5.892274000764486930e-01 -7.432368235579055460e-01 6.422143853836330685e-01 1.875092192770187738e-01
-2.744726036150918480e-02 -2.484175673591614841e-01 -7.728232008415222287e-01 8.542893294436145757e-01 8.989105791351588437e-02 5.119661505470537444e-01
7.674288537334637318e-03 2.126200116381903871e-01 -6.064475156277441270e-01 -2.586977482359262281e-01 -2.448432167578852570e-01 -9.344127965012639647e-01
8.285850324182485183e-02 3.771906564595863681e-02 -7.645498088821537364e-01 2.667429863542599699e-01 -5.451080215642994942e-01 7.947989834272978227e-01
-1.765314105903732778e-02 -2.390234108219458919e-01 -7.860270588086992749e-01 5.725725474024501160e-01 -1.614783409801734959e-01 8.037943912191473084e-01
8.359622700953668606e-02 -4.201813594981337885e-02 -7.370325639270223217e-01 -7.267470533983971803e-01 4.256336974013090746e-01 -5.391425377516024797e-01
-8.445415889760292394e-02 -1.782041287054919321e-01 -6.422234889159900151e-01 6.487455086734774667e-01 5.417509936734724585e-01 -5.344484314036257455e-01
2.226219795301646875e-02 1.114779528813722442e-01 -6.026793535746439723e-01 -1.936655040511544579e-01 -1.328063920726781479e-03 -9.810667198446977322e-01
-9.741280654765131775e-02 -5.683003831532247585e-02 -5.784037717518369925e-01 6.286256112494080783e-01 1.256255710832547279e-01 -7.674946623731749851e-01
-6.754238289298096845e-03 -2.059005801718891693e-01 -7.177008502956425673e-01 -9.854460420466611970e-01 -1.595187266812756466e-01 5.873562847671335435e-02
3.651059785198629282e-02 -4.539965108787617776e-02 -7.105308570406541069e-01 -8.713007567811674736e-01 -2.730289556842175891e-01 -4.077869303822160840e-01
-5.069194835596581294e-02 -2.128109338030760023e-01 -7.413002715371589391e-01 6.995331974440318623e-01 -8.140107813667757375e-02 7.099487095219735311e-01
1.084909928398719997e-01 1.674724743907502617e-02 -7.665753420993869360e-01 -9.783096819620579199e-01 2.209917145446775588e-02 2.059655136189632030e-01
9.423075228358627955e-04 2.343248204391310541e-01 -6.475665927034821578e-01 -6.330958219898705774e-01 -3.211648702809202782e-01 7.043030642247767315e-01
1.444705567619517265e-03 2.477914918722672888e-01 -6.361316764715685412e-01 -8.394849978262866053e-01 -4.861119711073333960e-01 2.428169886370033503e-01
-7.922662222335750959e-02 -1.836208519454936017e-01 -6.423870422389460488e-01 4.536719421190976154e-01 5.654050136683305139e-01 -6.888388341641323853e-01
3.808638489090894474e-02 -2.143175976856698250e-01 -7.742920531549610796e-01 -9.669365963996254809e-01 -3.376496400136268922e-02 -2.527717265619209286e-01
5.633937942753862449e-02 2.650090740666172576e-02 -7.529763982817211376e-01 6.535091398825544351e-01 -2.273037528173258992e-01 7.219825538370880924e-01
-6.296505787688458280e-04 -1.491120307912684184e-01 -6.944753291808084539e-01 -9.926247058396099332e-01 4.076978423155644404e-02 -1.141666240656174919e-01
1.049967916454014466e-01 6.290919468758556996e-03 -7.587640633990211381e-01 -8.042779269196871361e-01 4.561742681647418252e-01 -3.808438700230485918e-01
4.847204159793144784e-02 7.734100362600822287e-02 -7.095315986034427258e-01 5.584790248591658957e-01 -5.316050389974841250e-01 6.367866685985490438e-01
