-3.212692154807947342e-02 -5.371107303044393710e-02 -7.543767244884567180e-01 -4.965096436019930670e-01 2.435103735939784242e-01 -8.331751747155834442e-01
-2.422918528490652923e-02 -1.123867854421343321e-01 -1.029311908760352834e+00 9.403754480668130578e-01 -2.527619503562153480e-01 2.276080251776346763e-01
1.610334701936561724e-02 -2.113831654337964272e-01 -1.050446531328626865e+00 -9.497545515508748482e-01 2.584033438339161659e-01 1.766182428398820892e-01
2.896369613632556253e-02 1.576318985403206696e-01 -7.150016521122297686e-01 7.366867251888451484e-01 -5.463087074542832822e-01 -3.985466912297295217e-01
-5.561346053066473089e-02 -1.061315641569003237e-01 -8.406386332020977514e-01 9.859584573330387736e-01 3.065945694580589700e-02 1.641521188204477510e-01
-1.255018823874209585e-02 -1.223571302359647284e-01 -1.064538698322831545e+00 8.446149531659025156e-01 -2.090364031677146017e-01 4.928786494049675060e-01
-5.325901109038391756e-02 -9.389431673715424587e-02 -7.969890932215533130e-01 8.664259915806826751e-01 2.890715204691274645e-02 4.984680307441666791e-01
-2.076483542543270527e-02 -3.964212634507867372e-02 -9.768807779515611411e-01 9.833811257930125116e-01 -1.798799729953140247e-01 2.459180248116290407e-02
1.800107686455702447e-02 -1.116381132819685013e-01 -8.887452483241322643e-01 -8.847823268438099742e-01 3.481639529510421327e-01 -3.097452113759918135e-01
-4.701376307132929498e-03 -1.764510536851934819e-01 -1.084104424374268127e+00 1.370217548705834898e-01 -4.422136639962457316e-01 8.863814720915602630e-01
5.672118307843720952e-02 4.087357643212862629e-02 -9.519108343868812883e-01 -9.712493344893272651e-01 2.251737714577137783e-01 -7.727550000840031907e-02
-2.888164603671719913e-02 -2.296225925698538728e-01 -1.066914071216396698e+00 8.269509037304478838e-01 2.810005914438207242e-01 -4.870224537201736092e-01
2.627915366139239872e-02 7.241651254236924906e-02 -7.871366873237650719e-01 -8.894368362360763891e-01 3.994089407384223134e-01 -2.222039882733214677e-01
-2.536244067777397408e-03 -3.294946742315737337e-02 -7.901155889041714397e-01 -8.097926179082222120e-01 5.857221400097482183e-02 -5.837852445277904589e-01
5.610568183392897201e-02 3.766939291456818800e-02 -9.581930682041744918e-01 -8.724717758294042724e-01 4.735599915988868425e-01 -1.205567697723683440e-01
3.029056203836166805e-02 1.553183184034129249e-01 -7.104230396350251775e-01 7.446690987532529338e-01 -5.051526401988657433e-01 -4.362209800802034354e-01
-2.778197255283305911e-02 -1.880403857582190474e-01 -9.025617254963934633e-01 6.243328831590196776e-02 9.040400201915950174e-01 -4.228637208392838076e-01
4.728009156801806639e-02 2.258976624430945532e-02 -9.337260138115196506e-01 -9.746299729297197567e-01 2.154222103370977970e-01 -6.074279513236990197e-02
2.341086181254100826e-02 -1.160137751784159621e-01 -9.073001665000652860e-01 -8.806814061692996853e-01 3.066165393611992029e-01 -3.610907899930808629e-01
-2.013130037514333087e-02 1.953924384909119794e-02 -8.973460306934476494e-01 5.750621095449875986e-01 -4.789398114179073684e-01 6.632648243383992837e-01
-2.000189494270403559e-02 -3.558409378323591776e-02 -9.604452076164670116e-01 9.871168791190253478e-01 -1.527334239658675596e-01 -4.767355831043152553e-02
4.253906415750938891e-03 -2.333142422931606397e-01 -1.073222096622417521e+00 -7.966630628902503508e-01 2.900648312775977455e-01 5.302738517805904994e-01
-2.014973134872920582e-02 -3.517516138705370499e-02 -9.218497598556988359e-01 7.487609535546388972e-01 4.472780354917039736e-01 -4.891823723302279325e-01
3.161245966507807148e-02 -1.285565144886691158e-01 -9.398010096769799926e-01 -9.350792434659283003e-01 3.456953513090150754e-01 -7.824022317532032533e-02
2.843910587513079347e-02 7.151459560984646524e-02 -9.908893819175863538e-01 1.380847809925843939e-01 -7.472817482939169142e-01 6.500019860931326443e-01
3.488403987082593083e-02 -5.842948346291418349e-02 -8.783686340752415722e-01 -9.426214611800506349e-01 2.262868278144548051e-01 -2.454771934018670221e-01
6.084651738337441482e-03 -1.906047232226425192e-01 -9.697705899593274115e-01 -7.713382718142225425e-01 3.970676612301314301e-01 -4.973676133805681188e-01
-3.989944366287354743e-02 2.382309664539378896e-02 -7.808064336515223580e-01 8.794145240138147024e-01 -4.396334357177305030e-01 -1.826267700874650290e-01
1.296675457873891837e-02 1.405012876750471040e-01 -7.232110613864108917e-01 7.522591676078790313e-01 -3.795583269981551156e-01 -5.385551236004191278e-01
3.823315774239512133e-02 -7.740184302770762581e-02 -1.050384684545646818e+00 -9.886312700044673774e-01 5.572355060163634854e-02 1.396534921786802830e-01
4.817345612027850062e-03 -2.735376483244762041e-02 -7.990873890200579366e-01 -7.846638158284631182e-01 3.790281206852252893e-02 -6.187617255186476095e-01
6.341259812467966994e-02 1.514029575924052684e-01 -6.849617545474084856e-01 2.064121087085887263e-01 4.431441798257332310e-01 -8.723630421246948430e-01
-4.739418538924648761e-02 -4.184521768408232256e-02 -8.272825615802453791e-01 9.012595910584588754e-01 -4.204513045765319035e-01 -1.046510869749181921e-01
-2.820378060387762186e-03 -4.242982230420546536e-02 -7.905911896026478480e-01 -7.825761410015826813e-01 6.171343010411672186e-02 -6.194885278032639109e-01
2.130872452867949322e-04 6.932974779718298342e-03 -1.022144700118323701e+00 6.496270441216462910e-01 -4.756707658075762790e-01 5.930615702452879390e-01
4.642000846738521952e-02 5.600386928929978678e-03 -9.671963136238973524e-01 -9.922435157445027576e-01 1.084960136748328724e-01 -6.067471037968772546e-02
-3.810946104850650856e-02 -2.158770534269561503e-01 -9.863699153854749158e-01 9.102277671417173810e-01 4.131646927992775886e-01 2.793471940582482535e-02
6.488267082059107072e-02 1.563897968774439484e-01 -6.823741117051356220e-01 3.196057009933220838e-01 2.752296730321164286e-01 -9.066977572351226922e-01
3.827937569120384159e-02 1.640231749452938370e-01 -7.070104718444994996e-01 7.225854685688130052e-01 -5.612233156423019897e-01 -4.036070249545344324e-01
5.245320440837156206e-03 1.174617528180112447e-01 -7.281829151449719095e-01 6.638641943628449393e-01 1.095275563840180238e-01 -7.397891901315649665e-01
8.925683620351498480e-04 -2.562394622341064299e-01 -1.059490375846423582e+00 -9.393974622894418758e-01 3.321038512079001470e-01 8.508489793751412844e-02
3.003849925718517569e-02 -1.295466617618579730e-01 -1.032269530705087757e+00 -9.646937488787191706e-01 2.633360677260400684e-01 4.481775196180610293e-03
-9.007333690585971400e-03 1.116692662786006734e-01 -7.950571884174593151e-01 4.642159635067804602e-01 -7.871873485345576293e-01 4.060044550649715700e-01
4.571670939432165293e-02 -1.260585096021978740e-02 -9.577686318460086889e-01 -9.983983498439689130e-01 -5.186979900840071184e-02 -2.258891275975632995e-02
-2.804356671239068358e-02 6.117407195492075705e-02 -8.012010657893627874e-01 8.129486941173497128e-01 4.133095058190629500e-01 -4.102312434865215129e-01
2.226897109918958562e-02 -1.621973179290255307e-01 -1.081820144832445374e+00 -7.570286057078265962e-01 -6.458575990545455114e-02 6.501817974670615063e-01
-6.174280068764696934e-03 4.345137713556587039e-02 -9.402013626659304624e-01 9.158898041279535107e-01 -4.014197659962870368e-01 -2.835165241228340856e-03
-1.507295235071295925e-02 -1.873039769273568411e-02 -9.652754387296887950e-01 8.834303545948878345e-01 -4.673835507078763496e-01 -3.321784321789617023e-02
-1.438105894159260592e-03 -1.841164355886622805e-01 -9.224759288726933626e-01 -6.320775884757929841e-01 4.916152066718717517e-01 -5.989928302706123420e-01
-5.382260515452633523e-03 -2.756158197715258273e-02 -1.026228341599762617e+00 7.882479164795033189e-01 -4.391107275992896519e-01 4.310997460831361705e-01
5.368629147054354567e-02 3.041397845059332083e-02 -1.007169200352616256e+00 -9.664752613822206184e-01 -9.124074756473116166e-02 2.400014481622923246e-01
-3.291781065828713881e-02 -1.583651865021997451e-01 -9.785801913216959358e-01 9.793066239361554182e-01 -1.913646647165898329e-01 -6.586426506594039720e-02
-3.019992322636071841e-02 7.442605688594701452e-02 -7.933912686394362090e-01 8.948117490943068297e-01 2.423735143009548287e-01 -3.749226763589955658e-01
-1.319921202976244608e-02 -3.124827080839307630e-02 -1.011061864580625969e+00 9.092662202009061945e-01 -2.917540714033638460e-01 2.968408708738035640e-01
5.737986061590025222e-02 4.080656416029289357e-02 -9.614885053167873119e-01 -9.889789833484491366e-01 1.349746818404080617e-01 -6.084739729149301474e-02
3.491177487524089323e-02 -1.187152369696164306e-01 -1.038362708548292268e+00 -8.861655980943290434e-01 4.578210610759489430e-01 -7.148712324196720980e-02
-1.664844021498679966e-02 -1.119282598764858305e-01 -1.050672623382424842e+00 8.812878075057803962e-01 -2.610639911209717834e-01 3.939256184632371482e-01
6.695699426912107843e-02 1.472074670523101092e-01 -6.867714537722358070e-01 6.909743671339853288e-02 5.895921653490119319e-01 -8.047400964278474955e-01
2.333358340149008919e-02 2.146231103573243478e-03 -8.226725063701914031e-01 -8.580415252404050008e-01 1.589841507108695762e-01 -4.883531312338060815e-01
-6.935466887919608005e-03 -9.311664997221455464e-02 -8.201938577661287422e-01 -8.408440706739059856e-01 3.744627559090526470e-01 -3.908438220690362286e-01
-7.143017011742874671e-03 -4.893209028537928024e-03 -9.514648502156239918e-01 7.278740439390753991e-01 6.812799054599798509e-01 7.782715834602808858e-02
-3.260359541156494095e-02 4.100139531556400152e-02 -8.057817220278383763e-01 8.698220172763235780e-01 -4.885809363668636718e-01 6.854434243776570679e-02
4.871526790803158702e-02 1.444289020862907051e-02 -9.822571470192047460e-01 -9.797081116803156853e-01 1.961222324075930501e-01 -4.132899542999080716e-02
-3.135763545591469664e-02 5.912383662718779381e-02 -8.104476057424833124e-01 8.718306325255897882e-01 3.579661043375851892e-01 -3.343226231283236705e-01
-1.932510948364478745e-02 9.848703777389131164e-02 -7.633764304549485180e-01 9.316776758817075788e-01 -1.096214530797716830e-01 -3.463521983304558294e-01
2.874322392512591515e-02 1.350449807058757765e-02 -1.037482777606375972e+00 2.085823601768903857e-01 -5.392233902831594650e-01 8.159237307460626143e-01
-4.479802219571363958e-02 -1.427332109474442334e-01 -8.248606995074108106e-01 7.028289687450266499e-01 6.404889568397377220e-01 -3.095243719954003381e-01
8.688017322640956622e-03 6.097625352533487392e-02 -9.740480784494369715e-01 9.906824132091756052e-01 1.501485008452545060e-02 1.353621455022902542e-01
-3.580187165533881694e-02 -1.074162753561212907e-01 -8.710267050458326832e-01 1.625713726503602574e-01 1.341531951629213251e-02 9.866055838058354066e-01
7.008103346649089110e-04 -2.020836881924289175e-01 -1.086306768611527973e+00 -2.766361190303312512e-01 2.141182227146941064e-01 9.368168680960741179e-01
4.084303820882292241e-02 -1.107044764964633804e-01 -9.460294630952954531e-01 -9.392864095819770665e-01 2.774425695166063410e-01 -2.019075565565130737e-01
-5.140030892488929581e-02 -6.461095143480576064e-02 -8.067319606352263417e-01 9.369887818394621037e-01 -1.740744697225480309e-01 3.029027924892978008e-01
-2.277965632323800463e-02 -5.868938945153583803e-02 -9.212131326837209588e-01 9.498653115132066338e-01 -3.033778942708482695e-01 7.561576060389083032e-02
-1.883082996163779835e-03 -6.399731582110951278e-02 -8.048600571735567977e-01 -9.262930730606788732e-01 3.332472366419075849e-01 -1.758619403689616889e-01
-4.373853205980336029e-02 2.033118949107526937e-03 -7.643922461415780800e-01 8.013235718168988386e-01 -3.397422427357265629e-01 -4.923979505963709258e-01
-3.320985934992492367e-02 -1.665435277085620669e-01 -9.543657676301725568e-01 8.780548658506558413e-01 -2.910295683392887800e-01 -3.798966213435359673e-01
2.369519837133440138e-02 -1.970858027749293195e-01 -1.021115589805622337e+00 -9.345460063705838261e-01 3.556057801520617900e-01 -1.297270593346521068e-02
3.775884750298483250e-02 1.522070121513622448e-02 -1.037842300885913893e+00 1.364610544338034151e-02 -5.125916698332793064e-01 8.585240612957556472e-01
-2.822765629411692206e-02 -2.059576526665164165e-01 -1.044361759432681502e+00 1.724408327594603163e-01 -3.650336973339972091e-01 9.148849976952816432e-01
-4.356111355915791988e-02 -4.744527946866178986e-02 -8.543422016235959759e-01 9.260268279934597002e-01 -2.279253798730828673e-01 3.008726226263899739e-01
7.305722601234301838e-02 1.636850225073795684e-01 -7.292538755936238681e-01 -3.802225800736497852e-01 -4.720182343171944184e-01 7.953801456374274270e-01
-2.152160746235131858e-02 -1.121883985187099725e-01 -1.038328983858126220e+00 9.188606780799993823e-01 -2.563521819542701197e-01 2.999643530249028189e-01
4.932862918848453931e-02 -2.215253529403633098e-02 -1.009177603724901617e+00 -9.938793126523987054e-01 -1.104594206449581589e-01 -1.621194737060752773e-03
-1.140511101903390109e-03 -2.473564526503420069e-01 -1.034127337176541817e+00 -7.400900882719023688e-01 4.904992365259434051e-01 -4.600838621481458945e-01
-1.621781882500471228e-02 9.067161572186810403e-02 -8.255912044806329453e-01 2.806047035790969479e-01 -8.093683533281464948e-01 5.159301008471707251e-01
4.239609305896111652e-02 6.499932629734794798e-02 -9.962298679821207648e-01 -3.000735421381927059e-01 -7.130118886870262518e-01 6.336954441209106115e-01
4.325520138629154743e-02 2.744474148050119952e-02 -8.746036947058983824e-01 -9.577950380296580413e-01 2.516759538097072535e-01 -1.388808100485449393e-01
-5.300064958810662280e-02 -7.019097709899631277e-02 -8.108422625624268631e-01 8.332678862284643717e-01 -2.107052941691914261e-01 -5.111437261567645107e-01
-2.324671341593321366e-02 -7.183129129213017272e-02 -7.718258566892042261e-01 -7.470991379899918350e-01 2.467485724429881178e-01 -6.172179679918259332e-01
-4.351778594296257241e-02 -1.185590140184202002e-01 -7.893751314460655255e-01 2.753758609036189853e-01 6.742261301673247997e-01 -6.852643728016102331e-01
3.183460815792928372e-03 -2.467737471111322023e-01 -1.041367288354578591e+00 -8.074893472386480697e-01 5.051874465157458749e-01 -3.045432612602063105e-01
-4.946799929643121846e-02 -5.196267664066664405e-02 -8.073929760079529006e-01 8.457679520777056092e-01 -1.464404146330404166e-01 5.130611817321468759e-01
3.777413067630399496e-02 -7.666779615796964764e-02 -9.682286617603601542e-01 -9.936629972294490631e-01 -1.077649112353023797e-01 3.194639014717138431e-02
4.563546897024225307e-02 4.823702045963704221e-02 -1.012360704404957845e+00 -4.477947455605866822e-01 -6.427136858737957370e-01 6.216099933550371937e-01
-6.113505481549310824e-03 1.256654137058342002e-01 -7.478625331991215486e-01 8.656992644519571067e-01 -4.562233474272672229e-01 -2.059733982571526900e-01
4.311811447904893846e-02 -3.781050133581556616e-02 -8.870480698649279017e-01 -9.537417279776032597e-01 1.125111699841277596e-01 -2.787793983476867798e-01
-4.118782386317399596e-02 -2.197767380869710685e-01 -1.004155320229790815e+00 8.748931275608123892e-01 -7.378386645861706450e-02 -4.786626749572992501e-01
4.590249117052175309e-02 9.963239417314776955e-03 -9.467929433770195802e-01 -9.947331645290528046e-01 9.070136319550993476e-02 -4.774090594545257055e-02
-1.090270883885873995e-02 -1.796709182733131627e-01 -1.084382658329555049e+00 2.749274776257600861e-01 -4.071715824815324569e-01 8.709914950594075389e-01
2.015462471623363783e-02 4.527695918025745336e-02 -1.007223800745992826e+00 4.543410070823439284e-01 -6.651718448427895725e-01 5.925543570946393279e-01
-2.182032100945090897e-02 -1.722079366526135247e-01 -1.042346484259851991e+00 7.849544355309768795e-01 1.222208334429029930e-01 -6.073784668662262076e-01
-5.318228500148907030e-03 -4.183682656823724255e-02 -1.037982098798154951e+00 8.370980466351374272e-01 -3.009886407681511833e-01 4.568070691749177015e-01
2.820819095265040405e-02 -1.372838324405757926e-01 -1.033407170074473358e+00 -9.886282733417763868e-01 1.410704813257716295e-01 5.208892826477765081e-02
4.927301007311540512e-03 -1.278457665450049296e-01 -1.083277667603500305e+00 2.413560428577974648e-01 -1.579277755646382730e-01 9.574999103296201186e-01
1.637577499715248130e-02 8.595042127241617202e-02 -7.507067346793467877e-01 -2.254468891413416720e-01 8.137924958035992473e-01 -5.356449140524350838e-01
-2.705695271035205712e-02 -3.650853966905033554e-02 -7.536137222896266419e-01 -7.027863602383913610e-01 1.845212072536722980e-01 -6.870540414963884901e-01
-3.284343838920052855e-02 -1.167671896949080829e-01 -8.822254295133628021e-01 9.066471564933791250e-01 -2.661525961251432482e-01 -3.273434422717463321e-01
4.640269038287449938e-02 2.453339860702257597e-02 -9.137176421500663448e-01 -9.770884286533537688e-01 1.987993191853577590e-01 -7.600679761151807323e-02
-2.623332182300317297e-02 -7.931199272263433908e-02 -9.310304374773188396e-01 9.731564387809105154e-01 -1.910894523367205056e-01 1.282628818673121063e-01
1.205486060549212403e-02 1.136139263820214323e-01 -7.251367332993906567e-01 4.441168272442744813e-01 4.091806634950696520e-01 -7.970768020587565283e-01
-1.970002423087283128e-02 1.005379474336001444e-01 -8.009245939940812242e-01 7.346108734922153216e-01 -6.555905657974755441e-01 1.747795027580470173e-01
2.211170443398560032e-02 -2.005403078358413138e-01 -1.019668208824008993e+00 -8.800891834938847635e-01 4.468287461473383626e-01 -1.605836252968050326e-01
3.496745062180522338e-03 5.113769818237417358e-02 -9.813687588367902004e-01 7.404543790177845475e-01 -5.851178447359235424e-01 3.307029185915580927e-01
-2.804092923169820145e-02 -9.288355641258168316e-02 -9.395293104738237089e-01 9.536675312389137904e-01 -2.265650047184216420e-01 1.979559003859627242e-01
-2.623584356557758131e-03 -2.083617741907519694e-01 -9.705390254715583476e-01 -6.926292486870433418e-01 3.296438143292664824e-01 -6.415603475415807555e-01
7.162813085921926337e-03 -4.627635012640868295e-02 -8.181132060981468612e-01 -9.186879382712183073e-01 2.716084391067423165e-01 -2.867774884487568898e-01
-1.239479358698080194e-02 2.241764671616552212e-02 -9.232439383766462004e-01 9.876948149191091542e-01 -1.525298894720603371e-01 -3.454830530645062320e-02
-3.689657452925249742e-02 -1.776386784898484339e-01 -9.803764606468408083e-01 9.821314194109462825e-01 -1.870250114742940672e-01 -2.096473440995979751e-02
4.908699206109276569e-02 -2.006679013939384471e-02 -1.006741939442564515e+00 -9.944367878929132321e-01 -1.024103192047857297e-01 -2.464957211797585979e-02
-2.615552859938481689e-02 -1.327447488999497840e-02 -7.523204714134886784e-01 -4.858675568227488473e-01 -4.179202417819496973e-02 -8.730327278757551435e-01
-5.505909328887156201e-02 -1.010616951324126017e-01 -8.084134449057720495e-01 7.573760876525719166e-01 -4.870434611068889114e-02 -6.511600022436989654e-01
-4.074499100419691489e-02 -1.643060583779187289e-01 -9.243338676428595191e-01 9.870347081048623794e-01 -9.377216841834278005e-02 1.302661330756047231e-01
3.762335063819176317e-02 -1.574989970087387892e-01 -9.912408901340934442e-01 -9.651884353966185826e-01 2.082064302289254598e-01 1.583078222576343452e-01
3.808846693708711068e-02 -1.281495412296468350e-01 -9.792355565549735186e-01 -9.431393462620176749e-01 -1.868714329757622250e-01 2.748949637043922034e-01
2.655512247329242653e-02 8.804004844032371768e-02 -8.522929601929192245e-01 -7.540928734071589146e-01 -5.935040493646074333e-01 -2.812416783912874974e-01
3.419379112229509882e-02 -1.666593258580282566e-01 -9.971022660945072502e-01 -9.397080640352564185e-01 3.320881618713076855e-01 8.164684398093124962e-02
-3.279071508212571401e-02 -2.143315311147890034e-01 -1.046547330349615113e+00 2.636597918921719796e-01 -3.487661491334049790e-01 8.993584865658588168e-01
2.955729775707904156e-02 -9.416076595517317016e-02 -1.076250556056147722e+00 -6.946782483097546645e-01 -3.079451888217495104e-02 7.186611363724256796e-01
-3.734565596992793501e-02 -1.454461770975197243e-01 -9.317069371879356243e-01 9.671387009137401014e-01 -9.674448370787125384e-02 2.351238781301905334e-01
2.723248481041136426e-02 -1.451318884779595475e-01 -1.050940461224462830e+00 -9.984994572544039215e-01 5.471360009946003161e-02 2.292559010558323316e-03
-2.542873149843837693e-02 -2.240236725300153164e-01 -1.061115383706743076e+00 6.132045923321384207e-01 2.684379568684255868e-01 -7.429139864446498986e-01
-2.505712121970311845e-02 -2.288454658873262104e-01 -9.787957109360949648e-01 4.120791350818541199e-01 8.425490251220759674e-01 -3.468456813858735721e-01
-3.889556125320013658e-02 -1.341720289231045082e-01 -9.131991199240137025e-01 9.858658626226217692e-01 -1.390190307760849897e-01 9.349978608227912935e-02
4.137178702782681738e-02 2.059991272313750274e-02 -8.696489377304459367e-01 -9.889601577929877374e-01 9.117799456852015982e-02 -1.168091589068760705e-01
-7.706319284610164098e-03 8.411734309649393504e-02 -7.564220163584819412e-01 4.419825677852795009e-01 6.038274886025392085e-01 -6.633579529800494035e-01
-3.260342043887333452e-02 -1.014652568489425866e-01 -9.180663196878344756e-01 9.726774078221752662e-01 -2.119746986208392026e-01 9.468572995408532089e-02
-3.726113864566667905e-02 -2.190927677588856148e-01 -1.046806116753415283e+00 3.901103219116990872e-01 -3.513453951932509201e-01 8.510994947798106169e-01
1.905436993020523037e-02 9.399315642509706303e-02 -8.544988331125440428e-01 -2.198555108955859427e-01 -9.552626681699368794e-01 -1.978302027742321889e-01
4.159886550172173930e-02 -3.488038660669868368e-02 -9.504701093310335969e-01 -9.611744482274231505e-01 2.712096504597243385e-01 5.088227168889936092e-02
5.312717668669295068e-02 1.149934559465003586e-01 -7.432103546106701986e-01 -7.692577633220478717e-01 5.890121361662274957e-01 2.476029018764874801e-01
-1.126324801463284876e-02 -2.024686844150623277e-01 -9.422761928121123898e-01 -7.419817674555020393e-01 6.299631865939255837e-01 -2.293674787323528586e-01
3.834470869068664495e-02 -7.820595092944288007e-02 -1.018641965629399682e+00 -9.969071178408730471e-01 5.081623457170113961e-02 -5.994921769429303882e-02
-2.397766972218075623e-02 -7.654902325058587920e-02 -9.408613304609724226e-01 9.160027171352078668e-01 -2.389985588155392193e-01 3.222091108038557805e-01
2.314817842019109562e-02 4.708659214470133081e-02 -8.066999018278153688e-01 -7.853604917422751797e-01 3.074183679853647044e-01 -5.373107527637489556e-01
2.311460970401250925e-02 -1.843986137740184217e-01 -1.076356630191821262e+00 -7.898735354164693190e-01 4.479016521299463149e-01 4.189079947529676384e-01
-2.832205275630974434e-02 -1.151726972209880795e-01 -9.439674184278981084e-01 2.810666615515290956e-01 1.456819560252696211e-01 9.485664444059412892e-01
-5.570340149330399449e-02 -1.115325847859336555e-01 -8.384343130316260773e-01 9.909169222352738338e-01 6.527284305756102245e-02 1.175717193331600879e-01
5.206458422731963243e-02 1.693354603351421850e-01 -7.263980304991072279e-01 2.014102243387332347e-01 -8.225110506767109309e-01 5.318923697953508167e-01
-2.308792466831152343e-02 -4.210096967191930689e-02 -7.602747615566323169e-01 -8.087584389628799109e-01 2.012400957863175466e-01 -5.526411233831947101e-01
1.917719913142367644e-02 -2.062374926859212587e-01 -1.040951263017292128e+00 -9.572911566770871961e-01 2.265901964482985587e-01 1.795843095077235552e-01
-7.055097524796334618e-03 1.014373390545724313e-01 -7.442295020285882856e-01 6.769354211031377577e-01 2.560205584474531948e-01 -6.900810889367799961e-01
-4.709520632060167772e-02 -4.730519275983405963e-02 -8.418230099460447535e-01 9.295941244049116259e-01 -2.687908196041903230e-01 2.522028135615730915e-01
3.012318871260049463e-02 -1.728069062391000554e-01 -1.062397788815305777e+00 -9.975030872055032916e-01 3.246016272910461770e-02 6.272103993948449641e-02
-1.765988010961949684e-02 -2.550823167730575936e-02 -9.582074916934416597e-01 9.577435138094847478e-01 -2.874878646041389985e-01 -8.836824158801884904e-03
-1.862309141835750623e-02 -1.530900839686282211e-01 -1.045683456109865128e+00 3.351535248083550300e-01 -8.667186180934258743e-01 3.694197502283247392e-01
-3.465590686900745648e-02 1.990075037780893175e-02 -7.663222503150388665e-01 6.208803707353264256e-01 -5.010598401458649098e-01 -6.028653264441105053e-01
9.504115534067653429e-03 9.700046022616743910e-03 -8.025637162437804228e-01 -8.159880723963925941e-01 1.001278653625965881e-01 -5.693310779192977122e-01
-1.585617873579128756e-02 -2.217285746536497293e-01 -9.673841639384461732e-01 -3.147632060199563320e-01 6.881800869139114152e-01 -6.537065795226476572e-01
-1.059352985326003681e-03 -1.601948384060203623e-01 -9.003863025507040652e-01 -7.680734443027313896e-01 5.074890801309344113e-01 -3.905355524210276097e-01
-3.497919574057807568e-02 -1.726890858025502129e-01 -8.780455771450667024e-01 8.139114066854541418e-01 4.811958823714821420e-01 -3.255744843442680003e-01
5.589080907663250726e-03 6.878396617723230022e-02 -9.618784163579479074e-01 9.752223775217311319e-01 1.987444082996637357e-02 2.203322967305484659e-01
-2.351325754472816804e-02 -1.662713921529681005e-01 -1.060092018786436663e+00 7.694456821746250563e-01 -4.840983337253203511e-01 4.166559077550616164e-01
7.513762512651063746e-04 -2.082648815448833735e-01 -9.740461636290247416e-01 -6.651773208818611005e-01 3.074570269407536083e-01 -6.804478733666396995e-01
3.011950312555698034e-02 7.026218134208790655e-02 -8.466071558092902460e-01 -9.391508160621024892e-01 -2.024844146265613321e-01 -2.774811822867013222e-01
-1.503398558219278154e-02 -7.345537787928378692e-02 -1.021992428189015811e+00 9.042656567955489333e-01 4.171323871401839134e-01 9.112734791952495361e-02
1.153391852769438883e-02 -1.348007978972839971e-01 -8.967485915936246332e-01 -8.339509299214306060e-01 4.000307497293160708e-01 -3.801331947543947209e-01
3.903724506987965581e-02 -9.796570259342725351e-02 -1.039825365760376874e+00 -9.805878477026599427e-01 -1.627287635442707936e-01 1.093929725952159093e-01
2.011293618994950197e-02 9.028352027329493434e-02 -9.522965178502731387e-01 3.790888134277700661e-01 -8.812015405122918255e-01 2.824455992446841535e-01
3.067118771222748438e-02 9.026675730107996953e-02 -8.666956147347931738e-01 -7.000603421229211198e-01 -6.347254908988462230e-01 -3.271682573080059164e-01
-2.187253495469338935e-02 -1.623308122536238074e-01 -1.058025224582116675e+00 6.548904192310766037e-01 -5.933797794060791109e-01 4.679946326522745892e-01
-1.188124746244803749e-02 -7.835699622008561460e-02 -1.029041382715346176e+00 8.297963710415391381e-01 5.577728195332376515e-01 1.809597734952389514e-02
-5.593888869867503361e-02 -4.477314476566113949e-02 -8.021962629109551379e-01 7.740421893902903472e-01 3.056103279077728233e-02 6.323960090944968915e-01
3.530531183371919679e-02 -6.493840390211272351e-02 -8.890199734026500433e-01 -8.928444136104169981e-01 3.280311334556870739e-01 -3.085845565942142987e-01
1.341746263602558963e-02 -1.012927430790487998e-01 -8.584702700803094055e-01 -8.403280153871039992e-01 3.478242817113925689e-01 -4.157728894571227074e-01
-9.143811470970571523e-03 -1.058247936475990338e-02 -9.269361836584001368e-01 9.700408788561329931e-01 1.360650006861918448e-01 2.012635310638457853e-01
2.702597549646092168e-02 -1.374507856627101843e-01 -9.210210868885987390e-01 -9.057689453442312466e-01 3.395146098809934121e-01 -2.535989892080717789e-01
-5.222961273837840868e-02 -5.792636402210649127e-02 -8.174844032327377441e-01 8.493614030019825956e-01 -3.445982264800279138e-01 -3.997965349991456363e-01
2.320682401636569442e-02 -5.379592173921992487e-02 -8.553584105304202767e-01 -8.442353198849722462e-01 1.632135427046643161e-01 -5.105174474359434056e-01
7.604057457708640090e-03 -9.331759534630923447e-02 -8.459873042938705900e-01 -7.758276774610816107e-01 2.394746407828280133e-01 -5.837322256885255634e-01
3.712208814820602311e-03 1.701383202236141567e-03 -1.029917832961155577e+00 5.801357321833716663e-01 -4.813198897852691283e-01 6.570948911239223866e-01
-2.597268166699882169e-02 6.804150806069239610e-02 -8.506413437354867213e-01 5.914290809187998654e-01 -6.188779536423116845e-01 5.169155837649394014e-01
-1.411418752674388835e-02 1.221831072920142279e-02 -9.418551450520910029e-01 9.927841481812474944e-01 -1.198181430736863090e-01 4.821587955058803318e-03
7.945884884472219356e-02 1.665644236965835856e-01 -7.244121177339603035e-01 -4.681033312500166854e-01 -3.621032476970700298e-01 8.060772353068106355e-01
2.332999317361311373e-02 -1.868620410595664694e-01 -1.050216168341883138e+00 -9.292526361792869949e-01 3.580504425979305627e-01 9.104624489385400310e-02
2.927004749788226362e-02 3.199390034517648335e-02 -1.024932817673369412e+00 2.072498669292402451e-01 -5.660338140436182996e-01 7.979055169736870567e-01
-4.256797269229736780e-02 -1.539058362048847661e-01 -8.654726195093689345e-01 8.182860172205982385e-01 3.935981987201822019e-01 4.189134182447237786e-01
-7.977972940775382785e-03 -2.532163130036709786e-01 -1.029457135834740189e+00 -7.031338884838089776e-01 5.207576565246461175e-01 -4.841634001415195399e-01
3.195344266040033888e-03 -1.066456912146586528e-01 -8.463832934869626179e-01 -7.559670233023488839e-01 2.743495503434952298e-01 -5.943451723583761392e-01
-2.483125766348429422e-02 7.604453561020044217e-02 -7.820626304004932861e-01 7.279903778114584778e-01 4.624277044975613760e-01 -5.061527713319824429e-01
1.981571936994178454e-02 -1.287857722183743669e-01 -9.093216293493657787e-01 -8.389640341227209142e-01 2.932406268730241572e-01 -4.584204229739835545e-01
-2.458874860762768483e-02 -8.531148173335466323e-02 -7.762809301954969321e-01 -6.462517008884782754e-01 3.280264775385734466e-01 -6.890263921885609877e-01
-2.284155081691257878e-03 -6.616854384003308109e-02 -8.062919546677678184e-01 -9.320626397421810649e-01 2.986847542677606993e-01 -2.050528057960791239e-01
3.278146265145923804e-02 -1.572077336807600201e-01 -1.018080491924054032e+00 -9.872268548073269701e-01 -1.133344178405236852e-01 1.119752065413693598e-01
-3.588480474954199723e-02 -1.335508969081917463e-01 -8.115671111571040042e-01 -5.796400744965173324e-01 6.244491271329610793e-01 -5.235271451038185919e-01
-3.233185787575567488e-02 7.426593794155296469e-02 -8.293375016165223101e-01 8.763321106029464680e-01 -4.242898607934574851e-01 2.280792536686617189e-01
-2.677170932967516334e-02 2.644589727575655594e-02 -8.834072365767380308e-01 9.457412161030842590e-01 -1.427770133499952909e-01 2.918703078812825980e-01
-6.361891541048268414e-03 -2.388949783632606516e-01 -1.015756797380658272e+00 -7.243149783517485174e-01 5.446329896727732933e-01 -4.227797519931657533e-01
5.781693525117151226e-03 -1.000901584555088930e-01 -8.466536621961404663e-01 -7.683955319372952619e-01 2.711043318259629409e-01 -5.797160923797091137e-01
-5.866609929629095638e-02 -9.792580368424672055e-02 -8.213382837508668155e-01 9.949695839241614603e-01 6.053739145598807658e-02 7.981698629668593226e-02
-5.546144776267707827e-02 -8.556403785146626806e-02 -8.383988072200153630e-01 9.609341870233646388e-01 -8.308482036215826538e-02 2.640121225154882234e-01
2.815325588583940039e-02 -5.713499478222612560e-02 -1.069975066195768543e+00 -1.072592527263896978e-01 -3.651038274384048044e-01 9.247673479824015663e-01
-2.804376945569094642e-02 7.720348788547100327e-02 -7.868965550049096258e-01 8.755755242327919463e-01 2.230807976451148200e-01 -4.284885752111612378e-01
9.213056420404308611e-02 1.684889651151598444e-01 -7.146974616256187574e-01 -6.873590883786380168e-01 -1.678213657341226794e-01 7.066636207039539430e-01
-4.062615203911527917e-02 -2.699110080945011161e-02 -8.365939806303468451e-01 9.173531570791424450e-01 -3.925718529123106704e-01 6.595851346054812381e-02
-3.218459678385270605e-03 6.791469261537470825e-02 -9.070529750591656004e-01 9.609977311326355354e-01 1.897734573282281734e-01 2.011700664900666624e-01
-4.421567712833931324e-02 -1.214742183247470297e-01 -8.697705140412198555e-01 3.149851418937050784e-01 1.508349443198343451e-02 9.489767376400345400e-01
-3.328242492621776710e-02 3.582636352208395242e-02 -7.819920307148352512e-01 8.206420600325903258e-01 -5.011803081612967725e-01 -2.745266981858302535e-01
-3.071339809559144951e-04 -1.541217402181132290e-01 -8.934430527481711515e-01 -8.060960693488601336e-01 4.913146782786158573e-01 -3.298772709482995502e-01
6.537688600041942785e-06 -1.963503128487615462e-02 -7.923817562590625974e-01 -8.079570561735480716e-01 4.445766724467709735e-02 -5.875618360670945561e-01
1.451504388987697944e-02 9.093332311367598175e-02 -8.346763372768460920e-01 -1.370389956869647596e-01 -9.740479796514849298e-01 -1.801411862900004768e-01
6.742102866578514320e-02 1.254341511071766224e-01 -7.234477371685266167e-01 -6.671050516778895823e-01 7.359117214912480609e-01 1.157790490444108034e-01
6.012356073574196165e-03 -9.912055890946372405e-02 -1.078973478615755432e+00 5.264859162012710536e-01 -1.670977479157308154e-01 8.336011772323735913e-01
3.885555762319641004e-02 -7.745901474979252632e-02 -9.501494988890180071e-01 -9.890495739710939427e-01 -1.032830540298153854e-01 1.054208280079021315e-01
5.195226627405675210e-04 -8.990743503850480434e-02 -8.329248170027609977e-01 -8.484228112179694747e-01 3.057873114003096804e-01 -4.320565398088168085e-01
6.774731069974132373e-03 5.934433431941295994e-02 -9.633820520013507416e-01 7.501721966627997729e-01 -6.381809777310114562e-01 1.731089686191902288e-01
-2.841417634622644267e-02 -2.130515795951693214e-01 -9.564888041424526310e-01 5.812253954409754009e-01 6.497000818033700220e-01 -4.899661655657217008e-01
3.535167018646362402e-02 1.332068594339322343e-01 -7.042335957568394145e-01 3.926672092194165020e-01 3.785626917201961317e-01 -8.381543719634197975e-01
8.746180769379154063e-02 1.426503936818602492e-01 -6.984414657640878321e-01 -4.780495610738995094e-01 8.150170930771165612e-01 -3.274381699637030074e-01
-2.054192404201793734e-02 -1.866144140417595187e-01 -1.036674695343899666e+00 2.607364349440024487e-01 -4.831829877189676714e-01 8.357934624485067188e-01
-1.078393654154895936e-02 3.501378227842405488e-02 -7.721322771019111242e-01 -4.219238488275955934e-01 -1.618429072236120814e-01 -8.920690215291178227e-01
1.579298981628503989e-02 -1.003168230209714601e-01 -8.626080924904592218e-01 -8.506770750330689967e-01 3.599795429470658004e-01 -3.830969102887730737e-01
2.716313001882141292e-03 3.343347256749954616e-02 -1.001052207833554197e+00 7.366180210043127286e-01 -4.762054432987152253e-01 4.802314722135193614e-01
-4.783116966384470814e-02 -5.186296926125755907e-02 -8.110558331050764513e-01 9.572941456454454601e-01 -2.842011847374668054e-01 5.308112005955301776e-02
5.338192246360638077e-02 7.727534144894768198e-02 -9.411995539436390779e-01 -9.956173925743010411e-01 6.220824550900563897e-04 -9.351802295263361708e-02
3.817760269591571193e-02 -8.207407699829011305e-02 -9.982961805065770911e-01 -9.797589106931720027e-01 -2.001489084804777274e-01 -3.590452812978094186e-03
-1.857653601500158791e-02 -1.042462011498030555e-01 -9.523332384874161338e-01 9.746197558511594528e-01 -2.152130199276891531e-01 6.164160574020147165e-02
1.562334622345674636e-03 5.360479719146543122e-03 -7.907103674536699600e-01 -8.548284706303888036e-01 8.918535194978449709e-02 -5.111890636518976461e-01
1.998325963061079596e-02 1.308614975727509233e-01 -7.140412700188805140e-01 5.785370641329021790e-01 1.142074559825140001e-01 -8.076209026656531176e-01
1.245745012541427631e-02 -1.845181769880113176e-01 -9.746734927797936487e-01 -7.199901086721103294e-01 3.397025452143295765e-01 -6.051581811305448699e-01
4.412586775400921535e-02 -3.368513557711418083e-02 -9.197180962318113329e-01 -9.510276686104953692e-01 3.003830202859253951e-01 7.291374809452082217e-02
-1.380157016563758089e-02 -9.404309933025339907e-02 -1.034951310689406601e+00 6.936660184497560611e-01 -6.637241515522479540e-01 2.798172716154442297e-01
2.761132638518048674e-02 8.512343716912634806e-02 -9.703408362954346611e-01 9.702909784604044074e-02 -8.917568712853989332e-01 4.419898603887424393e-01
1.501323984178444017e-02 1.015616162901385178e-01 -7.318430092919426810e-01 2.175840140000112610e-01 6.197609654538237534e-01 -7.540248951801175048e-01
2.367798943363237305e-03 5.255860294867528704e-02 -9.157102796523811650e-01 7.402060053091999992e-01 -6.723750297825988875e-01 2.624695991146386558e-03
4.618061728579449243e-02 1.343794133559497173e-01 -7.599520476435276395e-01 -5.406159749306820306e-01 -3.756380882331984972e-01 7.527485598247636300e-01
4.341184843118570114e-02 -3.176145999379031276e-02 -8.874166749258655118e-01 -9.875243602197932846e-01 -8.129924036362146328e-04 -1.574642086819721398e-01
-9.587161149852982747e-03 -2.107290472863078412e-01 -1.085599246170009913e+00 1.313723259853407099e-01 1.457528358289922610e-01 9.805597497414463293e-01
4.387383648841772926e-02 -4.606209584998070122e-02 -9.011104906183149410e-01 -9.969167496773864157e-01 7.778437796684889438e-02 -1.032398939294589327e-02
-2.068609061803755936e-02 -4.231065761779136819e-02 -8.891883951062533598e-01 2.498126765240550606e-01 4.011107413713272951e-01 8.813080050722515990e-01
-3.650174204276636358e-02 1.323754524382524805e-02 -7.630558140105017095e-01 6.288869892185769972e-01 -4.673708900714105829e-01 -6.213417786576490576e-01
3.495155609745863312e-02 -1.152679341671595109e-01 -1.012834778265625291e+00 -9.526281050508177417e-01 3.040806977964170543e-01 5.884105278813955148e-03
3.977977350867011042e-02 -3.445550795832060670e-02 -1.058479184109851090e+00 -5.821203437652171520e-01 -2.847109970874445173e-01 7.616269122819508963e-01
-1.029855625119232079e-02 5.489254699730651554e-02 -7.779070445623582630e-01 1.060096225127310221e-01 -3.920066732899990525e-01 -9.138340812372979238e-01
1.947115865067448881e-02 -1.975326726167916380e-01 -1.007318442667368252e+00 -7.660147900164342438e-01 5.193021154830351760e-01 -3.788755129734864835e-01
2.333792441579695190e-02 3.883571887979348630e-02 -1.016382164754650486e+00 3.982434391438240406e-01 -6.475635026442868591e-01 6.496642773171091845e-01
-1.315807963806205766e-02 1.740719230017221536e-02 -7.677433608955677169e-01 -7.240125915567625636e-01 -1.020630616492120141e-01 -6.821941796248701673e-01
-4.091567554921472782e-02 -3.185702217000091485e-02 -8.467139905868088512e-01 9.239267769018606469e-01 -3.278334883658696186e-01 1.971915688603461392e-01
7.058604465098626546e-02 1.623638502348551949e-01 -7.312061782860136416e-01 -3.402237108630663531e-01 -4.993374651473735382e-01 7.968123508497846341e-01
2.809722557301045850e-02 7.782851769349544147e-02 -7.890158372628857109e-01 -9.788654019119220617e-01 2.020653667088975203e-01 -3.149781764837191605e-02
4.659155986356976892e-02 2.224242034482113578e-02 -9.237580579289317306e-01 -9.778290101984175031e-01 1.990443490516133340e-01 -6.505208624635117065e-02
8.894508674424395425e-03 -5.041539583456104007e-02 -1.060777758345957222e+00 5.783121318564077296e-01 -4.101105847602500853e-01 7.052406585097762415e-01
3.589439065208564761e-02 1.607061523692927818e-01 -7.331246647731833876e-01 3.182981263476465372e-01 -8.711463308115563464e-01 3.738855079795685432e-01
3.822240831399846615e-04 -1.453672960543506143e-02 -1.031098450891391849e+00 9.272829973490623878e-01 1.875519917991153862e-01 3.239915017396647889e-01
-1.580341952797703967e-02 -1.569119014096912734e-01 -8.582245782374117171e-01 -6.156630805216338764e-01 5.196452006842531279e-01 -5.923916244246154594e-01
4.689282923550545240e-02 -1.747398035737141031e-02 -1.039875532155847271e+00 -9.854834697689950351e-01 -6.089514838385039902e-02 1.584743250983289831e-01
-9.795949094600213056e-03 -1.536886746765962763e-01 -1.057988149641146070e+00 9.530278283055495514e-01 -6.392492098837340708e-02 2.960600664592212827e-01
-2.865308149002290458e-02 -8.621618693277423306e-02 -9.231848985549491182e-01 9.695580396091129094e-01 -2.245122907305626969e-01 9.773146443315411380e-02
-3.706768051281440768e-02 -1.333017698850283150e-01 -9.265574268463179219e-01 9.793766664475471728e-01 -1.252044712687195860e-01 1.585723355204502194e-01
1.677410156045418960e-02 -1.642339570646342839e-01 -9.542379790700730169e-01 -8.345660158382316451e-01 5.286416742621887765e-01 -1.550404638833692006e-01
8.833896478246649683e-03 8.185706555782437666e-02 -9.499038363942858831e-01 7.563838326676659563e-01 -6.163468347845528772e-01 2.190891985699784383e-01
1.094903112463858214e-02 -5.200672471740158806e-04 -1.037331015704612724e+00 5.168998640022137714e-01 -4.790522126229022071e-01 7.094529640332717380e-01
5.772907669517644141e-02 1.352597444706281071e-01 -6.968526256798263097e-01 1.180173610159131713e-02 6.753114125717279981e-01 -7.374382788243132314e-01
-1.899726030156392159e-02 -4.464773907185629054e-02 -1.001587023177746838e+00 9.674473008757528136e-01 -1.811254773106362459e-01 1.767463761925969490e-01
2.304450303554449880e-02 -1.497840757859638106e-01 -9.384582562562865382e-01 -8.868133730413708671e-01 4.572648500869345711e-01 -6.686477600321304171e-02
3.828374334976066690e-02 -1.092266648488066788e-01 -9.350597050868404425e-01 -9.061241679915473801e-01 3.233021356962172410e-01 -2.727906179396403785e-01
-2.883094748195785123e-02 -1.510401442421947793e-01 -1.000911461076034570e+00 3.447697468155000999e-01 3.159957733484953374e-02 9.381552581492228482e-01
-2.915629628965264383e-02 2.943942822584635216e-02 -8.740717401219488814e-01 9.809972701458823385e-01 2.074161272195426675e-02 1.929096717845402986e-01
4.745324001385219093e-02 -2.961896549885031926e-03 -1.022920857499292069e+00 -9.990219360562763162e-01 -3.331238911174182193e-02 2.907672626065829075e-02
4.783787871451503082e-02 9.149903522888050422e-02 -9.401483936477361691e-01 -6.420306575911087776e-01 -7.533548868799209153e-01 1.423132078454769633e-01
4.022385192969564482e-02 -9.404225282684146314e-02 -1.022284420480556122e+00 -9.327235349625875305e-01 -3.330607157075812785e-01 1.381932233477773941e-01
-5.728009884260689549e-02 -7.884952010850446169e-02 -7.770945176798876863e-01 8.687371382907737027e-01 2.441620432436068244e-01 -4.309068126561288459e-01
3.447045781951608295e-02 1.842379136836664461e-02 -1.035646436750991217e+00 9.305734312339473957e-02 -5.349677968203406797e-01 8.397319734629649091e-01
-1.091418843688988713e-02 -6.952301600775915051e-04 -9.582498441775488818e-01 6.752194019032602412e-01 7.367082923187426857e-01 3.660124754985118189e-02
-1.064197951072131353e-02 3.455369002263661282e-02 -9.030628784472682913e-01 9.884579878797017383e-01 -1.490010022392112277e-01 -2.737713514087803876e-02
3.163047843776404383e-02 3.906137369482099581e-02 -8.246235776189535516e-01 -9.451867186857986214e-01 -5.693185044754880964e-02 -3.215288964068255817e-01
-3.566982950400601760e-02 -2.309718819427308556e-01 -1.051617837493085350e+00 3.448637045132312284e-01 -2.505435836403510641e-01 9.045976663722172795e-01
7.817972566604139417e-02 1.659606430922269671e-01 -6.780734763604875370e-01 -5.563315344819261266e-02 -1.289587822407048563e-02 -9.983679925569728386e-01
-6.146507791793411057e-02 -5.508363425548079562e-02 -7.831358632327275471e-01 9.974720690840024329e-01 -4.826582549704724889e-02 -5.215248303166279686e-02
3.413281271848544324e-02 -1.198404085600634009e-02 -8.542955497135403808e-01 -8.084570313178787160e-01 3.163275976892668262e-01 -4.963205410345413182e-01
2.473774152470566493e-02 9.146986368860991756e-02 -8.035411613430298861e-01 -8.560962007332955093e-01 -3.581759551019621513e-01 3.725711747798184370e-01
6.371711090325747617e-02 1.803890962369654460e-01 -7.125812451333708442e-01 2.363738570063192435e-01 -8.766341307979099717e-01 4.190942620033693555e-01
-3.765012669164241599e-02 -1.772944118197020136e-01 -8.935420273818706072e-01 8.661025110580863329e-01 4.367678936382038968e-01 -2.431054245090476518e-01
-3.623964008338919490e-02 -1.198671275977752637e-01 -7.921067676150312931e-01 -5.481640406384070685e-01 6.775254790016476125e-01 -4.903829216587408113e-01
-4.888522283494189935e-02 -1.361311196652632838e-01 -8.645725016997213297e-01 8.266491277174508046e-01 1.276613392436273808e-01 5.480454379944250665e-01
-5.641783896294581130e-02 -9.810751310495137434e-02 -8.368509558747552202e-01 9.818680072398731085e-01 -7.458297045325109351e-04 1.895643956465787872e-01
2.127867494462502493e-02 -1.965311109634721720e-01 -1.041996157918510191e+00 -9.572911566770871961e-01 2.265901964482985587e-01 1.795843095077235552e-01
-7.429404757216703098e-03 -7.405087596688771610e-03 -9.393794122180286754e-01 7.038497840232643687e-01 6.767147522140012361e-01 2.159921889012356433e-01
-2.400428856377083420e-02 -2.107955170506213838e-01 -9.493376556460526583e-01 3.172041229280004870e-01 7.784011703846140939e-01 -5.417316331370550797e-01
1.082768927383495443e-02 4.014343591657091453e-02 -7.953361552730495720e-01 -7.380851713043435902e-01 3.003410126002479252e-01 -6.041734486477334798e-01
4.087229392776373788e-02 5.382946607980033070e-03 -1.041980933365976414e+00 -3.439359927763085967e-01 -3.911927902370873622e-01 8.536253474092114768e-01
4.967986625593662914e-02 8.335477066882618358e-02 -9.619994585077029647e-01 -7.023486428826268835e-01 -6.480556132199267738e-01 2.945000951019827173e-01
4.242822842789575888e-02 -8.646644436420701518e-02 -9.293447699042933774e-01 -9.914097133673740458e-01 1.207801395530226224e-01 -5.018902400300048749e-02
-6.815249555953977086e-03 -1.873687927684093354e-03 -7.775898152727559465e-01 -8.690716564350519091e-01 7.972107806423375798e-02 -4.882202430189796494e-01
4.337797371701687665e-02 2.262822174882246108e-03 -9.098371919679005826e-01 -9.967989734305002791e-01 4.992139855997269893e-02 -6.244726201938042426e-02
-1.260041213834274185e-02 3.610746809044379415e-03 -7.675390208221324340e-01 -8.501422696851584915e-01 2.767790950939385403e-02 -5.258251179049525659e-01
-2.146306565205895536e-02 -3.861912877184708187e-02 -9.279693282700683943e-01 8.892501365476597197e-01 3.293843904939438016e-01 -3.173958379514476014e-01
1.678006602594498547e-02 7.976273587871689219e-02 -7.603458628614967463e-01 -4.198718077421688122e-01 7.571687283554778825e-01 -5.004030194392032893e-01
-3.051893082259998780e-02 -8.655321900645779332e-02 -8.963337618741052948e-01 9.752592429920367012e-01 -2.025993974603322312e-01 -8.844712040145777388e-02
-9.177260225995581208e-03 -2.288818248743648351e-02 -1.012842355542517003e+00 8.225864679231321697e-01 -4.423407725301227722e-01 3.573319797432076284e-01
-5.095946501367991897e-03 6.121889145205128280e-02 -7.763049295395025862e-01 3.380525630134409432e-01 3.405461672061692036e-01 -8.773532769878001902e-01
3.476074792854918355e-02 -1.201342491789206823e-01 -9.944546750960120418e-01 -9.857584081071160131e-01 1.312475700451944671e-01 1.051400789582935119e-01
1.036914599700414392e-02 9.041969580170527987e-02 -7.434866919087438353e-01 8.334761908913435047e-02 7.309743854424238796e-01 -6.772958158878904511e-01
2.719553205675862700e-02 -1.432572416477100041e-01 -1.071362985336091311e+00 -9.871901764514003919e-01 1.340772932205409607e-01 8.648025763436535673e-02
-5.559183904743335985e-02 -1.012383887711040403e-01 -8.410317156031257291e-01 9.769239663502503612e-01 -1.992971597544996795e-02 2.126555204823819267e-01
-2.678875020036385751e-02 -1.229311295292481038e-01 -1.022360003475467405e+00 9.735343168084878984e-01 1.856597663860449499e-01 -1.332718467708386145e-01
-3.255144434857283608e-02 2.075279749561544443e-02 -7.651050859575843077e-01 4.032593378037551690e-01 -5.103199186701565804e-01 -7.595758599919838483e-01
-5.422277446873594725e-02 -7.465076903713278866e-02 -8.381429961228122894e-01 9.517717707536302862e-01 -1.478137025549516870e-01 2.688523865125532764e-01
-3.523020948732946689e-02 -1.649573650197132813e-01 -9.395752495360679690e-01 4.282463124557344680e-01 -6.847153844047705606e-02 9.010642287271533046e-01
4.399761612802075700e-02 -2.325866727931635500e-02 -9.026609726642308429e-01 -9.961368033218100937e-01 -6.786473741955219297e-02 -5.573012186224313158e-02
3.943766834760865925e-02 -8.896108149770040607e-02 -1.013302123992444015e+00 -9.609191621202333167e-01 -2.692555997419752711e-01 6.431007602030952564e-02
-1.786555770525064327e-02 3.417908345181961544e-02 -8.880661359521765386e-01 4.632785731354443493e-01 -5.405823885618605829e-01 7.022418706189058613e-01
-1.197272162820525905e-02 -4.207411102088002425e-02 -1.023972605420071513e+00 8.971903602439811332e-01 -2.718912948565663235e-01 3.480295695289338243e-01
