4.232580834721203639e-02 -2.166737681923472103e-01 -1.017663743693328682e+00 1.502456213411017538e-01 6.860527817972855713e-01 -7.118692533436408176e-01
5.155616700709822475e-02 -2.170333131039708374e-01 -1.083301962062846791e+00 2.062210916819407769e-01 -5.788606257294801605e-01 7.889190309059499473e-01
-3.977470003557970202e-02 -1.591180248389497121e-01 -1.062001206257715102e+00 4.732512843473499764e-01 -3.218750628896545618e-01 8.200180886744907749e-01
6.294445896421944908e-02 -1.410540593052005964e-01 -1.034286929530910726e+00 -2.010409829076006127e-01 -5.200629502369693569e-01 8.301307433063574992e-01
4.333495230258635478e-02 -2.532738796882794685e-01 -1.056990990507350459e+00 5.067403328992140660e-03 7.547885228359589860e-01 -6.559486315395532952e-01
-9.323642864674605568e-02 -9.681865835384657892e-02 -9.977610660205225024e-01 5.299985670394046222e-01 6.564556791012748915e-01 -5.368123138601254007e-01
-1.781186812764452496e-02 9.467584470273289476e-02 -8.569697198126501325e-01 -7.385037703426725608e-01 2.656055647424296080e-03 -6.742441149598970007e-01
9.648751416124133617e-02 -1.476092902978469457e-01 -1.016192643997687384e+00 -7.792533102655120336e-01 -5.551346841533294496e-01 2.908431895200999096e-01
-6.317137293615680826e-02 9.514100024894596441e-02 -8.590320688612613775e-01 8.064273683017277872e-01 5.220162057752127938e-01 -2.778020528397874833e-01
-8.118501822870966000e-02 1.424261015047119938e-01 -8.465475637023740507e-01 9.063992876879404248e-01 -1.487274080154773470e-01 3.953738602687233428e-01
1.289150925212161070e-01 -1.157454969275184403e-01 -9.363221307912372726e-01 -6.545829499319733014e-01 4.876854894257343087e-01 -5.776538972965886698e-01
-7.036060501394525435e-02 2.310760579318791100e-02 -9.720265960383841497e-01 -6.769990516473570197e-02 -8.642921622710963980e-01 4.984132633442240889e-01
5.468561508869894394e-02 -1.126240620320539260e-01 -1.015953568554691211e+00 -2.209607622123410664e-01 -6.282177158082442592e-01 7.460019055654035780e-01
-4.925405276223480955e-02 -1.668621525941903772e-01 -1.057005708264066479e+00 7.184972003327864121e-01 -1.031338546456196242e-01 6.878409562826889312e-01
4.384135041264489163e-02 -6.000874947402631832e-02 -9.839718025747743457e-01 -1.201792487968468895e-02 -5.479512031367779201e-01 8.364239645434269343e-01
-8.782157324532470846e-03 2.984644803153764861e-02 -9.397521555266745708e-01 2.894551673911837653e-01 -2.336595041766571512e-01 9.282343142647015988e-01
1.316236536164367421e-01 -9.385054033975739896e-02 -9.569678008623402343e-01 -8.739488247194832082e-01 -2.383671563618215694e-01 4.235499386606174643e-01
-7.747473641282581758e-02 1.877610588089063670e-01 -7.780474713521949859e-01 9.113786733314527613e-03 -9.587069744016939454e-01 2.842496721632757350e-01
6.903239576067694838e-02 -1.186066808206456130e-01 -1.012531742249131339e+00 -6.047490042792149634e-01 -6.395252254198128261e-01 4.746431584622662347e-01
7.728177082289412400e-03 -1.883444953876382832e-01 -1.078402028739152252e+00 2.035062687905286882e-01 -8.539888379170073041e-01 4.788405405519844948e-01
-4.326774808832836022e-02 -3.641721968889538585e-02 -9.867680791519085615e-01 -6.914727757895673399e-01 5.753010619891615329e-01 4.369142803983564471e-01
-1.404768636448138486e-01 -2.210766561037951633e-02 -9.909623712213349034e-01 7.929863783180296499e-01 4.735430941804900096e-01 -3.833138945512180595e-01
-4.833009829967671589e-02 1.305091509506024205e-01 -8.033181943758932464e-01 -5.916798742123322574e-01 6.078700723094190295e-01 -5.295364969882816464e-01
1.068839486845732933e-01 -1.446608809749215518e-01 -1.007502764565912701e+00 7.309798829236628659e-02 -1.182451281850833841e-01 9.902902472346692964e-01
5.943176391804474296e-02 -1.784840038734971934e-01 -1.051591891899079645e+00 5.597401049532846340e-02 -7.414475772628328354e-01 6.686721171995618773e-01
-5.736008608546976084e-02 3.707720637356234916e-02 -9.480809773348377600e-01 -5.643288175467366941e-01 -1.724899586654435601e-01 8.073290530173525825e-01
1.002539415302968751e-01 -2.816889176710940523e-03 -9.237756460914288148e-01 -4.851394984112919473e-01 -7.240773197705160369e-01 4.902567715750449917e-01
9.741052717775640357e-02 -2.034263947625396807e-01 -1.033583058172962588e+00 -8.564732837234693141e-01 2.044294204661284975e-01 4.739853650861175494e-01
-9.046804982597483891e-02 1.780741689586295973e-01 -7.910869941586552434e-01 5.693361313463310980e-01 -7.209646771893736261e-01 3.950522798172613759e-01
5.278237097826220942e-02 2.350826747559414849e-03 -9.376271456047742259e-01 -1.746952641800970651e-01 -6.291731633947412750e-01 7.573788319836384231e-01
-7.229111136680953752e-03 -1.641277138574356587e-01 -9.870724384712413757e-01 6.619214702659208527e-01 5.541012210325620968e-01 -5.048086806417115824e-01
1.086316582201118375e-01 -3.236166983046019630e-02 -9.442585544880354176e-01 -5.839024280059516014e-01 -5.416932125895848049e-01 6.046705036655330989e-01
9.404633701502562726e-02 -1.334658282064099810e-01 -1.004724283437933074e+00 1.737511432359032104e-01 -5.394796258715781057e-02 9.833108143191101602e-01
-6.425130508830689639e-03 -1.643436127424463822e-01 -1.066321487089079589e+00 -1.310670867739318346e-01 -6.302649298289331181e-01 7.652369155969444003e-01
9.315666608661972437e-02 2.618652775227645751e-02 -9.000916477063877208e-01 -5.126490522757709556e-01 -7.074048554238824282e-01 4.865894776127714927e-01
9.113526897945169181e-02 -8.432385061567816698e-02 -9.143451860967752864e-01 4.391331536233050725e-02 4.322559121415919248e-01 -9.006811018071430031e-01
2.022044404473563595e-02 -8.872259132503844403e-02 -9.325660046947513715e-01 7.826887570339939593e-03 5.537009680636488795e-01 -8.326787962932281628e-01
-8.664000599005500236e-02 1.349264900616868879e-01 -8.053868420939210848e-01 7.589025221036429514e-01 6.503172550622833281e-01 -3.397689969651237346e-02
-8.778988852283495237e-02 1.552704278722517872e-01 -8.246512899052330647e-01 8.979396179967448210e-01 -2.286974768216402110e-01 3.760344485911831236e-01
-9.995969578040070358e-02 7.605994619509980070e-02 -9.143918478820598494e-01 6.251187620098491715e-01 -2.246803687868297872e-01 -7.474926523151166347e-01
-6.013285587035355206e-02 -1.183011501983711189e-01 -9.902147993277352622e-01 6.194556137703715049e-01 5.214752728361562450e-01 -5.868034444248163561e-01
-1.297694947542051280e-01 -2.483248906651269391e-02 -1.009679238334494134e+00 3.358040940686276565e-01 -3.386601547292406034e-01 8.789453396005438846e-01
1.073956645866007281e-01 -1.022963647691222111e-01 -9.874968875174261473e-01 -5.708066635685951073e-01 -4.329223080645487887e-01 6.976804626802678433e-01
8.759897142317136370e-03 -6.610887991555892962e-02 -9.163647048206524648e-01 1.008580950045007280e-01 6.502160946046718903e-01 -7.530250161774918460e-01
-2.562051563747803212e-02 -1.264001616091368629e-01 -9.631975195842810145e-01 2.464498847014077176e-01 6.851126506276475903e-01 -6.854802041493407438e-01
-1.071428131353247271e-01 -3.102798071822857398e-02 -9.640962523641876114e-01 5.191082310172440151e-01 5.510215520695131985e-01 -6.533772980790292229e-01
3.502133130759339796e-02 -3.183760234801760042e-02 -9.572556244927094005e-01 7.252797294159472885e-02 -9.392712473909934356e-01 3.354239361845700595e-01
-5.226420018943775218e-03 1.115438607089583312e-02 -8.742995493892945502e-01 2.403212789442393804e-01 3.867436459783782365e-01 -8.903229948630755342e-01
-9.160592977473326626e-02 1.442031291399507587e-01 -8.119502091852641712e-01 9.447918044129819393e-01 2.976561251528266894e-01 1.370010126716829091e-01
-7.560145050234664404e-03 -8.312752726976108120e-02 -9.265101349090320015e-01 -1.132313913703074798e-01 4.787764956971393149e-01 -8.706042264865888614e-01
8.642843456746569786e-02 -2.069505800030395082e-01 -1.045867064659360857e+00 -5.107155774490618194e-01 -6.352450696887633474e-02 8.573996944046764490e-01
1.171653291492548293e-01 -3.464925252800069022e-02 -9.366805790943102394e-01 -7.309983635764900622e-01 -4.681187452798389881e-01 4.964939403115842809e-01
3.348648076841585774e-02 -2.405231989963262373e-01 -1.043530220976973455e+00 3.532773290750259448e-02 7.376042197085663776e-01 -6.743085097755576740e-01
2.265906207090651742e-02 -1.241282876253382850e-02 -9.605831905556516670e-01 -7.530610436547098274e-01 -3.515456933090538860e-01 5.561606692724107015e-01
-3.270776754702874045e-02 4.662956210864849932e-02 -8.693624028234180345e-01 1.203714259210000581e-01 2.767978767989443534e-01 -9.533591428319873051e-01
5.813608515392398174e-02 -1.515218763148863945e-01 -1.035659696991436229e+00 5.971698754009602261e-01 1.267532289758422637e-01 7.920364630860118327e-01
7.275795577280832344e-03 8.504731335522000557e-02 -8.776756146886326437e-01 -3.822902829148519532e-01 -9.226206194017783080e-01 5.123799609236798225e-02
-2.161571022654654520e-02 -1.013784746321884020e-02 -8.897589062032142948e-01 2.381882523124603246e-01 4.400428582442833525e-01 -8.658109720767792616e-01
6.120178204784409298e-02 -2.025583113295621462e-01 -1.071748100207299270e+00 -2.529299366953033368e-01 -5.829656596439790617e-01 7.721253051151545366e-01
-6.874195247083140017e-03 -2.351801806370288073e-01 -1.070742112380662192e+00 7.132732175482598969e-01 5.371339434191666484e-01 -4.502537550707691461e-01
-3.770693401144598750e-03 2.957021838372762487e-02 -9.413839840638612566e-01 2.892349593842314381e-01 -2.335834506291995516e-01 9.283220938134342237e-01
-6.230297722549249517e-02 1.572427655910975108e-01 -7.541852576195832158e-01 -8.481722842691589159e-01 3.326535642603665188e-01 -4.122443236510492937e-01
4.662179201859406596e-02 3.894653438593748823e-02 -9.062035771971799214e-01 -1.114453458483569831e-01 2.941934008987026963e-02 9.933350075968414572e-01
-1.141328617155670799e-02 2.058703299725811453e-02 -9.418499695846530573e-01 -1.196792601550927815e-01 -3.182030827336095880e-01 9.404380217896113336e-01
6.248001421804455502e-02 -2.469138518508857405e-01 -1.052197421508563879e+00 -2.878593480967811535e-01 8.799849283391638632e-01 -3.778406034417329806e-01
-6.888701298153862562e-02 -3.498232125668671033e-02 -1.011196638080810173e+00 -4.053851025303391586e-01 -3.563605997567284023e-01 8.418254222744114834e-01
-3.178982893745127547e-02 -1.401881989120154492e-01 -1.043888507913905972e+00 1.009603567880243274e-01 -7.605493993018094256e-01 6.413825828465347101e-01
-2.883073188554447115e-03 -1.821359115017034125e-01 -9.968484668434358653e-01 7.482575265426806288e-01 4.476233101179676321e-01 -4.896366471285247268e-01
-6.098322258972317667e-02 1.752252534344500845e-01 -7.566735814083601630e-01 -9.460619173839750484e-01 -2.709358271525720285e-01 -1.776531059140491198e-01
6.421717338690964560e-02 -2.528685140472457932e-02 -9.533915201615678070e-01 1.370782033974391467e-01 -6.028864955166887002e-02 9.887238466268356563e-01
-9.039331318579013272e-03 9.996005318563640218e-02 -9.071860597100436241e-01 -6.072679371431268791e-01 -6.571870019650946082e-01 4.464648888390466142e-01
-8.988139988790775844e-03 -5.731128993561400431e-02 -9.107684484546781922e-01 7.514447407033435222e-02 5.545560572573413616e-01 -8.287465760869756615e-01
1.212726628106809423e-01 -8.263650339763922714e-03 -9.059335944179329747e-01 -6.338085897149704495e-01 -3.907013072272920162e-01 6.675621020807018802e-01
9.793741269284353401e-02 -1.891619464988860133e-01 -9.884964803382948473e-01 -1.309789778313284747e-01 7.640762468515552852e-01 -6.316897944113880614e-01
2.485419026185786695e-02 -5.658421314507913746e-02 -9.804096632601303485e-01 -3.013860161239495516e-01 -2.090521612264505114e-01 9.303029953576870126e-01
3.626329975440699405e-02 -1.800776476976730101e-01 -9.927407837633075438e-01 -2.013742326554482376e-01 4.533789614978193661e-01 -8.682718098001273033e-01
-1.261474732756094341e-01 -1.454761906625755101e-02 -9.627544382798222111e-01 5.521573453207004878e-01 6.041728259935856826e-01 -5.745410884691548592e-01
8.826444837015652578e-02 -1.281293217040079813e-01 -1.003242970330447736e+00 2.419615884770912051e-01 -2.759489787951970724e-02 9.698933504837848885e-01
9.643234000140729623e-02 3.056111072321332500e-02 -8.815976641356699783e-01 -6.908100819639310108e-01 -7.229888403716370204e-01 -8.280540747004672825e-03
8.860938294823304806e-02 -1.324284109134662435e-01 -1.003597313761092957e+00 2.382208160861058466e-01 -9.522298996753837674e-02 9.665316471615981175e-01
-1.538953449596310507e-03 -3.670560926388923007e-02 -9.683602089983490702e-01 -5.560153753468641824e-01 -7.901546906380965130e-01 2.578807228943258423e-01
3.739658024795978336e-02 -8.976303534931963368e-02 -9.918059015642711751e-01 4.981349651072723428e-01 -1.649166395788748962e-01 8.512720238135330630e-01
9.955525032058804187e-04 -4.595376496522382559e-02 -9.803408320981598090e-01 -2.759607017199570134e-01 -6.546878115493074413e-01 7.037254866174790235e-01
5.895142999969909398e-02 -1.327189278791752469e-01 -1.029845263427536128e+00 -2.125483650930216906e-01 -5.531134980412987234e-01 8.055362504448833061e-01
-5.977614087097574830e-02 -5.381588643733598021e-02 -9.353960199158923849e-01 6.198205715159198492e-01 2.381894464261234690e-01 -7.477220384186196167e-01
-2.728334309851522532e-02 1.212644983209495292e-01 -8.399936234227375342e-01 -8.706734927378124711e-01 9.649573044510161013e-02 -4.823030614142986283e-01
-6.661318164535161290e-02 -2.705574258861174683e-02 -9.312581037393736771e-01 5.465030179377068364e-01 3.789477093219378867e-01 -7.468152950928593770e-01
6.415366936100672102e-02 -2.477729272307339359e-01 -1.056714156438935737e+00 -4.710840563233447686e-01 8.541535909172077723e-01 -2.202304588406950592e-01
9.916445988566989500e-02 -5.418832010893583073e-02 -9.613868640094495044e-01 7.494023891528969750e-02 -1.555015002988865136e-01 9.849889562812950139e-01
-6.775614936710901148e-02 -9.828574581140028799e-02 -1.036555191509120011e+00 -2.699502546539568615e-02 -4.636541865835768772e-01 8.856049140918565987e-01
1.105095857858039710e-01 -1.808537918370028419e-01 -9.895690346392197467e-01 -6.578643189237406430e-01 6.385015440770988038e-01 -3.994124636239634873e-01
-3.078346782388404965e-03 -1.801927448814861776e-01 -1.072384991421124090e+00 -6.787683086630287299e-01 -2.019922820559118953e-02 7.340746381224662054e-01
-8.976802078217048161e-03 1.071116700873398220e-01 -8.900659837507196581e-01 -8.092944639082731983e-01 -5.784949499317906252e-01 1.019120384980867766e-01
-1.374381196604792799e-01 2.253863109288561581e-02 -9.859370920913282932e-01 6.331870215664571200e-01 -4.540109198985525230e-01 6.268558688667349443e-01
-1.051983751670297444e-02 -9.131759588886105561e-02 -9.312234322046833990e-01 7.745653479796833774e-02 5.111781086809353836e-01 -8.559774684081776774e-01
1.018744655122053172e-01 -1.992578746307672455e-01 -1.007957359304491263e+00 -7.864807605978458849e-01 5.551434601069009656e-01 -2.706727764478197851e-01
-1.083539069034230307e-01 -8.033686437058189245e-02 -1.027270661244610972e+00 5.028031708498664765e-01 7.947831035133520738e-02 8.607393156856592009e-01
1.031274436208788198e-01 -1.107577868354859586e-03 -8.624956331212401128e-01 -5.027150047475904548e-01 1.585035260778323895e-03 -8.644507572238295801e-01
-1.390384052552011696e-01 3.687829328296848841e-02 -9.550301423670182199e-01 8.732371931518339014e-01 3.926756185321095965e-02 -4.857106783697585084e-01
6.919153060819839551e-02 -1.371454895534746088e-01 -1.028858225325622433e+00 -3.817147362961211821e-01 -5.425183281652957712e-01 7.483099115333935458e-01
3.571683988014620614e-02 -2.399091224146881474e-01 -1.042741651648366963e+00 3.532773290750259448e-02 7.376042197085663776e-01 -6.743085097755576740e-01
-7.185004186023195849e-02 1.815616092941830517e-01 -7.985029133672022494e-01 2.692243462268976290e-02 -9.487083548744327244e-01 3.150041902982158581e-01
-8.898758030603921843e-02 -3.018750008710250829e-02 -1.016167173533008006e+00 -1.887280608148748651e-01 -3.842877907029563778e-01 9.037171089327111773e-01
9.398197433239349752e-02 -1.664797482247527827e-01 -1.030149975438991783e+00 -5.834972944058651745e-01 -3.410051270647046495e-01 7.370525155893707936e-01
-1.208205254674921958e-01 -2.162599114098972316e-03 -9.999855628315564848e-01 -4.713784595232344832e-01 -1.729763309883383116e-01 8.648014435784178167e-01
5.977940214054543178e-02 -6.082773650179251756e-02 -9.826000040905255029e-01 -1.725008677905354171e-01 -6.031977119918882080e-01 7.787143063147509148e-01
-5.472271640563127620e-02 -9.247281869001366950e-02 -9.641082952690727126e-01 4.967387949828665494e-01 5.480632372200850977e-01 -6.729615572726354022e-01
8.351938179609560975e-02 -2.193813911075366274e-01 -1.051656355341487492e+00 -9.955082664352898902e-01 1.414932866254319313e-02 9.361136660365158846e-02
7.334457327009361038e-02 -2.765029091880644857e-02 -8.738544167054409506e-01 2.398504788859250891e-01 6.065027917714699290e-01 -7.580409694413656752e-01
4.372189901444307331e-02 -2.389795855296499572e-01 -1.093363397587226338e+00 5.092189964159918869e-01 -4.212883906390348376e-01 7.504745869127495972e-01
-5.163837489636374095e-02 8.654904502182636516e-02 -8.536067538230359686e-01 4.467640538658192439e-01 6.286241289141706323e-01 -6.365795981024522376e-01
-9.964746443786355601e-02 2.128816522379008494e-02 -9.269370724122405480e-01 5.851490923041959835e-01 1.706818022974343207e-01 -7.927599019501903044e-01
7.722593462588370206e-02 -3.261642799833959494e-02 -8.770769331234606891e-01 3.946160379754612979e-01 7.220590961695705357e-01 -5.682506878230172420e-01
-7.704581744722159564e-02 1.813099437595213914e-01 -7.974942018640466257e-01 7.948725148984872590e-02 -9.395166288934005960e-01 3.331520386900999053e-01
-7.788495078575753683e-02 -1.329836850947305749e-01 -1.041222953386717887e+00 8.115512975691124842e-01 4.437124802371595345e-01 3.801364574671550201e-01
4.910983708353951205e-02 -2.818078180201241678e-02 -8.867585154589905372e-01 2.209076039600611219e-01 6.085597936236574190e-01 -7.621383129703928061e-01
-4.118269228558232159e-02 -1.069124001731443646e-01 -9.650374950062350354e-01 5.202502573724502311e-01 4.916351777689947355e-01 -6.983083285225434311e-01
2.034722447298690021e-02 1.932879024263645107e-02 -9.396041141614281944e-01 -8.482212427862526605e-01 -3.303050974920009319e-01 4.140280979075509071e-01
4.752758896159883090e-02 -5.062179462775705241e-02 -9.768633236056992741e-01 -9.670396618793555832e-02 -6.182412039859721542e-01 7.800167668822884925e-01
4.526313577803338373e-02 -2.608401927197868120e-01 -1.067457360818743872e+00 -2.645659499651322744e-01 8.491088949221490267e-01 -4.571858951051902542e-01
1.434315764414173869e-02 -3.245704367863181533e-02 -9.692061041198144489e-01 5.986864529865266737e-01 -2.609274937767971925e-01 7.572921325365601364e-01
-1.981182123403769924e-02 -1.351920717184324217e-01 -9.699809120166650311e-01 2.983466855505725324e-01 6.775640957229356331e-01 -6.722322153900008868e-01
1.240869284902402225e-01 -9.091024047790004226e-03 -8.922620812696748782e-01 -9.427385754436007348e-01 -3.211407157459321149e-01 -9.007007860971834312e-02
-3.830242242114161033e-02 -5.656864521708467736e-02 -9.233022770480894259e-01 3.841525643844485027e-01 5.157841261161857371e-01 -7.657633724091371663e-01
-2.313086401165878256e-02 -1.824385535272543823e-01 -1.026164351201787284e+00 6.762837133573772475e-01 4.422493440005911269e-01 -5.891144683154571071e-01
-7.712379027635565820e-02 8.589287510994329800e-02 -9.319078519497846491e-01 -1.158329094396937653e-01 -8.400902336816632454e-01 5.299350303229862780e-01
-7.226029035569446479e-02 1.729281277442397124e-01 -8.217848604710000782e-01 2.300173600468487789e-01 -8.974338769013557870e-01 3.764365161177656849e-01
1.008999770824684644e-01 -1.515385692247723792e-01 -9.628509071611768277e-01 -3.103359284238376217e-02 5.895703948411950002e-01 -8.071206016712066944e-01
-8.956332157985628928e-02 1.769512802793056852e-02 -9.197760311115282805e-01 6.035576417796149062e-01 1.269593913903529492e-01 -7.871464196623277898e-01
-1.031053194122875799e-01 1.739336921462893426e-01 -7.654447146206032615e-01 9.622682914466366144e-01 -1.751161720417616641e-01 2.082644030212823238e-01
-6.909247794083674121e-02 1.953091039300969278e-02 -9.772963613849351416e-01 -1.751393543117737983e-01 -8.006437891612473434e-01 5.729709673698792916e-01
-1.039324991489690292e-01 1.419053550615946915e-02 -9.315680751909903856e-01 6.158960465572279608e-01 1.432274114605562032e-01 -7.746986307213182821e-01
1.207901098557675884e-01 -5.748458390185402778e-02 -9.521918997585591127e-01 -7.905316487925715396e-01 -3.967447633380031813e-01 4.665332839371379992e-01
6.967754773396268864e-02 -5.576291489952191899e-02 -9.017863208338290359e-01 1.687824213337445478e-01 5.380649453476067379e-01 -8.258320706032160619e-01
-1.855879485898187867e-02 -1.871627709866312828e-01 -1.079306856192001618e+00 1.241128900926820600e-01 -1.268663972589650357e-01 9.841244371314902262e-01
-1.029569033179741216e-01 1.780981128427866766e-01 -7.613998230039134008e-01 9.013672521118734071e-01 -3.706451268427943813e-01 2.239626459210981857e-01
-7.617177636349885261e-02 1.854156851331115463e-01 -7.859347801710443449e-01 2.477016231374838673e-02 -9.551779960545154768e-01 2.949939574164712197e-01
-7.893025920452527433e-02 1.573620377815516114e-01 -8.399057986420819244e-01 6.529142594211059247e-01 -5.848884275875463334e-01 4.812572047447775669e-01
2.219172711676976190e-02 -2.698350283505201452e-01 -1.078051108629741961e+00 1.505320445448067312e-01 7.448982694877248623e-01 -6.499743623246634350e-01
5.980870731787506223e-02 -1.777757506524834941e-01 -9.900080647266609191e-01 1.876706957151473842e-01 6.692261560454719760e-01 -7.189687489970578715e-01
-2.304844666076725709e-02 1.292271255458435075e-01 -8.680928385032633532e-01 -7.719347343117142213e-01 -6.227916166010790677e-01 1.274651648667898540e-01
5.251018285297423538e-02 -6.454969512790484365e-02 -9.087803888652912221e-01 5.646567692709045932e-02 4.399274349930051287e-01 -8.962563691654529263e-01
-4.164677313501686379e-02 9.833652527824829348e-02 -9.087101145575793293e-01 5.094452867709113875e-01 -2.811018641786524608e-01 8.132940684292431222e-01
8.693680679046450477e-02 -2.209801490912905730e-01 -1.021299284755430969e+00 -5.471751473499717466e-01 6.224582205621757014e-01 -5.595937113452105205e-01
6.844484009857350337e-02 1.044351643882396145e-02 -9.250838079257069912e-01 -2.546967189535122023e-01 -7.467884038159988691e-01 6.143587398908459951e-01
5.977870258855948887e-02 -4.278562603561778671e-02 -9.659007802745150917e-01 -2.591700522842929066e-01 -7.937304975835161036e-01 5.502933592228613779e-01
-6.035641125436957272e-02 -1.521539124481010863e-01 -1.020456998636395385e+00 8.024905944295427362e-01 3.972224237846844197e-01 -4.452226318312441089e-01
1.075216189661968441e-01 -8.216121010026747329e-02 -9.734726365677647264e-01 -6.409108727549970297e-01 -5.121924814867810927e-01 5.717447989206736469e-01
1.161495025416287991e-01 -5.937708175980133812e-02 -8.921095403478801478e-01 -1.923404392913843353e-01 5.161925272979963619e-01 -8.345959682234901367e-01
2.974269607810351400e-03 -1.435425349247570204e-01 -1.047231164266334558e+00 -9.968343382774057237e-02 -6.513979560270264368e-01 7.521595016378657128e-01
-4.167923438596193159e-02 1.128011658540100798e-01 -9.030505183854392603e-01 3.887465926625162660e-01 -4.314300317412803620e-01 8.140910356987121066e-01
9.305557960541484264e-02 -7.407297427998221773e-02 -9.789528352151889434e-01 -4.590587440325925583e-01 -5.242410631182186087e-01 7.172422026539562179e-01
8.155754093636578828e-02 -3.243693624855991525e-02 -8.751980371073475595e-01 1.818941984659185329e-01 5.559872098874782953e-01 -8.110442176638573697e-01
7.016138287683475194e-02 -1.749522341075140652e-01 -9.820679603444981698e-01 3.451889735139569426e-01 7.397298028005739878e-01 -5.776195905723806590e-01
8.742703751650703070e-02 -1.503627244675385111e-01 -1.026264182207525355e+00 -5.260481577797188057e-01 -4.430788815974444073e-01 7.259162764251275712e-01
-1.038483521436083939e-01 1.682589415736765182e-01 -7.646170646439127694e-01 9.852048413950764694e-01 3.167409111274099853e-02 1.684285380922245223e-01
-5.564806791450480766e-02 1.959641708853288380e-02 -8.949667737416749924e-01 5.555345239255560230e-01 3.126141809786393555e-01 -7.704893033507087541e-01
-1.032642219610268447e-01 -3.495887541669672610e-02 -9.639145623115170647e-01 5.772323626536338681e-01 5.086408938525434076e-01 -6.388170634901586542e-01
5.421114287113606295e-02 -3.005930461507684559e-02 -9.500222714777901700e-01 2.257240367963938288e-01 1.838587390436965396e-01 9.566841815821991446e-01
-4.742818806851118590e-02 8.352527514584395796e-02 -9.227070880515368945e-01 -3.569123302973506995e-01 -7.558546533050534144e-01 5.489055761775538667e-01
8.696291308027012668e-02 -5.728307702669832580e-02 -8.987544839872383395e-01 1.948300410125747839e-01 6.057078453551173469e-01 -7.714656578191281255e-01
-3.445701761781158612e-02 9.417922691045303718e-02 -9.143412160061847871e-01 4.125407421309649214e-01 -3.159033241890938926e-01 8.544092847390606371e-01
-5.636936775806846572e-02 1.391226970834437138e-01 -8.767929506816812824e-01 1.866672283350218342e-01 -6.968596337593230272e-01 6.924897087340311508e-01
1.355381430775639828e-01 -7.365599656613443236e-02 -9.274251646710958141e-01 -9.872767355325631211e-01 -1.251648185433947569e-01 9.807352178424316724e-02
-1.215211602947688374e-01 -5.530246660950636356e-02 -1.020217121128505156e+00 5.421921589946867570e-01 -1.261610022823989041e-02 8.401598042870840333e-01
1.055140573795406433e-01 5.394640451861049905e-04 -9.108925351879553212e-01 -1.718923107382342164e-01 -4.114507023436912991e-01 8.950761716468345064e-01
-6.457574950664679569e-02 -5.484327749547208281e-02 -1.005502296392547734e+00 -8.572613670472567504e-01 3.851017534888610538e-01 3.417595470913327715e-01
7.233907441445031061e-02 -2.420146408083440059e-01 -1.058991382762469513e+00 -6.867840642901377191e-01 7.257161208727023194e-01 4.078922581512708229e-02
-6.124553445888754333e-03 -1.293671225995247920e-01 -9.551006855073286284e-01 3.716806932840432398e-01 5.721002297655913837e-01 -7.311325388341368692e-01
-9.794452860182284448e-02 1.411276908001192487e-02 -9.870358570372451679e-01 -4.075254190380901975e-01 -4.479094450779555481e-01 7.958015844717746257e-01
2.264233083957560566e-03 -4.828179430924372378e-02 -9.820091338372076706e-01 -2.759607017199570134e-01 -6.546878115493074413e-01 7.037254866174790235e-01
-1.023695239699575626e-01 -8.809776939445908284e-03 -9.433230152754644715e-01 3.760777136716764169e-01 6.190523379798947845e-01 -6.894488785407593134e-01
-1.019218207523352182e-01 7.920865168695556680e-02 -9.418751043836137704e-01 2.067950030516614024e-01 -8.707042394838854227e-01 4.462173843068558687e-01
-2.202735232622476599e-02 -1.382922209664867175e-01 -1.046417545162726448e+00 1.288505697710552178e-01 -8.203528423260930680e-01 5.571523532725809469e-01
1.696941834864328091e-02 -2.195229250978441571e-01 -1.023892459054138726e+00 2.467647714066587006e-01 7.147224767134948697e-01 -6.544302322426336360e-01
1.361363762804627675e-01 -7.696466226009415768e-02 -9.188781811634425534e-01 -9.986510654865284886e-01 9.608852879478354050e-03 -5.102665331924009784e-02
3.593423780493587572e-02 -2.113876112743927893e-01 -1.077644010207781111e+00 -9.840171639843597884e-01 6.707886518562417022e-02 1.649564998100602475e-01
-4.870305737040692140e-02 1.036783292814776221e-03 -9.818258252081039084e-01 -4.318593015604970109e-01 -4.833403836882629312e-01 7.614982712729967407e-01
-5.927699827859982812e-02 1.578884061658526183e-01 -7.602210169984144894e-01 -8.990950192418066811e-01 2.033430408693053248e-01 -3.876593273798522032e-01
7.692268778926890371e-02 -1.424802624552785335e-01 -1.028189356815955247e+00 -4.447594143518145415e-01 -5.012930158437962636e-01 7.422225916877379648e-01
9.202065354530847285e-02 -9.708017844356547910e-02 -9.200833927551217428e-01 8.902560670346337801e-03 4.040109530604422683e-01 -9.147108254638205427e-01
4.789886314666949758e-03 -2.505739521981152351e-01 -1.070804600222833969e+00 6.885208364283174065e-01 5.132973371377822502e-01 -5.123132845157463144e-01
-6.615889533154536810e-03 1.031400591436080344e-01 -8.898794076341655090e-01 -8.665515464264509360e-01 -4.986615921361443049e-01 -2.061635065117557730e-02
1.245914823556827367e-01 -2.320749674180410532e-02 -8.841234302177194415e-01 -8.840640952631553251e-01 -8.880333868814994924e-02 -4.588514383810696207e-01
6.177510535750535070e-04 4.634274468981373560e-03 -8.764188434941775352e-01 3.054922272618876833e-01 5.911384322858346252e-01 -7.464783003927288885e-01
-9.706216996801864116e-02 8.871196732182706421e-03 -9.917623484577329229e-01 2.851773436909515458e-01 -7.994669047105850135e-01 5.287027056085956689e-01
-1.335081630010520048e-01 1.107563609576157383e-02 -9.589431876734838545e-01 7.037177978367683551e-01 2.638731329566313955e-01 -6.596606936231846907e-01
-1.402862046844089161e-01 -2.167880447746989639e-02 -1.001175619177557374e+00 9.109511015662686839e-01 4.841398715197697822e-02 4.096634916651102354e-01
1.107286169437583269e-02 -2.555963764555902462e-01 -1.068206014663976022e+00 5.654676260893515272e-01 6.288557939139753916e-01 -5.336541523362269279e-01
-9.120414095838222379e-02 2.222463187131071272e-02 -9.797616234994376283e-01 -5.699059321698916047e-01 -2.859323745745068757e-01 7.703569988308996974e-01
3.020331389429647961e-02 -1.129025844689686281e-01 -9.467386724757465011e-01 -1.881749847863183750e-02 4.213717857510210774e-01 -9.066927373283644176e-01
1.300105784308618617e-01 -4.463607903068425586e-02 -8.920683402743869728e-01 -8.293693405977102806e-01 2.997414278751671726e-02 -5.578960903615233224e-01
-5.710822806133727947e-02 1.599239944512010070e-01 -8.499479936144602732e-01 -1.030191934291017075e-01 -8.564175593463625447e-01 5.059011858341877499e-01
-2.105574201672079718e-02 -4.933747969360779972e-02 -9.085192707760713082e-01 3.570890746418188821e-01 4.216593594896405617e-01 -8.334811199578763263e-01
-4.914770385559452150e-03 -1.967402353704029438e-01 -1.087251493105588773e+00 3.225452637000323919e-01 -7.035205207987778042e-01 6.332641073672922172e-01
5.422436530914626768e-02 -4.287566729041513564e-02 -8.962439544235265565e-01 1.488980524359742041e-01 5.320733454987091049e-01 -8.335030443799142930e-01
8.254848447467218187e-02 -2.188573642165600741e-01 -1.058561731614908741e+00 -9.734276836165405289e-01 -3.451300152394191911e-02 2.263788804079233108e-01
1.256941180826662008e-01 -3.198608834345210983e-02 -9.145576504361417891e-01 -8.720618610530345149e-01 -4.416540467975909046e-01 2.108312439939331318e-01
5.057110807553184817e-02 -1.886131759022343646e-01 -1.056401464864706874e+00 5.370437936929699507e-01 -5.737368607562570721e-01 6.183930613011583421e-01
1.105894096936341636e-01 -9.817692983839990117e-02 -9.821917476368634548e-01 -5.975383249739192326e-01 -4.220162598732580816e-01 6.817992568124062736e-01
5.706052011854170075e-02 -1.831313203791588018e-01 -9.953253386481525355e-01 8.717844370305992407e-02 6.123831365973567697e-01 -7.857396597885943912e-01
1.063697771392656810e-01 -1.877353641158553965e-01 -1.021123466518670586e+00 -9.222307786597823132e-01 2.062889033650096571e-01 3.270096011450329687e-01
-7.580936066359954262e-02 1.182064803046475321e-01 -8.489211073885316594e-01 8.823463740325252491e-01 4.658485695031200358e-01 6.670821931030494756e-02
-1.314625663572230041e-01 4.748171388842663959e-02 -9.426855870134854820e-01 7.304196306061998545e-01 1.639302612207396981e-01 -6.630339604282743382e-01
-5.972125467576604174e-02 -6.837496620210209430e-02 -1.009366314604848824e+00 9.395063408245642178e-02 -7.917117978408249046e-01 6.036271262254150338e-01
3.281801858727984023e-02 -1.709017314403955129e-02 -8.827017278351980689e-01 2.260038502619416689e-01 5.904231471752893201e-01 -7.748049863974836304e-01
7.209126938152823384e-04 -6.638138450566127835e-02 -9.962787533614593238e-01 -2.671406511267686024e-01 -5.587051667042585157e-01 7.851652114131986160e-01
-8.390734875972519213e-02 1.525844930100357932e-01 -8.351247448996961253e-01 8.653016192819351637e-01 -2.819157820654408231e-01 4.144594063240596427e-01
-2.283508811138785718e-02 1.235173759623890699e-01 -8.835854036957557778e-01 -5.233968190815979638e-01 -7.643227328428345846e-01 3.766517354731369616e-01
1.409858006574277525e-02 -2.206377157289493851e-01 -1.026547924996992656e+00 4.164371930623199103e-01 6.875516264218256568e-01 -5.948552977313712464e-01
1.072822557291253226e-01 -7.576260088610866500e-03 -9.213015378603125471e-01 -6.236412213382898084e-01 -6.431489525155673626e-01 4.443321414503061395e-01
1.439709523921428548e-03 -7.945976360045202413e-02 -1.005666242861584347e+00 -3.438640366625819733e-01 -5.433011358902697374e-01 7.658860228718483709e-01
-3.074922035679467439e-02 -1.916739430276579448e-01 -1.041925219054773422e+00 7.625825112719024634e-01 2.873493796161028513e-01 -5.795672933633156942e-01
-8.265728803561905869e-02 -6.229316010263365178e-03 -9.300461258295152911e-01 4.409245086684556170e-01 5.185795496370547708e-01 -7.325713810637911605e-01
4.370239658003213096e-02 5.735221869602938685e-03 -9.366730397075965220e-01 -1.079964824993723954e-01 -6.123236710792924198e-01 7.831963237935565258e-01
-4.805868191446505816e-03 -1.566893355783204322e-01 -1.059767341005171337e+00 -1.365548980995208717e-01 -6.288730614628901261e-01 7.654223882088383446e-01
9.096543097030908298e-02 -9.429532930207029651e-02 -9.188700080576631679e-01 3.286697650798962173e-02 3.996275120223397592e-01 -9.160882127230206562e-01
-1.210843336893953626e-01 6.483474885386317221e-02 -9.311326093196362619e-01 7.651817102828218919e-01 -1.954984804581260116e-01 -6.134144556392681080e-01
-1.143860556532755174e-01 -1.185261982870924533e-02 -1.007044494560026315e+00 4.916624621058366951e-01 -7.069382403684830729e-01 5.084351951436287820e-01
-4.642832411368499196e-02 -1.191049151148780155e-01 -1.046044229096713796e+00 -2.213515463841718434e-01 -4.925397613941877584e-01 8.416698143328490422e-01
9.929494333713529547e-03 -1.832682029724051476e-01 -9.879808886307485105e-01 2.717930513399278297e-02 6.995631077116341023e-01 -7.140537400653216293e-01
1.410693169573062032e-02 -1.562373947685267717e-01 -9.719303638113573340e-01 -2.715555774041399362e-01 4.500652665455570633e-01 -8.507048984401001102e-01
1.249407044920621511e-02 6.794644328849562542e-02 -8.591279484118971022e-01 -4.410778369111714031e-03 -1.998103854521026124e-01 -9.798246551805384064e-01
1.066155118608973044e-02 -1.910716511320087463e-01 -9.962633714007145258e-01 1.535187391476110219e-01 7.434540092468389094e-01 -6.509286695678175860e-01
3.394786773912580879e-02 -2.163597707533594650e-01 -1.085832540605818686e+00 -9.682221288666401637e-01 2.731042748148591187e-02 2.485961579021882251e-01
1.154930319879990952e-01 -1.716190642337769301e-01 -9.830744533855360068e-01 -5.935437217305616908e-01 6.485133528721428453e-01 -4.765881676466225958e-01
-3.088314044173925965e-02 -1.102070303875208046e-01 -1.036004922990881205e+00 -3.123144655391092983e-01 -4.366686907022777620e-01 8.436706283706806309e-01
6.839085156912837193e-02 -1.965445111539388945e-01 -1.003178375452563165e+00 8.794398675784868835e-02 5.303401061440087272e-01 -8.432112588244401463e-01
4.127159001955538198e-02 -2.338526732330482027e-01 -1.086684620948626723e+00 7.378238386529513138e-01 -4.439020695377492443e-01 5.084947745803561903e-01
-3.238168500427778679e-02 -1.996603862903731930e-01 -1.072331959093074882e+00 6.932309753876467751e-01 2.620767122934040683e-01 6.713766540747249101e-01
-4.119435750216291631e-02 -9.257227673245971289e-02 -1.028606126495596129e+00 -2.119643171521496672e-01 -5.424066007678659540e-01 8.129367796438244920e-01
-6.955172095894324516e-03 2.773376074302114080e-03 -8.801786891274464564e-01 2.085379808646267152e-01 4.977647403098773848e-01 -8.418682639470056461e-01
-7.026273425820973861e-02 1.260039020102318164e-01 -8.718210426620409681e-01 8.465219348747015093e-01 -7.515588676236309440e-02 5.270220170552221139e-01
-2.111340774328379979e-02 -7.368577298040826506e-02 -1.009291131235835914e+00 -2.484417662016558670e-01 -5.894068620634821398e-01 7.686847466673715212e-01
3.208491816657834533e-02 -2.178150380339869407e-01 -1.091926196951021000e+00 -9.356885437341289080e-01 -5.874246751612157563e-02 3.479026755212188959e-01
1.783437094998609543e-02 7.500803118595802954e-02 -8.633919636154719912e-01 -2.900417866604422801e-01 -6.906618205833287005e-01 -6.624666116713660013e-01
3.537658629729082543e-02 -7.565779600197791721e-02 -9.210045441134125932e-01 1.512141694965302707e-01 6.947187811942595603e-01 -7.032070036621062004e-01
-7.016193460275191307e-02 1.251693784268542720e-01 -8.023380232056751549e-01 1.269725417003028378e-01 9.266881183101709496e-01 -3.537330985883555545e-01
-5.173213844633731129e-02 -1.700554144425682479e-01 -1.041206626382911393e+00 5.583513247358043996e-01 7.238000748177899624e-01 -4.054099775036799636e-01
7.302577057598305665e-02 -1.375573115900394772e-01 -9.568665706137726712e-01 1.397643758095327149e-01 4.979868223786242387e-01 -8.558475588513485555e-01
1.045998759502551542e-02 -6.997169965828239913e-02 -9.950026339575851475e-01 -4.551988607480675908e-01 -4.767953696261983954e-01 7.519708589278432109e-01
-4.710959150382259403e-02 6.031491212434796079e-02 -8.716452578393221184e-01 6.671466264129167767e-01 3.643428478051995434e-01 -6.497458488663556686e-01
7.111570862251075098e-02 -2.353095560670275255e-01 -1.029534792181136194e+00 -9.013664375121574479e-02 9.112869547131122738e-01 -4.017853551623911113e-01
-5.786311404964583280e-03 -9.786654958676405114e-02 -1.016871441735967885e+00 -7.660147913250930918e-01 4.074686492217579614e-01 4.971827022057082601e-01
-9.357519258306647159e-02 -3.312535833359869786e-02 -1.018255460664873491e+00 -1.315203113599286711e-01 -3.825638645874953614e-01 9.145202552221947112e-01
-5.761969450320597597e-02 1.736635598425308458e-01 -7.753594508221903769e-01 -8.819250144221048027e-01 -4.622654410467836872e-01 -9.229805496538277809e-02
-1.287290280861374814e-01 3.832894903845006362e-02 -9.430761829346490099e-01 6.290811707709060840e-01 2.901356311817901434e-01 -7.211644722948090669e-01
2.986625607959410636e-02 -2.332282987080531167e-01 -1.035869686941469192e+00 1.741440936708457329e-02 7.191120946170168615e-01 -6.946758479477477266e-01
-7.224100940376755597e-02 1.441254978289200628e-01 -8.610155834915319550e-01 6.819287944977222571e-01 -4.599389002553252448e-01 5.687084730042322178e-01
-5.924440125787965028e-02 8.640913636997541586e-03 -9.823706801855661697e-01 -4.102905591118197748e-01 -5.377690826228824772e-01 7.365229601843068519e-01
6.436109706949244558e-02 -2.237260191801912490e-01 -1.015444582394601669e+00 2.452569101677447294e-02 5.412331551699504084e-01 -8.405148197533048871e-01
5.045471821270489099e-02 -4.327852495488100637e-02 -9.698260153087003843e-01 -1.954759442796089874e-01 -6.857087730059455710e-01 7.011366727184336067e-01
6.276479120922764943e-02 -1.775650561330268939e-01 -1.045626350450800324e+00 -7.717202668756985018e-01 -6.353463350300581070e-01 -2.797971152771430020e-02
-9.193700131978006784e-02 8.709884051855562581e-02 -9.262699914253895717e-01 2.334973973251948942e-01 -9.527011324505854084e-01 1.945238228848394091e-01
-6.842335884829062187e-02 4.122632411635272082e-02 -8.996161613572948301e-01 5.936958437948799405e-01 2.111370233875221047e-01 -7.764962346436347085e-01
-3.929505769530387826e-02 -1.936364941495091474e-01 -1.058861662518240543e+00 9.276517664362914362e-01 3.621725200037248515e-01 -9.106737056585850754e-02
-6.759878542063120499e-02 -1.244504874262616911e-01 -1.004951963484070010e+00 6.385464182106016517e-01 5.716285292577293342e-01 -5.152662382973067778e-01
-9.101301357554829330e-02 -1.067970958536503950e-01 -1.035707477592768377e+00 4.698891547685185022e-01 -1.923020255465785477e-01 8.615242963501439366e-01
9.906081603211380759e-02 1.344516187241882009e-02 -9.076578638161280077e-01 -2.420302345043813530e-01 -3.611205546614099093e-01 9.005627743732194102e-01
6.898500367067983419e-02 -1.915695295051374480e-01 -1.058682037759516525e+00 -6.496030152843156324e-01 -5.429465049696565737e-01 5.321888905969008876e-01
-2.787826558633477864e-02 -1.948708607101831414e-01 -1.039636747647509019e+00 7.834748362743811922e-01 2.395638588336246877e-01 -5.733902148324254711e-01
-1.490453651187129266e-03 5.566291064855728027e-02 -8.629533439541585693e-01 1.984070688068700627e-01 1.819507580817757986e-01 -9.630828399888210489e-01
8.164026626249801244e-02 -1.094553467675428160e-01 -1.001801507835582639e+00 7.177917380129941738e-02 -9.188369972575145816e-02 9.931793070403304169e-01
-5.890952969311283316e-02 -1.101413520884414743e-01 -9.817910869343150493e-01 5.802458959530313320e-01 5.291292075322635569e-01 -6.191421338965253929e-01
8.148630274162022014e-02 -1.622867873585063514e-01 -9.693780156645630530e-01 -1.139868148910798823e-01 4.099834150595380033e-01 -9.049423215913295904e-01
1.005485681993563279e-01 2.666632068270955586e-02 -8.834096983019362748e-01 -7.064224246500439008e-01 -7.076626673486209329e-01 -1.345017444451710419e-02
2.580560848915824934e-02 6.094122563304427836e-02 -8.573767876925564302e-01 1.143726712241595854e-02 -2.779418201497938501e-01 -9.605298191792852602e-01
6.905310912581501259e-02 -1.885031751608647888e-01 -1.055064772006780505e+00 -7.411752012369509091e-01 -5.440979926818473311e-01 3.932132950841687458e-01
8.510427555597696592e-02 -1.178759743529780996e-01 -1.002665828729087494e+00 2.095899165494491401e-01 1.501239630737721473e-02 9.776741250733320676e-01
-9.171921733491796014e-02 3.310935451877136670e-02 -9.811125914725929986e-01 -5.806424085155548198e-01 -6.479753571472088303e-02 8.115760425237769082e-01
-3.234894030896120348e-02 -6.650235628093949247e-02 -9.279790259250261242e-01 4.862291574044529940e-01 5.376421361537244703e-01 -6.888556742321397808e-01
-7.548749666624603172e-02 -6.861670260684137046e-02 -9.574509581249893708e-01 5.855244722648976774e-01 4.771795956972059716e-01 -6.553325307270836397e-01
3.028271004435183211e-02 -2.198523793282377778e-02 -9.495065116821775897e-01 -1.674246901415729072e-01 -2.813674267440476884e-01 9.448816562397808205e-01
-4.019717894443156081e-02 -1.308744041865124719e-01 -9.742965040718765124e-01 4.451719144579958654e-01 5.778135038449124794e-01 -6.840712838237460458e-01
-8.526409233935675069e-02 1.451066919891762751e-02 -9.868496120513440273e-01 1.212337200482365152e-01 -8.551316064790164262e-01 5.040360311762270840e-01
-5.517574136102643828e-02 -3.681657083298130878e-02 -9.268299274586846437e-01 5.759495411641653018e-01 2.987703208272083910e-01 -7.609325997915942219e-01
-8.195807427399509626e-02 -5.411387504087708522e-02 -9.564396649104819348e-01 6.729295534543697777e-01 2.879864830753023908e-01 -6.813439672101173628e-01
1.246949108006245033e-01 -6.665281696133779077e-02 -9.530469018242315737e-01 -8.443845981713947735e-01 -3.373943863762647877e-01 4.161486253884732478e-01
4.419435644543374606e-03 7.961780938420261189e-02 -9.135376823596965679e-01 -7.922006206366237757e-01 -5.093576619918579462e-01 3.361144876870617582e-01
5.484292136271268214e-02 -9.551213414433677718e-03 -9.464492039801850609e-01 -1.261163577655326495e-01 -5.724546180299283638e-01 8.101792237524764184e-01
-6.243685712405148275e-02 1.591177688570973858e-01 -7.523968042764698216e-01 -8.481722842691589159e-01 3.326535642603665188e-01 -4.122443236510492937e-01
4.725752343662332350e-02 -2.251896111068916462e-01 -1.025314327349159838e+00 1.576392027883468383e-01 7.618859962801045604e-01 -6.282353145251601267e-01
1.338399067456320646e-01 -5.444313710645968390e-02 -9.161283041066669020e-01 -9.849340581494551161e-01 -1.526630992405090537e-01 8.123348587576538493e-02
-9.207525256652550338e-02 -8.338339243663436817e-02 -1.031331474232822565e+00 -2.181602349995354906e-01 8.386998558334064768e-02 9.723023898886590244e-01
-1.735816278765932481e-03 -2.494118255521858840e-01 -1.078483421463909853e+00 7.220827847618540574e-01 5.065054357880289793e-01 -4.712204319294154287e-01
-8.796633547367987971e-02 -6.200390916182902529e-02 -9.663835000785612195e-01 6.982082510212150872e-01 2.991874717376146742e-01 -6.503784244277711624e-01
-5.101441544463902050e-02 1.165928044680226566e-01 -8.954178282385671928e-01 6.222094905655066732e-01 -2.473680231511187211e-01 7.427411466806725926e-01
-4.555897762670318291e-02 -1.155382839166827352e-01 -9.743421995087133691e-01 5.951986277872599596e-01 4.164508598102640846e-01 -6.872461530219392545e-01
-1.362723170864539313e-01 -2.991167622455441770e-04 -9.670880463183783027e-01 7.999379838237394846e-01 2.415711705652844321e-01 -5.493110153526223893e-01
-1.021850102190169779e-01 -1.088062075169676617e-02 -9.449363909114688598e-01 3.845119496958556704e-01 5.828381178052034484e-01 -7.158563326355223966e-01
3.360308018275644931e-02 -1.930535110624344575e-01 -9.973458241071490038e-01 -9.124123194041390550e-02 4.509859881618236144e-01 -8.878550985806744622e-01
-1.290179104561265944e-01 -4.674138713158408620e-02 -1.005691747371644906e+00 7.999516189767992280e-01 5.046631489438758722e-01 -3.246421312683386851e-01
-1.052026624010310614e-02 9.715767425416735326e-02 -9.120562012201611779e-01 -4.633977017102621221e-01 -6.379182909459798489e-01 6.150795266680620932e-01
1.213750492545053600e-02 3.411656619021524728e-02 -9.395089220266570340e-01 -3.829649493618793032e-01 -4.341122425436101384e-01 8.154044446984645145e-01
-6.570620106300688844e-03 -2.332872033386397537e-01 -1.067898864357009980e+00 6.821701040226162416e-01 5.628402252143683837e-01 -4.667492153806067634e-01
-8.463488210668596023e-02 -5.854209029434237488e-02 -9.612206965690931471e-01 6.847164329004549188e-01 3.096122304687329296e-01 -6.597754718540643770e-01
-1.014160507092522340e-01 -1.372309839199891725e-02 -1.011307832264243256e+00 -1.014601439679297251e-01 -4.054551447067883951e-01 9.084668209774114933e-01
-8.070738207625549610e-02 -1.400512453296902209e-02 -1.006286277554563791e+00 -3.301293309588829161e-01 -4.102050083399569891e-01 8.501449735036115118e-01
1.285632818910175668e-01 -1.406321849020805703e-01 -9.663041607741685857e-01 -9.750343094719894355e-01 2.085002552150291011e-01 -7.639200827147155093e-02
-4.605344823408987626e-02 1.167951746660829820e-01 -8.986393310107831933e-01 4.267121142854481408e-01 -4.609842798955169352e-01 7.780811430765139924e-01
-7.068197405543619194e-02 1.588170565326695871e-01 -7.385917909838817241e-01 -6.517630834229223291e-01 5.379711798213675511e-01 -5.345950736479441190e-01
-5.407362052486532761e-02 2.292119156630663748e-02 -9.665216918417419700e-01 -3.099166558668656202e-01 -7.092465184623929497e-01 6.331832613590423486e-01
5.174070814101077581e-02 4.238369007266506311e-02 -9.049144360178470459e-01 -1.400674454512477740e-01 -2.372279151878575465e-01 9.613032960415690553e-01
-7.212502646412093099e-02 -6.055145570001094213e-02 -1.018934385503750040e+00 -8.334448439892651050e-01 2.943831086563939436e-01 4.676625678472751679e-01
-7.054449265947697334e-02 9.099224948809815638e-02 -9.209543951031635700e-01 -6.322539828079395963e-02 -8.992371276105811662e-01 4.328684988988067972e-01
-7.063405490023154376e-02 -1.171229822628586381e-01 -1.000182070391203215e+00 5.804032111111906422e-01 6.062277980756903828e-01 -5.437094530832792261e-01
-9.122519582040047870e-02 2.885443558486141050e-02 -9.191465392225430797e-01 5.812827881217055292e-01 1.575947287577944000e-01 -7.982945707576956096e-01
-5.547288896854017312e-04 8.410190268227471511e-02 -8.648209178643615491e-01 -3.198919412367620119e-01 -7.369538296904900587e-01 -5.954562946483111796e-01
-8.296861408927473647e-02 1.350097627033001457e-01 -7.812895276341565998e-01 3.076753448140942537e-01 9.246586226480846271e-01 -2.243709289459657197e-01
1.168617320059809062e-01 -1.650197706042040857e-01 -1.006332873713368770e+00 -8.374899983227821476e-01 2.816640290378009427e-03 5.464453945700163962e-01
1.409782334176967571e-02 -1.056844599167492404e-01 -9.425957878235807774e-01 -8.045678461737580667e-02 4.562973227390225706e-01 -8.861825201786782680e-01
-9.112036710226130432e-02 -4.210076172122121513e-02 -9.584856119563869292e-01 5.792190670626090609e-01 4.425201730348375939e-01 -6.846029278409041519e-01
