-1.869786541446794362e-02 -2.155922647593856989e-01 -7.231694270262845059e-01 7.075807662440398715e-01 2.879197392121528032e-01 -6.453151811429074236e-01
4.849493188475980515e-02 3.552635462811918471e-02 -5.552796809697901903e-01 -9.632153151540461256e-01 -2.687257443599310180e-01 -1.652564943399163939e-03
-6.375170641719472842e-02 -2.105505462743166301e-01 -8.088476805466682240e-01 9.843628213097523894e-01 1.712196603358031588e-01 4.139642421268361488e-02
-6.240565432928035783e-02 -2.548273380721616244e-02 -8.084624023980107044e-01 5.083602414338461717e-01 -2.951473435903529396e-01 8.089857294791298337e-01
-5.952228560812565517e-02 -2.274117229761368486e-01 -8.023580231879605673e-01 9.533738336961203874e-01 2.537842814872946495e-01 -1.633152524828583030e-01
-4.818341243340894253e-02 -2.401025911538931523e-01 -7.777024287845206718e-01 9.938582112807665681e-01 1.018372405951860210e-01 4.330164312994624898e-02
5.907553465823621452e-02 -8.989887865734454142e-02 -6.186632183053493161e-01 -9.963993258607738435e-01 -2.865284211934111119e-02 7.979597773496865942e-02
4.969411492171163514e-02 3.916394843186686570e-02 -6.108161274712015087e-01 -9.957036608959995982e-01 -5.850936102815650769e-02 -7.176959210125885558e-02
-1.942120661344122132e-02 6.050410822185975368e-02 -6.170402550497902094e-01 9.197913227580102324e-01 -3.920847768558272106e-01 1.592012364857946574e-02
-3.073404701048416260e-02 -3.636460429597326155e-02 -6.715233102886054573e-01 9.841319668929642273e-01 9.175433716919594029e-02 -1.518730171887911484e-01
-4.345941220492346296e-02 -2.625516764915339883e-03 -7.944168998623848399e-01 -7.388102336153746785e-01 -3.391929876238137243e-01 5.823294221074758470e-01
-3.315071710411706535e-02 9.689500203093363850e-02 -6.855110128439427797e-01 5.604737042493111998e-01 -8.262835758948149367e-01 -5.589882871342673892e-02
2.284741016111760392e-02 -1.433912248636101117e-01 -6.255960256162091948e-01 8.116783553907128690e-01 2.529811959135194188e-01 5.264776936437031152e-01
-4.381539330490580308e-02 -1.624798456860561402e-01 -7.724180388725505608e-01 5.949227342698769627e-01 -2.295627890878586819e-01 -7.703037492541862097e-01
2.236060854595307151e-02 -1.742258624588812754e-01 -7.330623074450972609e-01 -9.295399451214813036e-01 1.846581239882622016e-01 3.191502274301064590e-01
4.818773776091134914e-02 3.654083359070148945e-02 -5.802070291040003491e-01 -9.874300649844699462e-01 -1.564236641524540117e-01 -2.266062792346190333e-02
2.285998204403652187e-02 -4.325932366168711019e-02 -5.371004881956356058e-01 8.131728367379781330e-01 1.398924823333652923e-01 -5.649602030038208822e-01
-3.154319129618966128e-02 -2.013850192839365394e-01 -8.329328460180536187e-01 -4.683937214958087680e-01 1.722588864363109595e-01 8.665645952305164323e-01
-6.517827810462406557e-02 -1.160478770489434958e-01 -7.732177179206868312e-01 9.495354093879259105e-01 -1.317013421214762170e-01 -2.846704459579629809e-01
2.533801278212709576e-02 -9.792825085694359388e-02 -7.413940311146706152e-01 -6.358960378207186848e-01 -3.052365319627129980e-01 7.088489886000307605e-01
-4.777760246579974140e-02 -3.640827070525645692e-02 -8.139756136755033067e-01 -4.260371196398586857e-01 -3.384715690162265478e-01 8.390049878616135937e-01
-9.245870060750742761e-03 8.259473823988678590e-05 -7.443608970394043345e-01 -7.945729386771004377e-01 -2.984557505732118310e-01 5.287513688604668083e-01
-6.512083044020430811e-02 -1.196425073303145348e-01 -8.271957119933001090e-01 6.641448328221249975e-01 3.749152213982299142e-01 6.467999828382711147e-01
4.962935581551328711e-03 -2.320337791294850016e-01 -7.610925711243605729e-01 -9.071044345927649077e-01 3.044076532579594874e-01 2.906845805682198858e-01
-2.319021341154719335e-02 7.458582195981003360e-02 -6.308281137379002645e-01 8.953807996471090380e-01 -1.306402974253656202e-01 -4.257068666487723863e-01
-1.734733282680974223e-02 3.355067722258926050e-02 -7.475324265216047870e-01 -8.763784480457866843e-01 4.880077582221472449e-02 4.791443415923932192e-01
-1.507750033860275757e-02 -2.487550902193439717e-01 -7.464009862009877150e-01 -1.423561595455796192e-01 6.604599783465497920e-01 -7.372430676797907534e-01
-5.221611520882634555e-02 -1.570862481112573483e-01 -7.828270333081328580e-01 3.174976589278633576e-01 7.618134206778081063e-01 -5.646552476073370963e-01
5.911662680774730505e-02 1.237090394356791662e-01 -5.675578679333443954e-01 -5.233851790251506930e-01 -9.333429293270693178e-03 8.520450935686668670e-01
5.792178161202672648e-02 -4.654506694329393207e-02 -6.083692086446034208e-01 -9.727681513509666145e-01 -9.532863317344453247e-02 2.112689646268606780e-01
4.105026002371511135e-02 -1.450439705856151722e-02 -6.798906559038380149e-01 -7.976453960133725873e-01 -3.669482057746463188e-01 4.786552376162175881e-01
-2.998116210080904037e-02 -3.152887116839205028e-02 -7.967046455907559332e-01 -6.355602748474269426e-01 -4.397260976124711673e-01 6.345897069086218201e-01
-2.812367668030503129e-02 -2.973663875173453500e-02 -7.935717705288523049e-01 -6.605289062916295251e-01 -4.355438814218961507e-01 6.115579214670782138e-01
-2.376369880102094205e-03 -6.154725378583815465e-02 -7.528954179692786131e-01 -7.657331482587368399e-01 -2.835114585727014358e-01 5.772988814433495097e-01
-2.047196877453091347e-03 -1.842936863216925458e-01 -7.997122357257907543e-01 -7.378524244354877082e-01 -9.370045619457237351e-02 6.684265286952648655e-01
1.990461506656089272e-02 -1.998839736937360334e-01 -7.497395933822413872e-01 -9.826117285496978049e-01 1.055824313592502034e-01 1.527302887604287951e-01
-1.475223073310581896e-02 3.157386296882626342e-02 -7.429122729052527463e-01 -8.662130175987606817e-01 -2.341986937450709835e-02 4.991257535540818413e-01
1.155994546368264639e-02 9.429779531033696816e-02 -6.320552633348609506e-01 -6.362993542366833788e-01 -7.493811035128735698e-01 1.831695757919619416e-01
-4.516270671288281219e-02 -1.855928171488037126e-01 -8.354287436220936280e-01 4.541508036518507874e-01 1.636026703251872716e-01 8.757746364247174231e-01
-4.128568492353829576e-03 -4.985333883432727792e-02 -6.153035002289387601e-01 9.661861418951923630e-01 1.168404196216979163e-01 -2.298535524030651256e-01
9.969559068085395714e-02 1.518060938120879833e-01 -5.296038506939372281e-01 -7.559255437095191432e-01 6.467998069571745390e-01 -1.011265646980532562e-01
5.620207627542271600e-02 6.596556785159270880e-03 -5.304967140147377469e-01 -8.447099566038198670e-01 -3.877568182373945516e-01 -3.689305342808926191e-01
-5.426027339204358285e-02 -2.900813335155136979e-02 -7.154509486163243004e-01 8.208306356356523947e-01 -1.404828072284399765e-01 -5.536259102274636579e-01
-4.836503179539730635e-02 -6.823963094772310389e-02 -7.146776176093986299e-01 7.357104093136888068e-01 3.397722403740001673e-01 -5.859052980633617791e-01
-1.106680641372376293e-03 -6.814362675344486087e-02 -7.549003800633439232e-01 -7.404858954047247588e-01 -3.584542269177489748e-01 5.684990817155837206e-01
5.761061267239057232e-02 -7.168834879008061101e-02 -6.301004424532515857e-01 -9.946649912806434513e-01 -9.294095230365093108e-02 -4.476085907986667584e-02
-2.585964603306355886e-02 -1.575413542046777068e-02 -6.763709442294364438e-01 8.108843998274323228e-01 4.538370673555204848e-01 -3.694569073797990266e-01
1.123548528380913653e-01 1.794584107618806823e-01 -5.106401230384156609e-01 -5.855758681492378992e-01 4.852201946111051600e-01 -6.493552690036691333e-01
-2.942105967725945279e-02 -1.576943722258924707e-01 -7.512863226185497734e-01 9.044727023404725008e-01 1.777530543044367195e-01 3.877279747533924348e-01
4.267225879901397068e-02 6.164108055552545984e-02 -6.120089411683117264e-01 -7.821062429704815910e-01 -4.791529451520627481e-01 3.983996484168906838e-01
5.273315859987297988e-02 1.607463635441000183e-01 -5.147053160011935136e-01 5.373613451420998777e-01 -3.302210672435076377e-01 -7.760134222393524350e-01
-7.245496272694540441e-02 -1.007326395330930546e-01 -7.914356665412721759e-01 6.660073244108954960e-01 6.217207632255861149e-01 -4.121862884731066212e-01
2.785123740469545861e-02 -1.391271766390878295e-01 -7.546368916229185819e-01 -9.635614279459095988e-01 2.382073335446817097e-01 -1.216825411485661090e-01
1.699651323459782509e-02 -1.563962995760558305e-01 -7.755677497555856226e-01 -6.947273628940594525e-01 -6.115797881459762025e-02 7.166683981267618631e-01
2.160506422523757533e-02 4.087126591695806888e-02 -6.796883442539598530e-01 -8.697703130196901000e-01 -4.182115943870447217e-02 4.916813940071684819e-01
6.185547595107310920e-02 -6.943656198759363962e-02 -5.986325561589395106e-01 -9.670260671495253257e-01 -6.961890241214951751e-03 2.545822412062377360e-01
3.142020105355698700e-02 -1.701065178328261818e-01 -7.162217466058445892e-01 -8.342016570362573713e-01 2.461158458767594981e-01 4.934922347984102009e-01
-7.148424740628103735e-02 -1.054573195980631900e-01 -8.205567367155218728e-01 8.514954362637422447e-01 4.717508616151490364e-02 5.222356108766166294e-01
3.361415559557436820e-03 2.766606407555007377e-02 -7.130184662900843628e-01 -8.444450848107982743e-01 -1.222320671995136693e-01 5.215091758416310341e-01
-6.238893965151669913e-02 -5.022851164364346838e-02 -7.299167687026145712e-01 8.874841433527886903e-01 1.005349314521706700e-01 -4.497383937971875523e-01
6.311317193332181830e-02 1.275524830883939809e-01 -5.651067530057622967e-01 -5.669981916724290416e-01 8.990935600582684872e-02 8.187975075333416841e-01
4.478819847183847583e-04 -1.420438028849547660e-02 -5.987637845791622393e-01 8.982014261781547937e-01 4.266769686231419029e-02 -4.375084749533361128e-01
-2.235421596750875733e-02 -2.230883414645965790e-01 -7.398965883381235509e-01 6.265015932081526850e-01 1.295386014036079003e-01 -7.685801873936404238e-01
5.299110527950275790e-02 -8.890135516867102294e-02 -6.581388973657642527e-01 -9.462286883275177196e-01 5.545906232204791952e-02 3.187092119665581591e-01
-3.509070252161824305e-02 -1.162433494433484094e-01 -8.271602426615290993e-01 -5.422684113156471808e-01 -3.500497702186430304e-01 7.638128883824095716e-01
2.876879263853779692e-02 -1.293499382312836565e-01 -7.521800032693456428e-01 -9.926380840124964244e-01 -3.790202442526958981e-02 1.150350847023044187e-01
-2.225486284762433556e-02 -1.837509328537589304e-01 -7.187975021968614486e-01 7.891479188395651434e-01 1.078893105628155324e-01 -6.046531723702963657e-01
6.167341938521547773e-02 -5.830674636440975889e-02 -5.971375924783592914e-01 -9.634173093860871617e-01 -5.636996676373964149e-02 2.620105242587158489e-01
-1.685600516066442769e-04 -7.551657721264805334e-02 -6.181242610147473782e-01 9.680101232124468380e-01 2.115066376854543573e-01 -1.349864569992756669e-01
-2.597750151633605644e-03 8.618750724061274848e-02 -5.570380552492083526e-01 8.397896036968812705e-01 -2.249108480721055958e-01 -4.941341234342362387e-01
2.258667942432041748e-02 -1.940235703070951612e-01 -7.202261932473499328e-01 -9.107459768608947570e-01 2.395181288287365762e-01 3.364116995499343288e-01
2.137984441415952466e-02 -5.333347387959524316e-02 -5.576337437607027381e-01 8.885834227390292384e-01 3.182640873592539887e-01 3.303444740430397930e-01
5.167296520035166013e-03 -9.225918320532253136e-02 -6.082696068781718868e-01 9.527035512805629436e-01 2.152676924371682843e-01 -2.145128526922810974e-01
5.034556267000171031e-02 -1.604682663621290889e-02 -6.313815762199557202e-01 -9.815469621578335468e-01 -1.134485100941071689e-01 1.539317921553430835e-01
-2.083859806537581572e-02 -9.644847384514837474e-02 -7.140379750414403981e-01 8.448643626492926550e-01 -5.221364719924107556e-01 -1.165234454542227183e-01
-1.821753026146223642e-02 8.029385474333952666e-02 -7.266595371858679542e-01 -8.031830136615446536e-01 -3.262581522148734758e-01 4.984502629941076068e-01
1.792769428868941362e-02 -2.684525392388352472e-02 -5.411765644943989928e-01 8.313607752457526923e-01 7.844971504083984859e-02 -5.501680684961567369e-01
5.303863421637641795e-02 -1.076957208536705318e-01 -6.546189923987494330e-01 -9.557156218645596057e-01 4.543786694938570930e-02 2.907628765353789668e-01
-1.677659612691037236e-02 2.529712708473179361e-03 -7.547206302991406046e-01 -8.224759658407160279e-01 -2.611425528858664080e-01 5.053096601952445921e-01
4.017346370157458962e-02 2.835807648782069298e-02 -5.328408124578715155e-01 -1.170095844951455077e-01 -4.677665514675065639e-01 -8.760726057036996028e-01
1.030738442550526851e-01 1.871260817225066653e-01 -5.035642955559029854e-01 -1.691041849484681003e-01 2.037638053908232272e-01 -9.643049757444813741e-01
6.129573271048729260e-02 -3.583197737330640065e-02 -5.947527405911681164e-01 -9.362611658782988844e-01 -9.933151672937836837e-03 3.511642945489344969e-01
-1.996248535640999036e-02 -2.785360499952665436e-01 -8.180418346941936703e-01 -2.504700876522667485e-01 1.689215959274563972e-01 9.532734285716700784e-01
-5.997590393455785179e-02 3.530994466623427891e-02 -7.048621361511150374e-01 8.628194332349732321e-01 -9.592073245935575643e-02 -4.963283577597999430e-01
-2.360041945306754277e-02 -8.867183685138353699e-02 -7.184142107513279418e-01 4.151990848755391927e-01 5.693006926941061030e-01 -7.095818777396486476e-01
1.945926915882075642e-02 -3.162073938987929045e-02 -7.147488828592042376e-01 -7.645326316489253760e-01 -1.209048357265285201e-01 6.331444352135692233e-01
1.166886164003641396e-01 2.204945482612278573e-01 -5.345817727856910784e-01 -2.791670295821159220e-01 -9.086667448598930719e-01 3.104682212079423742e-01
4.337332527218334954e-02 4.462136338807965591e-02 -6.327981333090826332e-01 -7.986353602290766629e-01 -4.661481769492719640e-01 3.806408261322520303e-01
6.769427341968764500e-02 1.642645199520587351e-01 -5.572119335036859189e-01 1.556849954415102932e-01 -4.081918879689544477e-01 8.995229651269149862e-01
1.557427416393941493e-02 -2.194206956189157232e-01 -7.268779451766408384e-01 -9.431342414069204816e-01 2.923838261782422121e-01 -1.581439245597636434e-01
-1.806645551840561567e-02 -6.309227662474597986e-02 -7.782130171518538697e-01 -8.482886147328233539e-01 -2.067497520350703166e-01 4.875048370509817430e-01
5.355489026249270895e-02 -1.486975501771822805e-01 -6.160064085054163252e-01 -9.484139632630371741e-01 3.170212884173931323e-01 2.908088353942138698e-03
-6.560267849767406623e-02 -1.273196219625524414e-02 -8.005259195702971731e-01 6.731131440256195031e-01 -3.238118241882751436e-01 6.648793859459074529e-01
4.161087196030874985e-02 -1.397881662172764938e-01 -5.864930154538298135e-01 3.812802219900360834e-01 7.028470774829237433e-01 -6.005259178361427308e-01
3.608542807824904886e-02 1.452925553200227482e-01 -5.559080047952599246e-01 5.073637877745990066e-01 -6.511442000530347496e-01 5.644406236197968552e-01
-3.868145866023537521e-02 -2.629150404843291766e-01 -7.970813944317896027e-01 9.253986383152533746e-01 2.084350712648976311e-01 3.165314854340274264e-01
-2.885039548324640560e-02 -1.325730722309529097e-01 -7.147290034748379206e-01 7.824878837151294508e-01 1.735194560082594650e-01 -5.979997577136760833e-01
2.762418143473831592e-02 5.468766879434782541e-02 -6.559176091455495294e-01 -8.036056619174423155e-01 -5.307472593338650180e-01 2.693051927531665002e-01
-5.083652381479043803e-02 9.058614341266604808e-03 -6.920442739227835593e-01 8.276880417729275408e-01 1.333089690476949585e-01 -5.451249620752448566e-01
-2.006848634750360919e-02 3.672593887105671945e-02 -7.550753475343904286e-01 -8.594664643473821641e-01 2.033264559541385907e-01 4.690157235864697016e-01
3.000484893865940778e-02 5.595030349397107222e-02 -6.476125566048577253e-01 -7.992898365751038847e-01 -5.124880647087388663e-01 3.138339380609354579e-01
9.565000349932679339e-04 -9.598989115294635777e-02 -6.467756237022523891e-01 6.923773890839445277e-01 4.722087558167282345e-02 -7.199887082410392214e-01
-3.157116227129391772e-02 -1.717641676968144626e-01 -7.283181317337324989e-01 7.663534607011240896e-01 1.443615449714201748e-01 -6.259889117267773972e-01
-4.953963684916170424e-02 1.148491170582822615e-02 -6.895647196310004112e-01 8.265938254913179906e-01 1.198670057055382238e-01 -5.498859414486034769e-01
3.427575808704567267e-02 -1.843307254547859111e-02 -6.926513102085845031e-01 -7.950347934199112343e-01 -3.122323355475945528e-01 5.200294663672945239e-01
3.008868382433624311e-02 3.213786506887631594e-02 -6.664751707997503827e-01 -8.540237469364782008e-01 -1.916481518264532558e-01 4.836470051288262462e-01
1.180606992664752844e-02 -8.135803678026366781e-02 -6.374732983564496136e-01 9.088201096484267438e-01 4.120462865587708468e-01 6.529828505978466091e-02
-2.551584881458797416e-02 -1.587479763050706205e-01 -8.215974872073505963e-01 -6.675474471925072484e-01 -4.606699418011942493e-01 5.849475279609710476e-01
8.490271712868953380e-02 1.346528308087587833e-01 -5.435157543292569171e-01 -7.896012790197906028e-01 5.800142249675431794e-01 2.002830971540307536e-01
-5.182245012873979914e-03 -1.019616930091894608e-01 -7.819211676669627353e-01 -8.684103599293842013e-01 7.021114778973555626e-02 4.908501212115211620e-01
1.219163429628880579e-02 -1.476287343723714680e-02 -5.502053496616345907e-01 9.206968640174417740e-01 6.288271236522005592e-02 -3.851792427870966429e-01
-2.054593090958467191e-02 -1.886118845929758148e-01 -7.173689364337406671e-01 7.966162692965693681e-01 1.087169880349597995e-01 -5.946285697850566265e-01
-6.054549545320606768e-02 -2.329114320258615992e-02 -8.086864267119491245e-01 4.635772236834547755e-01 -3.132572653881801616e-01 8.288341470785691723e-01
-1.041394443312360953e-02 -1.307107008849379415e-01 -6.735773805732226949e-01 8.739828381903498311e-01 1.879786608260630154e-01 -4.481272382067179594e-01
5.630300179209370148e-02 -1.232625095013626659e-01 -6.446660671324085934e-01 -8.813031188134616833e-01 7.860323469605810798e-02 4.659681794554019763e-01
-6.180490655561625413e-02 -1.841544242108439366e-01 -8.074291644377356025e-01 7.889916857212622148e-01 -5.556121705941731159e-01 2.622732082206500892e-01
-4.908111777153813943e-02 -1.888277325760908121e-01 -8.326579654199758318e-01 5.413805347811893043e-01 1.625776917669687766e-02 8.406204860110360055e-01
-5.607077953141290094e-02 -2.340752032444803621e-01 -7.995441900728486040e-01 7.153710320547228552e-01 3.916052551649408797e-01 -5.786964753859853428e-01
-1.847568421839034317e-02 6.804515497323497530e-02 -5.924274864862989487e-01 9.043145567358676917e-01 -4.257583733070435250e-01 3.074069020941432376e-02
1.646512411464390313e-02 -1.232417473259004026e-01 -6.010549397278203143e-01 8.487419608498293355e-01 3.459881922186887060e-01 -3.999115586451965076e-01
-6.959018723763500669e-02 1.690719803417886982e-02 -7.731574668248540894e-01 9.142994750274672233e-01 -2.798476577256659437e-01 2.928169367197809292e-01
1.368453445697627446e-02 1.818386159927004239e-02 -7.002370840000425867e-01 -8.141182535399125175e-01 -2.397822285436238543e-01 5.288817940974865905e-01
1.465619259044049008e-02 -1.789144034340908462e-01 -7.729242135644427414e-01 -9.520519164826825032e-01 2.133685881457491329e-01 2.192509838389353483e-01
-5.323844727725943193e-02 2.043610535467855777e-03 -6.976081569087316803e-01 8.390959241362514476e-01 1.446111457065102079e-01 -5.244098079130294909e-01
-1.489267416837668744e-02 -2.662984484171965760e-01 -7.701852041905652424e-01 -2.297292568577951333e-01 8.298323500281298282e-01 -5.085299788511554731e-01
4.447515820180702323e-02 -1.326178084473627616e-01 -6.834774157356321433e-01 -9.834234289646719418e-01 7.998575767819339488e-02 1.627287249750696552e-01
1.070114165746623852e-01 1.959864826736604781e-01 -5.029098266021936325e-01 -9.373209596151305112e-02 5.865741678977979406e-02 -9.938680001097790484e-01
1.642924431418619699e-02 -2.162021057670665825e-01 -7.183908079547489667e-01 -8.548110993153046344e-01 5.153319705115280147e-01 -6.108145918415964354e-02
7.885306638900513310e-02 1.910331353907692431e-01 -5.440800274851631535e-01 4.998431068716273074e-01 -5.723612924954452064e-01 6.500457055975853438e-01
2.667215504290980713e-02 5.404204114227583594e-02 -6.600308566263394239e-01 -8.036056619174423155e-01 -5.307472593338650180e-01 2.693051927531665002e-01
2.828002177759776289e-02 5.718956312361533900e-02 -6.499817428535190622e-01 -7.992898365751038847e-01 -5.124880647087388663e-01 3.138339380609354579e-01
-9.826626330356282024e-03 5.168690890544627020e-02 -7.365504615615654505e-01 -7.248198959377012418e-01 -4.467919463916868450e-01 5.244168905483382881e-01
-2.697857170034534055e-02 2.166698679722908055e-02 -6.377730972266197895e-01 9.676581755640041305e-01 -1.974467543680480108e-01 1.570109373695548483e-01
-3.575710649535213115e-02 -1.556824944722716084e-02 -6.970264028141390789e-01 4.732745173937183969e-01 8.342203495359253873e-01 -2.829975964666511801e-01
1.615578437111880221e-03 9.684680738907877617e-02 -5.822527111730683158e-01 5.729011428391733718e-01 -6.640321597580066681e-01 4.804639126309970809e-01
-8.363050899285115469e-03 -2.671923837981440286e-01 -8.009420415027493911e-01 -9.689498283987377780e-01 1.883575297441541230e-01 1.601801205978337916e-01
5.598596292248082112e-02 -1.292736358248392226e-01 -5.749846273448885325e-01 -7.756447347593291575e-01 5.768308112723908865e-01 -2.562058949496771043e-01
1.798679103853298780e-02 1.236645745825928032e-02 -5.400324600046759738e-01 7.949850561900391188e-01 -9.028526178456343365e-02 -5.998727631248254033e-01
-4.523176181194361184e-02 -2.415953878485924411e-01 -8.234730305628964464e-01 5.164835090079730184e-01 3.484968026074979908e-01 7.821731032803169725e-01
4.678991513174280553e-02 1.597759466333403544e-01 -5.485867207852859195e-01 5.814576734673976288e-01 -6.629586420847285444e-01 4.715854247652845888e-01
9.270565377739702073e-03 7.717120745054535658e-02 -6.724017853931908428e-01 -8.721139845001675273e-01 -3.715043980211273911e-01 3.184363049185834904e-01
6.002860724562183309e-02 -1.088774298702850987e-02 -5.966665737788112711e-01 -9.721660772148827956e-01 -1.903792273816925784e-01 1.365608585729307933e-01
1.062227822547204964e-01 2.178300326555514255e-01 -5.147184313499152397e-01 2.243459249912725662e-01 -8.244050303971663940e-01 -5.196395402542589581e-01
-7.496219603222274708e-02 -7.971449005515532371e-02 -7.814087547622435848e-01 9.845028865764341441e-01 9.398538846515822054e-02 -1.480567900426115191e-01
6.122923792871658860e-02 -7.627744068518224618e-02 -6.016864683362429522e-01 -9.793612591177868198e-01 -1.138719197356402937e-02 2.017965708285957283e-01
-5.261804097033221522e-02 5.918824959375394018e-02 -6.928995942487307103e-01 7.177834203545174763e-01 5.903073422020943539e-01 -3.692210763302515852e-01
-7.327621089820261779e-03 -1.233579669857741562e-01 -6.652357092608948141e-01 8.681420394529640872e-01 1.405531594921834715e-01 -4.759981183694036444e-01
1.263904504534277620e-02 -2.270927462716020723e-02 -5.829869973398157379e-01 6.198284056238966278e-01 -2.409482204659015303e-01 -7.468311071695215020e-01
5.646887923157122707e-02 -8.865566423701942700e-02 -6.508819937966165980e-01 -8.874052368119512701e-01 1.255832462497683544e-01 4.435547248537599074e-01
5.563925536011322948e-03 -2.184429893610486950e-01 -7.742529030578928495e-01 -9.491779025961739613e-01 2.573058128684358459e-01 1.812595594368510976e-01
6.821832820971739098e-02 -7.887262714360726568e-02 -5.439896174986396105e-01 -9.664034270790576864e-01 1.259682615215010903e-01 -2.240455605878031720e-01
-3.540867424597896052e-02 -6.936076092096495581e-03 -6.781975977395199306e-01 6.738916853690553044e-01 4.209023358482568700e-01 -6.072159583442576780e-01
2.198707183849612362e-02 1.168394707491114543e-01 -5.298856930476545379e-01 7.577323899941396101e-01 -1.078290128348122490e-01 -6.435950039775314435e-01
4.531934318318406839e-03 9.828813055483127947e-02 -5.836252954568554863e-01 5.226269353755746971e-01 -6.624080596677550670e-01 5.367277232518686825e-01
3.341936864640001736e-03 6.624648604009512019e-03 -5.813288821101081361e-01 8.421466964370354358e-01 4.966803195533912030e-01 2.099942900379163091e-01
6.127959092841174515e-02 -1.144406465747454527e-01 -5.583201624340207170e-01 -6.291164695635967918e-01 5.935840059958428228e-01 -5.018670098240797239e-01
3.703335978972266407e-02 1.391700317687096511e-01 -5.632996030465675652e-01 3.682792186117925803e-01 -6.187033801902882546e-01 6.939571632887717723e-01
6.471750286615393644e-02 1.344940248628928858e-01 -5.127577198284281046e-01 -1.962894062615823665e-01 3.802700262054284908e-01 -9.038059394356724452e-01
-1.126637790363815145e-02 1.007822739716156407e-01 -6.499815985716854705e-01 2.040081293162553933e-01 -9.624195090488109061e-01 -1.792466785609361790e-01
5.254881648058844917e-02 8.181185244603900175e-02 -5.711569428215693689e-01 -9.496329653995534414e-01 3.094112277538527689e-01 4.961777067043385975e-02
-1.601459661931651374e-02 -1.225273381218661556e-01 -7.970505905249390954e-01 -8.491899974103084281e-01 6.598422902295468517e-02 5.239488809211511056e-01
4.161428708209599647e-02 -1.521952000604221422e-01 -6.031534173525722187e-01 2.121598200842620685e-01 8.166776298027053071e-01 -5.366804074322529816e-01
-1.445237008172028416e-02 -1.382233777915921891e-01 -7.964179633571505379e-01 -7.526499753413179450e-01 -2.101109538888775718e-01 6.239963154335282924e-01
4.425893639046429850e-02 -1.363439993405174688e-01 -6.826863659662576467e-01 -9.838561984303592078e-01 1.003453840210720011e-01 1.481815937146882811e-01
2.385595032042603370e-02 -2.050465248970773646e-01 -7.042401651158065601e-01 -8.552918430216576162e-01 4.751097448460541717e-01 2.067524936075340047e-01
-6.926482625137106441e-02 3.092557083260740608e-02 -7.549483544021668990e-01 9.127996873263143351e-01 -3.568772519255390407e-01 1.985833776403702622e-01
-2.316216152779884338e-02 -7.729962527346571910e-02 -6.941609173893884543e-01 8.526352956397360572e-01 -3.679378352271935881e-01 3.709916468569963710e-01
3.452305953937669092e-02 -1.263535173821113688e-01 -5.767676570103165146e-01 6.212501206420126820e-01 5.582863829275168666e-01 -5.498768973506658053e-01
-1.283136054453928865e-02 -1.345582136828812336e-01 -7.028622655410007303e-01 3.537678319197870569e-01 7.350746583505386733e-02 -9.324403324423936601e-01
2.033080372712148254e-02 -1.993276388923148346e-01 -7.239551422378120993e-01 -9.601668078118262839e-01 1.633938702765455608e-01 2.266762985680215725e-01
-2.551171136217049440e-02 -7.948460111835049802e-02 -7.975153694466495802e-01 -7.841518690651433365e-01 -2.840960136144353165e-01 5.517203107463314327e-01
4.636468500524052599e-02 -7.806212162112791120e-02 -5.326133778472401659e-01 2.318224898394166955e-01 4.629508805254888282e-01 -8.555318903613867709e-01
-3.844566712669284653e-02 -1.305862465527687089e-01 -7.279474256011756461e-01 9.514355390001494328e-01 -6.476674004459008482e-02 -3.009579447555612020e-01
-2.026145761743457577e-02 -1.400544902795239077e-01 -7.077107466067092956e-01 5.702329188811970928e-01 1.836631184058548361e-01 -8.006886268467080514e-01
5.340687929800443795e-02 1.777858133983988009e-02 -5.607820977732815848e-01 -9.567474712488643895e-01 -2.857004348158126983e-01 5.485925450604241249e-02
1.645389791414415825e-02 -4.300372584610954313e-02 -7.218052426042023129e-01 -7.268586300368804487e-01 -2.423955185795697853e-01 6.425892502317872568e-01
-1.489307543866874931e-02 -2.583519478287238380e-01 -7.581671561909396617e-01 -1.683955960491356485e-01 8.050912046825333679e-01 -5.687451761325836852e-01
1.463377733093556426e-02 -1.165174597267518847e-01 -6.382899632415941493e-01 3.723947022185001843e-01 -7.141993686063842365e-04 -9.280741757418188298e-01
4.103393466834923120e-02 -7.376856506416525072e-02 -7.002939132678355216e-01 -9.804035630288120418e-01 8.222618482802773743e-02 1.790187368099692145e-01
1.134823122510142390e-01 1.840874262472466660e-01 -5.480439907910932273e-01 -4.221264506767527513e-01 2.015195326710211565e-01 8.838547038914824627e-01
-2.806443088359376892e-02 -2.285025166313343625e-01 -7.429184322984657696e-01 4.435635504190814649e-01 -6.966424599630630099e-02 -8.935313478381073926e-01
8.345519517677668642e-02 1.753458681286164111e-01 -5.547934849375162347e-01 7.666351060490186886e-02 -3.353047729996618265e-01 9.389853115706217057e-01
7.982352095224933691e-03 4.190724848548287029e-03 -5.578850115728226644e-01 9.342550232788628950e-01 5.791268683346149915e-02 -3.518716700473917269e-01
-1.216296889303711271e-02 -5.363513853573612794e-02 -6.635336789611707697e-01 8.268121900709373140e-01 -4.817506919407590349e-01 -2.903409601911178251e-01
1.095311362041183519e-02 -2.224293913475465789e-01 -7.554973577322969813e-01 -8.159746796399227620e-01 2.987754319468007846e-01 4.948924766568266187e-01
-6.627344672270110704e-02 -7.500681181897365934e-02 -8.218757135528648172e-01 6.354324633297063762e-01 -2.363064552481583258e-01 7.351087292059531597e-01
9.314125144095597442e-02 2.065329412496826333e-01 -5.413205124956925740e-01 4.723982635262660157e-01 -5.680055098843939110e-01 6.739507558852781965e-01
5.517092782009592328e-02 -1.434719648206856935e-01 -6.231938614780174746e-01 -9.772578632858133219e-01 2.101133182033336766e-01 -2.862624948593396612e-02
-4.834414439283444415e-02 -2.333451172989256528e-01 -7.769734452008432157e-01 9.692581690681875140e-01 -4.916817813693338812e-02 2.410831639772456070e-01
-2.566713069156375746e-02 -1.411266711511745542e-01 -8.127073969494192918e-01 -8.239944281423882133e-01 -1.536418969304214344e-01 5.453690034260476605e-01
-2.856338327852847234e-02 -1.181651947511965367e-01 -7.118315163104420584e-01 7.733631167327811307e-01 5.025535033116258765e-02 -6.319682661656758071e-01
2.648741963506759736e-02 -7.862425982794611634e-02 -7.312241819838112278e-01 -6.610348869146848161e-01 -5.057882170004305289e-01 5.542663239140683817e-01
1.478501468474478255e-02 6.278214733761824928e-02 -5.543769687850750305e-01 9.822343099436776914e-02 5.841219544010270992e-01 -8.057007508935429829e-01
-9.940246795657350573e-03 2.544396398206928353e-02 -5.957314358236599494e-01 5.852957508997532754e-01 6.548867407283911479e-01 -4.780713762576032089e-01
-4.748678932808230585e-02 5.293217459709475409e-02 -7.685582469936093064e-01 1.226419857509356143e-01 -6.919829152195032806e-01 7.114201208676804722e-01
-5.560497053868782708e-02 -5.727910008362170624e-02 -8.217918249853602974e-01 3.561909517984205853e-01 -3.203616069668962507e-01 8.777792698842479258e-01
-3.650484756725838609e-02 -2.309986986769341499e-01 -7.490822097048921435e-01 5.766001234124460417e-01 6.894796314846772523e-02 -8.141120783150371798e-01
2.580974037103803478e-02 1.039166894380681716e-01 -5.900015938935806448e-01 9.683811603097744469e-02 -7.036065185426355617e-01 7.039604011220254032e-01
-4.356560751790618247e-02 -9.834625855967811525e-02 -7.277725883948422680e-01 6.562441525513225127e-01 -8.487814037301120995e-02 -7.497595037937271334e-01
3.253828556719670639e-02 1.012509306674270887e-01 -5.252403998458995416e-01 2.113137469428540416e-01 3.881398908589070995e-01 -8.970473373668790273e-01
9.608145324439881785e-02 1.881146341482676232e-01 -5.030937557909398450e-01 2.680529733017510130e-02 6.948808085312774274e-02 -9.972225843082324070e-01
3.467994329563577754e-02 5.749386595590993965e-02 -6.338169613285443704e-01 -7.870453364586679212e-01 -5.213968643225159738e-01 3.297043345685797266e-01
1.822619709096684817e-02 -1.820376560464205540e-01 -6.573340974671335601e-01 5.734883375494856939e-01 5.673446332627476441e-01 -5.909578612749690762e-01
4.814984466524432211e-02 -1.623426587919695463e-01 -6.458470063131256378e-01 -9.055182337863251218e-01 2.406941223294814525e-01 3.494324938475740217e-01
-3.189721281973191547e-02 2.781516098203351550e-02 -7.728513745288583259e-01 -8.297524818379313771e-01 9.507458211132517600e-02 5.499742200504948997e-01
5.454180922116302031e-03 -1.634257449926088471e-02 -7.325383751431485679e-01 -8.160936812310233268e-01 -5.047368153193210888e-02 5.757113086672955848e-01
-3.616803742696125118e-02 -2.725479395781207348e-01 -7.926134007907640333e-01 8.004296076118845304e-01 5.993064858562158204e-01 -1.200746721660959568e-02
-1.233980167506545282e-03 1.070327749640211448e-02 -7.265038999053413660e-01 -8.179166663464336740e-01 -2.160828426553890458e-01 5.332171527836506719e-01
-4.257809726066229955e-02 -1.919858462748409156e-01 -7.667280928715524135e-01 9.044321459536120988e-01 -3.004740977214610531e-01 3.028494840085049211e-01
1.019632379926640499e-02 8.321687489917429029e-03 -5.524225885961063787e-01 8.982249470302615668e-01 1.716182188453103247e-02 -4.392008838812682114e-01
-1.395991878911330072e-02 -2.767445801909919623e-01 -7.928614935763376170e-01 -4.665825349152077917e-01 7.951268044220092257e-01 -3.873939893722444516e-01
-5.049240072086510350e-03 -1.632672950727079297e-01 -8.019878389193314527e-01 -8.265331586117204976e-01 8.210233382238636690e-02 5.568681571936484609e-01
-6.564036966298820996e-02 4.943351188935388857e-02 -7.371707740620300209e-01 9.746835536050353355e-01 1.813549558145248486e-01 -1.307759547216985063e-01
-7.141354629140503341e-02 -5.298604815251660438e-02 -7.547854451458286817e-01 9.588429542091900792e-01 5.456321540939803455e-02 -2.786450155441158039e-01
-7.026844116459664280e-02 8.738470337565786006e-03 -7.785381504834567590e-01 9.100279457338062983e-01 -2.632410057049420216e-01 3.202394586851518565e-01
-3.004015769446031700e-02 9.775131545465837180e-02 -7.021274053029572526e-01 2.935366500690235747e-01 -9.413958982293233468e-01 1.661625645663337147e-01
4.557293218809940760e-02 -1.025144262795110728e-01 -5.517298781726371892e-01 7.531939030748981967e-01 5.121935467161160549e-01 -4.127429164421442254e-01
1.314122843918663075e-01 1.917876539997878660e-01 -5.294302983112862959e-01 -8.995736788304364850e-01 4.345513662353741591e-01 -4.395800789895285693e-02
3.997727549585586987e-02 5.106538184560348304e-02 -5.474241828200580029e-01 -6.659290006649877247e-01 -4.463058406078377893e-01 -5.977873055800547730e-01
-6.782268344455127940e-02 -1.257230892297223068e-01 -8.142587087667241263e-01 6.710056633561659600e-01 -5.925205744073787084e-01 4.457249921733149600e-01
1.032875025614572728e-02 -8.406112183984233710e-02 -6.322335606494219329e-01 6.626292667599750219e-01 4.411494311326156770e-01 6.052351891988000387e-01
6.327815695135748097e-02 1.055359249917783987e-01 -5.380625924559571116e-01 -7.347974257816812793e-01 6.388314804784394063e-01 -2.279628974511859751e-01
-5.342582514828092544e-02 -1.230380859422664369e-01 -7.443504319604496988e-01 8.141276317471847213e-01 1.973011009432324159e-01 -5.461396110815518457e-01
1.289478936051407197e-02 5.901256835612707363e-02 -6.876345977316339342e-01 -7.446749846905164061e-01 -6.036048964645305270e-01 2.848162497825965644e-01
4.399340991538841505e-02 -1.110716770226673894e-01 -7.082722770967757597e-01 -9.745656498175251370e-01 -1.161606852999111650e-01 1.916467828751632352e-01
-2.536689852127954961e-02 1.482584829620402656e-03 -6.641720736874627828e-01 9.902445028951892825e-01 3.929393887129142837e-02 -1.336854923087713587e-01
-1.710319164474894543e-02 -9.597493439693879913e-02 -6.761565296741959274e-01 8.684023131241007665e-01 1.016970036103051617e-01 -4.853196287163711875e-01
3.298893131074442930e-02 6.460071549383174239e-02 -6.268696437490507423e-01 -7.783161387780214158e-01 -4.922258579898433073e-01 3.897918583601180931e-01
2.527559528222244473e-02 9.831611281485787279e-02 -5.285746129401556193e-01 4.219916629133835806e-01 2.783388809644141704e-01 -8.628154517479823538e-01
4.069734032306323440e-02 -3.541875846418020279e-02 -6.921911572243844013e-01 -7.390910277046056631e-01 -2.980480857934511563e-01 6.040792922468118942e-01
3.667516378750885347e-02 -1.705687009437464596e-01 -6.348363767790623502e-01 2.529443242211812937e-01 7.031146481080111643e-01 -6.645667464297603244e-01
9.292662722175692655e-03 -1.985325038354043281e-01 -6.897271352918880050e-01 6.828675539451896093e-01 7.205820498217031522e-01 1.202223491854414045e-01
6.588529479313887105e-02 -3.598521304810295418e-02 -5.592167408511986570e-01 -9.691363253464554406e-01 -2.444729877497522352e-01 -3.174493904040114056e-02
3.174845587941938635e-02 -1.808736379013906881e-01 -7.095644590451750666e-01 -8.392089396376970489e-01 2.839084727858227075e-01 4.638149789653131516e-01
-4.379505585679181745e-02 -1.353855777678758532e-01 -8.341035740561105749e-01 -2.097702574720910484e-01 -6.680021850684927931e-02 9.754661295439887025e-01
4.149773816553090772e-02 1.375888286216406069e-02 -6.585616702963033031e-01 -8.208793812506640641e-01 -3.255428792217959222e-01 4.692322188698360708e-01
4.478436498409395922e-02 -1.299842950868412006e-01 -6.829032231177455392e-01 -9.834234289646719418e-01 7.998575767819339488e-02 1.627287249750696552e-01
-6.821950002683327408e-02 -8.238680362772357602e-02 -8.222471518099020438e-01 7.130888194591432638e-01 -1.876411165370280021e-01 6.754962227482125270e-01
-4.342119523674031409e-03 -2.214102870157671765e-01 -7.165280169208010363e-01 3.694808271743162398e-01 5.861725567465431164e-01 -7.210309647080377360e-01
6.154842068015374534e-02 -1.546313117996831084e-02 -5.920374086864289565e-01 -9.724228648998015645e-01 -1.415240550086048488e-01 1.853772199435076429e-01
5.119718093869213282e-02 7.587144360178125699e-03 -6.190978228228208868e-01 -9.635411563001701207e-01 -2.917987644108770845e-02 2.659642361796297205e-01
-2.109560862466513392e-02 -8.744533678780501418e-02 -7.960189496965924816e-01 -7.060943768639614815e-01 -3.921445900034313814e-01 5.896213628186605105e-01
3.406423719239592973e-02 1.153657567212242607e-01 -5.800731406367738430e-01 -7.946272407104969238e-02 -5.531769390629699412e-01 8.292653071075209992e-01
8.028545107720556906e-02 1.547102475903234242e-01 -5.577752087040929174e-01 -3.658182675368391590e-01 1.151021320024852093e-02 9.306151245968604657e-01
5.611273685463403355e-02 9.051716153482643190e-02 -5.602019243526645820e-01 -9.148568966739368813e-01 4.028723032985924712e-01 -2.703268101798990061e-02
5.097833788595181048e-02 2.659605253126890931e-02 -6.172952446612134381e-01 -9.969712879863324995e-01 -6.521059378099140769e-02 4.237722725242094174e-02
4.699255919708519857e-02 6.446893900580358272e-02 -5.943030168589166218e-01 -9.806035026067758675e-01 -9.818611783176106611e-02 1.696356594011124985e-01
6.008054840565624916e-02 -7.751981913612290831e-02 -5.318251055601455057e-01 -3.673600303622865382e-01 3.888425390473198018e-01 -8.448953118105541060e-01
1.125463414247667056e-02 1.909385593573107321e-03 -5.505011527759566814e-01 8.980487968544694777e-01 1.638139518732043345e-02 -4.395907282461227195e-01
-1.870458711890386023e-03 3.651386785810294133e-02 -5.775324100710245157e-01 7.630452645256279309e-01 2.485176087368128062e-01 -5.966581286069525536e-01
5.841732181410719260e-02 -5.316530203038283969e-03 -5.811869808744555277e-01 -9.554574926486892883e-01 -2.902279344059361943e-01 -5.356048759993958797e-02
-2.592393402622394580e-02 -1.108285121096649894e-02 -6.723715453219245575e-01 8.668602737141911652e-01 2.932970042729745597e-01 -4.031502612434428867e-01
2.338850823553330089e-03 3.307315348891907286e-02 -7.135369717627587649e-01 -8.487730919371250238e-01 -1.068031589300167256e-01 5.178584011542748389e-01
9.645801153635000236e-02 1.493266556137663736e-01 -5.246094264135379159e-01 -7.435706001977887558e-01 6.328607767786594840e-01 -2.158471675436400283e-01
8.050578916210984759e-03 -1.056153245493661741e-01 -6.207465709875488180e-01 8.877508509823316407e-01 2.623994472449960869e-01 3.782128457174167568e-01
6.789593160375971548e-02 -5.245106607837498464e-02 -5.811494687306770768e-01 -9.545191423135281905e-01 -7.196213293511143083e-02 2.893348551081873499e-01
-4.186344193546102238e-02 -2.536794209874741468e-01 -7.908947602582269143e-01 6.194785111031742009e-01 -2.047556007384816745e-01 7.578400347353113631e-01
1.859597216144611570e-02 -4.924297731053373789e-02 -5.478923359096109502e-01 9.443160257462116514e-01 2.829035424050733161e-01 -1.680262753665058284e-01
-1.644233101541841754e-02 6.280349391358965028e-02 -5.773377210956504024e-01 8.975201887749090224e-01 5.911180122693331096e-02 -4.369934847307898607e-01
-2.704599820277480728e-03 -4.190906150805626118e-02 -6.563643390371338704e-01 7.336894154223804199e-01 4.401683167613600900e-01 -5.176405071250086420e-01
4.010183579675728749e-02 4.102164688890480582e-02 -6.437323698612286149e-01 -8.406496171508645032e-01 -3.616533315366313173e-01 4.031316025475550902e-01
6.748538957527185078e-02 -4.335373935447561777e-02 -5.425746143737546490e-01 -9.924372304182463855e-01 -1.177142077753755151e-01 3.480961027613465458e-02
2.049626076364713390e-02 -1.824210026099838955e-01 -6.556470956540653150e-01 5.345348062333250549e-01 6.016422177603586441e-01 -5.935479616117798063e-01
4.909353001969206376e-02 3.238186060258823468e-02 -5.725890386238953189e-01 -9.682908756502701664e-01 -2.489457762815539543e-01 2.094709058575061969e-02
5.642762750948283196e-02 -3.362808979134948584e-02 -5.193003017487458628e-01 -2.297001527780341834e-01 1.966482805815599269e-02 -9.730627597186066735e-01
1.185785594615684953e-02 -1.765226089565833101e-01 -6.594455468158292311e-01 6.765444930295250181e-01 4.407715427976876543e-01 -5.899220253653604251e-01
-4.468333939769776435e-03 -2.547481042442417132e-01 -7.903691269907401340e-01 -9.806266481605886431e-01 1.705817267567485418e-01 9.629772278727563584e-02
-5.421910541832020841e-02 1.617802533545234164e-02 -6.963329841407023268e-01 8.485767418225851344e-01 8.552033238135164916e-02 -5.221147249284858738e-01
4.108785076822783593e-03 -2.377085593689325926e-01 -7.391977475356571459e-01 -1.931720554176387383e-01 8.924827270610723451e-01 -4.076262245039642407e-01
-4.125244360907607405e-02 8.604444197567139019e-02 -6.790765465175737647e-01 8.206658077759738656e-01 -4.979123535645957888e-01 -2.803407214715207818e-01
-2.312110348111891603e-02 7.095620814289957390e-02 -7.396256773688292263e-01 -7.543881536784883268e-01 -3.348842226328287985e-01 5.645804380433026015e-01
-4.095691758470235144e-02 -7.828003888501697261e-02 -7.131265146376574160e-01 4.869633741081894618e-01 5.888620799601338440e-01 -6.450644332639897671e-01
-5.875702277245928307e-02 -3.557098041939318195e-02 -7.216180342633119471e-01 8.528632146032917305e-01 3.204443315233541489e-03 -5.221245720319803718e-01
3.766263044801065798e-03 -5.093555291097455646e-03 -5.951254860067548558e-01 6.447572520637447901e-01 -1.750304812458496062e-01 -7.440782328129582623e-01
1.488975592289180049e-02 -3.244239296409390932e-02 -5.623847424494595737e-01 8.183414280811637243e-01 3.688062610372824790e-01 4.407938848325613224e-01
1.603073707220746894e-02 5.098548042645071124e-03 -5.421147342348616727e-01 8.356429011735838630e-01 -3.450137197110345749e-02 -5.481884685491907883e-01
-6.168232703779748943e-02 -1.668995764017663919e-01 -8.254250973036710848e-01 8.922789633812650001e-01 1.977394895362220018e-01 4.058784864774300227e-01
5.580149325827565149e-02 -4.101148580264800392e-02 -6.157893556967307669e-01 -9.757290786358908674e-01 -1.030458177741957332e-01 1.932209215990918494e-01
-3.137919837310182425e-02 -5.663095555864558484e-02 -8.015007290865310274e-01 -9.075850609340621045e-01 1.155994356440424864e-01 4.036410876609236587e-01
-3.066584469596914803e-02 -8.442874951877959999e-02 -7.173542410925608515e-01 2.513718843737389741e-01 6.907417459989517727e-01 -6.780029617049729840e-01
-2.691795891891204245e-02 -2.052598025479284161e-01 -7.322328121488376196e-01 9.536321732949608609e-01 2.620355120461977383e-01 -1.480644065378869112e-01
4.805185372976147201e-02 3.717313607737528919e-02 -5.722314938901139625e-01 -9.806518880148817896e-01 -1.957582394249317848e-01 -7.656566453688120775e-04
-2.856475487295235746e-02 -9.953836210957226274e-03 -6.624498788228625479e-01 8.644888331724616126e-01 -3.178352308107538771e-01 3.894095830556699167e-01
4.162141625303627385e-02 -3.268722610881360201e-03 -6.704812964749753412e-01 -8.021056392050514017e-01 -3.550608257482744667e-01 4.801649233069916201e-01
6.358849109199216088e-02 -4.823442305996992335e-02 -5.899921583581664297e-01 -8.801771766052947088e-01 -5.115838314496620742e-03 4.746177050863904512e-01
-7.201129961144547842e-02 -3.552344371858301431e-02 -8.035730033289828489e-01 7.923130106840402531e-01 -2.189232226848806528e-01 5.694846052968052241e-01
-4.433284679230380110e-02 -7.779318380680456946e-02 -8.207528511513547675e-01 -6.995869682899437114e-01 -1.801827875629390674e-01 6.914566051929318391e-01
7.761918063500787557e-02 1.332958469693539261e-01 -5.541682679772444997e-01 -6.933765564350701238e-01 3.856358062876328319e-01 6.086985919937151213e-01
4.750833134534513530e-02 3.963385530453505945e-02 -5.601353656082146415e-01 -9.749192789295050288e-01 -2.210233219989635456e-01 -2.609771453818119855e-02
4.563990779721636970e-02 -1.372169098595243386e-01 -7.029007764164466598e-01 -9.910798460807501709e-01 5.436968631781979172e-02 1.216744669281869529e-01
7.256375028120609638e-02 1.901377240181038042e-01 -5.165992378790412731e-01 6.914438676771729186e-01 -5.641409524762240890e-01 -4.512763716292387262e-01
5.873360975678854762e-02 -8.455775257188606620e-02 -6.324986554862159771e-01 -9.976559786665879503e-01 -5.440689510439820215e-02 -4.150226494917522851e-02
7.714755951570639349e-03 -9.819656248529043396e-02 -7.614909730036720781e-01 -8.168733104743665097e-01 -7.022971272828242018e-02 5.725257916327891605e-01
-4.912415165926845712e-02 -1.328576888395684510e-02 -7.070038499120834263e-01 2.990565760275753493e-01 9.027848494870127638e-01 -3.091030246881688592e-01
6.482004704442283216e-02 -8.478355091434557067e-02 -5.394138764434300848e-01 -7.573073824202904980e-01 3.385631335248668883e-01 -5.584447449386118478e-01
4.843286994591731488e-03 -2.323365474215107751e-01 -7.289499630358149407e-01 -2.804473232750907541e-01 8.259670626188067022e-01 -4.890068612368306811e-01
1.010011407730059263e-01 1.738875213066436443e-01 -5.514776033743432615e-01 -3.604979970177892290e-01 1.331582647988227563e-01 9.232064073986534503e-01
-8.578695387078857579e-03 6.427536181427126460e-02 -5.647187297082503221e-01 7.305472051107684273e-01 2.311561665315169101e-01 -6.425477474704103242e-01
5.144339802382925236e-02 -1.512493094479308298e-01 -6.445845132769996155e-01 -9.113948197017492925e-01 2.113625725153687740e-01 3.531081216291987457e-01
5.906299867503947421e-02 -1.133320138457324794e-01 -6.276712326498999905e-01 -9.956732550658347058e-01 3.607042862183731935e-02 -8.563698573421575644e-02
-1.019998065669612888e-02 4.936810690355566966e-02 -7.385788979064913384e-01 -7.463317137716081184e-01 -3.954576889923057670e-01 5.353523972446549983e-01
3.359084271594316856e-02 5.941369953314262764e-03 -6.761756475003873890e-01 -7.692303609719045587e-01 -3.649878743859322205e-01 5.244697353616051272e-01
-1.737268469198760545e-02 -1.100297941062079315e-01 -6.798490246998605269e-01 8.802387230152043385e-01 1.137717794052648529e-01 -4.606905389906785775e-01
-2.328654229732720141e-02 1.256348380717198752e-02 -6.252859191416670903e-01 7.012860059382342026e-01 4.706817705597730050e-01 -5.354032207018522005e-01
-2.131906447592303230e-02 2.447711865528844326e-04 -6.341924565588559215e-01 5.539389909297116610e-01 5.540272723473188554e-01 -6.214542427429090576e-01
2.461800309276284196e-02 1.300173559687499147e-01 -5.637081770771154021e-01 5.639027753876619808e-01 -6.696695962762102550e-01 4.832766203049240206e-01
5.226048490445701217e-02 -3.012210663090343285e-02 -6.297775414650247372e-01 -9.825074311110508773e-01 -1.200059834676138887e-01 1.423998305600611969e-01
4.461404504546849503e-02 -1.391323412911053270e-01 -6.783348429111136779e-01 -9.687755476706202407e-01 1.454783990059944632e-01 2.007734386270813576e-01
-6.120910019570365707e-02 -7.506015570432413020e-02 -8.250867368772730748e-01 2.928300117032413552e-01 -2.257244365816098164e-01 9.291388825013160435e-01
-4.863153406139784224e-02 -2.538144335555067577e-01 -8.127311280845262997e-01 7.916435293970531806e-01 4.040653129940744437e-01 4.582922050382020607e-01
2.898147330005709787e-02 -7.512654926355435969e-02 -5.559474702593658613e-01 9.246627512291412110e-01 3.718625871529496751e-01 8.195738383617554024e-02
-1.727213113405571404e-02 9.991348062833062260e-02 -6.537639546531384127e-01 4.035899311627239583e-01 -8.830033920974341699e-01 -2.396250759175519163e-01
