-1.344839040589432266e-01 1.358428005716596967e-03 -8.982049647618453037e-01 9.414978696191056429e-01 -2.191276450470804604e-01 -2.560563154440959610e-01
6.503686737685196451e-02 -1.762477475149668293e-01 -9.888262508399425776e-01 -6.523489318024370265e-01 7.542321418633035623e-01 7.466423077024719746e-02
-9.245335612486589583e-03 -2.503979387389038691e-01 -1.036275892692100742e+00 -4.314998476240187175e-01 -2.290207220372619534e-01 8.725579581769795645e-01
-8.563424306155553722e-02 -5.903116421281070364e-02 -9.557564659683354114e-01 -1.085292852414141695e-01 -2.646005527415224989e-01 9.582316743532685033e-01
-9.116345390640459567e-02 -2.053358452029643011e-01 -9.732501352314563148e-01 4.762756746829825416e-01 5.967748242168376960e-01 -6.457718566848761332e-01
4.959440210639223801e-02 1.269252942603041508e-02 -9.298133696532407955e-01 -2.115683473548397031e-01 -4.763575212994419772e-01 8.534180372472762732e-01
7.935788596727327837e-02 -1.591624395547305837e-01 -9.773329172141219656e-01 -7.978147439270465435e-01 5.739091601101027340e-01 1.847157554577786298e-01
-4.401452437891302527e-02 -2.270418919154803539e-01 -1.028676428933307685e+00 2.371644293159448913e-01 -2.058894146546839943e-01 9.494011704229111670e-01
2.600790746027469014e-02 1.656810456093165407e-01 -8.585292761836963438e-01 9.068482228456381522e-01 -8.786975107145499064e-02 4.121955938245198681e-01
-3.561274892839909334e-02 -1.778362648192719220e-01 -9.719077762519355845e-01 -2.590559132569868472e-01 4.212028721606367876e-01 -8.691824746796376067e-01
4.338213986671595607e-02 -2.018544523957001569e-01 -9.795294463395102236e-01 -6.318718261186825336e-01 4.931244460823685505e-01 -5.979684573900185818e-01
-9.473602356972429805e-02 -2.089209680022858784e-01 -1.004772102274320567e+00 8.398866559061103354e-01 1.659963015555956656e-01 5.167549062183298680e-01
-8.601469692939710254e-02 6.385064312052513014e-02 -8.705286112039903879e-01 5.608766776265874388e-01 -6.403686579722869254e-01 -5.247335841942395440e-01
1.159788474297734628e-01 1.641224252550349191e-02 -9.132798987919124034e-01 -3.541933047915040711e-01 -6.253475515320610079e-01 6.953326848593619491e-01
5.758706833740432490e-02 -1.169205136902988149e-02 -9.424814090864434002e-01 -2.801298097828974210e-01 -5.423097776817551452e-01 7.921031465041422637e-01
-9.539421378254289707e-02 1.391955201992784927e-02 -8.642288379081675131e-01 7.212430306064374075e-02 3.646399326114115325e-01 -9.283511213184165722e-01
9.161944674517666365e-02 -6.954332934387726095e-02 -9.025876886621707618e-01 -1.840511142218968429e-02 5.497857146790490201e-01 -8.351029396477921418e-01
-3.291251677320228795e-03 9.557603380783774583e-02 -8.539931108101176394e-01 3.093182431786301589e-01 -7.142592282684884220e-01 -6.278184285844031765e-01
-4.789087290711605688e-02 -3.677015025109017093e-02 -9.523800947175519171e-01 1.686014501354840545e-01 -2.049726364191107042e-01 9.641368001127281762e-01
1.133053480144417119e-01 -9.103745453701416607e-03 -8.691800591886688077e-01 9.747904312345654493e-03 5.589883002921336441e-01 -8.291182415663210792e-01
-1.965185011343529090e-02 9.237252971401548052e-02 -8.594368228994591075e-01 3.522468300438443278e-01 -8.680871130893166310e-01 -3.497812670974805305e-01
7.355630827959712403e-02 -9.941124887534293075e-02 -9.354159064801691459e-01 -4.512265814009457920e-01 3.652335711598785756e-02 -8.916617164722244748e-01
-1.107120847114117929e-01 2.189314165324646524e-02 -9.141878165146080093e-01 3.584617622633700096e-01 -5.004408743470852849e-01 7.880761995376867057e-01
5.638150488898730633e-02 -9.089429958542057097e-02 -9.783416127713622235e-01 -2.367427905270141908e-01 -3.110042818726428404e-01 9.204505352219445324e-01
-1.287579059383244517e-01 -3.037799367271122250e-02 -8.945772993508693816e-01 7.316821844643810469e-01 3.974532510687416725e-02 -6.804862159291549251e-01
1.199498540911421024e-01 -1.010641205512914365e-01 -9.544771117150587791e-01 -7.979588066406156921e-01 2.482193748251542986e-01 5.492257139520090314e-01
-3.579500029482862722e-02 8.797615561306655618e-02 -8.650748754438989385e-01 3.324845840418164111e-01 -9.093461475196370492e-01 -2.500871555392933376e-01
3.024098557196459522e-02 1.862391281299058399e-01 -8.638224551049517030e-01 8.998525122394286369e-01 -5.898197693912624745e-02 4.321881333548404092e-01
1.525841776820296425e-01 -3.064403253322315647e-03 -9.015640609374705461e-01 -9.585520165701828521e-01 -1.790162967830239704e-01 2.216555819629370538e-01
-1.244041084213129977e-01 1.715512227182253852e-02 -9.098615110520743565e-01 5.490536732552361299e-01 -4.774573310829362538e-01 6.859843736413328008e-01
-8.902047839260936180e-02 3.780005803104895257e-02 -8.609551245952169474e-01 3.411273232144343415e-01 -1.238343513137914603e-01 -9.318246631160002069e-01
-3.138823376205381044e-02 -2.849720468410491536e-01 -1.030786459183090864e+00 7.164793051521402001e-01 6.231344594646032187e-01 3.136253349403763102e-01
1.380856378464835783e-02 9.383890737778681230e-04 -8.754818604274321459e-01 -5.718257827844943630e-01 6.163481076279863080e-01 -5.414150758579782119e-01
-1.431724456428822567e-01 -3.963465770259348708e-02 -9.172548356270135983e-01 9.139166358277607261e-01 1.290152408411818219e-01 -3.848525047183141146e-01
9.143532484512133240e-02 6.240227622777112099e-02 -8.840733945065676336e-01 -2.175612141858946913e-01 -6.557977354090052113e-01 7.229083263556862482e-01
-5.079674813747683121e-02 3.215733658247366469e-03 -9.319640128578167149e-01 1.853644319586037204e-01 -4.217585761413462642e-01 8.875582971365251206e-01
2.385122106341034526e-02 -5.122099803798545181e-02 -9.696387183006827115e-01 -1.518107417066417164e-01 -3.643927242295242896e-01 9.187880284543684661e-01
-4.962157140075088013e-02 -3.088011958695847242e-02 -8.810055539174339589e-01 -2.150800606680882965e-01 3.818274134529780484e-01 -8.988594961610072431e-01
-5.534666640892678055e-03 6.501188104415639435e-02 -9.038688569874120393e-01 1.666023383460702167e-01 -7.121829436669712132e-01 6.819377652010989443e-01
-9.022740826515120161e-02 2.531519142822350604e-02 -9.204661233657011055e-01 3.183951200584854702e-01 -6.307858337381422320e-01 7.076254514064762580e-01
-4.100839771998821687e-02 6.060816830918717979e-02 -9.015514019382601107e-01 9.748904484805907822e-02 -6.460486589918316147e-01 7.570449236006203675e-01
-1.344880002014923776e-04 -1.109577017983584407e-01 -9.978488118950347152e-01 -1.909991951711333402e-01 -3.022748212241187504e-01 9.338893081612543723e-01
3.974641145494030303e-02 -7.496854467599835259e-02 -9.169933036994469822e-01 -3.262229679260693072e-01 2.043065187636010083e-01 -9.229503895595932983e-01
7.388265802446722375e-02 -7.791351945876509588e-02 -9.114139148840799676e-01 3.371513128632532830e-01 6.830414840532799126e-01 -6.479068785688862908e-01
3.419728800632000631e-02 5.948309246591048510e-02 -8.340427114458996982e-01 -4.910606691420276171e-01 4.739157228882832640e-01 -7.309331753457767311e-01
-2.960160560684743300e-03 -2.066886104038214433e-01 -9.789650937969661681e-01 -4.888052443056010721e-01 -9.914297017006531987e-02 -8.667410827953173635e-01
-6.423536263114436318e-02 -1.975846905453005620e-01 -9.648551235802818038e-01 -6.739193851456631856e-01 7.161243059367500274e-01 -1.816552800540060519e-01
-8.913788207255245177e-02 1.186126321310567756e-02 -9.255126327215524862e-01 -2.595116234125871002e-01 8.132846640254802473e-02 9.623094085928771690e-01
-3.540346407669264089e-02 -2.629254046824519020e-01 -9.943406130495525685e-01 -6.919039510107749535e-01 3.110438379350310978e-01 -6.515524947832871394e-01
-7.960486807092911898e-02 -2.151332233161332430e-01 -9.776001324804171055e-01 2.446148064122746074e-02 7.768491606910825631e-01 -6.292114251175032758e-01
9.478664142749636257e-02 -1.342276801343547377e-01 -9.728859260334079551e-01 -6.850888045529190951e-01 3.408554048844848472e-01 6.437941618539934074e-01
3.063778905236374736e-02 1.727009525127073675e-01 -8.322143470494753892e-01 7.790415439087943206e-01 -1.982680810257121118e-01 -5.947974789040246790e-01
-7.157950638000731836e-02 1.941235188041929086e-02 -8.689316291621025368e-01 -3.986860136081428196e-01 8.116465639848651215e-01 -4.269418200701470267e-01
-2.111722980116120818e-04 -6.413936538926559572e-02 -9.814085445752539494e-01 -1.268823582082234669e-01 -3.636948339662528507e-01 9.228363532727672514e-01
1.490686873456037731e-01 -4.111440611332674647e-03 -9.085306496856070391e-01 -6.980450424041165780e-01 -3.516457859856034207e-01 6.237614607953927415e-01
6.644888119997049980e-02 1.430587563930156014e-01 -8.253258129361797923e-01 -6.386048574878704365e-01 1.158583841943833515e-01 -7.607632159908648273e-01
1.499677437047702011e-01 -2.958628324305518850e-02 -9.205250921701704225e-01 -7.954708690679317407e-01 -2.541885374475957304e-01 5.501038846386760994e-01
7.455479072464173129e-02 6.396748363985432784e-03 -8.769114330752579844e-01 1.882167320146397871e-01 4.590904562817935131e-01 -8.682225606033882048e-01
1.157841396076207674e-01 -8.092274832757632985e-02 -9.149681965417558738e-01 -3.002050032727534012e-01 5.788577713113362000e-01 -7.581560766771434645e-01
5.929884352349469590e-02 6.112306225693630440e-02 -8.448570180651144845e-01 -7.295291584910972710e-03 1.046997140775106777e-01 -9.944771232123835736e-01
-2.096939276355955575e-02 3.371007455420682586e-02 -8.605830970671947133e-01 2.516038556903981704e-01 7.092057183149657051e-01 -6.585763045472244892e-01
1.924799186640454782e-02 -1.339953195574238587e-01 -9.537364664662075775e-01 -2.044407812846602279e-01 4.004774674260246914e-01 -8.932086906382823432e-01
-3.219193555635784659e-02 -1.622519919401370081e-01 -1.016787940188513595e+00 2.330996444371529752e-01 -1.364372976852994690e-01 9.628340560883821286e-01
-5.074876113596907962e-02 3.655697958567150074e-02 -8.566409308102549414e-01 -9.562133609541255408e-02 4.893234237066277359e-01 -8.668443615178863526e-01
5.389891653929290011e-03 -1.839210109121863085e-02 -8.871511873103975487e-01 -7.231143060898256314e-01 5.151440910201762202e-01 -4.601437447311726436e-01
8.097094480403910222e-02 7.020458731429737864e-02 -8.478098227782330243e-01 -2.736848187405622190e-01 -2.120466291709307283e-01 -9.381539570071596446e-01
1.349423517681522591e-02 3.089496046692851577e-02 -9.309076262923776657e-01 -7.555546249090525079e-02 -4.931265633425152006e-01 8.666703898332892564e-01
8.478974900852986885e-02 -1.122048990018040399e-01 -9.428442564764055733e-01 -4.863190857545322543e-01 1.553003005822540250e-01 -8.598695037445724942e-01
-1.037267096003103156e-01 -1.721260762805693068e-01 -9.635315065709449955e-01 3.222346249847989341e-01 6.248029541969384315e-01 -7.111864135989128810e-01
-2.760918548370628472e-02 -1.668539858653916574e-01 -9.617638913142012580e-01 5.440304272026164067e-01 7.453321939525706652e-01 -3.853710094643683082e-01
-1.279263984670586662e-01 -1.471230981195643661e-01 -9.575411348876188278e-01 9.049728938371884857e-01 3.317867547821518048e-01 -2.663486639183178517e-01
-1.212955558400026085e-01 -1.130895275526999921e-01 -9.299238084430538898e-01 7.551404597269770758e-01 6.384790897857265529e-03 -6.555319370774550514e-01
1.298924364882052609e-02 6.716840471012899827e-02 -9.067222309877673858e-01 2.001159215455912965e-01 -6.877493425325670318e-01 6.978212233731361236e-01
-3.992128934712720761e-02 -2.644410264070895522e-02 -8.818865747327184756e-01 -2.895499734649689683e-01 4.223559062547550536e-01 -8.589390556483970096e-01
3.731162278585459929e-02 7.502617007140301164e-02 -8.271259893671834007e-01 -3.200825936121818871e-01 3.608017089403347533e-01 -8.759961530122335471e-01
-5.070455641863211294e-02 -2.212918293245881921e-02 -9.472589544718812427e-01 3.030641316933652130e-01 -5.213263089557351737e-01 7.977286579229403429e-01
-1.079042166117894219e-01 -3.213018457281956869e-02 -8.809546516148711870e-01 3.810107023300235984e-01 2.735813439834688388e-01 -8.831670809842160352e-01
4.613114271417463608e-02 -2.104182559971483901e-01 -9.954769143933300812e-01 -8.864534622117676843e-01 4.624819456068884338e-01 -1.762694869899346373e-02
3.824262753642346246e-02 4.798123048843597888e-02 -8.461110013777251027e-01 -4.399796717945134161e-01 4.654654251135453835e-01 -7.679582191964994253e-01
-2.124198949213255971e-02 -1.837936287062159335e-01 -9.722730352728498060e-01 -5.074676596625241759e-02 -2.553974267989998423e-02 -9.983849394335888583e-01
-2.555733314875988094e-02 8.181548739979958851e-02 -8.516183176379048536e-01 2.406357333425837575e-01 -3.663593459025767940e-01 -8.988188212918735154e-01
-3.005579362011399913e-02 -2.855149593313650036e-01 -1.032751728685254777e+00 7.164793051521402001e-01 6.231344594646032187e-01 3.136253349403763102e-01
2.040118073439771418e-02 -2.498319702054194180e-01 -9.920527022594516353e-01 -6.966403066648586551e-01 4.484415049647526574e-01 -5.599933033124944171e-01
8.213912288810532036e-02 -1.242298953605428941e-01 -9.785459693258491409e-01 -3.204054075092500620e-01 -1.361688070041527088e-01 9.374424946832189409e-01
1.727306188473972173e-02 7.828527306723620516e-02 -8.970742172080965471e-01 2.380144138628357275e-01 -6.558449381446558313e-01 7.163913427056215477e-01
1.210196298315822060e-02 -2.191258300424322736e-01 -1.020865798927208745e+00 -2.484073697340473119e-01 -8.402857262614082945e-02 9.650041334855646857e-01
-3.328477581011760663e-03 -1.194399422828296281e-01 -9.392461532782048206e-01 -4.832989543886205275e-01 -9.515281655028916263e-02 -8.702689596839663366e-01
5.022137927423907938e-02 1.099451946904281413e-01 -8.228081762489328765e-01 -2.561872891826338372e-01 1.486107399225447823e-01 -9.551350275437119342e-01
-8.376888417722140601e-02 -2.006451136943812261e-02 -8.729866381776978379e-01 -2.930645060802685928e-02 3.271422218149859229e-01 -9.445205655033213077e-01
1.285551378093077457e-01 3.203286054739419575e-02 -8.640590220003239175e-01 -5.518725738518834856e-01 -3.113193029798854219e-02 -8.333471456398099386e-01
-4.395427159496327618e-02 -2.684295720124809104e-01 -1.032166357502491971e+00 6.252988899328295602e-01 2.630941987920973890e-01 7.346990818088149355e-01
-6.566735017690823739e-02 -2.436305553342538177e-01 -9.846194689732192806e-01 4.306813713435734825e-01 5.666965354025851331e-01 -7.024020167541699111e-01
-1.090397151205851761e-01 -1.383658198441075626e-01 -9.343049032457686476e-01 4.052373661212942957e-01 4.361631373784672916e-01 -8.034577740561404946e-01
-3.516119551554175438e-02 5.204468856866416304e-02 -9.113583794791763060e-01 1.656267101030635680e-01 -7.740946153323542411e-01 6.110199009965959771e-01
3.070738133197113695e-02 -1.445692085513342884e-01 -9.568923124109960376e-01 5.941481767386184165e-01 6.739354255305095576e-01 -4.390888136734825697e-01
-1.136518604697438622e-01 -1.224587739854549467e-01 -9.738084079981267349e-01 1.862514920316084288e-01 -2.739736099300753569e-01 9.435299903966394286e-01
-1.297924685143788878e-02 -1.098464877693370728e-01 -1.001188715982539446e+00 2.492760702984610569e-02 -4.107923830442791191e-01 9.113880800408614702e-01
-6.479608228183697180e-03 -2.220029126005005071e-01 -1.027978911143178076e+00 -3.858609184651546897e-01 -1.907412926743813908e-01 9.026234601815604774e-01
7.464965823168721870e-02 -1.653684761527339231e-01 -9.767703270583379949e-01 -7.427339299807463879e-01 6.616214399652434741e-01 -1.029727120827343828e-01
-7.494976103386931376e-02 -5.937258717262233060e-02 -9.546369554529958723e-01 1.879550336502937638e-02 -2.699446141235205543e-01 9.626923882315464587e-01
7.739520926340782980e-02 1.797663526045537030e-01 -8.440058288755251104e-01 -9.934040077205149588e-01 4.080213916779800581e-02 -1.071618536800800353e-01
-5.111914458128729438e-02 6.301271133862371143e-02 -8.986115254806686936e-01 6.592788387103803993e-02 -6.231092800738409210e-01 7.793512296866841327e-01
7.804652729775581055e-02 1.890081576449353928e-01 -8.472693682027510054e-01 -9.952371785997823350e-01 1.071817629521884009e-02 -9.689209993415208444e-02
4.447520202818298907e-02 7.780120072292028011e-02 -8.911474127859804195e-01 -4.479027316498611078e-01 -5.416375639640167439e-01 7.113451288114076565e-01
-1.030250436968412203e-01 2.037039173021613567e-03 -8.711403249041256291e-01 -2.923926171997053847e-01 7.111769959362608251e-01 -6.393229527071446761e-01
3.552837244748151962e-02 -4.091552619333582719e-02 -8.938004913595710699e-01 2.640443523177481988e-01 5.833327075552168228e-01 -7.681168741183861393e-01
-1.311233771526664482e-01 -1.381197672608601990e-01 -9.621367666729854218e-01 9.782090175531890086e-01 1.948944920993393171e-01 7.157691615992683998e-02
9.533362255458979252e-05 -2.017159737400768538e-02 -9.606480657297651327e-01 1.827288446942114120e-01 -4.412824083523539942e-01 8.785670181582421190e-01
-1.090240602730038894e-01 1.942123297963949807e-02 -9.166628626301857041e-01 3.474415776019623703e-01 -5.300298215674850155e-01 7.735326356415734850e-01
-9.305090705056097422e-02 6.046149882886849708e-02 -8.748462790985747084e-01 6.367197048388404390e-01 -6.597328554192916084e-01 -3.991748701387001774e-01
-3.741095366788298356e-03 -2.687661455905887564e-01 -9.938560068476837150e-01 -1.693273601799307193e-01 6.794652246147312447e-01 -7.139014313150999769e-01
1.991908911226852354e-03 -2.377996945956234454e-01 -1.027576928420956603e+00 -3.968004987667548278e-01 -2.416991936261814744e-01 8.855116396631429465e-01
6.260912525427007880e-02 -1.363146364743793304e-01 -9.450222616796866149e-01 -1.814529029485597855e-01 4.464114269092652743e-01 -8.762372292572224719e-01
-1.221243272629170089e-02 -1.557179933288798390e-01 -1.017600556551221169e+00 -1.940896338588684045e-01 -7.428665013427611374e-02 9.781670141853885392e-01
6.611600805002265657e-02 -1.169131730225124177e-01 -9.827738930449474442e-01 -3.168682555093081388e-01 -1.855237924757304202e-01 9.301480694362105339e-01
7.059545059021989089e-02 -7.543230102998797759e-02 -9.700944862148177528e-01 -1.319547641613799671e-01 -2.960826549806820362e-01 9.460037006453541064e-01
9.192852886235630683e-02 -7.378971841868904591e-02 -9.053900889795412077e-01 -1.840511142218968429e-02 5.497857146790490201e-01 -8.351029396477921418e-01
6.869535010977638467e-02 1.262624684599027991e-01 -8.337911087049872938e-01 -9.005670492268633698e-01 2.365407370780775176e-01 -3.647293099675155692e-01
5.343677786422170589e-02 -6.103540893402487066e-02 -9.684552971947035793e-01 -1.332266490991463881e-01 -2.965099797882290167e-01 9.456915416010640563e-01
5.392534015512547713e-02 9.944362440859513819e-02 -8.270990533926100285e-01 -6.350299061687233459e-01 3.004639412867172177e-01 -7.116589339408272430e-01
-5.495873596567347336e-02 -1.887566085306350283e-01 -9.670794399285804754e-01 -5.799326469122063621e-01 6.681437067890635406e-01 -4.661138403046748979e-01
2.511970729517335257e-02 7.346502548189620674e-02 -8.262403081393959736e-01 1.450383482828717652e-01 1.748738842855614706e-01 -9.738495787965697481e-01
7.697933549457351698e-02 -1.424191885915286875e-03 -8.779377644722795582e-01 -1.848308991131740742e-01 -4.406993976966976090e-02 -9.817817370178126835e-01
1.695853200017009149e-02 -3.824589961180322600e-02 -9.091299145052704755e-01 1.193599510845386874e-01 8.186770431910719292e-01 -5.617126498744888785e-01
-2.750659137656611894e-02 -1.392085070118506129e-01 -9.440159363347491173e-01 -5.959749665671125463e-02 2.371086401932412935e-01 -9.696533561732076922e-01
5.855409441232366230e-02 9.229828239433991721e-02 -8.429204929815005132e-01 -9.119743382096187068e-01 3.242163019271222524e-01 -2.513694412847936599e-01
-1.122365575790651854e-01 -2.869242625632802482e-02 -9.343013721191585352e-01 1.973235416709250567e-01 -3.200535550162014187e-01 9.266224375785069300e-01
-5.206248226471798385e-02 -4.379872471786653426e-02 -8.956401673028467902e-01 -4.638981762442208612e-01 8.526671679304919094e-01 -2.403272410915581192e-01
-4.793264547411951043e-02 -3.139102275023399752e-02 -9.514610220143736585e-01 1.184101381608615167e-01 -1.250862404853265442e-01 9.850545526121752271e-01
-1.779271766467872135e-02 -1.646843051356804144e-01 -9.475179206205981419e-01 -6.526787887862219029e-02 3.690819117161228680e-01 -9.271022847726444471e-01
-3.903580168736488221e-02 -2.187495473331519114e-01 -1.028423307961405575e+00 2.839701424847507760e-01 -2.011393519016169418e-01 9.374987569558627110e-01
1.060722556941853939e-01 -1.181031793476750025e-01 -9.532113156013137800e-01 -4.661267344717123784e-01 7.875343163201943275e-01 -4.031321967156948904e-01
-1.036513779672950247e-01 -1.095560351682978301e-01 -9.716531075302713427e-01 1.484134483261844994e-01 -3.372993220794824332e-01 9.296249865836503368e-01
8.072625558697907322e-02 1.257358687936151014e-02 -9.245950050463772607e-01 -4.220785488622969678e-02 -3.220423961253034983e-01 9.457839034810097134e-01
-1.101845669401285005e-03 -1.494164962678095621e-01 -1.009399580532543084e+00 -5.329233288054603390e-01 -2.272688278187504629e-01 8.150715339875379550e-01
8.525517887506590953e-02 -5.699589628864060176e-02 -8.949930255161763215e-01 5.147066925791538711e-02 5.189839034708554344e-01 -8.532329565507277280e-01
-9.304713113216089848e-02 -1.684808933601180947e-01 -9.517192561811075313e-01 7.363078935827783722e-01 -1.358866428260065429e-01 -6.628616040691822642e-01
4.754516396536533768e-02 2.507539224307385739e-01 -8.898344605388018858e-01 4.985024885671171524e-01 9.566669205481813376e-02 8.615933802691845278e-01
3.815894465451263179e-02 2.357801742369094455e-01 -8.792535334647764156e-01 7.486091039524808144e-01 1.039013791828027750e-01 6.548197560270880846e-01
6.034032459172102708e-02 1.953380494600759354e-01 -8.765684428210612777e-01 -4.073404856096076165e-01 2.250640135714625512e-01 8.851101166399769626e-01
7.258722545662069092e-02 1.935191702778857048e-01 -8.670192767957994873e-01 -7.529133228748509099e-01 1.534345486608288678e-01 6.399838806679416514e-01
7.464416509846630299e-02 -5.694376200907202978e-02 -9.642517245470025866e-01 -2.434452428072146346e-01 -3.632936315958789630e-01 8.993064833505950428e-01
1.408750907782202640e-02 -1.412649571616497457e-01 -1.002705603890486463e+00 -2.017311313724107769e-01 -1.197525133506768397e-01 9.720925296397473492e-01
-7.484449076742666351e-02 -1.653470967347135667e-01 -9.434830490786061397e-01 1.809104821275164254e-01 3.298964189720861584e-01 -9.265202373428133020e-01
3.262884575796294595e-02 1.920967010351659898e-01 -8.672633681376954451e-01 8.079268775001103853e-01 6.379290943372860866e-03 5.892482204130796708e-01
-3.121161003515607324e-02 -9.433347987840060012e-02 -9.865835321333410457e-01 1.402984561735253488e-01 -1.933855750203694601e-01 9.710398357273332115e-01
9.990814386621797716e-02 -9.923309266122451455e-02 -9.698355284936187592e-01 -4.883214840205711837e-01 -2.520826132623806837e-01 8.354618389458345895e-01
-6.228306982018359285e-03 7.076545117459141776e-02 -8.978162585632808446e-01 1.413215828630730031e-01 -7.175610847976228168e-01 6.820075511320488060e-01
-1.102686356299440590e-02 2.088255708337739477e-02 -9.318228974637727813e-01 2.195126457397924002e-01 -4.991379746560261066e-01 8.382574071349425671e-01
-9.612666628699015337e-03 -2.949977933840054467e-01 -1.045458379186507969e+00 -2.016230162806172677e-01 3.941873944330041013e-01 8.966406511953521896e-01
4.069457565212254713e-02 1.841490010642913844e-01 -8.727155252557038390e-01 3.883312018692440803e-01 1.152861711047973026e-01 9.142800317226575935e-01
-2.798677251085589929e-02 -9.913942743989834216e-02 -9.259855347491156019e-01 -8.130701716499070253e-01 5.165619536851354665e-01 -2.684783864265178899e-01
-5.385230554339065501e-02 -2.062543175023077158e-01 -9.683285095458581404e-01 4.064707731031454441e-01 -1.112132315251325443e-02 -9.135960960863770408e-01
1.252592705046511601e-01 -3.059161494117140345e-03 -9.244983854859120109e-01 -4.012340569419824976e-01 -5.164709887824636692e-01 7.564845995100907272e-01
1.165506620247901276e-01 -2.565655183030493558e-03 -8.659482962158792096e-01 -1.285070355095051797e-01 3.820616482653670931e-01 -9.151583681250528013e-01
1.592723470486285056e-02 -6.720563316214121785e-02 -9.110805569111760649e-01 -1.150125228599094968e-01 3.026098354837392645e-01 -9.461497804543966827e-01
-1.143940573025197492e-02 -1.531724329058965772e-01 -9.446971691149893546e-01 -2.581146301622834205e-01 3.220617896288095472e-01 -9.108529197171604253e-01
1.062399063157010853e-01 2.815647039588824521e-02 -9.071690496714673868e-01 -2.953355133240849750e-01 -6.399482007225345548e-01 7.093963877562315945e-01
1.223985138374269616e-01 -6.625649031145838808e-02 -9.441160817048905862e-01 -4.178547924629242849e-01 -3.075428154030057093e-01 8.548770608162082896e-01
-7.295535905643805302e-03 -2.852017411141636316e-01 -1.012770877843356843e+00 -1.318464341396597683e-01 8.381194148174938574e-01 -5.293131061202225318e-01
-7.183479522918080618e-02 -1.772770773924846610e-01 -9.481233784467119063e-01 1.782880202404873160e-01 4.521401687812381942e-01 -8.739465942568808154e-01
-6.080363346903069725e-03 7.570563931161641835e-02 -8.927757504368074581e-01 1.571915633136767299e-01 -6.967319250990411383e-01 6.998967330762347894e-01
2.009608632434735365e-02 4.474581267949363089e-02 -9.227040382107241090e-01 -2.134765161924746801e-01 -4.190541707478694922e-01 8.825085716372047528e-01
-2.605454986411937651e-02 -2.415891400232851871e-01 -1.036294583574125294e+00 2.728612526142238370e-01 -1.460169090782008072e-01 9.509078814927580670e-01
1.247025119520368819e-02 1.087939793546655182e-01 -8.406364366354405204e-01 9.397304899412761703e-01 -1.996224440843626935e-01 -2.775923019330947539e-01
-1.281072101119064000e-01 7.660769924636807657e-03 -9.132955637271684690e-01 5.362063306396751550e-01 -4.580129563614354082e-01 7.090182668923227238e-01
4.464579725083910045e-02 4.599864395736791983e-02 -8.485989398685483964e-01 2.409748170823709096e-02 3.124873006801613951e-01 -9.496162373764190923e-01
-2.450406312381282412e-02 -1.148772538452306619e-01 -9.407935832138816235e-01 -4.002953034984094161e-01 2.646679258557104591e-02 -9.160039185982497001e-01
8.598418381529179810e-02 -8.198828216815440620e-03 -9.331288307442588970e-01 -1.556041118401316481e-01 -4.334059432923997313e-01 8.876635898228950605e-01
7.116483423663277907e-02 2.467576063483605808e-01 -8.809071828576451324e-01 -8.183122991343760866e-01 5.258655816050474691e-02 5.723632019847568753e-01
-7.750875081107433395e-02 -2.199452641535377673e-01 -9.829903382755210695e-01 1.324661288227977664e-02 6.932717336169040845e-01 -7.205545299385461844e-01
-2.486189638370994714e-02 -3.239605348030428350e-02 -9.565440063071382060e-01 2.564888423978200493e-01 -3.016945114729831512e-01 9.182558986864740591e-01
6.390664828405412390e-02 -1.345181674195000954e-01 -9.443757187403157838e-01 -1.814529029485597855e-01 4.464114269092652743e-01 -8.762372292572224719e-01
9.953904829410865907e-03 1.178278584889691505e-02 -8.602672284483825482e-01 -4.769293459723475959e-01 6.284828640992026205e-01 -6.144490934846044139e-01
3.682279458718928228e-02 -9.450408763258684453e-02 -9.855374296096912623e-01 -2.884711887040506961e-01 -4.411420969851206353e-01 8.498105809856938420e-01
-1.048071827851364685e-01 9.967457991919410204e-03 -9.253665170385694250e-01 3.518147538243155403e-01 -4.771160406802283926e-01 8.053487832716695882e-01
-8.751993386231934902e-02 -2.641001862896943941e-02 -8.750903446645983408e-01 3.473515022860925762e-03 3.163132581682311928e-01 -9.486484371991469322e-01
1.036178307089480888e-01 6.538358066827680559e-02 -8.766048738628996473e-01 -2.929722963514489464e-01 -7.557294311746500792e-01 5.856963892897057988e-01
-8.640927458169367359e-02 -2.221974738387830217e-01 -9.906549660359572629e-01 5.670772563697688007e-01 7.531680043035363648e-01 -3.334086720551276417e-01
1.618582571904556011e-02 -5.673922667160803679e-02 -9.086582825831834853e-01 -1.798401326479117934e-01 3.455272899156922040e-02 -9.830888238650751232e-01
1.993553158043471357e-02 -4.024132170793689317e-02 -9.113065681936334261e-01 1.832201770320572576e-01 7.086234014743268972e-01 -6.813833294198622381e-01
1.008462766308942521e-01 -1.019859272288271557e-01 -9.700578389915481825e-01 -5.167716353583479139e-01 -2.323386175525528619e-01 8.239938371631352343e-01
7.690556932358220965e-02 1.687846331936999345e-01 -8.463547732528978740e-01 -9.956196975013991146e-01 7.589193640989000400e-02 -5.460615290587400583e-02
1.152070711901569400e-01 4.238414976506992005e-02 -8.936309351165161452e-01 -2.268290027356917316e-01 -5.679234204406992115e-01 7.912089433473740163e-01
-5.448997289143094058e-02 -1.011848399504533258e-01 -9.096236748088012414e-01 -2.005780768428230831e-01 4.445013895798460846e-01 -8.730331893757651285e-01
1.286459385481885376e-01 -8.540315173853159358e-02 -9.290745665931581243e-01 -6.368085822903647442e-01 6.225920274990277559e-01 -4.548120455924462013e-01
2.751099368917261229e-02 8.161123371038772611e-02 -8.245701495347175225e-01 1.404282268613988860e-01 1.303216290250701070e-01 -9.814765336516280136e-01
-1.072103054212414780e-01 -2.192107341900479539e-02 -9.328296574768966121e-01 1.494843707447327807e-01 -3.012866348633825297e-01 9.417434823537405020e-01
3.154270677665655526e-02 1.796110176953435167e-01 -8.333564733115002010e-01 8.247405505742361198e-01 -2.084367476876971825e-01 -5.256968198989612207e-01
3.713980446601321955e-02 1.385638376078949519e-01 -8.707618593415271668e-01 2.221756553200403272e-01 -1.371964163375591350e-01 9.653057140239260647e-01
4.521191451678044371e-02 -1.238641194496194059e-01 -9.362645019022184378e-01 -1.097124953314835422e-01 4.162726044786611013e-01 -9.025964143118956340e-01
9.439433229688935778e-02 -6.736901758514934890e-02 -9.012512161902320740e-01 -2.857370680054552303e-02 5.462001464644108406e-01 -8.371672134537595511e-01
3.303588698406768193e-02 1.342914662185428487e-01 -8.702052906311593672e-01 4.370239064501285631e-01 -2.991084755449881505e-01 8.482595269422104067e-01
-1.032694424712928272e-01 4.110045427953263469e-02 -8.692953197733152004e-01 6.081526919454333102e-01 -3.844257094011049314e-01 -6.945265849706401262e-01
2.712192377876454161e-02 -7.344608407420329110e-02 -9.782177913686584958e-01 -1.669919168392111353e-01 -3.865024904725999910e-01 9.070443895250351884e-01
1.746721918018863048e-02 1.329206863025013952e-01 -8.437549284496699276e-01 9.673558859646786967e-01 -2.268341314279385401e-01 -1.129994102144981777e-01
-3.669510011435600516e-02 8.085139605098691507e-03 -9.327187293358880638e-01 2.039135219990652614e-01 -4.549771352871390673e-01 8.668420166973016538e-01
-3.852079059382235160e-02 8.412877093715945276e-02 -8.589500778991593366e-01 3.345665705966516801e-01 -6.966080904478866298e-01 -6.346671396580610969e-01
-6.579445728776781022e-02 -2.015450714548489564e-01 -9.731832085655054421e-01 -6.310014543964922451e-01 7.125938086732450660e-01 -3.066712056748561732e-01
7.526616669870586640e-02 2.220580318262790620e-01 -8.442020446132293410e-01 -8.653969455499261887e-01 -1.249921722566932208e-01 -4.852474456474876741e-01
-1.051811467211490048e-01 -1.516738702326191901e-01 -9.401645220348064935e-01 3.092640646359224310e-01 4.946134925400876292e-01 -8.122273273672613314e-01
-5.296883043310491451e-02 -9.539306348378177869e-02 -9.071525556211182950e-01 -1.499073079003624687e-01 4.116235037807801089e-01 -8.989404263761308078e-01
5.673062301944067215e-02 3.597034476816184101e-02 -8.515412825110905137e-01 8.251666892038073131e-02 3.830312950347196654e-01 -9.200424046609534390e-01
6.181070336477918759e-02 -1.783856760232303829e-01 -9.929231954446576802e-01 -7.366290975726279555e-01 6.186795382440067881e-01 2.731541717922651991e-01
-4.961767644941628835e-02 -4.271573285599576837e-03 -8.718516344770758097e-01 -1.057062503704084833e-01 2.473917945181446087e-01 -9.631321241853169068e-01
-1.003365437287553202e-01 -8.633330889295413174e-03 -8.739945935204708194e-01 4.005868371409254669e-01 -1.876906302861011122e-01 -8.968290880721008218e-01
7.583315373005632132e-02 2.258082971236916592e-01 -8.700726921898807031e-01 -8.897776835712676302e-01 8.481502541721626376e-02 4.484440715206590711e-01
-1.164698218513068873e-02 -2.079762094372488712e-01 -9.714479755448088838e-01 -6.051246043492672921e-01 -1.269072782830644730e-01 -7.859508610148139285e-01
-6.962140950646392157e-02 1.281101814090783615e-02 -8.723841109472210142e-01 1.060993616333809758e-01 -2.274849739243485491e-01 -9.679842519894771291e-01
-1.218949730854779895e-01 1.677603447572563326e-04 -9.227442936482345148e-01 4.759538420635029410e-01 -5.058302632493208995e-01 7.194467909485126045e-01
1.043804892784535587e-01 5.676598432861191049e-03 -8.612091481774097890e-01 -4.929036760137738005e-02 3.591939590119516135e-01 -9.319603851403993611e-01
-5.664474180445148999e-02 -5.653270269824177408e-02 -9.560719998380577955e-01 2.231135034761964342e-01 -3.573967211378460407e-01 9.069112130117776838e-01
-7.062322316919177057e-02 -2.505513195481965383e-01 -1.009688331025910157e+00 7.777092775367383526e-01 6.111974134193259856e-01 1.469898005400721575e-01
-5.627326931313311048e-02 -2.163599613136945876e-01 -1.023684204985177315e+00 1.259674646939891729e-01 -1.307514713697716380e-01 9.833800133077793548e-01
3.860831323268826276e-02 1.726712438294992769e-01 -8.248179771802954807e-01 4.911787869521170302e-01 -1.887283548818184942e-01 -8.503675718839760478e-01
-1.217073147376216413e-01 -7.637510762084083471e-02 -9.568021133717977689e-01 3.471615265476118428e-01 -4.770059799877332529e-01 8.074305973525366387e-01
1.195154758128711275e-01 -1.040988957908927093e-01 -9.458022293270353931e-01 -6.967538770354636535e-01 6.689100393331528505e-01 -2.590239257585476573e-01
-4.563925623051739294e-02 -1.762207434641498427e-01 -9.592475427980601266e-01 -7.474837968342487038e-01 6.602144338361267684e-01 -7.338170633542190346e-02
-3.828834492673242884e-02 6.822647542721968494e-02 -8.955279590248533816e-01 7.823641853624291320e-02 -6.285636398799708813e-01 7.738131644237282725e-01
7.102196838494513609e-02 1.114705743909173534e-02 -8.745064969893217022e-01 3.072153269771535911e-01 6.384259677696849655e-01 -7.057131333251930316e-01
9.007436749565364553e-02 -1.078341897151582733e-02 -9.335538952956863312e-01 -1.901536040912082393e-01 -4.339157564079043072e-01 8.806581193585171219e-01
-6.603146012151614452e-02 -8.137499606920110817e-02 -9.647138384502593755e-01 2.043305570002804661e-01 -4.372655610681454030e-01 8.758126812165459851e-01
1.307000225356543532e-01 3.015182265807067954e-02 -8.655088182347975279e-01 -6.096559460072458192e-01 -3.665274463459112370e-02 -7.918182896402189419e-01
-1.421219922917324463e-01 -3.505995828291923883e-02 -9.137413551682722623e-01 8.965905526941743142e-01 1.032820409264891132e-01 -4.306485816087337604e-01
-1.414732941490006168e-01 -1.820984282672146945e-02 -9.164279673890733946e-01 9.498251225216539639e-01 -3.091146412724706805e-01 4.775327399997655875e-02
1.107542519891357713e-01 -1.120153484481052758e-01 -9.454665276675561225e-01 -6.367913063677661523e-01 7.355529373089585432e-01 -2.312113936435597206e-01
-1.665483685217223134e-02 -2.644177250036455207e-01 -1.040867739261615021e+00 -5.757735085192813851e-02 -1.811114974389989862e-01 9.817756740540463101e-01
-5.119546276484814723e-02 -1.245769849752070835e-01 -9.918500217745586101e-01 1.688731027121640194e-01 -2.637724415349854690e-01 9.496873034146763315e-01
1.384178572164900534e-01 -2.537266651379007851e-02 -8.859097089526065671e-01 -4.586127285606586002e-01 5.461834976025297106e-01 -7.009692947261062512e-01
6.546789833206942411e-02 -3.934003665441172803e-02 -8.869660096477146594e-01 1.118152263489177040e-01 4.499275683716874585e-01 -8.860375490777356866e-01
-7.678605253416057042e-02 -2.401468004944570522e-01 -9.951366112480805048e-01 8.609187168370361354e-01 3.873376244086266240e-01 -3.298310593578977490e-01
7.644171994028300943e-02 2.276330469730298567e-01 -8.480817573397131381e-01 -9.100087299667493079e-01 -1.031380355260608089e-01 -4.015552975769698385e-01
1.605356247526210089e-02 -3.505289253114959869e-02 -9.648848114330416115e-01 -2.411121648077317325e-01 -3.655742284760769567e-01 8.990107938483552497e-01
-9.849763995515919968e-02 -1.494613370302756150e-01 -9.932376251727915717e-01 5.159203701052264002e-01 -4.412922639653357737e-01 7.342256529670116993e-01
7.180182049296579549e-02 -1.688720136174202968e-01 -9.787400701351929300e-01 -7.427339299807463879e-01 6.616214399652434741e-01 -1.029727120827343828e-01
1.252027078571880392e-01 -7.622652350062937565e-03 -8.700568183373897924e-01 -2.443463952091610158e-01 3.935100666903261213e-01 -8.862531616652564725e-01
6.898549057809617857e-02 7.437851690949530414e-02 -8.810979335252652200e-01 -2.730077451766639296e-01 -6.249681486627532978e-01 7.313559900832180549e-01
1.426765096865433569e-01 2.337457359756101027e-02 -8.954354194715675730e-01 -5.782430626143190144e-01 -5.226771565251954188e-01 6.264531511495087246e-01
5.783005002711486681e-02 1.267112330658391184e-01 -8.225812523644226992e-01 -3.406152891629655732e-01 1.339405829571556905e-01 -9.306133165958492270e-01
-1.265882358894021842e-01 -1.782105186243203299e-02 -9.300265378421213036e-01 3.641654708959173870e-01 -3.434480955466816532e-01 8.656944700484762167e-01
-6.933457134751015716e-02 -2.366682609964303463e-01 -9.822464989397848845e-01 5.928814247792995040e-01 3.775722880484214672e-01 -7.112881156391884785e-01
7.242570283960222954e-02 2.052668822789200376e-01 -8.360413295990778426e-01 -7.475325248807698220e-01 -1.656812224656057375e-01 -6.432300185529932213e-01
-6.667854104862788733e-02 -1.277187221971165798e-01 -9.263034591202876644e-01 -4.139449884258835088e-01 7.439976584082403921e-01 -5.245159967438075554e-01
-4.994404307712745766e-02 -2.663580703377596004e-01 -9.977369969170619690e-01 4.061866643002883803e-01 7.368133242806795824e-01 -5.404798968574677787e-01
5.977383164688188089e-02 -4.420118640848566538e-02 -8.903566692428881435e-01 1.209252186793928902e-01 4.779864992830513692e-01 -8.700034471141331327e-01
9.815695890469764914e-03 -3.326080865992322999e-02 -9.017960373986744216e-01 3.649830361667634193e-01 7.765165323424030319e-01 -5.136238490465768747e-01
6.458720439915845157e-02 -1.547948122411107741e-01 -9.946638083721769386e-01 -5.846198139118858883e-01 -2.121380542203934183e-01 7.830818087104419734e-01
-4.427655606196143762e-02 -3.220720303109686489e-04 -8.713034437298924351e-01 -7.413682006628508070e-02 2.575826850321516481e-01 -9.634079573483326220e-01
4.411531795152284080e-02 -1.578878728243882645e-01 -9.565540049676759526e-01 5.552866941556919844e-01 6.474016238181098393e-01 -5.220419760625740757e-01
-4.956948645920155987e-03 -8.469600239585817203e-02 -9.910159164128083953e-01 -1.385416306476973392e-01 -3.320650645329061845e-01 9.330267999871352247e-01
-1.057045664392358177e-02 9.318356238597086394e-02 -8.546848271260765184e-01 3.055134007931962770e-01 -7.694755860626190103e-01 -5.608644082034133227e-01
-6.909755304011698518e-02 3.805833550779442326e-02 -8.566196420777456577e-01 1.190683387042293651e-01 1.317591436234019919e-01 -9.841048007147625842e-01
-1.180097502601687998e-01 3.020486694749910384e-02 -8.798383243787080144e-01 7.946843342158501633e-01 -4.001545052256693658e-01 -4.564572059892481048e-01
-5.237418659000631083e-02 -2.429155719357655729e-01 -9.800834967345922744e-01 -1.213043448066779013e-03 4.315628278692255626e-01 -9.020820661819579644e-01
-2.388341336799215675e-03 -2.850114408820690892e-01 -1.040229101840392190e+00 -8.344962611024469012e-01 1.993908965766454655e-01 5.136723280150472526e-01
7.819822599798655072e-02 1.953094775987525289e-01 -8.481305068127512614e-01 -9.952371785997823350e-01 1.071817629521884009e-02 -9.689209993415208444e-02
-7.028756200736011039e-02 -1.630156577571828802e-01 -9.417662048123021101e-01 1.637901165275707505e-01 3.358421966683918236e-01 -9.275682274985673770e-01
-1.695101173567524792e-03 5.859375153739953407e-02 -9.110680392184650200e-01 1.456207965315383934e-01 -6.871838484058010454e-01 7.117393779380997154e-01
-1.069532050449083505e-01 4.375754254745663208e-02 -9.016518196783247507e-01 3.976885580799046083e-01 -5.880042526495982136e-01 7.043399815702027222e-01
-7.705725626551344909e-02 8.187788220051204352e-03 -8.721126429526606660e-01 1.060993616333809758e-01 -2.274849739243485491e-01 -9.679842519894771291e-01
9.861051335647154359e-02 8.793021785421437780e-03 -8.597266019400405801e-01 -4.188208134397439913e-02 3.515583310115162341e-01 -9.352286518059065301e-01
1.090581683587556368e-02 9.546032205887243494e-02 -8.796164780224591251e-01 3.132124812767698163e-01 -5.757480555542139333e-01 7.552563260893554453e-01
-1.900134652715028752e-02 5.341926252700883448e-02 -9.132023524149742721e-01 8.543299050813071838e-02 -6.553725237998372366e-01 7.504585659322365876e-01
-1.415096217218491659e-01 -4.517422566397059219e-02 -9.321769569038814707e-01 7.064195769549109771e-01 -2.275352748674332182e-01 6.702231568558686403e-01
7.180675434199003393e-02 2.389543982531440180e-01 -8.788923333571476704e-01 -8.155268726912796584e-01 9.680311648878649200e-02 5.705655760352525974e-01
1.113676720711602036e-01 6.459461036038813275e-02 -8.658510569075225094e-01 -5.818538121624605708e-01 -7.903743802182762179e-01 -1.917145804746939464e-01
-7.982263417965679286e-02 -2.818491260672638388e-02 -8.759526285302710047e-01 -6.314438384050319319e-02 3.203334733741160512e-01 -9.451979965200294487e-01
-1.401837633073901579e-01 -7.066590971212823036e-02 -9.230820397216346063e-01 8.954314332829443890e-01 2.112643364295706816e-01 -3.918799923979598976e-01
-1.083476452841809906e-01 -1.834874321382421458e-01 -9.888984771591069478e-01 9.629849038669175965e-01 2.213641367257948300e-01 1.538115531943776426e-01
3.705261939320701053e-02 -9.907879472382226382e-02 -9.882327569958836433e-01 -3.779236157273841434e-01 -4.891151203449298213e-01 7.860916865897420447e-01
-8.869701651894359995e-02 6.099471116191964443e-02 -8.701508837984079925e-01 5.940062900669668133e-01 -5.845456286690697834e-01 -5.526870139281006011e-01
3.585938413295453042e-02 2.548201489225002114e-01 -8.570749245686852813e-01 8.681279601206850494e-01 -2.732321668081502120e-01 -4.143646074147999125e-01
4.659401687799656633e-02 2.731105283632463965e-01 -8.687799047790952800e-01 3.442481635381659522e-01 -9.386198156091669631e-01 -2.204639758358403756e-02
-1.075780962441523769e-01 4.980888144215870478e-02 -8.856408426153660196e-01 7.474024117776321141e-01 -6.438970004187392071e-01 -1.636651695405254014e-01
2.039094177816948988e-02 -1.733416641800444025e-01 -9.601530335135947114e-01 -1.803748075895464653e-01 2.720805575311979196e-01 -9.452180166504162706e-01
6.550920391351329475e-02 -1.674802527751191317e-01 -9.660730255663129151e-01 -4.840248206700676348e-01 6.093470466034704991e-01 -6.280255964297446480e-01
2.944764647174791944e-02 -2.121714417471306791e-01 -9.764768128078280540e-01 -3.567271403933724994e-01 3.987806841830263682e-01 -8.448193376274507616e-01
7.984942001390940569e-02 7.592982893648141107e-02 -8.753841874725027949e-01 -2.728977515395356601e-01 -6.582744874483434927e-01 7.015707493754896884e-01
-5.958077639507774331e-02 -2.493456358530900807e-01 -9.858603012371355279e-01 3.564115933385067492e-01 5.937334342400976128e-01 -7.214231665252831549e-01
-1.406266669698380267e-01 -8.939467900248881937e-02 -9.400420676357170713e-01 9.837969936899150225e-01 1.747251772584378082e-01 -4.018193174416841845e-02
-4.521347240849788590e-02 -2.603491699828780481e-01 -9.899597823744767933e-01 1.435663239557961046e-01 5.995488112495043209e-01 -7.873562939071012678e-01
-1.527895289110501979e-02 -2.600442956004593298e-01 -9.887944033639373131e-01 3.924895058341358323e-01 5.387121592320225361e-01 -7.454805143701932479e-01
8.894553452652041725e-02 -4.326570577922479038e-02 -9.500206149696818203e-01 -3.274438555623795932e-01 -4.458858844438162161e-01 8.330463969721011441e-01
3.430354165412681511e-02 6.561716630674317707e-02 -9.056858206390894228e-01 -4.351827818856217056e-01 -5.094073353260425430e-01 7.423746446817215405e-01
-8.138921935903485269e-03 5.180375025208140000e-02 -8.484241696308072456e-01 5.591400702508176890e-01 7.397949633092658350e-02 -8.257659571346672722e-01
-1.343673929100042998e-02 -5.027493226972879620e-02 -8.934997376998937701e-01 2.368929695616064368e-01 4.766178556456457938e-01 -8.465914839236395872e-01
-1.318262190092846509e-01 -5.779972454718808328e-02 -9.417739947972725290e-01 3.163760242518480204e-01 -4.725833105070056384e-01 8.225394980843370174e-01
-8.457751278466271727e-02 5.981006205879359217e-02 -8.655729912740589560e-01 5.481727004197066710e-01 -4.768785455705098486e-01 -6.870906368806967146e-01
9.238535000383309159e-02 -1.070878318958207176e-01 -9.383212213153691028e-01 6.382255993924514925e-01 7.096660813678418167e-01 -2.983992916147047425e-01
-4.363236701654791411e-02 -1.899827290201654695e-01 -9.698271743212045770e-01 -2.733688996688426465e-01 -1.278786510081077188e-01 -9.533711215000129080e-01
1.987385022534942161e-02 -1.608784532353354502e-01 -1.004265630004462118e+00 -2.032831526653167409e-01 -1.724853137349131038e-01 9.638074374003438027e-01
5.933715004043441099e-02 7.039455490845543395e-02 -8.884648504055996376e-01 -3.492165842070235615e-01 -5.776451115038275796e-01 7.378169844009484502e-01
1.188635936720693065e-01 1.352250247294241228e-03 -8.648534791644084674e-01 -1.841371323672980898e-01 3.383834838074372686e-01 -9.228164142286860994e-01
-6.984435383594825297e-02 -2.332534417838725560e-01 -1.022427920728282480e+00 4.270210389309684884e-01 1.588275698486170673e-01 8.901835964374422705e-01
-7.348071658822163954e-02 -1.596891459700991722e-01 -9.414667282933337766e-01 2.155336137862697565e-01 2.355884528048299287e-01 -9.476514877491921673e-01
-1.934811030640928159e-02 -9.599920447178578176e-02 -9.919396824394890455e-01 4.442713989785905815e-01 -3.659467625223206677e-01 8.177443922455464032e-01
-1.342712070345167541e-01 -9.370495561067181123e-02 -9.574997994755887198e-01 6.481668525855106555e-01 -2.688499996136198833e-01 7.124601104041892174e-01
-7.911554852807091420e-02 -2.772096324385287663e-02 -9.411764260089938716e-01 2.328856225864504581e-01 -4.757060936932334672e-01 8.482145950263093592e-01
-1.150423550557412300e-01 -1.763389500465867565e-01 -9.718305676965903750e-01 6.206962631673096364e-01 7.795274921607672214e-01 -8.410135466021292916e-02
1.598219190522496419e-02 -2.253827835959222592e-01 -1.020208537410342231e+00 -2.699504101107604304e-01 -6.666210753890645935e-02 9.605638653933965543e-01
-2.692720274103494599e-02 5.878299776689636241e-02 -8.493705996385307877e-01 8.029758775431096451e-02 1.770287781086353485e-01 -9.809246194903064042e-01
-9.974773606236801704e-02 -3.306587841531823981e-03 -9.279833992656854047e-01 6.366709606022815174e-03 -2.255926708337648023e-01 9.742009093995349645e-01
2.700886909786738913e-02 -2.449513593436397629e-01 -1.000395733033136558e+00 -9.396950537346004939e-01 3.197959698867485212e-01 -1.212589940207334516e-01
-5.775088950965440865e-02 -1.916811405027210036e-01 -9.674203279377726616e-01 -6.600695405161247642e-01 6.541111382457677204e-01 -3.693870876271370673e-01
3.531024321098216040e-02 1.534292956710320843e-01 -8.683234110565314356e-01 4.734748519209183160e-01 -2.544870015271515420e-02 8.804396221541835876e-01
7.752595771259017388e-02 -3.878935805061856177e-03 -9.325527476837867091e-01 -1.831948100242091759e-01 -4.597154184529100296e-01 8.689657045113228229e-01
-7.014654000704344293e-04 -1.775373010350672588e-03 -9.499485943761506457e-01 2.218799301441196359e-01 -5.486124154740685821e-01 8.060978316475913008e-01
-1.154010391263381036e-01 -7.727825077721023339e-02 -9.610898272639021300e-01 4.445262255899741222e-01 -5.002165106972078501e-01 7.430880682588313357e-01
-1.129352171559492163e-01 -7.412498959284523348e-02 -9.604160905276873939e-01 4.141303170494741170e-01 -5.134714665996598093e-01 7.515604656236892778e-01
-5.588351193110167175e-02 -7.986071511125847344e-02 -9.668666003972237188e-01 2.767961228548682651e-01 -4.378572483728667697e-01 8.553741499600360232e-01
-3.887759028734884270e-02 -1.971229047661915978e-01 -1.023602717521752359e+00 2.769912474788283063e-01 -2.392397598790944047e-01 9.306128013911669772e-01
1.689312764661259070e-02 -1.882423272596887021e-01 -1.017861075331048415e+00 -3.229202015449119112e-01 -3.059130882721908251e-01 8.956225353674192036e-01
