-3.274115270598600830e-02 1.779463429541630962e-02 -8.720279517560801663e-01 7.813903048701519305e-01 -2.667169992381721588e-01 5.641730530363140428e-01
1.468566009651839019e-02 1.276481365754034980e-01 -8.001549055500333241e-01 -5.280225525435857659e-01 -1.266208611203008816e-01 -8.397376623294382503e-01
-2.497770140922802445e-02 2.312628343655608598e-01 -8.194310818832227783e-01 -7.277063883103376263e-01 -6.601031363733877999e-01 1.862988506736974192e-01
2.126683734597733036e-02 -1.203183089821827367e-01 -9.159427119685616958e-01 -6.323948346180936486e-01 6.087713417844394792e-01 -4.790346820119887328e-01
1.386003495992682577e-02 9.206031118093645216e-02 -9.058675721025414296e-01 8.385073953571962058e-01 -4.000482706471934491e-01 3.699550365699603161e-01
-5.101652210772209678e-02 -1.503256351458739926e-01 -7.769389855171878745e-01 9.375579472261102998e-01 2.364289174442208152e-01 -2.551204864163523767e-01
-4.517915969224042122e-02 1.771229245043026979e-01 -8.276366123671844433e-01 7.774786813649386952e-01 4.914393385935669767e-01 3.924465269380701393e-01
-7.002687189710579338e-03 -1.305498422330020614e-01 -9.636894304546739232e-01 8.135738568378119151e-01 1.810986830185163654e-01 5.525403573305813776e-01
-2.662265895486663758e-02 2.309605786802105265e-01 -8.244759662163619884e-01 -6.724279659844252244e-01 -6.438878553368883040e-01 3.650329578431389943e-01
4.439767736454429403e-02 -1.383212706556077344e-02 -8.997353490394682796e-01 -8.859943786701777180e-01 2.314354626112350155e-01 -4.018103876342288272e-01
9.047572787309234987e-04 1.196112376909729338e-02 -9.337630045857485683e-01 8.695057313796838994e-01 -1.864816889568962077e-01 4.573667705263080863e-01
-2.316997352399180476e-02 -2.680361760828366829e-02 -7.282507348846710693e-01 -4.669324812947492354e-01 -3.187876855155806488e-02 -8.837181688907187471e-01
-3.583098393817656276e-03 5.104485329253746762e-02 -9.143135495609017172e-01 8.091191036222373789e-01 -4.033056144721581249e-01 4.274001140486302641e-01
-4.154827670578850607e-02 1.892001035836489431e-01 -8.380232622461196712e-01 5.035048703155635685e-01 2.469504940568627571e-01 8.279482466033603050e-01
7.121777703197640016e-03 1.655387634404495156e-01 -8.011839894131550510e-01 -5.804891889865783083e-01 -1.544017420292408682e-01 -7.994950928730208961e-01
3.785309058037181207e-02 -6.430947039543466470e-02 -9.367256169786764008e-01 -7.674807022983098914e-01 -6.256167205184534064e-01 1.399181568182928104e-01
-2.423907502896966229e-02 -1.460131678888151041e-01 -9.303806118632692579e-01 7.994688506646639992e-01 5.802836645327267423e-02 5.978982066402991347e-01
3.532933345574961609e-02 7.057640085818950304e-02 -9.610724934841654576e-01 6.649646308215794166e-01 -4.036030372142763722e-01 6.284318802445751917e-01
3.262890534449653431e-03 2.474889355817568373e-02 -7.958665347015193570e-01 -8.602268677213481540e-01 3.451024456635449211e-01 -3.753851862385596538e-01
2.040628191505348965e-02 -1.067924472037812406e-01 -8.853694866111798678e-01 -4.202270296249032144e-01 8.484902216386878138e-01 -3.216731063613508801e-01
1.885491785610296511e-02 -9.814009873558761365e-02 -8.474137306948902326e-01 -9.762906959081513181e-01 -5.028540767704593045e-02 2.105418126119629474e-01
2.582326854554487308e-02 -2.640252974760919427e-02 -8.804132491815754857e-01 -3.246467356164241536e-01 8.806398982763077310e-01 -3.450766097803409926e-01
-2.913659282815075219e-02 -4.427172515604607672e-02 -9.058593177011838860e-01 8.889281509984573448e-01 -5.761377307729208253e-02 4.544088418090719284e-01
-4.438815450168160162e-03 -1.193503217458094373e-01 -7.676576833815081935e-01 -8.588130709200741952e-01 2.865353261537685325e-01 -4.246617666835397764e-01
1.129784480567608100e-02 -4.807798270574458604e-02 -7.973113285013138096e-01 -9.885882562812233765e-01 -3.136098092802014348e-02 -1.473422831982811598e-01
2.801458983389534113e-02 1.343856885685499880e-01 -8.196536386278540087e-01 -9.216788211921633778e-01 -2.690624255791786990e-01 -2.794880349984106283e-01
9.303489106194893013e-03 4.405877293317417287e-02 -9.433272492774158469e-01 8.418631190595610159e-01 -3.116784064545606303e-01 4.405939851124311968e-01
-2.164141367910235245e-02 7.102737040627159215e-02 -7.741365772855538507e-01 1.887521079283236702e-01 -7.025790858008411632e-01 -6.861160761473735770e-01
-4.203087656340964012e-02 4.717786075714521660e-02 -7.821016517221728304e-01 9.313196169518135337e-01 -3.390205041146729936e-01 1.330746740389033289e-01
3.713686636495752702e-02 5.012879597382885466e-02 -8.815273506068539433e-01 -5.415853900692217948e-01 7.803709430898448929e-01 -3.125803199893351092e-01
-3.493167857599867310e-02 1.547716983067782826e-01 -8.174248271965484092e-01 8.863956931926771921e-01 4.625328712836910827e-01 -1.913159877108365839e-02
1.088686817315237185e-02 -1.653285717490815543e-02 -8.070353355244322957e-01 -9.803144569569752775e-01 -5.369514477102117073e-02 -1.900010444949443156e-01
1.597362643829957143e-02 -1.221537201707173226e-01 -8.460702237315791407e-01 -8.380747515958237859e-01 3.378010005761757917e-01 4.283937379880018437e-01
2.658374372831623020e-02 4.484033709971319004e-02 -8.484796859030208083e-01 -9.395089010659473105e-01 3.267414494587312368e-01 1.027766998081920402e-01
2.476921572646496525e-02 -2.198073670730726625e-01 -9.108497020341704831e-01 -3.328052530237894380e-01 2.683409057527303410e-01 -9.040098571694755725e-01
1.440999065531129450e-03 -1.961074883646594103e-01 -9.720961631656325208e-01 6.443413580435375376e-01 -2.453641886543591333e-01 7.243069993038848686e-01
3.970071283977629623e-02 -1.151449191683552864e-01 -9.369571168183304932e-01 -9.644597279899583819e-01 1.208054027261692837e-01 -2.349967824411727801e-01
1.739696908478708184e-02 -1.090408242958470775e-01 -8.208580723511897936e-01 -9.809890473943330136e-01 1.223102252279199484e-02 -1.936772856594339842e-01
-2.373796560245726439e-02 1.264921448425146144e-01 -8.377807634071182674e-01 8.691798831181581919e-01 1.687697897373038880e-02 4.942079505263195505e-01
-3.396336506310093650e-02 -1.716435256744577864e-01 -8.939239610740254971e-01 9.767460596967084685e-01 1.571432198495101018e-01 -1.458531567100360415e-01
-2.606346642131369962e-02 2.042930640218958427e-01 -7.939155464480573965e-01 -2.108946368532410298e-01 -1.384674520114469176e-01 -9.676519089424653330e-01
-4.067692098751982122e-02 -6.171203908370843233e-02 -8.925559729548280252e-01 8.277023901322900779e-01 -1.353634741377540140e-01 5.445966243364457338e-01
2.964480820604633096e-02 -1.488590977161494966e-01 -9.159053104151219094e-01 -9.806343383879313480e-01 -1.399687393727096774e-01 -1.369855699439870844e-01
4.169143550691204597e-02 -7.445161913323429526e-02 -9.591503741823025342e-01 -9.087762038823097299e-01 -4.126533048896210421e-01 6.199242873877600785e-02
-6.235443317833068433e-02 2.432816062267520452e-01 -7.898841486269461143e-01 -1.361746501510370522e-01 -5.935210072071515214e-02 -9.889053507774546725e-01
-4.673942459198905663e-02 1.459285994067422570e-02 -7.377211374650196607e-01 4.277792881060131780e-01 -3.945434986705442237e-01 -8.132283248413810783e-01
2.104023741453734872e-02 1.086806650245997902e-01 -8.012749339121540970e-01 -4.699968012634778702e-01 -6.475692265422251792e-02 -8.802894681696775692e-01
8.950134239535346634e-03 -2.194103245286321002e-01 -8.771576511701731915e-01 -6.994881953613281134e-01 1.194090509300929914e-01 -7.045975752911208811e-01
-4.727544513459502190e-02 -5.062632394098389582e-02 -8.165787387362331007e-01 9.961063675568443410e-01 -8.282876916586905114e-02 3.019105018339250310e-02
-5.767298455859741491e-02 1.920888544519151753e-01 -8.208856857296757958e-01 7.906272713716206990e-01 5.878256753598909423e-01 1.713752991278311433e-01
-4.918143162729173706e-02 -3.037403210760344224e-02 -7.276203677241694923e-01 3.843879502978760909e-01 -4.036704814753219045e-02 -9.222886777412223624e-01
7.366156624802643223e-03 -1.991138679575747417e-01 -8.347974051321249700e-01 -7.899675635587384281e-01 1.371080485387664583e-01 -5.976224824677880409e-01
-3.947937955412293004e-02 -8.928159315570571852e-02 -8.575215899212634829e-01 9.990039017315506253e-01 4.438336968371658225e-02 4.617447417907662686e-03
2.177734966354266319e-02 -1.600784021400451437e-02 -8.415760017356480605e-01 -8.443822843688193469e-01 -8.112551747272245262e-02 5.295632240430573345e-01
-1.081342059652292548e-02 -2.681455055164847501e-01 -8.856709901457870959e-01 3.096186232880943634e-01 7.682139237011529342e-01 -5.603424627358382093e-01
2.562121142432075005e-02 -1.192101781824951995e-01 -9.175724299034081488e-01 -1.673436616786424525e-01 8.435023942588750767e-01 -5.103918198556175456e-01
2.318945842544801669e-02 -2.356389226720212449e-01 -8.893466917638428448e-01 -9.571102000278602917e-01 -4.937317030407260832e-02 -2.854861731446096118e-01
-3.590874963758357817e-03 -2.600479957118692065e-01 -8.762890399740144165e-01 -3.045563897581841650e-01 6.737757067261150867e-01 -6.732545599423633842e-01
-5.048490218699011600e-02 2.388003757344393796e-02 -7.467260936037022345e-01 7.841192475773915982e-01 -4.151163544366391900e-01 -4.613408911617306596e-01
-3.114131303952545615e-02 -2.344119180559534610e-01 -8.502343381978650916e-01 8.482108275867094038e-01 5.053597365217313842e-01 -1.585872903714408977e-01
-5.204397342371055307e-02 -2.944906489216715488e-03 -7.987076323191409921e-01 8.596273463059223019e-01 1.969773579876862302e-01 4.714241677335062053e-01
-2.587378966461350779e-02 -1.952706338897835722e-02 -9.102627470136198662e-01 8.528094090106144165e-01 -2.689981921475134707e-01 4.476115330555457406e-01
-1.693805221252499445e-03 4.347576968175249912e-02 -7.695467555112374125e-01 -8.178628070640484582e-01 -1.761882849844259857e-01 -5.477756083065051795e-01
-3.314208106813181474e-03 -2.689369954229696158e-01 -9.621250154444720426e-01 8.323360699186969081e-01 6.011539099414463933e-02 5.510016392697203447e-01
9.473397593106560764e-04 6.676214134161508051e-03 -9.360763538204804890e-01 8.545923729414665049e-01 -1.880510789019199103e-01 4.840544058616731427e-01
-7.148675100268873928e-02 2.293382125997063536e-01 -8.339297215409916531e-01 3.150996008249489222e-01 1.287792295029153988e-01 9.402808897391209397e-01
4.850819843359106820e-02 1.017780441297906624e-01 -9.164393235118294401e-01 -7.090075573522873764e-01 -6.958008178655104015e-01 1.147584658098471933e-01
-9.948118578778962842e-03 -1.694540728189937451e-01 -9.473103895796208818e-01 7.782914814526440406e-01 -1.020769058217710218e-01 6.195503814832994394e-01
-4.811105458769788373e-02 -6.142071028506726482e-02 -8.170430594898258070e-01 9.980805728351787032e-01 -5.979325132595968845e-02 1.612256880499943201e-02
-3.262860051264013933e-02 -2.464690440779539193e-01 -8.892576097798502444e-01 9.687847934607515255e-01 2.035375550370523423e-01 1.415220394452678943e-01
-3.786285616528627801e-02 -1.512042721243187782e-01 -8.770184898110532368e-01 9.674757064207024637e-01 1.253489496306358641e-01 2.197234587208634626e-01
1.991165701993563575e-02 -2.934174820882087809e-01 -9.588461549521147820e-01 -8.941371636216562946e-01 4.468591910132723721e-01 2.890667807935444825e-02
4.378894772027132343e-02 -9.341073860266839446e-02 -9.772825573506036534e-01 -9.881525280648605358e-01 1.065848443764131660e-02 1.531044675655081344e-01
3.780819963566140612e-02 4.494272788703861099e-02 -9.775150206076810289e-01 5.444457595657431481e-01 -3.755800497804279714e-01 7.500122939644471298e-01
2.147900784026935544e-02 -1.219273101425346617e-01 -9.030134693453589767e-01 -8.466629029641511428e-01 -5.001191634102611916e-01 1.817766517849216112e-01
-6.515501150662499769e-03 -1.991698122889234146e-01 -9.593606185468821490e-01 8.572440703444215160e-01 2.454923831904696485e-01 4.526213579304360080e-01
2.400904891095324151e-02 -2.677427327341393437e-01 -9.422495222386974012e-01 -4.848748557331552383e-02 5.627578081719265546e-01 -8.251985294971790896e-01
-4.329768946236545180e-02 -1.235706744885298747e-01 -8.666180799714637839e-01 9.456202401875338781e-01 -1.956701636905645025e-01 -2.598375423009128271e-01
3.869382932003202769e-02 -3.193868352935126664e-02 -9.941152657109012525e-01 4.757433458994876907e-01 -1.607245364649571850e-01 8.647750529533589914e-01
-3.997328323887613249e-02 -3.886808960521271478e-02 -7.253619336946596219e-01 1.460388777097861024e-01 5.568141869861422538e-02 -9.877105982062639455e-01
-6.184700181398207486e-02 -5.347459317102332133e-02 -7.614947175783397526e-01 9.897794797868548766e-01 5.592087350223742814e-02 1.311847449195588933e-01
2.270116834056607261e-02 1.474170403343557367e-01 -8.349967449440094391e-01 -8.254656962242823415e-01 -2.615147713971196497e-01 5.002163618856074745e-01
6.159105058006476147e-02 3.602050112471857218e-02 -9.723381244991227135e-01 -8.992563415718815012e-01 -6.096768791169555890e-02 4.331523671567059641e-01
4.936343756547423300e-02 -2.463956290061597790e-02 -9.945775900184212759e-01 -6.027237301662005109e-01 8.736764719757131314e-02 7.931525700126691447e-01
4.836891927625426579e-02 2.695409347611679718e-02 -9.023808379120581424e-01 -8.913387764830184024e-01 -2.775732208227347231e-01 -3.584247377342261731e-01
-5.885898350937952134e-02 -1.778938145315734493e-02 -7.806735120106488290e-01 9.491917316427643803e-01 3.595833002189351840e-02 3.126372579892658377e-01
1.743100370658333051e-02 -7.456657698929262945e-02 -9.848947916560303328e-01 8.044341942533623779e-01 1.082233799377862876e-01 5.841004426901120761e-01
3.188329220473199582e-02 1.124528413625924123e-02 -8.657841002899023808e-01 -8.831200593299042279e-01 6.923784866158562423e-02 -4.640097855884738887e-01
-3.156481302091081187e-02 -5.167879986826044020e-02 -9.029192744907799106e-01 8.557910230256752238e-01 -1.090767774210867347e-01 5.056915873693162977e-01
-5.280738245595020114e-02 -1.481389884975011506e-01 -7.840710948617567455e-01 9.853299416685918910e-01 1.222890970410155376e-01 -1.190389969558816735e-01
5.948420051623298788e-02 8.203663958356791075e-02 -9.250150002584337505e-01 -9.288746757339209070e-01 -3.690647770845378872e-01 -3.135326292020318428e-02
-3.546596834498326467e-02 -9.794604721003384584e-02 -9.128548326213172803e-01 9.460694784661908274e-01 -4.905115458403197515e-02 3.202288652646462785e-01
2.862236133516014511e-02 -5.314275231554463352e-02 -8.927632195901913370e-01 -9.582562224319622901e-01 -5.771799988173453161e-02 -2.800243644043816649e-01
-4.385655794172850508e-02 -4.048338265345558656e-02 -8.609241168309750281e-01 9.712676806061282253e-01 1.436379266241788744e-01 1.897557341560433541e-01
-2.590523664531493506e-02 -1.092473516730654987e-01 -9.354853956599737952e-01 9.221721876595216916e-01 1.625786087295506832e-01 3.509510682286283156e-01
3.484599241790327373e-02 -1.131856975876163220e-02 -8.781327641968411646e-01 -8.525002510609175355e-01 2.516402052365115383e-01 -4.581708513748981026e-01
2.852721661476264724e-03 -2.819138477138424248e-01 -9.050910656444691726e-01 4.749240989552203085e-02 9.197220929358734809e-01 -3.896867238795438948e-01
5.822613057187375069e-02 -3.904107936872536211e-02 -9.681750249982473688e-01 -9.895211652177410278e-01 1.443776211616775162e-01 1.722235123074319094e-03
-3.744249647803162689e-02 -1.390306412236053391e-01 -9.138899414687707834e-01 6.658730204267622188e-01 -2.615889441906290580e-01 6.987018999151016763e-01
-1.252644024689577099e-02 -1.476542019040022191e-01 -9.462230743591504289e-01 8.233815685952966534e-01 1.979001306812999406e-01 5.318630752119132277e-01
9.999928091694740284e-03 -2.329391471330320429e-01 -8.608809439938795993e-01 -8.989790049467327737e-01 4.042473503124291989e-01 -1.685847811350783265e-01
-3.158554895542615287e-02 -1.539639774914644370e-02 -7.268940003793752380e-01 -1.358614998072023017e-01 -1.842460580955952720e-01 -9.734449357546485215e-01
2.028596689388327198e-02 -1.985684381345729499e-01 -8.592947953360428048e-01 -8.981262570440871063e-01 1.910887317976467104e-01 -3.960483846551396958e-01
-3.932700873243785006e-02 -9.247059257253877063e-02 -8.598346656032106461e-01 9.990039017315506253e-01 4.438336968371658225e-02 4.617447417907662686e-03
-1.023236938249103174e-02 -7.006142416859479586e-04 -7.444084301949772664e-01 -7.881153562333689244e-01 -1.567849133636258219e-01 -5.952248954896882660e-01
-5.506711573066441073e-02 -5.528420492151847609e-02 -7.756105411877743938e-01 9.395880405863062945e-01 8.134626114922828555e-02 3.325012778685627057e-01
-2.695940475346149737e-02 -1.913163737173635692e-01 -9.309928876820213750e-01 7.516988495641557799e-01 3.308005487688957247e-02 6.586763617538332616e-01
-1.341980959743663097e-02 -6.629172889195272811e-02 -9.380522514582961824e-01 8.620633733925361364e-01 -8.426581536084865043e-02 4.997459480742712512e-01
2.184472012889620424e-02 -2.670816829230454950e-02 -8.305992972842330957e-01 -6.291398789148237025e-01 2.474386587151479466e-01 -7.368562430571444777e-01
1.738866887127701877e-02 -4.654713569589126465e-02 -8.530507219758586279e-01 -8.025383353119828200e-01 -1.995398193537023801e-01 5.622420127017930813e-01
-1.576807917831669556e-02 -2.537205035230359895e-01 -9.397039144788682519e-01 9.431863890393863414e-01 2.922050164609455991e-01 1.581634088084286904e-01
2.464703207749716074e-02 -1.542676374863331257e-01 -8.834849126235124750e-01 -5.269978905605682273e-01 2.246308558715920944e-01 -8.196427282268214931e-01
2.488541362825342704e-02 -5.259407834097323819e-02 -8.803283740017310288e-01 -9.587491164882658845e-01 -8.053784805875852104e-02 -2.726055514163898130e-01
4.844815539834861767e-02 5.506522531457878900e-02 -8.866208570199934913e-01 -7.488886061559818508e-01 4.992343297549770575e-01 -4.358106694011166793e-01
-1.787947340544278341e-02 4.474574446666649413e-02 -7.541698305247452883e-01 -3.880049899780007583e-01 -4.569831045333559438e-01 -8.003865128319113120e-01
2.874854101360629910e-02 -1.476403426717607104e-01 -9.093842437010077884e-01 -9.903155790482924825e-01 -1.110545692592405792e-01 -8.331828455320855475e-02
-4.072858221276733082e-02 -1.082402632779612822e-01 -8.326598583193673964e-01 9.855330976782410435e-01 1.918544344154261144e-02 1.683936820093969999e-01
-3.921696049586825134e-02 -9.640092993451210290e-02 -8.648281716801192731e-01 9.992887656765886417e-01 2.395889305555842091e-02 -2.911931036464307856e-02
1.252451677645658248e-02 -1.202933369363584915e-01 -8.541890370834610557e-01 -9.581052679831327801e-01 -3.087077008966409436e-02 2.847477673609408733e-01
2.284305875576235489e-02 -3.101285059345465500e-02 -8.911013234233948754e-01 -5.269765494268180417e-01 7.325381418611300877e-01 -4.309101844617354016e-01
-4.507208895109329760e-02 -1.707315463693107604e-01 -7.836967033824654427e-01 6.334169530402171677e-01 5.472530555545515041e-01 -5.470804847437480412e-01
-1.189580118683618813e-02 2.114648312445135958e-01 -8.298175141726190640e-01 -6.367220572063211348e-01 -5.609460556721360680e-01 5.290789586562888447e-01
-2.899370535200270285e-02 1.864073089083179979e-01 -7.937932735212456237e-01 8.880528790285401042e-02 1.051756380127580465e-01 -9.904805429735106248e-01
2.421898767103482925e-02 -1.249167082953167307e-01 -9.249640341897202855e-01 -5.357699908892396001e-01 6.431367758346266950e-01 -5.471065750213437440e-01
-2.646630611413800654e-02 -1.568841802785145845e-01 -9.283449095493200298e-01 6.269633607235843842e-01 -1.359603825802667421e-01 7.670930313063835104e-01
-4.424111834150108030e-02 2.470737636343949273e-01 -7.995795374547809420e-01 -6.067362283333236350e-01 -5.297241600222598601e-01 -5.926748379310227133e-01
-3.218242957633609541e-02 -1.788979988585735481e-01 -7.857910682448104867e-01 1.266959338041668548e-01 4.721179127601287107e-01 -8.723834115849002924e-01
5.670150099356559108e-03 -7.421338646928490879e-02 -7.949876756259751653e-01 -7.841929958138431633e-01 3.533742670175840650e-01 5.100666355745049341e-01
1.725984562633546202e-02 -2.831441402090629222e-01 -9.775263951441219845e-01 -3.550828524349424753e-01 1.281305101370298072e-01 9.260122786867837075e-01
7.975687408541655768e-03 -1.645945817673093448e-01 -8.379452732164431872e-01 -4.839589629961479900e-01 -1.176944891025326206e-01 -8.671399710373101088e-01
1.273880457448739803e-02 9.473355387814416662e-02 -9.002556851721134068e-01 8.307511241580155525e-01 -4.040438320767361646e-01 3.828852980605807477e-01
-2.264704136205061835e-02 -1.226959061177108484e-01 -9.374761608424531101e-01 8.991200082275031535e-01 1.633292237878118669e-01 4.060871525446794195e-01
-4.362072863485845498e-02 1.716497333715173712e-01 -8.228301083535238813e-01 8.414369420191902815e-01 5.056728017242732021e-01 1.904701819228337978e-01
-2.841270055359357283e-02 1.753599805985146254e-01 -7.958654152724767838e-01 2.654812978552659741e-01 2.017980768417756976e-01 -9.427604237938949083e-01
-1.095329009616851723e-03 1.045534150058357974e-02 -9.307356719123289768e-01 8.621566272858690594e-01 -2.085310541365625880e-01 4.617366668218463865e-01
1.828020972539796951e-02 -2.739655435259054639e-01 -9.785156079008792140e-01 -1.404428646954072324e-01 1.235046762630720718e-01 9.823555347720606123e-01
1.010170470158350091e-02 -2.044199351544153387e-01 -9.804769130210114758e-01 4.913963843341113136e-01 9.052926997761034933e-02 8.662182431354603640e-01
-5.761253022895079096e-02 2.635661262704745433e-01 -8.060229119605851755e-01 -5.140490280303742221e-01 -7.895854818659637786e-01 -3.351244001971822040e-01
-1.631461006194411586e-03 -2.741765163286748463e-01 -8.903747252797332701e-01 7.345814639739900453e-02 8.222482230581219520e-01 -5.643684615617876599e-01
-9.661686275645257893e-02 2.423821477788782319e-01 -8.148100337184721598e-01 9.479301463612556100e-01 3.016931319874641693e-01 1.020278968278919979e-01
2.363342665579547947e-02 4.616836080827010219e-02 -8.060657898729216564e-01 -5.936704425576164734e-01 2.042886365823732564e-01 -7.783453980057690735e-01
-8.369504355965727560e-02 2.614902961972748741e-01 -8.258689591928393137e-01 4.291285568943345452e-01 -5.178937388608635395e-01 7.400234840236500355e-01
-2.954076604884894180e-02 2.896854442277793651e-02 -8.714777676777091253e-01 7.865504068933933945e-01 -2.242622429214898017e-01 5.753650178935628690e-01
-6.052563642082488954e-02 -4.267876240521544656e-02 -7.512221822874096677e-01 9.919722814451018555e-01 -1.294243740769631008e-02 -1.257914391305991753e-01
1.586221098715441546e-05 -7.323669915521280327e-02 -7.607540437666396871e-01 -8.468070548226096506e-01 4.056550580435797776e-02 -5.303510645237683452e-01
2.635294709995815443e-02 2.050580730306999014e-02 -8.536813899481051626e-01 -8.247215934149483285e-01 1.714280615601211366e-01 -5.389310837805220133e-01
-7.940561569674879638e-02 2.227854057746038452e-01 -8.043745313325690871e-01 6.824921992852163166e-01 5.640417056405221397e-01 -4.648240013305672269e-01
-3.032299907952880867e-03 -2.458664554864359586e-01 -9.598198908096184923e-01 6.809997255269910621e-01 -1.034448700268653792e-01 7.249403649247901926e-01
-8.206760989524958250e-02 2.352023138903638899e-01 -8.307197047774448340e-01 4.201604771141912442e-01 2.008725282145570612e-01 8.849380774268147398e-01
-2.096082126555489505e-02 8.653605424873621332e-02 -8.515406977771182717e-01 7.218146260102857870e-01 -4.052279283839508861e-01 5.610472098988487089e-01
-4.133311281185044622e-02 -7.207180383734057560e-02 -8.729862106864639815e-01 9.926929460135863748e-01 6.000160292551914160e-02 -1.046925144469993685e-01
5.984210712644149471e-02 3.544010775916227318e-02 -9.754728884395673649e-01 -8.527400166901136780e-01 -1.000298295628712086e-01 5.126680184417276021e-01
3.938918130752930985e-02 -6.761987413244092970e-02 -9.422615426587487297e-01 -8.272433366605833616e-01 -5.510590009785135690e-01 1.095556451819228866e-01
-9.605224228350861537e-03 1.200562096178012794e-01 -8.506180760201539348e-01 5.238461161019942747e-01 -1.153511428028652086e-01 8.439664451261845723e-01
1.591655969505101353e-02 -8.232609442479760231e-02 -8.548824553157707840e-01 -9.268968839620064237e-01 3.753143539310658805e-01 -1.141155041841656042e-03
2.828523402057161670e-02 7.489151439309933711e-02 -8.051809491234273031e-01 -6.408241432517187697e-01 5.198171011148148418e-02 -7.659257922537839880e-01
4.320260606314980933e-02 -9.715108816690812277e-02 -9.486961366684593111e-01 -9.878715983071723050e-01 3.229041874965259129e-02 -1.518783530165012940e-01
-1.778353332321043825e-02 -2.562349475195254134e-01 -8.661163588380165201e-01 2.734731776282913196e-01 8.048184155968849396e-01 -5.267634564337251302e-01
-4.626739595936942007e-02 1.828944693508008090e-01 -8.315034077951607427e-01 6.958070230473485385e-01 4.432414404389225515e-01 5.651456556991443225e-01
3.932750473257066309e-02 4.559758577239854394e-02 -8.939125985440143918e-01 -7.949472470930809553e-01 4.323217957465970152e-01 -4.256251158726062078e-01
-1.289138128059468327e-02 -2.992567611362639823e-02 -7.380965303522970533e-01 -9.302305241266756175e-01 1.574474886093243930e-01 -3.314837255637553826e-01
-3.430188257033844196e-02 6.000630333562528840e-02 -8.382123747593241969e-01 9.574530923835734564e-01 -2.883260502704537709e-01 -1.231521906309917397e-02
-9.156784602612796919e-02 2.401832211416157492e-01 -8.029152679609582455e-01 7.509617485409061377e-01 4.291274328033876095e-01 -5.019024792167884330e-01
3.984223168330142811e-02 -2.572479646581046775e-01 -9.657871127972305070e-01 -8.764440624223903686e-01 2.133589231235401285e-01 4.316523779247607995e-01
1.391326751238559575e-02 -1.402588048829618572e-01 -8.339185965106042930e-01 -8.887923377179174356e-01 3.411453038727173537e-01 3.060523845022462552e-01
-4.182681036476595948e-02 -9.186876084151308908e-02 -8.875882323410025920e-01 9.935143155384643654e-01 3.752763411121686713e-03 -1.136451564604354925e-01
1.371944761836851184e-02 -7.938542124169756242e-02 -8.151962886242489770e-01 -9.334585441664389194e-01 -1.684587291191773917e-01 -3.166651273920511045e-01
9.779867979152815499e-03 -1.036213881296567663e-01 -8.594805447906668228e-01 -8.094483447466410686e-01 -1.445243621797548395e-02 5.870132062179591603e-01
1.009157011863736492e-02 -1.480114094330065022e-01 -8.110209292977148543e-01 -9.187475590436131601e-01 1.761479159486811497e-01 -3.533763354532090117e-01
4.957937865905766989e-02 -3.531442729328200525e-02 -9.284959108985728626e-01 -8.075519920255940232e-01 4.304603509321633381e-01 -4.031918481949426925e-01
1.737808566592547940e-02 -1.779558150167827313e-01 -8.987685966534993964e-01 -1.109320595788518965e-01 8.416511342170092114e-01 -5.285049161822583663e-01
-3.341771133158172313e-02 -2.205136111074308680e-01 -8.943430122909402646e-01 9.994080413424875076e-01 9.449568311553775387e-04 -3.439002699272146468e-02
-5.422344666065106317e-02 -1.533804203601265848e-01 -7.969567713182478252e-01 9.941537894217966631e-01 1.026743916249002325e-01 3.340976328467815809e-02
2.520026332061780713e-02 1.231873012889337510e-01 -8.082783675463484085e-01 -7.716411666533805613e-01 -2.263740284227641897e-01 -5.944112290169653035e-01
-5.059194209607848630e-02 6.030297018422011747e-03 -7.361376051800476716e-01 5.238966603243052633e-01 -3.162350690619987192e-01 -7.909030726937357203e-01
-2.947907639979114452e-03 -2.182754712663747265e-01 -8.312418531667874477e-01 -2.164177744178738538e-01 1.752495691431572300e-01 -9.604430932809878696e-01
-5.639866694261425756e-02 -6.128834001483488003e-02 -7.704451368000121425e-01 9.417715215187532074e-01 1.128316662091510547e-01 3.167576618753201734e-01
2.811042585599323601e-02 -1.428270128960051066e-01 -9.084670412295060560e-01 -9.891016216955954565e-01 -1.365191725124344502e-01 -5.514070633990325598e-02
-1.091970080426915221e-02 -2.716329655946486121e-01 -8.911987809245929260e-01 4.059750206754343949e-01 8.027069226988138295e-01 -4.368591063935615693e-01
-5.958782321397173426e-02 -1.809674820807791185e-02 -7.749101253659002042e-01 9.612045826798463199e-01 -2.557088183480319410e-01 -1.034347642445007237e-01
-5.397252285341517380e-02 -1.369902656352705861e-01 -7.881917417207738863e-01 9.982100368917158351e-01 -3.784646327570806434e-03 -5.968583333433991056e-02
4.487854435507397828e-03 -1.409850836321163703e-01 -9.754445150174784196e-01 7.498632403030651705e-01 2.708250596756802686e-01 6.036214938965076549e-01
-1.260269837280215272e-02 -2.227064691051914569e-01 -9.484502602128058735e-01 7.211242169450216011e-01 -3.954938373599022755e-02 6.916760151845174898e-01
-4.999092714596108794e-02 -5.318805174016477677e-02 -7.942805527351092243e-01 9.805074766167477529e-01 1.865712783113212744e-02 1.955939668797342934e-01
-4.110308483078754967e-03 -1.145377001964578839e-01 -7.654332992635302091e-01 -7.767272564503261423e-01 2.582179895557925042e-01 -5.744721394087914934e-01
2.421807720041364159e-02 -2.881107375275460125e-02 -8.372548197859291941e-01 -9.828658614502751023e-01 -4.621742820181086106e-03 1.842643152889691660e-01
-4.400737341888003029e-02 -6.189589388175703588e-02 -8.425027412199735943e-01 9.474159465785628731e-01 1.976143655593459447e-01 2.516974109783864377e-01
-5.471769591235011582e-02 1.002936080016865635e-02 -7.600718518744519203e-01 9.767063171027113855e-01 -1.567735955461418140e-01 1.465155618737907783e-01
-4.274972304401100653e-02 -1.702033617012250477e-01 -8.395391650564764108e-01 9.969035867260455097e-01 -2.260750903491467664e-02 -7.531360639341562468e-02
2.666420601748386437e-02 -2.543559758516679148e-01 -8.995253638471872870e-01 -9.432645259020462358e-01 9.203931617128160991e-02 -3.190310305495545617e-01
-5.349264380637164251e-02 2.016610022334146095e-03 -7.977764857751475924e-01 8.736406944982580969e-01 1.522771394773257958e-01 4.621294296073387708e-01
2.181426698470642633e-02 4.187329979758791509e-02 -9.641326336292170840e-01 7.051211136126740442e-01 -3.801896080147044166e-01 5.985483080714936177e-01
3.033357808776081938e-02 1.129897546770494282e-01 -8.656899683545727919e-01 -6.291757781745538347e-01 -7.476397408682566859e-01 -2.125386036297656489e-01
-1.140581588818403297e-02 -2.763892795373859013e-01 -9.164738272219298265e-01 8.048847657357129926e-01 5.933061750371245724e-01 -1.217770706591532123e-02
-4.768319895019777765e-02 -1.150805838241477225e-01 -8.126430964021034153e-01 8.370033390998484757e-01 5.973136972813234552e-02 5.439279123248823566e-01
-5.734869428797899349e-02 -8.351037089838897476e-02 -7.417585175075074311e-01 9.542285082389733164e-01 1.013127641197916068e-01 -2.813959450497307002e-01
-3.237370544505880493e-02 6.590375111883868542e-02 -8.098628988102872794e-01 9.421969561563282580e-01 -3.300269136280518656e-01 5.785440424801509968e-02
2.287351085157203825e-02 -1.751436859841188354e-01 -8.596537275519534615e-01 -9.522271980624218424e-01 2.145799908482538126e-02 -3.046357128530156055e-01
-5.901175087949767084e-02 -2.403659837552189413e-02 -7.383392247698440380e-01 9.492528694089761299e-01 -4.695043574650969997e-02 -3.109897852052993517e-01
2.407705048441954182e-02 -1.687773189599325319e-01 -8.672569430202015095e-01 -9.981735536202183123e-01 -1.115764326541108728e-02 5.937224814630957109e-02
4.170096471333179650e-02 -1.384761542618609120e-01 -9.577179093088286077e-01 -9.144638246318904651e-01 3.274234945353170501e-01 -2.378019526116137150e-01
-3.069082782933664141e-02 -7.106413997012746286e-02 -7.339750560891927789e-01 -6.308185927227287770e-01 4.154365923190578846e-01 -6.553474962473305743e-01
-9.632787126657459120e-03 5.971199615203458960e-02 -7.682294420313724448e-01 -4.842750771099052498e-01 -4.891920321991119480e-01 -7.253749412015130238e-01
4.305647344958946077e-02 -7.350435434517831046e-02 -9.850468802993724848e-01 -9.028746292969398457e-01 3.615981491296992867e-01 2.325170581223868493e-01
-5.160067985278785768e-02 -1.012621212179642960e-01 -8.044768515754938676e-01 9.740299428975791596e-01 -7.477107095723352359e-02 2.137170028024139579e-01
1.458177420359666084e-02 -6.405726418647426923e-02 -8.358362262063786519e-01 -8.681797858976617599e-01 -3.302945673812218152e-01 3.703638185853766474e-01
-8.011065936802544765e-03 -1.056612193533655424e-03 -7.476458909635671501e-01 -8.540286327818533696e-01 -1.013760743980491041e-01 -5.102528646939665791e-01
3.219454419737379641e-02 -2.800657848196448918e-01 -9.547146658253651275e-01 -6.082343697710165253e-01 6.615163181933791936e-01 -4.386879439796928515e-01
1.029104972980022809e-03 -1.098170311641374353e-01 -7.751557590099689143e-01 -9.443291870401970822e-01 3.211523971165241575e-01 -7.143895527169435988e-02
-8.131985966577028047e-02 2.289784079782203885e-01 -8.288777721633816542e-01 5.319805166157390852e-01 3.579786171417997376e-01 7.673643460641733638e-01
5.778038494841388623e-02 -8.026369565564602307e-03 -9.840264518093825297e-01 -8.640699523536149451e-01 5.844247165999343074e-03 5.033378211645576084e-01
-4.569501993733967454e-02 4.209195797526692207e-02 -7.679827531209639790e-01 9.304185672712685928e-01 -3.611850904462372003e-01 6.218215271461283167e-02
-3.884767765184216765e-02 -1.479929484492970571e-01 -8.746797230901343090e-01 9.619100340326994791e-01 1.197491346086789199e-01 2.457422047343182370e-01
-4.620683379518962519e-02 1.908507496689063332e-01 -8.357613105203857140e-01 5.514865386414141701e-01 3.116802269851389195e-01 7.737687211330039894e-01
3.543714495518414387e-02 1.047736269011140531e-01 -8.217945680534298747e-01 -9.885179555619620917e-01 -1.141332025709472370e-01 -9.902456060239740732e-02
4.520038750690839185e-02 -1.663470433304253815e-03 -9.934962616379192646e-01 3.110634562661980795e-01 -3.508259746079763625e-02 9.497414056105645264e-01
-6.857595737798281854e-02 2.690819971664261123e-01 -8.082167426183358705e-01 -2.488304966888489900e-01 -9.472735032482598738e-01 -2.018818812111410621e-01
-3.303562653372969782e-03 -3.120516821698334983e-02 -9.506739140689467460e-01 7.613504578685040824e-01 -2.810993175654806775e-01 5.842333899801005481e-01
3.977611658586952675e-02 -2.013477535940757790e-01 -9.520169316025938189e-01 -8.650198036098317722e-01 4.403627620372547735e-01 -2.404607601537678274e-01
-5.601768653552499644e-02 -1.223521229973856608e-02 -7.882387399421447727e-01 7.835455744508743603e-01 2.501123101479507671e-01 5.687707491343982902e-01
-1.007150723446800789e-02 -1.545056261052582813e-01 -9.478197315533034573e-01 8.140731538655712196e-01 1.455619189083171006e-01 5.622247130099231605e-01
1.468374966666761115e-02 -1.834318939923756109e-01 -9.035411487876399139e-01 -6.023681485134297908e-01 4.406166289421266091e-01 -6.655896633483567859e-01
3.721129738189098840e-02 -2.194877475413424261e-01 -9.676202627747731988e-01 -8.024953927621311101e-01 -4.722541874506097637e-01 3.646602899013232646e-01
6.127509838999997899e-04 2.100294717272410683e-02 -7.824667633791987376e-01 -8.395446937165566004e-01 5.336107690560298877e-01 1.020992379981633114e-01
-7.725763664118488576e-03 6.229216203104581857e-03 -9.209118841604225780e-01 8.467400819458161809e-01 -2.652052701230951937e-01 4.611912817100171091e-01
1.204653396192517656e-02 -3.370295190344273911e-02 -8.718645638255012598e-01 -9.928563105193971561e-01 -5.019861769167535681e-02 -1.082425306598831377e-01
-8.388128244204351436e-02 2.481158225969407882e-01 -7.929118774573022943e-01 4.630077826127141361e-01 1.066332671313909713e-01 -8.799165526235672719e-01
-3.135542736768329869e-02 -1.800714129777292866e-02 -7.264586317460467457e-01 -2.141984173033836536e-01 -1.158393561445160425e-01 -9.698970469038195041e-01
-5.236266097958736793e-02 -4.886898725293993551e-02 -7.853062546048130699e-01 9.621547470684375103e-01 4.572429344856968753e-02 2.686401527737435901e-01
-4.341052281754325531e-02 -1.682263702705114328e-01 -8.241104285705969090e-01 9.956174006677104282e-01 1.236758861549449619e-02 9.269862048331445337e-02
-3.193725207143903455e-02 -7.594101312843201668e-02 -9.076605863011039110e-01 8.471113599363019331e-01 -1.149895051548077279e-01 5.188253632689150407e-01
3.385749725569799085e-02 1.080646649542534032e-01 -8.167591207172888446e-01 -9.327633825239840526e-01 -1.695023817730481608e-01 -3.181531310480531505e-01
-1.828395283549230296e-02 -2.111185794498522672e-01 -8.115205732219328283e-01 -1.366050066928306550e-01 7.132754114161220516e-01 -6.874425500473575479e-01
-4.047510632777013423e-02 1.819085465138600699e-01 -7.988873088780750198e-01 4.532564470740382823e-01 3.358389695137032338e-01 -8.256941199631939732e-01
3.499320749816736686e-02 7.997474286757763617e-02 -8.310507053486738682e-01 -9.474292629511523733e-01 -1.239361853369147851e-02 3.197251787449297833e-01
2.654504531739321216e-02 -2.476230649654765081e-01 -9.068008984474309475e-01 -8.827305525356090588e-01 -3.962432778986409443e-01 2.525431375831044267e-01
1.978695560825460484e-02 7.902769256412249532e-02 -9.298315349222235904e-01 8.332771426002224535e-01 -3.304683578869394567e-01 4.432153743447063698e-01
2.282133281694112906e-03 1.630890712058130632e-01 -8.453052113134222889e-01 -2.701793213565127916e-01 -1.840878426416844293e-01 9.450475122991778276e-01
-6.416485000058924637e-03 2.061067346381376952e-01 -8.286747163622123491e-01 -6.809198275859625893e-01 -5.685294440340888933e-01 4.616518814719513530e-01
1.810440811620505838e-02 -5.052108208925615990e-02 -8.531641785493785379e-01 -8.358634413692443976e-01 -1.618169373567614200e-01 5.245451230989012226e-01
-4.283805431438274941e-02 -5.588517061219678422e-02 -8.775409779279862432e-01 9.918578020072291723e-01 4.788282495762239549e-02 -1.180056594891363136e-01
2.432577583043544350e-02 -4.329601546821440494e-02 -9.075368639023717598e-01 -9.248891626738700023e-01 -3.784520697696686087e-01 -3.679765828801335320e-02
3.321528706914416568e-02 5.732388379512536741e-02 -8.333096803452563206e-01 -9.592574513267759784e-01 1.088623166977936707e-01 2.607185035191157962e-01
-3.391930301889255900e-02 -1.637889675443731652e-01 -7.751262195771690955e-01 -5.205953531208384888e-02 6.019728540671478445e-01 -7.968177255491635247e-01
-2.460051903021124448e-03 -8.355146291222605159e-02 -7.589181213270871362e-01 -7.943948318849207713e-01 1.112878793724914189e-01 -5.971196353992241912e-01
4.147190863469843447e-02 -2.285584439472801155e-01 -9.667754938276329479e-01 -8.498259092777750157e-01 -1.995435453112858470e-01 4.878301932484352954e-01
1.877830783524246303e-02 -2.302671303937443015e-01 -8.810153969151163222e-01 -6.197393879265522543e-01 7.511122211620342715e-02 -7.812050917426438534e-01
6.172467434763034833e-02 6.845401907223987170e-02 -9.155257607269922104e-01 -9.664640957575352243e-01 -1.181699112054985651e-01 -2.279978589751544271e-01
-4.195743612202459949e-02 -8.826244974994447434e-02 -8.884910411187413315e-01 9.955255699254410562e-01 6.147174242748896372e-02 -7.176394991605458684e-02
-8.168193964590385672e-03 3.189856116881695930e-02 -7.565714376142670394e-01 -7.915996655609763843e-01 -1.831970937616941020e-01 -5.829312089097814509e-01
-2.599387256287983075e-02 5.195458558076557903e-02 -8.687029845279036211e-01 8.276932533371327283e-01 -2.382120381788073726e-01 5.081130811609670950e-01
7.143132051943947361e-03 3.681131246431494641e-02 -9.412565153835885656e-01 9.029619875248018346e-01 6.678430536207449926e-03 4.296685323023232694e-01
-1.956188766064602142e-03 1.875681213808623807e-02 -7.876416599052822320e-01 -8.611770469192745470e-01 4.894314920343670883e-01 -1.372257572921747881e-01
7.290933424371934604e-03 -2.937629374626942735e-01 -9.378845376667775957e-01 1.742366076542879727e-01 9.504942749004099412e-01 -2.572979555586659139e-01
5.522319567892022829e-02 -1.481813305252315145e-02 -9.884793619131104769e-01 -8.732087774041189521e-01 5.403933604022193027e-02 4.843409761983140660e-01
-1.668148361525886511e-02 -7.802364532455968726e-02 -7.437950696299916453e-01 -5.990893108728286842e-01 1.821063266125385882e-01 -7.796982002067252004e-01
3.643882946442409537e-02 5.233648020370054721e-02 -8.726604833296096597e-01 -4.918946593937420508e-01 8.451588664185583077e-01 -2.091557662939557694e-01
-1.603202006053089379e-02 -1.516279233610952903e-01 -7.810319284017783747e-01 -5.595399500528634995e-01 3.422694662521914566e-01 -7.548288923764635561e-01
-2.055953502133115937e-02 1.481022522139563147e-01 -8.419512536578976913e-01 5.788458596516813381e-01 7.644970362237046846e-02 8.118453754134206113e-01
-4.087367535837502924e-02 -1.307866548759433756e-01 -7.543556874416794678e-01 1.113518484068908854e-01 4.900341753432913561e-01 -8.645618964839876242e-01
-5.844337942745461700e-02 -7.843166582759405342e-03 -7.453539600983830615e-01 9.944903394096408222e-01 -9.980113618606231696e-02 3.207332282237906201e-02
-3.259712481548907720e-02 -5.480778037644628252e-03 -8.846049776956129707e-01 7.902633701792937115e-01 -3.299766725737217632e-01 5.163324523115307985e-01
2.514283233827816627e-02 1.473537053209547920e-01 -8.242843797030734443e-01 -9.487052176106873791e-01 -2.958083740685262253e-01 -1.116056266914584455e-01
-5.819151847104973851e-02 2.522661814474392861e-01 -7.935232359606047003e-01 -3.840977305588825774e-01 -3.770429413821769771e-01 -8.427974571232356160e-01
1.086998097227328576e-02 1.192545439942974961e-01 -8.612643025502197958e-01 1.686663961655372745e-01 -9.149087988405053551e-01 3.667336044170944609e-01
-1.605272549954840644e-02 -2.514790979984999342e-01 -9.417186588866984787e-01 9.454865268953036583e-01 2.049444930765510764e-01 2.530869064512262789e-01
-4.557947346965603858e-02 -5.915408445353918798e-02 -8.394357580364354421e-01 9.100437996164407739e-01 2.664112680651212761e-01 3.175615200675384608e-01
2.740394859918847403e-02 1.198351493687839584e-03 -9.760451095769372420e-01 7.864704106594773148e-01 -3.653650485112817578e-03 6.176171500171003803e-01
1.970258417018139543e-02 -6.626826682171763072e-02 -8.474983292273927660e-01 -8.807135311122256116e-01 2.573522826921791351e-01 -3.976348560035445345e-01
-3.653122750067361313e-02 1.580771673230794983e-01 -8.205246637064853577e-01 8.909078922156454805e-01 4.413090579422019322e-01 1.073752437298384904e-01
2.126011272637929120e-02 -2.260470124524720514e-01 -8.839316901911893343e-01 -9.424061219963448810e-01 -5.723746967877129527e-02 -3.295369073238716418e-01
-8.420443620583718813e-02 2.474946814915509608e-01 -8.305887958555998596e-01 3.422727193297877002e-01 -1.204490834688218825e-01 9.318483803141544008e-01
5.172357973344871539e-03 1.492446207115947221e-01 -8.469389212761441188e-01 -2.705428602877600897e-01 -1.654841893045727874e-01 9.483783758803897568e-01
-3.783698432243009363e-02 -1.796140967985910275e-01 -8.636010657179836736e-01 8.775149506688778578e-01 1.477966113402462978e-01 4.562057354187220581e-01
-5.021459908522427074e-02 -9.640382406069458732e-02 -8.091909973265523082e-01 9.656526198784329829e-01 -2.984015835917648921e-02 2.581173815747745959e-01
1.536790404997763829e-02 -1.995002369208024040e-01 -8.492465234628790993e-01 -8.721588037047371955e-01 1.929232943796637956e-01 -4.495771609034641680e-01
-1.280163096539704490e-02 -2.528963590591005173e-01 -9.498798976144985362e-01 8.591635390004733752e-01 7.933724803567196449e-02 5.055132187453738046e-01
-7.589392716321937890e-03 -4.629294528449696272e-02 -7.484708566750265524e-01 -6.938053212129382530e-01 -1.341025798271059388e-01 -7.075667278358460655e-01
-2.646930305647945958e-02 -2.429929704129480117e-01 -8.548592671386179287e-01 6.471782902102201085e-01 6.516868791548120488e-01 -3.955559027723354881e-01
-7.459965585799620269e-02 2.605878323185184531e-01 -7.941081270076655318e-01 2.329496337997903274e-02 -6.400117479943741028e-01 -7.680119185991263198e-01
-4.260103175435595718e-02 -1.853176120454858578e-01 -7.968679895087312781e-01 7.118673593579811776e-01 6.032615915551992058e-01 -3.596113385795599027e-01
-5.359798258640276897e-02 -3.306899028233985238e-02 -7.301946059729542693e-01 6.645668998438439834e-01 6.175484686204360876e-03 -7.472032514790287738e-01
9.322211886573209330e-03 -2.448295625411280596e-01 -9.717260363610541463e-01 6.453404860682235844e-01 -8.312263177692970351e-02 7.593591279017497531e-01
-1.078365817707974995e-02 -1.036485218735985585e-02 -9.268469242320289680e-01 7.728830799297217169e-01 -3.924600679014874638e-01 4.986249490961189856e-01
3.108455348179449667e-03 1.414377739767661013e-01 -8.489121803616561657e-01 -1.724463466708004433e-01 -1.919842590119380799e-01 9.661285120580652697e-01
2.015604909463120445e-02 -1.960298083800253444e-01 -8.578972937279646382e-01 -9.061645514815543923e-01 1.615349349444366311e-01 -3.908609348997800770e-01
-4.661441864051515775e-03 1.641461415646848498e-01 -8.465127944258036274e-01 -1.117262563605521952e-01 -1.210402821196451539e-01 9.863399483667143475e-01
2.690123229320930294e-03 5.219290661234952250e-02 -7.792399561189777835e-01 -8.430599305294560475e-01 -1.575518831386284180e-01 -5.142250068356658543e-01
-4.241343157174888578e-02 -1.954507373518325486e-01 -8.368320245915149558e-01 9.904481270812620641e-01 3.792595969719164684e-02 -1.325674512927935977e-01
2.513897981292865028e-02 -1.287546577704866413e-01 -9.027825049623613429e-01 -9.364319445622957261e-01 -3.399654587829993302e-01 8.671043788231246052e-02
3.483680175770672433e-02 7.649233411984754372e-02 -8.315712307473048792e-01 -9.391202567712744198e-01 3.054765900054383712e-02 3.422279705860437060e-01
-4.855403408154777140e-02 2.451962730089731202e-01 -7.952563447117817486e-01 -4.761025731230540958e-01 -3.651390168087353949e-01 -7.999998989184667897e-01
-6.524091559249008132e-02 2.395137733468113428e-01 -8.351859301242008371e-01 1.073345466524726760e-01 -1.402484684891917299e-01 9.842812922032726508e-01
-4.238770774411961678e-02 -1.610210289201509382e-01 -8.375184843470724338e-01 9.972717416398564350e-01 -6.460386845355639562e-02 3.571293193568939733e-02
5.441536569244117411e-02 8.034354236792340398e-02 -8.946911360444963490e-01 -9.498134372846533946e-01 -1.287005334230147402e-01 -2.851150768551936054e-01
4.327971716814566633e-02 -7.751104988465851164e-02 -9.536831799078283600e-01 -9.698057439200746810e-01 -2.428500080054114274e-01 -2.237616301786803097e-02
-4.692706262729930133e-02 3.310961833915688352e-02 -7.791811370014521954e-01 9.514805295499502158e-01 -2.620064294302081875e-01 1.613611874788352940e-01
-3.440334484651568631e-02 -8.363906506151230769e-02 -7.362413710217828866e-01 -4.364485510336098550e-01 2.333362318843828498e-01 -8.689458355908380449e-01
-4.219739669970396651e-02 -1.041504777222502232e-01 -8.266228616492474757e-01 9.569276478236240502e-01 1.341859645869202672e-02 2.900162376485586058e-01
5.432945292022423392e-03 -2.237066474162457685e-01 -8.456949719136803711e-01 -7.815731253885600527e-01 3.603696668544292825e-01 -5.091926481024501294e-01
-4.026097503944858075e-02 -1.214534500426057845e-01 -7.492776685514607182e-01 -1.116727994507593913e-01 4.336789012709238444e-01 -8.941206833841138790e-01
-5.195741115633599472e-02 -1.642892324592949149e-01 -7.990678796838224240e-01 9.253617644658778119e-01 1.965714972283602868e-01 3.241377042893929805e-01
-3.730021941721717998e-02 -1.068263598274010184e-01 -9.082653950902992435e-01 8.518238913225775200e-01 -2.988920013090332062e-02 5.229748501482613943e-01
-5.650302528525751045e-02 2.285315311906348235e-01 -7.909124697014882077e-01 3.206003229799903737e-03 1.257157619143727256e-01 -9.920611214787016241e-01
-3.621997872789083084e-02 -2.155051410916072607e-01 -8.273184663264816496e-01 7.615968447379056760e-01 5.373875494376180173e-01 -3.621945165166063352e-01
-7.642498777341275723e-03 -1.340338831583654799e-01 -7.805732688080051496e-01 -8.765385185803801216e-01 3.642919515651230067e-01 -3.145975198087022084e-01
-1.259783402809471452e-02 5.812680559971317162e-02 -8.883382645835199432e-01 7.970864562989945501e-01 -4.661008393866394317e-01 3.839312291384761600e-01
2.371102576626372971e-02 6.446038724078088922e-02 -9.484084737933549114e-01 7.730501834655321147e-01 -3.992151006028746285e-01 4.929713148800278777e-01
-3.787178373671148263e-02 -1.759980550028224511e-01 -8.649323788271621183e-01 9.114971799849747036e-01 1.537423669467223586e-01 3.814920385605155562e-01
2.153057502666875459e-03 -7.514202154509801168e-02 -9.635610885562356787e-01 8.190374912832547594e-01 -3.175535732495205626e-02 5.728605285351722198e-01
1.169051414590009143e-02 -2.660547869859158573e-02 -8.098378698697153988e-01 -9.984678442716249380e-01 -5.435876055222154529e-02 -1.034838667620505831e-02
-2.053066122873344404e-02 4.114432511766898115e-02 -8.808632676001134643e-01 8.739318282015973161e-01 -1.195076135161684400e-01 4.711274667941617311e-01
