-7.146460371376654568e-03 -6.914673792123950113e-02 -7.858930680467425267e-01 -7.641671786914258080e-01 -4.075084256629396551e-01 4.999854058115086319e-01
5.472990448832961569e-02 -2.715952485298219199e-01 -8.070589705714051876e-01 -8.398429901469102177e-01 5.207551882416363576e-01 1.532246253724079688e-01
-7.160395449290160585e-02 6.322950245819220806e-03 -7.577701742541858021e-01 9.126388592916936382e-01 2.474123534392569934e-01 -3.253881372705593189e-01
-5.629005574481362600e-02 9.901737895406169387e-02 -7.060855770822332955e-01 9.317638433778259177e-01 -2.093055563519478357e-01 -2.966602842545386642e-01
-4.373432055876568664e-02 -5.309487962103378450e-02 -7.004769014119344162e-01 9.389002979209883915e-01 2.464103047483178210e-01 -2.403085355906455223e-01
-1.669909488026026512e-02 -9.936778948010306645e-02 -6.983467708001410701e-01 5.154854052770235784e-01 4.100549001962455198e-01 -7.524159592748081993e-01
4.697252118427834577e-02 -1.812448597185353782e-01 -7.536263366583931811e-01 -2.086314345816533689e-01 -7.759116963678946988e-02 9.749115523465686772e-01
2.999023843365008005e-02 -4.953454855466161988e-02 -6.016345632707553737e-01 6.101369333891543123e-01 3.405903041997206948e-01 -7.153538755047186282e-01
-3.170497263763345092e-02 -1.110028066081424902e-01 -7.150704443918506348e-01 8.116253390138046253e-01 2.782271478425027977e-01 -5.136671716920917508e-01
-1.216836389174546784e-01 2.059142198690153414e-01 -5.613604210493152724e-01 3.160402221775124310e-01 8.917314087290588442e-02 -9.445457791514657586e-01
6.918619354027535917e-02 -1.261067640551118973e-01 -7.130264015370887387e-01 -6.423430183961656992e-01 -9.040732906951326475e-02 7.610663319108393887e-01
-6.231843619485769731e-02 -8.504980153360279516e-02 -8.068859612530820957e-01 8.688897316712386187e-01 4.715322821858175528e-01 -1.506251673954832893e-01
-8.683699253390773920e-02 1.845070289752697990e-01 -5.804904883833020834e-01 -3.674309454317055135e-01 4.741197533929518149e-01 -8.001280896092634043e-01
5.886439475685204675e-02 -1.000266070639364846e-01 -6.120638348604913181e-01 6.647621554674738586e-01 4.969448353815295594e-01 -5.577966540289235331e-01
3.351372992060311362e-02 -1.864244814141845230e-01 -6.909551425153658277e-01 5.865447492432823706e-01 3.824827794516377777e-01 -7.139132864417672142e-01
2.408885064270616452e-02 -2.622958086799498378e-01 -7.781776694931884508e-01 6.326067977314374646e-01 6.004028815918203144e-01 -4.892085641525656392e-01
-1.058377994681724242e-02 5.433299519978443404e-02 -7.161356092623849534e-01 -7.477721084144319796e-01 3.838748928538599503e-01 5.417351202514681940e-01
1.303803301667787184e-02 -6.327648763151877409e-02 -7.487030191599749473e-01 -7.740264134860804779e-01 -3.809012888548853337e-01 5.057640945881414218e-01
1.427917435187594022e-02 -2.775200595225075784e-01 -8.102639597943772642e-01 6.393690325034105948e-01 6.193011062973743375e-01 -4.557119485096929878e-01
-4.005604124045738373e-02 3.870430199780873493e-02 -6.567931451598796322e-01 6.982577768620610303e-01 8.171507117121434849e-02 -7.111671562967003535e-01
2.324974399751171192e-02 -2.747331109892808265e-01 -7.940635622192052656e-01 6.331817832158475046e-01 5.906586576753942719e-01 -5.002031382515518265e-01
3.411428021106940878e-02 -1.242071881411778711e-01 -6.505243443353985189e-01 9.199375835419960623e-01 3.798476209214107779e-01 -9.711141677093018676e-02
6.248854082061504334e-02 -2.156312408243707957e-01 -6.939239464468225371e-01 -2.842873715351060954e-02 6.988180671701824664e-01 -7.147342974143517935e-01
-6.083074579399236348e-02 -6.554852154777622564e-02 -8.352726667173627773e-01 2.811716045495700200e-01 1.256517331747884492e-01 9.513959064160367740e-01
-2.185014852708060465e-02 2.744676797907987659e-02 -7.714920194612254756e-01 -7.871432573716015124e-01 -4.907287591998121257e-01 3.736184916042537552e-01
2.688369497476568101e-02 3.617696593422845691e-02 -5.937474966033987611e-01 -1.252994272642919960e-01 -5.165773328474749793e-01 -8.470229705949121612e-01
1.613997992827316888e-02 -1.230449354619166380e-01 -6.820804171562490081e-01 6.949638457074560627e-01 3.304868272526934603e-01 -6.385951065988145769e-01
7.342331818458819326e-02 -1.111664188696086936e-01 -7.021298079869000563e-01 -8.397078801466061337e-01 -2.806400995329494941e-01 4.648997854955721487e-01
-2.540561255108371788e-02 -1.603292634883507206e-01 -7.643986218511409358e-01 8.918535093303500139e-01 4.403904132023332973e-01 -1.032162867701477277e-01
4.601106586876661103e-02 -2.339580734040770660e-01 -8.112592554166245806e-01 -9.173144410833828921e-01 2.778135221282858613e-01 -2.852259860225878629e-01
8.050132004339323466e-02 -1.678320786698567768e-01 -7.061876550153651788e-01 -4.414929446664263013e-01 1.679073418309249763e-02 8.971076028299841409e-01
-7.941827621638566925e-02 5.219004416492128290e-02 -7.614754470571517553e-01 9.500070730456280366e-01 -2.378237337215720684e-02 -3.113213129229447373e-01
8.643165822319386071e-02 -1.464937994430539625e-01 -6.526387492670648882e-01 -7.316622591958855670e-01 3.665531644016112867e-01 5.747252527386784715e-01
-5.876639568259364038e-02 -3.887181258551750812e-02 -7.283980021945770655e-01 9.369948553643384637e-01 1.169968494653221003e-01 -3.291692243147148478e-01
8.106265529590049590e-02 -1.568485286410410684e-01 -6.455127081990471583e-01 -7.933168618660110250e-01 3.934620575443736334e-01 -4.645814954903098037e-01
8.036664265298944232e-02 -1.954429340001329618e-01 -7.252361297523228778e-01 -9.532442034007646559e-01 -6.640130722175732747e-02 2.948157985625661781e-01
3.176433544900528552e-03 -1.391346154542205948e-01 -8.039503323832476456e-01 -4.201572843800988610e-01 -7.513853922213767911e-01 5.088102286104992933e-01
1.119744612007091307e-02 -2.577330235667355529e-01 -8.428171618297852774e-01 5.670007865018855675e-01 1.578182121181223307e-01 8.084574942630459171e-01
3.915109012616460778e-03 -1.376997948206765410e-01 -8.012214895554446992e-01 -4.201572843800988610e-01 -7.513853922213767911e-01 5.088102286104992933e-01
4.180002308352478296e-02 -2.819228081454693835e-01 -8.005295073428758679e-01 -4.253977830961873652e-01 8.886942433314958256e-01 -1.710534068830820986e-01
2.501443161468843573e-02 -1.370274305844882690e-01 -6.791865660439839747e-01 7.106022172329524711e-01 3.100133049544360753e-01 -6.316139957401514238e-01
7.957331612480246508e-02 -4.428240145113750137e-02 -5.975403196288745500e-01 -8.358803434812597244e-01 -4.021390146515219782e-02 -5.474366570760514916e-01
-1.649012822393054051e-02 -2.039858190834567819e-01 -8.326884114866421882e-01 7.134644355025855367e-01 2.249333663111803550e-01 6.636064194934354621e-01
3.453531856176428327e-02 -1.174837491044749133e-01 -6.434091650542108631e-01 8.260735828434320194e-01 2.990897634628941204e-01 -4.776481436370562106e-01
-1.387356397708195549e-02 -2.057597105135070548e-01 -7.900273004257046816e-01 8.400885409593303876e-01 5.130708375876801286e-01 -1.760953121633274110e-01
-4.590907131933164020e-02 5.136077041872047499e-02 -6.612831956503312236e-01 7.266686156716886114e-01 7.302824210050726239e-02 -6.830956000835470832e-01
-3.412732552279588299e-03 -1.890438116980599215e-01 -7.369336104342801841e-01 3.925113660106319680e-01 4.067154934984372749e-01 -8.249347458440515757e-01
-5.439313147464847759e-02 1.711140761509451214e-01 -6.059723606640415872e-01 -6.375411377698484428e-01 5.237550539785883891e-02 -7.686339207226325909e-01
-1.100374504676684267e-01 2.304994113569052427e-01 -5.842764109743628920e-01 -4.535125219745927277e-02 -9.976935853030408641e-01 -5.050518556827886946e-02
2.777133013278317714e-02 -2.927953445395251042e-02 -7.007543480720310747e-01 -8.789160190281942731e-01 2.203011104468808601e-01 -4.230532498770125382e-01
2.849336281769384097e-02 -4.070033177074369735e-02 -7.013515489713619822e-01 -8.582845101584012371e-01 -4.505380138771901133e-01 2.456892298692602838e-01
-5.959690944952954900e-02 1.345353229138427087e-01 -6.700138469254381945e-01 8.067442519298281267e-01 9.796151698363192439e-02 5.827239939872457253e-01
5.953361234855655132e-02 -1.493513409716949736e-01 -7.461283439468577861e-01 -7.674207023867457567e-01 -3.737099841958487212e-01 5.209667103189730142e-01
2.379819984728574062e-02 5.810031559853690020e-02 -6.130201340775638386e-01 -4.322306849234108794e-01 -7.285862172285069160e-01 -5.313555862840758648e-01
-5.326217275237657423e-02 -9.658796919903141209e-02 -7.818127495714246589e-01 9.240099272171666822e-01 3.442253717230437382e-01 -1.664768688624896353e-01
3.420089424642050457e-02 -1.740720607434738665e-01 -6.865247725057390671e-01 5.253144137982629358e-01 2.818687019647511671e-01 -8.028666150167745874e-01
9.116359135253251922e-02 -9.250125899197866874e-02 -6.506693184762778470e-01 -9.898028053127182480e-01 -1.134286400814750601e-01 8.616466911873246759e-02
-5.021620843257997707e-02 1.498517189562584284e-01 -6.145679840323886589e-01 -3.823857515850208055e-01 3.333839939803244223e-01 -8.617634533574082267e-01
4.684570076267632888e-02 -5.697628821744148836e-02 -5.926114589031432622e-01 4.804206617756210385e-01 3.022786439389184565e-01 -8.233004367529040968e-01
-2.779030846122453394e-02 1.510453648902335133e-01 -6.297727177599734549e-01 -7.274055909244726559e-01 -1.087304771518420726e-01 -6.775387735252879073e-01
4.676655610653362299e-02 -1.883820798337897673e-01 -6.832760657256036207e-01 5.537093179157974721e-01 4.128370399179767114e-01 -7.231677327736528715e-01
-6.581493039028481207e-02 2.555591023183952787e-02 -7.263039403175679531e-01 8.267214522963437506e-01 4.171881797961908278e-01 -3.774727314010452583e-01
1.197436689482214017e-02 3.650239359982204029e-02 -7.015751952603508368e-01 -3.301920134246409955e-01 -1.568527863562069746e-01 9.307902221676351839e-01
3.583227262279178177e-02 -3.801867219363003897e-03 -6.771328196919690345e-01 -6.122038136866710945e-01 -4.210119117816599199e-01 6.692947487060146861e-01
-3.635414384575578334e-02 -1.375174440120805752e-01 -8.318368522529343556e-01 5.343935641866086605e-01 2.212009563646618049e-01 8.157779449453704812e-01
-4.747876822220292725e-02 -1.173737465757661996e-01 -7.679157531046175711e-01 9.947516991990887902e-01 -1.017258482277105386e-01 -1.099585116662554762e-02
-5.557015466434809398e-02 -9.240405562437944975e-02 -7.861114551486549917e-01 9.272959985148853113e-01 3.314286035290779364e-01 -1.740034824394250945e-01
4.146828658401735535e-02 -2.748177833462408515e-01 -7.817111368372798852e-01 -1.721597411632512162e-02 8.884232345532419028e-01 -4.587022635012619753e-01
-7.270011409318466455e-02 9.095372136783638761e-02 -7.756476263702489771e-01 2.917819153321117853e-01 -8.292695544952372044e-01 4.766291219306632576e-01
-6.871944054364763355e-02 -3.471330592876253635e-03 -8.326576519688764222e-01 -2.660878455352460037e-01 -2.576337351448438340e-01 9.288821868104304436e-01
1.851818991918228671e-02 -2.925955397256053137e-01 -8.246629322249015015e-01 4.405723518022239826e-01 7.716093970510489175e-01 -4.588190724130525866e-01
-4.326977054239193187e-04 -2.406999823224291457e-01 -8.255720500844944132e-01 9.658049120115331787e-01 2.394192465339822773e-01 9.949520754033867875e-02
-9.988727808686545008e-04 -1.534918253705633562e-01 -8.245408574090935527e-01 -4.371324938971066776e-01 -5.524045946968536569e-01 7.097635849612889958e-01
-6.744849552455460528e-02 1.332459489414996312e-01 -6.447167748008799659e-01 8.293616526865281724e-01 5.526215976638789718e-01 -8.227161629925937303e-02
-2.528801900944293093e-02 1.406463354490386508e-01 -6.312470348676211263e-01 -6.000461741748502886e-01 5.927206444095647897e-02 -7.977665142352317051e-01
4.197368072912831261e-02 -1.477904858539390576e-01 -6.617284055761679662e-01 8.052798390282364105e-01 4.149931166353952872e-01 -4.234443221958454351e-01
6.717175111358558715e-02 -2.321449550088428571e-01 -7.581557340449337490e-01 -9.251316670495687289e-01 -1.172813853563929726e-01 -3.610768273802282824e-01
-8.662716414531427406e-03 -2.144529428183808428e-01 -7.800428506241179338e-01 9.460482009692205985e-01 3.192138585930716088e-01 -5.563554551744568505e-02
4.286260796400291617e-02 -4.392852425401853195e-02 -5.901128018495459537e-01 5.482188173452633428e-01 2.919431788069311584e-01 -7.837252762650093185e-01
-3.837711431165906351e-02 5.691785441009180463e-02 -6.536918318884481494e-01 6.656368475986214062e-01 1.120765237187151403e-01 -7.378119272213604640e-01
3.020350946963707914e-02 -1.184684060484651053e-01 -7.412461717840501674e-01 -8.070023589031570799e-01 -5.445346859494243352e-01 2.285370178389088403e-01
6.611295105663141103e-02 -2.271594878130157869e-01 -7.803447561674911048e-01 -8.362229549886590618e-01 -3.554589145442603737e-01 4.175884692146702992e-01
7.367155596012101015e-02 -1.652497299601868030e-01 -7.249936891088778479e-01 -9.101292653392267784e-01 -3.934318260623722030e-01 1.299081160447903005e-01
6.777435726156956497e-02 -1.481572969019025465e-01 -7.119710491960908882e-01 -1.914540285998517777e-01 8.320335255205968394e-02 9.779685869479575189e-01
-4.059975804494499879e-02 8.395982270643707890e-02 -7.688024023311499366e-01 -6.402050487328931894e-01 -5.808707360121040386e-01 5.027192890885233689e-01
-5.697692434368432923e-02 9.372229994269505593e-02 -7.058990144488744845e-01 9.447236847394274717e-01 -6.577520275047024634e-02 -3.212020893386179354e-01
7.805235464787302346e-02 -2.159007456363586097e-01 -7.324982505259507448e-01 -9.796102447576475747e-01 1.137578684867089490e-01 1.655986585791762999e-01
2.592782121004460864e-03 -1.985771860605320752e-02 -6.257398227374790789e-01 7.896357694847174757e-01 4.966974723590377727e-01 -3.602318316062880221e-01
4.705047665391701162e-02 -2.256565757018981211e-01 -8.175763720900465215e-01 -9.863819139792281421e-01 -1.088614288209469455e-01 1.232879113690249356e-01
-2.942873533743198960e-02 -1.640394970748186576e-02 -8.094219246893314956e-01 -7.885094044346170339e-01 -1.903181961767899943e-01 5.848349368173710872e-01
7.944926618483059977e-02 -4.452282050144284326e-02 -6.431101542656343373e-01 -9.045325233533467735e-01 -3.340248854563002134e-01 2.650439399268216256e-01
-4.503340598597058153e-02 -2.205436078999896757e-02 -6.874437109354635256e-01 9.407093507617703132e-01 1.257726769967287828e-01 -3.150351585306711555e-01
-8.198442365261057740e-02 1.174937136187946150e-03 -8.012611803045471826e-01 9.086694501499373855e-01 3.943354855864844577e-01 -1.371836548991236526e-01
-6.902139770791280993e-02 2.083011018764415190e-01 -6.146243122057670760e-01 -5.304347397710971190e-01 -8.398312047860437835e-01 1.154232832299918188e-01
1.681386910721364633e-02 -1.529218018611245289e-01 -8.009713214443580087e-01 -6.791568064159722029e-01 -5.012014736282371929e-01 5.362304682986048787e-01
-5.283481333950857534e-02 1.027358537064426702e-01 -6.936368203266397581e-01 9.744774064123739032e-01 -1.822965279109333703e-01 -1.310029018893520969e-01
4.201913399380843850e-02 -1.948155468048750616e-01 -7.843709652956417644e-01 -9.792395833731704080e-01 -1.230947032256034385e-01 -1.610513346512241206e-01
-9.310045018275241863e-03 7.307225333813632817e-02 -6.261501856074584982e-01 4.565084454924091539e-01 -3.197773247964291743e-01 -8.302665245209776002e-01
-1.006653255475765396e-01 2.179900489683818943e-01 -5.653810549912936523e-01 -4.732237371849704055e-01 -4.271558734072297692e-01 -7.704525646517095261e-01
8.575107902648056168e-02 -7.674542796007484402e-02 -6.574585354961730577e-01 -9.026464177224113872e-01 -2.441071358320456575e-01 3.544589550410220946e-01
9.009460266942564965e-02 -9.075175494774802287e-02 -6.541071550895238840e-01 -9.481490725998610314e-01 -1.417738503467216582e-01 2.844530040022228978e-01
4.698316818102463155e-02 -5.407174932453781557e-02 -6.930000783096607053e-01 -7.402883898826166931e-01 -6.597412177418590096e-01 1.292850548883814066e-01
-7.249722962050150765e-02 -1.843944876797846619e-02 -8.342163823271423473e-01 5.795949124241012163e-01 5.494414968885294459e-02 8.130503538570457156e-01
-1.962142890055642522e-03 3.915907939004814597e-02 -6.151135608618846229e-01 7.679405072834918355e-01 1.542979819698518033e-04 -6.405211577030895942e-01
4.305848171912386030e-02 -2.347735229747032193e-01 -7.259984940423620525e-01 5.260473752789902591e-01 3.535596892870709329e-01 -7.734789622693787337e-01
-8.524157170181574650e-03 5.202354636049559555e-02 -6.229039796652078298e-01 7.550635770930244073e-01 -6.277984187899530695e-04 -6.556512795813271843e-01
1.552731298599457910e-02 -1.316876725924122915e-01 -6.868198952597143192e-01 6.509352609053687955e-01 2.796287070675493869e-01 -7.057556746451211227e-01
3.656717987242433937e-02 -1.748881903990680831e-01 -6.850411732848388224e-01 6.027783993399339346e-01 3.199980747534862946e-01 -7.309305257295313218e-01
-2.973032166168039850e-02 -5.296812553016218977e-02 -7.925163913925725723e-01 -9.334275974564419931e-01 -1.792264145179324752e-01 3.107906250930690395e-01
1.346619251670063550e-02 9.496021548704317028e-02 -6.761008591051741456e-01 -9.264364251227671376e-01 -3.753541856640541519e-01 2.871907920219818680e-02
2.655100653994619045e-02 -1.799968857875776096e-01 -7.944829179592726165e-01 -8.361818345338221103e-01 5.479351414002492371e-01 2.381219045658640107e-02
6.588028959556299635e-02 -1.379164704684725795e-01 -7.138802108471513641e-01 -1.782831453421190870e-01 1.976050824887759516e-01 9.639332712701251804e-01
-3.091452447711492621e-02 2.191082686974841348e-02 -6.492011599237095254e-01 7.521826173143466576e-01 9.793179693800686814e-02 -6.516369183514943986e-01
5.164133365757429123e-02 -6.549887972275633685e-02 -7.012391585568129582e-01 -7.177203972817790545e-01 -5.006026075114076157e-01 4.840190705731181042e-01
-8.731505949437239067e-02 5.082726862126416695e-02 -7.941868301972698774e-01 9.956809233391876734e-01 -6.048627371452088702e-03 -9.264401224765761445e-02
7.476745800366171868e-02 -1.367554113218826146e-02 -6.138754027689706794e-01 -9.145773044136581431e-01 -3.342417167548543122e-01 2.276638509562174950e-01
-1.111543656741479508e-02 6.839753256232725120e-02 -7.239985339610400805e-01 -9.027831960243579701e-01 -1.571755373957214597e-01 4.003477880798290700e-01
1.748462876079730915e-02 6.807539098721411552e-02 -6.556254293680600087e-01 -8.369230787480583800e-01 -5.166288771618225972e-01 1.807051840467944204e-01
-6.449008012744959772e-02 -6.979552694518363631e-02 -7.847862490174244421e-01 8.141383275890906601e-01 4.857495881070664767e-01 -3.181605274138415984e-01
-2.264266144694366753e-02 -1.340928914185463006e-01 -7.196832153669416865e-01 5.442818549906766057e-01 4.124404937643205149e-01 -7.305135874378735350e-01
-6.189434976909668346e-02 1.460774667114298105e-02 -7.260614347804345003e-01 9.065407725021142893e-01 2.515021998738314890e-01 -3.390139691073115746e-01
5.814652421376458047e-02 -2.222109065187832522e-01 -7.854947142075561217e-01 -2.994950548766030507e-01 -6.287277518542833121e-01 7.176378795414295464e-01
-1.142575342411549649e-01 2.291838546057537174e-01 -5.907021481729325396e-01 2.253269393189486214e-01 -9.243878360956239160e-01 3.077903489318737362e-01
-5.578844818132863703e-02 -8.074175182009339646e-02 -7.698410067482136521e-01 9.209406841980140035e-01 2.970130996124914491e-01 -2.522924391405222400e-01
-5.916674657459563809e-04 1.225329865565959464e-01 -6.701007531111983218e-01 -8.179449592714266304e-01 -5.683810912122387871e-01 8.893243927189289910e-02
-7.750486007130545640e-02 2.143383517262154592e-01 -5.982702141589359979e-01 -7.086831230365657763e-01 -6.688106444793630034e-01 -2.246342648712325307e-01
2.161932459069838136e-02 -2.933754616591034425e-01 -8.238955266340671768e-01 1.842508845208313817e-01 8.827550609782643942e-01 -4.321980030848727172e-01
8.214551075566349503e-02 -4.561159823883767506e-02 -6.050489031697593445e-01 -9.962300169694682239e-01 -5.184465813440452403e-02 -6.955490429825883503e-02
-3.107746359094363826e-03 -1.517217740467101117e-01 -7.156587000283217703e-01 6.326191208767300012e-01 4.536981805726299499e-01 -6.276551671469285942e-01
-6.760235768522873667e-02 -3.484562565026055880e-02 -7.676205265394199229e-01 9.847349293110191359e-01 2.496082353222423694e-02 -1.722616506463802155e-01
2.283530939211550741e-03 1.015292361047381298e-01 -6.907972099536318078e-01 -5.433445147502430350e-01 -3.662030984184289073e-01 7.554283744999028549e-01
8.201767636560673702e-02 -6.498479687679716010e-02 -6.092414098167238112e-01 -9.485894558338692217e-01 -1.214896179745792448e-01 -2.922641219944641655e-01
1.518551832050260564e-02 6.178538294612767601e-02 -6.960321675116762918e-01 -5.726320792413519545e-01 -1.930759684770990414e-01 7.967522652746940048e-01
-4.269342532624846587e-02 3.988445155433992251e-02 -6.592494186123656341e-01 7.034388273202516473e-01 9.865951225126579072e-02 -7.038750719130858480e-01
7.879436849534643406e-02 -1.004244602620522342e-01 -6.822743698198463491e-01 -9.130810249126869449e-01 -2.841389637077900709e-01 2.924860530819550775e-01
4.534905690748552293e-02 -9.436198847897901698e-02 -6.231796183002087375e-01 6.592307660049311346e-01 3.581705736395843775e-01 -6.611570443784461348e-01
-1.130086033204027833e-02 1.317789887830736750e-01 -6.794111626920114055e-01 -6.564951299322051570e-01 -6.110125822603619250e-01 4.423547995611911143e-01
-6.281362521078871775e-02 6.132320580635731988e-02 -7.173273178160809449e-01 9.311833663809176986e-01 9.990121217055287345e-05 -3.645511324838389133e-01
-1.027385939110572188e-01 2.290550078923593580e-01 -5.833576183765457612e-01 -3.180712534066083563e-01 -9.345760579934634382e-01 -1.593683456077379657e-01
8.208435283298731733e-02 -1.106050827831293604e-01 -6.814683016110412161e-01 -9.311463646329976029e-01 -2.486637831030401591e-01 2.667072751231898686e-01
3.104754375095048965e-02 -2.564204699298259227e-01 -7.616279957079706842e-01 6.591998144919029023e-01 5.763564993831550298e-01 -4.829790784212459887e-01
4.890695896668919435e-02 -2.678939205535271761e-01 -8.180944565397412216e-01 -3.655355305982903591e-01 -4.140612823594668757e-01 8.336288324674600014e-01
-7.016445517462191472e-02 -5.501784864478043158e-02 -8.068942570779966683e-01 9.950706689627789592e-01 9.548830078738516913e-02 -2.676468162906883025e-02
-5.122071372990506799e-02 9.800258072141257437e-03 -6.974284327575779319e-01 9.592403827662226989e-01 1.349076423282392079e-01 -2.483099194795618248e-01
-5.210066376174013469e-02 -1.137958382606666860e-02 -8.297221845642925864e-01 -4.943543143566788700e-01 -1.717443809242454600e-01 8.521253895395241029e-01
1.523382210883919910e-03 -2.401982279206860138e-01 -8.348780811397291668e-01 9.167014681562739575e-01 2.169382397347799640e-01 3.355535999224367738e-01
1.242651389607308393e-02 -3.223627463102228530e-02 -7.162783656559387202e-01 -1.723967959832770902e-01 -3.118210880996239442e-01 9.343698163741522844e-01
4.401294666201138045e-02 -2.480933760837943092e-01 -8.302736883467780604e-01 -9.390355356322710456e-01 7.482187304070388179e-02 3.355800204638154094e-01
3.215651543407307272e-02 1.503205838599618385e-02 -6.676253695466857208e-01 -7.414667660013679606e-01 -4.680732233931914066e-01 4.807644875173082699e-01
-8.762407910384466259e-02 3.097758929784976897e-02 -7.921994818398081506e-01 9.944573341939004774e-01 -7.002246097502701216e-02 -7.843127837133444247e-02
1.495852905250667081e-02 7.277831473398910234e-02 -6.586642434028214810e-01 -9.019181127774410500e-01 -4.056141356160942735e-01 -1.483943760133376866e-01
6.131914525739811522e-02 -1.369045531668140470e-01 -7.264164336077612028e-01 -9.154754876258734964e-01 -3.959737125079402231e-01 -7.148042080771670193e-02
1.920009438266244775e-02 -2.947255970702772343e-01 -8.277454760147801016e-01 2.909353752498404222e-01 8.386234421987286414e-01 -4.605076868229131537e-01
2.122544743187271266e-02 -8.285300050551566708e-02 -7.494446512944848982e-01 -8.549821436654911899e-01 -3.037802527317992607e-01 4.203844574474246976e-01
9.226606610793979674e-03 6.165379092882609241e-02 -6.127810500399799576e-01 1.586223399444886828e-01 -5.708615694093548409e-01 -8.055780668824240598e-01
1.943012966458962029e-02 4.503987958708160350e-02 -6.958241849927646605e-01 -6.463416856670179955e-01 -1.440553739683410051e-01 7.493266808275007573e-01
3.650990646470335388e-02 -1.511439018787298638e-01 -7.763860203804918703e-01 -7.053361234986340600e-01 -4.274607533575405238e-01 5.654893962108605843e-01
-8.184492906083987163e-03 -2.173186923601456155e-01 -7.893528526963732306e-01 9.338762777135923843e-01 3.528808649294869482e-01 -5.788085253710874289e-02
-5.735612269059938567e-02 6.967243909851418560e-02 -7.033794410085898452e-01 9.437559589827569928e-01 -9.035317216307483384e-03 -3.305193684602124038e-01
3.445000519460112570e-02 -1.220399589504845006e-01 -7.537060298413827963e-01 -8.341047820998216400e-01 -4.413834048800663323e-01 3.308321362484128447e-01
-3.148798701656272542e-02 3.073681550509740901e-02 -6.490036349920693670e-01 7.388885577163742946e-01 6.604629762497152279e-02 -6.705830193539422668e-01
8.620858561655730945e-02 -1.833736741975988127e-01 -6.757976675624178808e-01 -8.765227514669676756e-01 3.563675474219250017e-01 -3.235893034469133345e-01
5.857832623438050806e-02 -1.317793425696600351e-01 -7.224205524699327530e-01 -8.876691872403147388e-01 -4.529952010435999710e-01 -8.269680680405543105e-02
-6.981437845979697465e-02 1.450980110015432922e-01 -6.579515210481319265e-01 8.396964051871780299e-01 2.858092795719421320e-01 4.617607636279833505e-01
-4.932257358034840972e-02 1.446555685197057906e-01 -6.775186325825338640e-01 3.899863702251304409e-01 -1.968104515176295199e-01 8.995422598255483626e-01
1.204881136055836223e-02 4.143065826587248590e-02 -7.008562214058184914e-01 -3.560001947467846262e-01 -1.147737369556618703e-01 9.274108316412331687e-01
-9.176414623322627639e-02 2.202378928956913728e-01 -5.769676279428451737e-01 -6.431674245782398325e-01 -6.329560107324007090e-01 -4.309319580155540064e-01
-2.525857384930928207e-02 -1.769525257163513388e-01 -8.179497390821265368e-01 9.278872961565340916e-01 3.670968679666754553e-01 -6.530738978380365434e-02
-1.292946858441243983e-02 -3.947178974849862437e-02 -7.552974859325289891e-01 -5.167879669392483333e-01 -6.778640881824368192e-01 5.229057995274021264e-01
-6.929971064836186467e-02 9.356476514705623637e-02 -7.728403263086796038e-01 1.445105284327174722e-01 -8.533357969302688417e-01 5.009338527684863429e-01
3.826186252142030342e-02 -1.334055447874830658e-01 -6.489047152043989630e-01 8.811628462012718321e-01 3.936456927567418274e-01 -2.619066762198675180e-01
8.079021584979462212e-02 -1.985384033647293045e-01 -7.243242372289885322e-01 -9.635386497842102216e-01 -3.563979022146350831e-03 2.675454511397092894e-01
-4.980855912748032716e-02 4.770025996671382884e-02 -6.682663643932147401e-01 9.409343335883990633e-01 3.860636429584357598e-02 -3.363809276852841590e-01
-2.673889153149589405e-03 -6.018777627961800075e-02 -7.711798195439389936e-01 -7.569229234923080529e-01 -4.304608104814388603e-01 4.917023271569093690e-01
-3.224344656524923830e-02 -1.464676373203454840e-01 -8.319271107809065313e-01 3.902087509671472443e-01 1.662104355933178845e-01 9.055999236796227203e-01
5.077028469221648438e-02 -1.936869813642352889e-01 -6.830111845072297516e-01 5.871948021361498293e-01 3.946659798275988784e-01 -7.067114182684536283e-01
6.416530113651930378e-02 -1.081878969569038396e-01 -6.118697250337308269e-01 6.657595439469363718e-01 4.182861672724570989e-01 -6.179004061433243100e-01
5.782518924554293227e-02 -2.076349349765666541e-01 -7.735551823564285057e-01 -3.575422141486221950e-01 -5.663358595191670952e-01 7.425814832894682693e-01
1.747751332533622678e-02 -2.035102296200252264e-02 -6.040506614380023453e-01 6.579252871033890449e-01 1.334629125805643357e-01 -7.411625783560822356e-01
-7.283036504686753176e-02 1.770380241095955154e-01 -5.917634618337939134e-01 -5.020173503153805283e-01 3.021650383760822733e-01 -8.103547800596386796e-01
-5.203137152380011426e-03 1.249924638542944909e-02 -7.463133146097422621e-01 -8.933837817147691762e-01 -2.997815937367582229e-01 3.346586538932869725e-01
-5.340893907699827831e-02 1.080611800444223475e-01 -7.108947133599746726e-01 7.722660732866857280e-01 -6.053523849798891909e-01 -1.927526966076570092e-01
6.007345172949966894e-02 -1.080577859281323105e-02 -6.452828385779847409e-01 -7.336952723973854118e-01 -6.076194970716775057e-01 3.041213475573329994e-01
-3.031704010725632271e-03 7.177326172473447174e-02 -6.225368309172139014e-01 3.454687431140934240e-01 -4.192365054262422452e-01 -8.395785252429702750e-01
-3.086472981658577169e-03 -3.690525311771335193e-02 -6.471242512549604253e-01 7.156498743861382517e-01 3.504006050063544486e-01 -6.042058203148042983e-01
1.019557001858600528e-02 -2.002478518993734691e-01 -8.332889497949050872e-01 -5.197198961777317328e-01 -2.091900565823359356e-02 8.540805727326190588e-01
3.670433412037673454e-02 -2.096022237740733374e-01 -8.240813256517472984e-01 -6.380522970942587024e-01 -5.555515755861836213e-01 5.331526170211009497e-01
5.854241746653744000e-02 -1.211409163964780183e-01 -6.241695428345982455e-01 6.219391790034328737e-01 3.233646734158470148e-01 -7.131808645828902060e-01
5.273711287771264827e-02 1.699794710700881090e-02 -6.326190443876626990e-01 -6.557004914525035311e-01 -1.427123502129351018e-01 7.414108514215621559e-01
-3.359431682587925815e-03 9.361540423574413183e-02 -6.454082644215218822e-01 -5.966961022737106157e-01 -6.468898006422578728e-01 -4.748550803733506687e-01
8.105885505399273994e-02 -4.804660397137778399e-02 -6.418325959903815603e-01 -9.143568569385802647e-01 -3.199486251044070806e-01 2.481620749897137379e-01
4.001725591769495632e-02 -1.961383398225743091e-01 -7.682686138121189723e-01 -3.116666079858456673e-01 -5.253469663272307688e-01 7.917540593122164294e-01
7.081771722153892834e-02 -8.042028615420630799e-02 -6.771750102617177802e-01 -8.122886361641887820e-01 -5.619974868324753015e-01 -1.560320363018570800e-01
-5.224141769110852290e-02 -1.070055436314507058e-01 -8.059961450506744063e-01 9.316381383602375665e-01 3.597903503676548875e-01 -5.100277379703319069e-02
-8.719824272614017102e-02 1.932585044517873621e-02 -7.875481093529124177e-01 9.767286427962977857e-01 1.489867846007232599e-01 -1.542857619990903595e-01
-8.742885510792188647e-03 7.069251416475920424e-02 -7.172436556905057436e-01 -8.923734706503226866e-01 -2.440872689919438843e-01 3.795931954020678734e-01
2.156145621969008178e-02 -1.880931265381403927e-01 -8.049355991406501598e-01 -9.576031315773716468e-01 2.057868354045112591e-01 2.016135431150588575e-01
7.914281418492688513e-02 -2.145768427605186102e-01 -7.262363289735076499e-01 -9.798219314683900283e-01 1.589457175767077513e-01 1.211826781251313656e-01
1.643590931228813834e-02 -2.249624310297892449e-01 -7.447113153127240537e-01 7.763952740126047747e-01 4.996589304043818069e-01 -3.841241098369661544e-01
2.413755452362406281e-02 9.359824124582792962e-03 -7.017509291863821552e-01 -6.482223280766861162e-01 -2.576280441345553673e-01 7.165442095629864783e-01
5.046816644592926754e-02 1.190255677075998872e-02 -5.884104812483862412e-01 -5.141561325487447043e-01 -4.406073653429075088e-01 -7.358726934518626805e-01
-4.700072539759153623e-03 -2.278971741909959214e-01 -8.024141141154612633e-01 9.327125820526021016e-01 3.599493509083714904e-01 -2.199327309451817869e-02
2.332303675821955496e-02 -2.357541852980685471e-01 -7.442023360831694356e-01 8.045441274942466414e-01 5.036292923130417654e-01 -3.147479671718095284e-01
4.278362697004148285e-02 -1.947901173105610617e-01 -7.924812383721956399e-01 -9.599222811735942384e-01 -2.773158578951541720e-01 4.056019065978259952e-02
-1.456100189793904220e-03 3.475306997322166313e-03 -7.430787290265953304e-01 -9.209459769699052112e-01 -2.278872498551025305e-01 3.161105959255795517e-01
4.731002551544155610e-02 -2.766502719060265347e-01 -7.889295505350731874e-01 -3.534981100454397396e-01 8.881663816381302201e-01 -2.935976238359795931e-01
3.371587405946106786e-02 4.471642637474909643e-02 -6.040704311971766272e-01 -5.224436919391296508e-01 -6.530354227487038532e-01 -5.482675673322595644e-01
-1.026532948574880935e-02 -9.428346833481122957e-02 -8.072047230533990758e-01 -7.555393709100938215e-01 -3.289337539672740895e-01 5.665358280866059637e-01
-6.948107875523025501e-02 -6.283582613833375852e-02 -8.020790639779689091e-01 9.934471573823072665e-01 1.114803491137295599e-01 2.519677063621829013e-02
3.685612474031357833e-02 -2.207886912770835597e-01 -8.327959624696802399e-01 -6.931332184941138008e-01 -3.478318166360448438e-01 6.313314254459855279e-01
-9.081856374439442603e-02 2.221835117367783330e-01 -6.017549665274796178e-01 -3.782757495962424388e-01 -8.879717146108488945e-01 2.615601103350236878e-01
-8.394712630322466451e-02 7.586951684597867396e-02 -7.814838783900649455e-01 9.613023752931963983e-01 -2.730532030852700354e-01 3.660179695770253427e-02
-5.818224209068707797e-02 -4.580778019284126312e-02 -8.362895518342130519e-01 -1.823087745630594947e-01 -3.870684243207698355e-02 9.824791555377925256e-01
-6.559778416185713112e-03 -2.220976336710240029e-01 -7.917590885589674832e-01 9.432017549335187656e-01 3.293543595568381166e-01 -4.354486572760825347e-02
-3.537799867552206962e-02 -1.484415327424391806e-01 -7.775281892917969007e-01 7.946244492957953431e-01 5.700716960162337532e-01 -2.087827722359508753e-01
5.933851506407485793e-02 -2.012216039496498299e-01 -7.655309226181796767e-01 -7.430023245561038214e-01 -6.437131260995790916e-01 1.832510763715555768e-01
-4.456873648656587555e-02 1.912335538525780643e-02 -6.682995615930314992e-01 7.678158435004170945e-01 2.612925281501779495e-01 -5.849658496037452027e-01
-1.105820961679883363e-02 -9.631159160521286788e-02 -6.923459440742610882e-01 5.749773255695891372e-01 3.978688575256176807e-01 -7.149135942840243452e-01
-3.507315011490236278e-02 1.651816132396181358e-01 -6.246814590358416019e-01 -7.782154435259605041e-01 -2.250243550591469466e-01 -5.862975039072803041e-01
3.873942373905697734e-02 -2.585559293156562966e-01 -8.129375320247939074e-01 -3.444751321831807100e-01 -5.540809276317503196e-01 7.578464283363215426e-01
2.540563040552228438e-02 -1.189973414675715158e-01 -6.677142672279638980e-01 7.766315227875426608e-01 3.612548965942569135e-01 -5.160798169851011918e-01
-2.660479634552577032e-03 -2.287111820827727737e-01 -7.761440417729827956e-01 8.511574030346773512e-01 4.641680218061112750e-01 -2.451104297900546514e-01
-6.220639504113168600e-02 1.642045890244903383e-01 -6.029282861065049515e-01 -3.862363493927003510e-01 4.006455730874419752e-01 -8.308457180326772606e-01
-1.477286113665991774e-02 7.822332220340162678e-02 -7.256991689161366166e-01 -8.768569039588651748e-01 -3.231897653720432473e-01 3.559077767321712771e-01
3.465514627458888414e-02 -1.650193153591718309e-01 -7.680112095897700941e-01 -7.347647476696709257e-01 6.582740323309296260e-01 -1.636950333415869152e-01
7.134429626325292095e-02 -2.156752172260224254e-01 -7.039780600723614112e-01 -8.268220598109414787e-01 5.546801288343251590e-01 -9.324824977622074573e-02
5.198769093625003196e-02 1.270558344424016668e-02 -5.901450589542620584e-01 -5.888132554286304998e-01 -4.712752736130682574e-01 -6.566571150246268695e-01
3.609285191618565036e-02 -2.804587459583835485e-01 -7.928437951992131083e-01 9.514988461035317480e-02 8.820815979754140779e-01 -4.613876395957920984e-01
3.599752756074888621e-02 -2.835492355968600720e-01 -8.002322948039515271e-01 -1.647052175298906740e-01 9.422350851571240637e-01 -2.916594514453089704e-01
-1.160109505373512623e-02 7.040867152335972268e-02 -6.272764167381025269e-01 6.219155628382895262e-01 -1.454034268614518843e-01 -7.694666179610913925e-01
4.323006162983352579e-02 -7.130213024886705719e-02 -7.152510502415937443e-01 -5.584226503896045912e-01 -4.485462151206242587e-01 6.978326707978154131e-01
5.805771613708869683e-02 1.739963253271560595e-02 -6.187806085251612576e-01 -8.515126823234611120e-01 -5.109675550992802684e-01 1.176363442060679720e-01
3.163496102268587712e-02 -6.657971891037832435e-02 -7.207441604757427456e-01 -9.227228728937626467e-01 -4.884137387519757456e-02 3.823571890741228607e-01
-1.307512196619264599e-01 2.059819366513178929e-01 -5.891470950810218099e-01 8.894601754542545979e-01 6.115817760261825498e-02 4.529020573956508144e-01
5.998887403876856060e-03 6.330517400366137293e-04 -7.204311366398123972e-01 -9.696428556921179442e-01 -1.817273158471217342e-01 1.636090311695384547e-01
-3.806273632345152924e-02 -9.218901378999339036e-02 -7.206049768506732622e-01 9.594780846897025262e-01 2.464044128969766767e-01 -1.366991964317136599e-01
-7.650799584070377794e-03 -2.334742632916345095e-02 -6.446204006404480102e-01 7.430412033208271261e-01 3.510388983807474772e-01 -5.697907177123618938e-01
3.380051451152849690e-02 -2.903533364878594369e-01 -8.279825293147983212e-01 -6.967221381172647998e-01 7.018952762994725703e-01 1.480583782357295097e-01
5.155297078417955120e-02 1.333181782180537650e-02 -6.335822763293027515e-01 -4.423510700728314760e-01 1.405435443083301872e-01 8.857612787645853247e-01
2.624922331764110300e-02 9.155411958694736896e-03 -5.861189904015479124e-01 6.439203879583504930e-01 1.065710569152818060e-01 -7.576339114635294303e-01
6.028933189556563710e-02 -2.380071256562726889e-01 -7.970773793241614502e-01 -5.064041543132667966e-01 -5.038410846380342312e-01 6.997849626314032179e-01
1.566469194866996692e-02 -1.680514272947495891e-01 -7.042732326154421685e-01 7.821902780701086577e-01 5.130953053287419241e-01 -3.534283188175665891e-01
-1.464476817913312745e-02 -1.427101568016529154e-01 -7.192514172828052832e-01 4.742232250444848307e-01 4.255080291231492229e-01 -7.707497972624715032e-01
2.188880442823518124e-03 -1.437793383409908254e-01 -7.003698223294474445e-01 7.545118933086559787e-01 5.246756900076555707e-01 -3.942425943131692700e-01
-7.981895312498911432e-02 5.600415073658448345e-03 -7.821924329398891595e-01 9.019767862714890283e-01 3.456214934032337815e-01 -2.588120173505764066e-01
-6.840810750317100064e-02 1.802847187089932357e-01 -6.543794957820444624e-01 3.513885058184400556e-01 -4.731153381020727355e-01 8.078910785689156215e-01
7.307667713406192089e-02 -2.047543517606704444e-01 -6.848054712199410643e-01 -3.340748099465959409e-01 7.393985453535372177e-01 -5.845372635582946064e-01
-1.382119853153102431e-03 -1.202701839539262324e-01 -6.957066520808056209e-01 5.433470819449183198e-01 1.895241687682867326e-01 -8.178352755871026725e-01
-7.607174185913896658e-02 1.448787292114647463e-01 -6.386207844290238134e-01 7.961047554978731844e-01 5.999744429522987366e-01 7.904357075531623367e-02
5.194369929341617620e-02 -2.485502115157333658e-01 -7.318455546928236410e-01 -6.101922731117730148e-02 7.190245747664719689e-01 -6.923007401268909122e-01
5.525734608795164482e-03 -2.612584744454538033e-01 -8.058587567311155109e-01 9.114053572538526327e-01 3.929521927914270685e-01 -1.221836689144113475e-01
4.129951668152250649e-02 5.199514382807267354e-03 -6.611600867042820573e-01 -7.954995679625098681e-01 -5.277305747335857555e-01 2.977933475798602569e-01
7.379225211055312483e-02 -1.671334898774796268e-02 -5.969268301241450470e-01 -8.601877415529508575e-01 -3.151521770322790461e-01 -4.009440791355434186e-01
8.322985724711577660e-02 -8.411947439429849627e-02 -6.094371821081382423e-01 -9.070208680286715452e-01 6.231548871927451716e-02 -4.164491863675484074e-01
4.126060383390677683e-02 -2.043770619242107622e-01 -6.998222519387177210e-01 7.781364586701750019e-01 5.628549153007198491e-01 -2.787436026352149154e-01
-1.079169312958554172e-01 1.865323012471148678e-01 -5.736311460407469420e-01 7.307379149903785176e-02 7.864810983834149560e-01 -6.132762043986152989e-01
1.199690906214021489e-02 -2.836015551269355783e-01 -8.249071967420494866e-01 8.565573428817473411e-01 4.406919862127739451e-01 -2.685146022904545959e-01
-6.768912097379591042e-02 2.071093474675291535e-01 -6.170134059033312024e-01 -4.726169357617385214e-01 -8.623745500048163315e-01 1.815030785831885096e-01
2.490785795658327986e-03 1.555658999404505548e-02 -7.195767574258218335e-01 -9.349170001820958920e-01 -2.671955767014148053e-01 2.335309970040580219e-01
2.294635991839792666e-02 -9.195046924539504452e-02 -7.369018263853296391e-01 -9.044833114934929252e-01 2.159176289991359132e-01 -3.678172327626267335e-01
8.031479340956551582e-02 -1.891399513720249392e-01 -7.051206828034022323e-01 -3.451585424819468284e-01 9.792051399688329882e-02 9.334222803695679804e-01
2.354984095650201545e-02 -1.542921001375993362e-01 -6.875396660555054273e-01 5.367542806834196822e-01 2.205321546101935981e-01 -8.144080125778542234e-01
6.053533415788452110e-03 -2.105856897350969481e-01 -8.380944820171892795e-01 1.525860438413173537e-01 -4.758221485946041995e-01 8.662048153477731605e-01
-1.100711211717044918e-01 1.991602754454080970e-01 -5.627077604423734725e-01 -1.504505271285574985e-01 4.900030942210719664e-01 -8.586393926093270901e-01
4.619236319602041535e-02 1.586027190417605912e-02 -6.367757985767737994e-01 -3.670986378371025594e-01 2.688361468431078594e-01 8.904862246260156766e-01
-4.674421042481747939e-03 -2.285066709250648809e-01 -8.112464375238129799e-01 9.175289371251307280e-01 3.970944654823782005e-01 -2.136902012943228679e-02
-2.802139804957055197e-02 -1.120169618056375271e-01 -8.325640115901461469e-01 -4.452013443677781401e-01 -1.973163522407544446e-01 8.734197273427740660e-01
5.749543690216301836e-03 -4.230248577325446818e-03 -7.256333849028575589e-01 -9.489215696212578433e-01 -1.781396394775743852e-01 2.604114505054038742e-01
7.917648864553206156e-02 -6.329385102767313975e-02 -6.619441957631352347e-01 -8.229244510688122904e-01 -3.063983118857917520e-01 4.784510657388393318e-01
3.285510741793434136e-02 -2.548275889630476077e-03 -6.788274149457236284e-01 -4.915183676911889510e-01 -4.144421839547338671e-01 7.659290896558373918e-01
3.201883793252981170e-02 -4.576896615335207530e-02 -7.022520024913809777e-01 -1.378981581656059940e-01 -6.935229981493478135e-01 7.071138161657379850e-01
2.295968584037028429e-02 -8.354263895336755397e-02 -7.461030032374631471e-01 -8.944041535704905233e-01 -2.451484094939494762e-01 3.740901861830131514e-01
-4.853982584785647425e-02 -1.168740422080900565e-01 -7.963488586995671747e-01 9.621469176219140662e-01 2.671052749954903049e-01 -5.411174530758964402e-02
-5.376764339520215957e-02 9.850267519584358922e-02 -6.964787601008437523e-01 9.733421602601312062e-01 -9.578984160951585503e-02 -2.083970856431658636e-01
6.765970483406848202e-02 -8.616999229433176810e-02 -6.953310848505954711e-01 -8.091177373206689394e-01 -3.703950281749361362e-01 4.562192567794233211e-01
6.051238415768334100e-02 -1.014023021565387817e-01 -6.110722484108922492e-01 7.260235828689481918e-01 4.071555928579027039e-01 -5.541787440191705549e-01
-1.313159142347133657e-01 1.956539091229223259e-01 -5.794827432705983439e-01 8.913573281841058460e-01 4.490519086508689139e-01 6.192331410304086070e-02
-4.227370521481355753e-02 -1.407655193404502292e-01 -8.228478750769795402e-01 9.101463900467677837e-01 2.008907420719768522e-01 3.623209329235719256e-01
-6.332858087124018653e-02 9.295533436815546502e-02 -7.219628757758326243e-01 9.104957970972866743e-01 -1.719721289657111796e-01 -3.760624819457235035e-01
-7.868995339494323782e-02 1.710880895920823541e-01 -5.924364832261491687e-01 -2.267427764631018139e-01 5.702983444518036071e-01 -7.895235978977043212e-01
5.304364983542737833e-02 -2.702825478549673692e-03 -6.418514232855313528e-01 -6.545443810122221207e-01 -7.550818645968135900e-01 -3.772308367997239537e-02
2.300703669245613564e-02 -1.852154566960487470e-01 -8.124665296437325601e-01 -9.102501742999644652e-01 4.048159473689090238e-01 8.699809735101607377e-02
7.425247208388859044e-02 -1.801964755139705623e-02 -6.174374977017075272e-01 -7.725775649135865342e-01 -1.522683892022488328e-01 6.163913074029723216e-01
-6.961232056289151648e-02 -6.015759515866793417e-02 -8.082071426176939966e-01 9.928972794628769805e-01 1.147582088660354660e-01 3.139340588526608883e-02
1.833487724291876092e-02 5.152061340988836613e-02 -6.044294171067617905e-01 -4.826365510257540209e-03 -6.153628751372089978e-01 -7.882291786649546772e-01
-5.171387556489958487e-02 -1.060224303604915541e-01 -8.290085692853824684e-01 8.451255950158870212e-01 3.970496818852735088e-01 3.579305501963283564e-01
-1.141480390328583963e-02 -3.633806994716216182e-02 -7.495677043379275206e-01 -5.202737034054070175e-01 -6.886155807485551117e-01 5.050978672447079543e-01
2.222515597095381032e-02 -7.478283792719293832e-02 -7.422426356777213075e-01 -8.270962744865266725e-01 -2.881698605812725300e-01 4.825659376531646894e-01
1.665472502768046079e-02 -1.322284282945093425e-01 -7.825204822281349726e-01 -5.657678445917265764e-01 -5.308285562712353745e-01 6.309736839782050799e-01
-1.784246285326054199e-02 5.980922762677760157e-02 -7.375315137462307158e-01 -8.728270194871400323e-01 4.070463491811697199e-01 2.692327314266911853e-01
-7.105316778150248813e-02 1.524552069866530468e-01 -6.593171757883196094e-01 7.923702419372085082e-01 1.917802904947758791e-01 5.791111463873829246e-01
-3.145929145852328218e-02 2.105641952282060955e-02 -7.963657747872610049e-01 -7.708532596841293216e-01 -3.828815372776407933e-01 5.091040958843908726e-01
7.635735199856237554e-02 -2.200106677951100820e-01 -7.389284741017593250e-01 -9.631044962587020919e-01 1.368216706955105999e-01 2.317532302134351352e-01
1.162176387463531406e-02 8.578119330533007236e-02 -6.610947640111040080e-01 -8.059099231406116060e-01 -1.984178875568018696e-01 -5.577988326278476849e-01
4.955259060140278227e-03 4.746269285961027262e-02 -6.078210535743366894e-01 6.898548248180940146e-01 -1.390812192209750497e-01 -7.104623389984890958e-01
-2.346445963474386512e-02 -3.799367232457823151e-02 -7.783977013793337285e-01 -6.216623548658499754e-01 7.793105431353704038e-01 -7.880985915924373919e-02
-2.954179904470782825e-02 -6.517541102643562012e-02 -8.045629165991097231e-01 -4.086928776180402401e-01 -6.951440932996091338e-01 5.913922736517192025e-01
-1.348879652244517995e-02 3.204626135100227535e-02 -7.448376283001063580e-01 -8.210533700753627206e-01 -4.355001654776890496e-01 3.690677029445884050e-01
8.198702303990693108e-02 -6.310141259137160008e-02 -6.561524251229046145e-01 -8.724691333463948650e-01 -3.249072218457755845e-01 3.650108334697076407e-01
3.909539810173947444e-02 -1.897116286470357238e-01 -7.646127774380055975e-01 -2.117464483487379312e-01 -5.113980678488679876e-01 8.328477999083265804e-01
-6.763179539047523003e-02 1.603966326178733470e-01 -6.030511438493224574e-01 -1.909489368437319035e-01 5.631795178491749709e-01 -8.039697346252652199e-01
8.709623965981073968e-02 -1.776101085170716798e-01 -6.728770174331902831e-01 -9.082629971010961478e-01 2.848640476879985561e-01 -3.064486946158261893e-01
6.761192381860108014e-02 -2.381045557095632925e-01 -7.525577464240256198e-01 -9.421092949175629006e-01 1.574708094269204606e-01 2.960287496314555344e-01
-5.483022106388838607e-02 1.969186955655851112e-01 -6.293895210704235632e-01 -5.311594958885882400e-01 -8.298494800434638163e-01 1.709369193561576517e-01
3.729507916306017828e-02 -5.539964990130225725e-02 -7.082657338708420180e-01 -3.697270741413873352e-01 -5.167440589933675055e-01 7.721900466477849001e-01
8.013077800015938612e-02 -1.062629089812808375e-01 -6.837382561130187497e-01 -9.159978834870404762e-01 -2.731005081891337838e-01 2.938775082821056261e-01
6.255775308182931482e-02 -1.044997679332165391e-01 -7.141462424560474087e-01 -6.884538672273841087e-01 -2.902696440762008723e-01 6.646614224005598093e-01
-7.809876692757045102e-02 4.785924731380229724e-02 -7.566285873110500937e-01 9.502890670233471448e-01 -6.744727988119537943e-02 -3.039762384340665147e-01
-7.533234638265890858e-04 -2.379968132613119805e-02 -6.353775700708351737e-01 7.624435092424050042e-01 4.198761958403420813e-01 -4.923249692842822101e-01
5.368331814220002329e-02 2.103087297991160926e-02 -6.013991903138002915e-01 -7.822190403411057869e-01 -5.619037074741406457e-01 -2.690680145514418031e-01
-4.464939343622548878e-02 1.215971234238185095e-01 -6.326320042605754201e-01 2.464657954506680737e-01 5.701839907491443871e-01 -7.836739298753334637e-01
2.148562439693962878e-02 -9.789912791920954427e-02 -7.301757284276806370e-01 -9.211568537840291171e-01 5.095374091091402213e-02 3.858416346299246569e-01
