9.254478234627416811e-02 -1.974773327518129229e-01 -7.754462444134395671e-01 -6.869473015423569473e-01 -4.788371228597953361e-02 7.251279576746353372e-01
-5.915731383048952394e-03 -9.459439175283100576e-02 -6.680087733069863809e-01 -5.203108646170909873e-02 5.004596956955505993e-01 -8.641949195788709570e-01
2.930373257330399009e-02 -2.610798759871135744e-01 -8.306897826553105713e-01 -1.386213864000598352e-02 -1.723936606577331498e-01 9.849305898779628921e-01
-1.034756753394322631e-01 -8.805742888003198487e-02 -7.329255395074950608e-01 7.620728529092882786e-01 4.228754655922986605e-01 -4.903277551381269861e-01
2.367484272681960253e-02 -2.823968860230529621e-01 -8.321765775771505780e-01 -5.582775306921643477e-01 6.013778076397680028e-01 5.715513373290675991e-01
-6.164316681955517296e-02 -1.430205281784411309e-01 -7.450226709172110828e-01 7.484251072842915686e-01 4.111104922847589327e-01 -5.204306120126677149e-01
1.067260294007223997e-01 -7.864265792223150420e-02 -6.498007940822634332e-01 -8.911642260104345181e-03 4.654088153134877115e-01 -8.850509687361083344e-01
5.322327432435083883e-02 2.190068493095636247e-03 -6.051011918631217235e-01 1.337652825932826306e-01 2.565228919435100230e-01 -9.572370944973233042e-01
-8.580941082081464111e-02 -6.068121233008792748e-02 -7.601190641541029080e-01 -2.490664465010178907e-01 -3.099273103712127386e-01 9.175570649901954035e-01
-3.896994758420119914e-02 -3.675423115181479516e-02 -6.510772830471497352e-01 5.672923386157113779e-01 3.023733486254449043e-01 -7.659959272665567420e-01
-6.197591717920463567e-02 6.534018673661781684e-02 -6.836954226035804050e-01 -3.766825681542338988e-01 -5.359598648703082224e-01 7.555509685632940675e-01
4.082131927744565153e-02 -2.519140354562011686e-01 -8.298055088217982656e-01 1.085474690859714458e-01 -3.458078649256016712e-01 9.320055619526242952e-01
8.171659732602688797e-02 -2.157050735135737363e-01 -7.925805229004236896e-01 -9.235506398251044358e-01 -2.100602231949321164e-01 3.208253704274889873e-01
6.315565540411535728e-02 -2.343716080784396527e-01 -8.166729803643540953e-01 -7.033141758685416134e-01 7.154822592014635496e-02 7.072694121691068814e-01
-5.412047858956006707e-02 1.504151744553544889e-01 -6.049198321333382200e-01 2.834605602584550771e-02 -7.646883372767897535e-01 6.437765512510053023e-01
-5.377535410034111479e-02 -1.360872448427008219e-01 -7.283070627915835260e-01 7.696170406048710166e-01 3.447749674289358746e-01 -5.374196057504567747e-01
-7.812007789171920846e-02 -2.531698390857381117e-02 -7.437680014270658946e-01 -2.970710281046065049e-01 -3.982493828606156194e-01 8.678399813974986277e-01
-9.616600854249167385e-02 1.231321287729911923e-02 -6.610265544575850694e-01 5.752353195892924154e-01 1.957322780734827572e-01 -7.942249066965663129e-01
1.046756094409552890e-01 -1.634535565319161221e-01 -7.542585063822377922e-01 -9.042999063843923935e-01 -3.981896300892788787e-01 1.539048335905746911e-01
-1.359420244580802073e-01 2.898795299024319039e-02 -6.864934147798926745e-01 6.363166998879470349e-01 2.720410811470543866e-01 -7.218688991860323645e-01
5.739178900350768581e-02 -3.831537423705675544e-02 -6.317861795980896922e-01 1.553363617054210610e-01 5.547264761486798701e-01 -8.174039095770159191e-01
5.064142403869496822e-02 -3.096698555415029058e-02 -6.281128393133763588e-01 1.642425084542236680e-01 5.551751481680183842e-01 -8.153557219234330855e-01
-1.024021803996328778e-01 -5.263262881526212938e-02 -7.083035813444202855e-01 6.447713469164046973e-01 4.405402730510752929e-01 -6.246552473290282181e-01
-9.692958751690987015e-03 -1.388684968446025625e-01 -7.761186728070488261e-01 -8.836194034307476297e-02 -6.781361253723874327e-01 7.296050732853579524e-01
-8.596320132408025172e-02 1.934851938632941581e-01 -4.841119176516738842e-01 1.237159548534143838e-01 -9.373047766519463364e-01 -3.258130110663980394e-01
-1.007449833697144775e-01 -9.798439158830057893e-02 -7.376662777354605627e-01 7.460450374709494126e-01 4.622498813956194552e-01 -4.793139359696374502e-01
-5.427907221321517928e-02 1.704335962512271707e-01 -5.113145378572069299e-01 -9.563705491554402860e-01 -2.170437724614220354e-01 -1.955693573744004543e-01
-6.635705262501938317e-02 -9.772333479073984364e-02 -7.678291373795971264e-01 -2.730244997293165485e-02 -4.508219911601811236e-01 8.921962275821643251e-01
-1.279310825312796485e-03 3.172482383819672652e-02 -6.073390014358204247e-01 1.624308331150226825e-01 2.078348893831396260e-01 -9.645832691938306391e-01
-3.250615421345769834e-02 -1.783733116297737398e-01 -8.033883021713681405e-01 4.681888239750819358e-01 -2.245935308132328556e-01 8.546092504891784625e-01
-2.696729370435889395e-02 -6.719278493953968756e-02 -7.393716620038245368e-01 -2.201584589943426651e-01 -5.795354534631463883e-01 7.846457233124397579e-01
-7.057496915303712592e-02 1.919335107335912449e-01 -4.961896267395381477e-01 -4.866112316500448287e-01 -8.720268612225174909e-01 -5.271302057775487798e-02
-6.847791415108271662e-02 1.361814253548163933e-01 -5.212245128937259553e-01 -1.532309225265154895e-01 9.070203084831213181e-01 -3.922173432943222293e-01
-8.680267071345360019e-02 -5.432975367873521533e-02 -7.581119876346156250e-01 -1.969666406830359040e-01 -3.408461428262303805e-01 9.192540722664875874e-01
3.206792985313031835e-02 -2.370545498222452474e-01 -7.698484525369049258e-01 -9.538383608524925866e-03 7.014224467287164533e-01 -7.126819560387631647e-01
-3.697017783461961637e-02 3.872661631687951411e-02 -6.109660431097344579e-01 4.086494019681111145e-01 2.563457133616739436e-01 -8.759523625815504033e-01
-3.322660908750884462e-02 -2.098578668732814512e-01 -8.006908451732500653e-01 7.675200967401287766e-01 3.277520296984646753e-01 5.509006336251212055e-01
1.991331771519843155e-02 -9.869624348379531231e-02 -6.742635210050600403e-01 -6.916656027742537627e-02 5.019397455174824385e-01 -8.621325181253949310e-01
2.170486357448606421e-02 -1.279781820447673524e-01 -7.658430208413756768e-01 -4.749680585665115584e-02 -6.145163527700233663e-01 7.874729872266373887e-01
1.354665502035376778e-01 -5.281378376599862173e-02 -6.502636629964249071e-01 -9.834457589941125732e-01 -1.561997753495293073e-01 9.184807726485313961e-02
8.381242045906686644e-02 -9.413510730655946790e-02 -6.580079379155904240e-01 1.905687994781799788e-01 4.538670575534772267e-01 -8.704528859927996853e-01
3.145742707871435756e-02 -2.318587706669003323e-01 -8.178488289504093345e-01 -9.384713109197299064e-01 1.720646744502090097e-01 2.994417245257367521e-01
-3.026086954213664387e-02 1.256890766806668669e-01 -6.281625665585198748e-01 -3.578650519484870562e-01 -7.820259139182103025e-01 5.102627505063392910e-01
-1.357401476117224386e-02 -1.088045605873163985e-01 -6.794990181624747105e-01 5.622016641517101343e-01 4.669376416684768438e-01 -6.825675993029032274e-01
-6.834320005015442900e-02 1.079307697439893104e-01 -5.897186287113744818e-01 7.715166122095686863e-01 5.890386671893752535e-01 -2.404070831744236636e-01
-1.421325387833114254e-02 1.131192396006964890e-01 -6.085034409651021159e-01 -9.348264658980167674e-01 -2.464068747830795714e-01 -2.557012528640792426e-01
-6.336741498159342845e-02 -9.336882877335050956e-02 -7.037566670794290768e-01 4.597283776726814319e-01 5.618015342105046050e-01 -6.877709320123727155e-01
-3.479428182434310401e-03 -3.641112472947529571e-02 -7.027120865624643109e-01 -3.784590552986612511e-01 -8.924356110105187145e-01 2.456164157028735973e-01
8.765075098731740788e-02 -3.535932355929873733e-02 -6.171267398204421939e-01 2.266246330700799894e-01 6.696021551770869884e-01 -7.073006641224449664e-01
3.418040720390111420e-02 -1.875961775358544470e-01 -7.980142678249592114e-01 -7.760291850146900927e-01 -4.299874627505085312e-01 4.613994862186302504e-01
-2.392941905523948351e-02 1.417719423617147187e-02 -6.926034479561345991e-01 -4.649994581126463133e-01 -5.349245242738177586e-01 7.054298386695695422e-01
-1.305538780371481855e-01 -4.747293271374481566e-02 -7.356679693713271684e-01 7.466931705772138494e-01 5.710428308856686508e-01 -3.411149282975307617e-01
8.180705494525072896e-02 -1.503919423661065347e-01 -6.991949351887036812e-01 4.093948904871051037e-02 4.692918506593394268e-01 -8.820935988551118490e-01
6.159292451589350875e-02 -8.963230246869741125e-02 -7.346848192423363066e-01 1.569042108657910453e-02 -2.956191536381602147e-01 9.551770132747038344e-01
-1.018639632856765433e-02 -1.876550903054986508e-01 -7.437796097446435217e-01 7.814888162521358428e-01 2.584346378947784961e-01 -5.678791843420835095e-01
1.012268652410076575e-01 -1.253626177114606499e-01 -6.740106741655753630e-01 3.264605856419532381e-01 6.855940294010495206e-01 -6.506798850986141858e-01
-1.047049183321297795e-02 4.749684449294754029e-02 -6.055326110357894809e-01 1.468579644117455618e-01 2.059157061396381938e-01 -9.674871886768592333e-01
6.073274840952198189e-02 -1.270268013367359949e-01 -6.889137135247552779e-01 6.712180174255319431e-02 4.306352935054756359e-01 -9.000266150055153958e-01
-7.993511175200626595e-02 -5.381209906536261328e-02 -7.559990546114025989e-01 -2.917449706955578259e-01 -3.115776521418178735e-01 9.043252947693326549e-01
1.248524457809620375e-01 -6.277442546061903772e-02 -6.362420711456598932e-01 -2.456889982012183116e-01 4.952930320607276116e-01 -8.332597005465779416e-01
4.310239358862737180e-02 -8.094644418276475406e-02 -7.307411399579427647e-01 1.063319947304478402e-01 -2.319929425773678278e-01 9.668881949279026777e-01
7.995958160554030025e-02 -1.415480815334906883e-01 -6.944910170221129109e-01 6.502051947699363788e-02 4.836400098284762139e-01 -8.728485968024770614e-01
-8.128972532966126374e-02 2.785425445753447293e-04 -7.322543282985741753e-01 -3.163094175136099140e-01 -4.827472179782069661e-01 8.166415835153769676e-01
1.227384734708766162e-02 -1.491652031855359439e-01 -7.826550107062119066e-01 -3.834331705263551576e-02 -6.164918421090350709e-01 7.864271095596906402e-01
-9.954589086184040259e-02 -8.429589149811668458e-02 -7.243130179032439830e-01 7.553610202369669402e-01 3.690434003886067793e-01 -5.415133403122981415e-01
-3.949808981500882443e-02 -2.837980211599895521e-03 -7.136694890092183385e-01 -4.255221688106644029e-01 -4.436509742780352372e-01 7.887361389418001689e-01
9.525759971054816033e-02 -1.834584358870030574e-01 -7.705513658399719690e-01 -6.796042852131567447e-01 -2.025368803374907600e-01 7.050651229660076513e-01
-1.112519558718251672e-01 6.982428970457144057e-02 -6.872540852816543255e-01 2.851509369808437055e-01 -8.022653711563013657e-01 5.244608826045933370e-01
8.710001449946788710e-02 -2.272002042042491621e-01 -7.647902636752267336e-01 -7.114619393777790179e-01 7.027241523543846791e-01 8.212883907781929954e-04
5.059563554507622539e-03 -8.297926092176970136e-02 -6.636249970087002570e-01 -1.429198306167708543e-01 4.695277748122727024e-01 -8.712735452751386722e-01
-4.985726219545339594e-02 -1.307476319934185172e-01 -7.834605983054035994e-01 -1.451997289997561391e-02 -3.849399682927409083e-01 9.228273897093474121e-01
-1.070771009280025304e-01 -4.301468817715848464e-02 -7.553439062969024009e-01 9.502238537974781740e-02 -2.971168293823218121e-01 9.501012240674880927e-01
1.239115144716011752e-02 -1.949903982046043149e-01 -7.317348756030391810e-01 1.293092545365351620e-01 7.289436089756881065e-01 -6.722502001670990213e-01
7.392080289142763383e-02 -1.978081611081569657e-01 -7.880598053041383277e-01 -8.042814480987421355e-01 -5.845615923049763962e-01 1.068601752106972669e-01
-5.130969057063110295e-02 1.559003818695711141e-01 -5.181835900177262921e-01 -9.362459651155434770e-01 7.157855348721929578e-02 -3.439767484664362218e-01
-5.645964689383514527e-03 -2.219588855408698991e-01 -8.306760472972029019e-01 4.281943260276974694e-01 -1.562599605611570130e-01 8.900744035658545439e-01
7.100589127672776724e-02 -1.928845929675187809e-01 -7.851940818352687312e-01 -8.679681234887659524e-01 -4.908876773682757655e-01 7.523712391745171479e-02
2.211608639665520182e-02 -1.981316908835520918e-01 -7.348322473559150136e-01 -2.005041632344934863e-02 6.836994095953901063e-01 -7.294882439931239526e-01
-6.621855694143384541e-02 9.578283673817913901e-02 -6.118296645436153147e-01 9.706542421990803637e-01 2.404585102155180065e-01 -3.169694916366976901e-03
6.453645565830978814e-02 -2.468745773216217132e-01 -8.098850258674944458e-01 -7.655472574073003411e-01 4.840708727026074576e-01 4.238074879908287906e-01
8.926413843823500019e-03 -1.303638543125982818e-01 -6.895644055909190273e-01 -1.245349010316876559e-01 5.377947229339082869e-01 -8.338272569360325459e-01
-1.303340133867350870e-01 -5.069239764339232568e-02 -7.472341310065192532e-01 8.940548616774756097e-01 2.771406753763409059e-01 3.519360032204938427e-01
-4.863954764499654748e-02 -2.608252307875068288e-02 -6.535031537940005908e-01 5.309878374800056644e-01 3.540388132269436383e-01 -7.698755972085127297e-01
-9.626463300026749659e-02 7.654455578596647269e-02 -6.483205753075772515e-01 6.096504667449701431e-01 -2.353193612223077880e-01 -7.569353384745390878e-01
1.226881199626582430e-01 -8.223580983235601050e-02 -6.514222661533257686e-01 3.460117801283226630e-02 5.234209616503348039e-01 -8.513713968563679790e-01
2.889796694730358342e-02 -4.923394789352076445e-02 -6.405301817918608309e-01 2.736536619788705518e-03 3.558533230325772734e-01 -9.345378129610384388e-01
-6.467156423288761280e-02 7.191166249103257690e-02 -6.241307116780854258e-01 6.779613575350343924e-01 2.879207708037387348e-01 -6.763653061985323012e-01
-2.256855283317683522e-02 -1.457944157502544524e-01 -7.845906136643587825e-01 -1.233739177946714116e-01 -6.680693543429352399e-01 7.337998461404902084e-01
2.218276703439572145e-02 -1.059702000345811718e-01 -7.479094755154973573e-01 -1.160007957293710812e-01 -6.629467733681648767e-01 7.396251693059747723e-01
-7.929488183561622661e-02 1.481196635610687318e-01 -4.884087678547997524e-01 -2.187880631795358077e-01 8.927011625195382383e-01 -3.939751487675490216e-01
-3.260992227412275180e-02 7.956272676267665822e-02 -5.950306097681661299e-01 -9.566389014520229606e-02 4.612453065907192729e-01 -8.821004405793707592e-01
5.929889468756693177e-02 -2.214403094573027808e-01 -8.159559430917239231e-01 -3.582751999525196629e-01 -3.950114662407571142e-01 8.459342897869251976e-01
-2.962105827858750248e-02 -1.967567232149954881e-01 -7.732746744874809952e-01 7.658068695844225671e-01 2.352383536778010487e-01 -5.985004222690785136e-01
-2.244378295707380802e-02 -7.019375448441585175e-02 -7.403174797715351696e-01 -2.335568891710202988e-01 -5.733368024267575525e-01 7.853254678818309964e-01
-1.080002663869939206e-01 2.931036410204451367e-02 -6.657776683857262734e-01 5.376241700764420317e-01 2.560816174146836044e-01 -8.033569922343968273e-01
-6.962359263559413092e-02 2.398826482903071780e-02 -7.030377629123257810e-01 1.838810233680071571e-02 -8.928821153456476534e-01 4.499148872712847580e-01
4.120378354718512437e-02 -2.020033548499670373e-01 -7.910919097913456932e-01 -1.954573144521724315e-01 -5.570815878709139968e-01 8.071285787793451849e-01
-6.691055018952374311e-02 1.372920776458016190e-01 -5.195564743178709977e-01 -2.790225387241773713e-01 8.598526293092015882e-01 -4.275510247373615069e-01
6.076975472607330786e-02 1.226137381607702963e-02 -6.005328040329723782e-01 1.711213279158985967e-01 3.634001600345608818e-01 -9.157826242177535825e-01
-1.033723810122939707e-01 1.744654122690076359e-01 -4.915913128280458011e-01 9.967834410059980277e-01 5.476206019207956188e-02 5.851400259562820894e-02
7.354130532027418343e-02 -2.416423208435957148e-01 -7.975792070035181425e-01 -7.788436885787011210e-01 5.854233119096331484e-01 2.251267523727011055e-01
1.119058059972262292e-01 -8.454098695785979001e-02 -7.076119448592559369e-01 -7.790951444383021895e-01 -5.032684152761699448e-01 3.738069797342924439e-01
3.951933071088054722e-02 1.174493560371024474e-02 -6.719628479557375744e-01 -1.164479417121313670e-01 -5.650217789894084186e-01 8.168171558792409748e-01
-1.244570802488211697e-01 3.426163552234615800e-02 -7.204580258372095258e-01 2.560348388918056162e-01 -5.487477508586003916e-01 7.958153474275766470e-01
-1.164904878088349055e-01 4.755082274593278729e-02 -6.648790897158791680e-01 5.254719178803821666e-01 2.685857422167582942e-01 -8.073047519970300012e-01
-1.334250272043966956e-01 3.090189983063520301e-02 -7.175929107425662590e-01 5.756744976545216108e-01 -4.906419348068327135e-01 6.541172406833671849e-01
1.281440083886564441e-01 -4.932755448034803480e-02 -6.729619748378254940e-01 -8.218795181430871288e-01 -3.698001511460254909e-01 4.333150192057316774e-01
-9.111644228107046439e-02 4.626621675108317372e-02 -6.497409352711077668e-01 5.004494416758041853e-01 2.415364050520985018e-01 -8.313907152241264420e-01
-6.027336786742901881e-02 1.770382849854344742e-01 -4.904398268827622753e-01 -9.492937312838144459e-01 -1.708000950219263347e-01 -2.639483648097747381e-01
-1.437965386552483155e-02 6.466390107029826306e-02 -6.702950471364012008e-01 1.266111728511034040e-01 -2.864792283028861908e-01 9.496837698203811629e-01
-8.780650373252524288e-02 1.575016712244662609e-01 -4.720672250105510392e-01 3.038880201602566777e-01 6.388979505978831241e-01 -7.067258874025378335e-01
-5.308591031648077913e-02 -1.303776051528823254e-01 -7.236902567792569130e-01 6.958039333778478497e-01 4.015215256796734189e-01 -5.955143581071601355e-01
-6.162304020737379567e-02 1.067603639206380350e-01 -6.256207566782375773e-01 8.069629338068170510e-01 -8.947390874087694790e-02 5.837852714110933761e-01
3.337607213514510573e-03 4.651722539420232588e-02 -6.756269312398841542e-01 -1.970945869990834154e-01 -3.327397683004698070e-01 9.221919379212825119e-01
-9.326699503788224432e-02 -4.082004330359833427e-02 -6.924382853861913434e-01 5.240164370998484644e-01 4.425988913313099737e-01 -7.276764356783004262e-01
-1.269422360558214447e-01 -2.001097110452808303e-02 -7.000196280773717250e-01 5.008667170233759292e-01 6.525844607420682175e-01 -5.685649069158326130e-01
1.097716197580738198e-02 -2.698081121318623987e-01 -8.114518589817762972e-01 5.131386321256057315e-01 6.124779983448892517e-01 -6.012981338435202661e-01
1.962212555504418490e-02 -2.479718730939130811e-01 -8.383819382387232011e-01 -3.359429580191693465e-01 -6.682641022903389183e-02 9.395086800308082298e-01
-1.267208885893208840e-02 -2.344916697643859571e-01 -8.231440575416990590e-01 8.559772992690908300e-01 2.581257373414040934e-01 4.479664796142113214e-01
5.164136609358476598e-02 -4.918332236359998499e-02 -7.120521169774747250e-01 -1.205939613699278101e-01 -6.352226671890983667e-01 7.628559887490405922e-01
-1.079231042103419302e-01 6.944468929557612302e-02 -6.557306561528752908e-01 6.167477803711157724e-01 -1.726868136386617014e-01 -7.679853122310531521e-01
-7.796444200348571531e-03 -2.101754539742623495e-01 -8.262159515325744330e-01 4.940759239457695462e-01 -3.700795113122183344e-01 7.867211301878472840e-01
-4.332836804444213999e-03 -1.708682372972619712e-01 -8.012848719368730332e-01 -1.648411841424030078e-01 -5.823337162253869881e-01 7.960620748143077963e-01
7.978632559083211062e-02 4.573275657942934419e-02 -6.062192402284024562e-01 -6.073980325397730917e-01 -7.445166966631807659e-01 -2.770604960230853564e-01
9.532158473154686562e-02 -1.636903100879608108e-01 -7.067164867618277446e-01 -7.950325539218300319e-02 5.292432062162460982e-01 -8.447371550109498139e-01
7.881811654489817576e-02 -2.367950922670803704e-01 -7.826936565278822533e-01 -8.359782530794795941e-01 5.455069336469169361e-01 -5.968706494140568058e-02
1.581171078807364766e-02 -4.805653523425682666e-02 -7.128598823231805381e-01 4.314048278977305473e-01 -2.707264896700067314e-01 8.605794804999041814e-01
7.339289224012619794e-02 -5.382699791748422197e-02 -7.105415385911117987e-01 -2.344323640082693894e-01 -6.550597125759642925e-01 7.182884098086153024e-01
-1.227310270074527254e-01 -6.240810900830041918e-02 -7.533414795345699799e-01 5.967742045989270494e-01 4.748074211201355060e-02 8.010032009011015530e-01
-6.289428708135376411e-02 1.334434088559660614e-01 -6.179796258115365371e-01 5.800796852451430841e-01 -4.379255351215075032e-01 6.868251483852617634e-01
-7.906824044098549609e-02 1.293708254575784422e-01 -5.509831097201807193e-01 6.235659268087050400e-01 7.616389292409273537e-01 -1.762715983587094248e-01
1.179295961887403404e-01 -1.668934875642488491e-01 -7.151878660766454177e-01 -5.775937459497911819e-01 6.270140403861238498e-01 -5.227225438015432601e-01
-9.507490286022361736e-02 5.950256125210823255e-02 -6.485650826330088270e-01 5.007770942778214662e-01 1.926141256321455830e-01 -8.438732727451594418e-01
-6.598157804322243858e-02 -1.671787274076389981e-02 -7.346061271358266254e-01 -3.928238122914453623e-01 -3.891543002158395770e-01 8.332156882346464233e-01
-9.493405905477843645e-03 -3.701323677977453458e-02 -6.376280816188433231e-01 4.498931338280974523e-02 3.823978943359458427e-01 -9.229018431495183972e-01
-1.046378870229334179e-01 5.827805249283166122e-02 -7.022978946649426346e-01 1.175584516331005733e-02 -7.091303830995221436e-01 7.049793613075641119e-01
-9.297681915447866818e-02 5.063424595500431308e-02 -6.495761746391207625e-01 4.929156918806700816e-01 2.454018581963951784e-01 -8.347526871424594264e-01
1.358848790992069344e-01 -6.585734282573565967e-02 -6.646494694789216728e-01 -9.715967725094517560e-01 -1.656953287929728291e-01 1.689519744347642849e-01
9.505967633364752201e-02 -3.476217219082738258e-02 -6.163621204402076614e-01 -5.447143128539457674e-02 4.389559842306081094e-01 -8.968559009572601992e-01
-3.788320579068625571e-02 -3.385836447668150173e-02 -7.182777295616821212e-01 -6.962106650698421939e-01 5.370494378939127955e-01 4.763072654294078223e-01
3.681580811170849510e-02 -1.649261043920410286e-01 -7.646092031102030839e-01 -3.197778174864134848e-01 -4.784261856814263081e-01 8.178328266204208941e-01
3.461889048799052931e-02 7.425707543081433437e-02 -6.126362191132262991e-01 -4.166686017079205828e-01 -9.046956002318282675e-01 -8.895587261074076879e-02
-6.363415929531207604e-02 1.025886194544411989e-01 -5.885700132011525421e-01 6.813264462878596550e-01 6.189219765206411816e-01 -3.908066792783093102e-01
-2.971341660540475008e-02 -1.328640356571809678e-01 -7.037823298722949428e-01 2.171951374289226300e-01 7.024808035766508807e-01 -6.777514241102957637e-01
4.618071376317121196e-02 -2.003537173744209254e-01 -7.926355031866760825e-01 7.246712067531073664e-01 -4.188852546538221477e-01 5.471624854982273245e-01
-4.347417799962579460e-02 -1.048115641160730638e-01 -7.684674309914151236e-01 -1.980008690843330643e-01 -4.909025437227333977e-01 8.484163767917252130e-01
4.894513580531478780e-02 -8.779910889089294346e-02 -6.666423798952778590e-01 1.363662875896257398e-01 6.177726331262144432e-01 -7.744425152129285062e-01
2.030711506151333288e-04 -2.478926191243852883e-01 -8.018505758995885246e-01 6.573270679872483813e-01 5.133130955324265443e-01 -5.517524731672759364e-01
2.864126753009789417e-02 -1.658038834550960572e-01 -7.703090726843678793e-01 -2.237918706666993107e-01 -8.327944354409837491e-01 5.063305510454927383e-01
7.957693167666115208e-04 8.074184436957042299e-02 -6.007945891826479423e-01 -2.260785890044541280e-01 -4.680400856836302026e-01 -8.542990985521494718e-01
3.360466326301417284e-02 -1.090659418201342518e-01 -6.804599442957109945e-01 -1.360500353481685319e-02 4.719393205564591520e-01 -8.815260527015212899e-01
1.577730972048107735e-02 7.407485019214404831e-02 -6.360308212156117191e-01 -3.331002815928532645e-01 -7.396414144283172121e-01 5.847860980437548095e-01
-7.149242387561144385e-02 1.332302660581130282e-01 -6.080731190324486501e-01 8.050551418035227780e-01 -1.912475498404420660e-01 5.615252383782382006e-01
-1.266668313843183902e-01 2.958059840101539065e-02 -7.228686935083260545e-01 3.480977259093311349e-01 -5.087007993905655612e-01 7.874334701523373337e-01
1.739342407259390419e-02 -7.263466510134054810e-02 -7.211266078160569748e-01 -8.627458792326375692e-01 -2.959030886687641915e-01 4.100133046419208172e-01
1.350487183482174114e-01 -9.169358104800481857e-02 -6.875417958471794488e-01 -9.474089110642744949e-01 -1.800183493881208352e-01 2.645935545692338908e-01
4.575917171902639524e-02 -1.042470225809105089e-01 -6.778409935891548388e-01 3.246067616248848181e-02 4.963817452858235169e-01 -8.674972434826948575e-01
-5.619224605542010031e-02 -6.147683969167894863e-02 -7.319735800589965979e-01 -8.401729990375364499e-02 -7.517640708646513570e-01 6.540580058938886276e-01
-6.919556770508950017e-02 -1.078068620577719017e-01 -7.199693347764091200e-01 5.142502220602974683e-01 5.592522447905547978e-01 -6.502181447850099438e-01
4.015461198425587797e-02 -3.342857211153496457e-04 -6.802440896391719338e-01 2.925036526196366643e-02 -5.145584649611398831e-01 8.569562429137657089e-01
-7.018563131713720371e-02 5.663761937802106600e-02 -6.938763481814359535e-01 -3.907479565794631515e-01 -5.155057520322209319e-01 7.626072737986887562e-01
-1.148546503979760991e-01 -7.437366391877560379e-02 -7.578587532898055645e-01 4.998764847122762478e-01 5.660219157540166690e-02 8.642451573139181553e-01
-6.843307500989140313e-02 -4.725842782309207235e-02 -6.756950000424686298e-01 5.944436404591247891e-01 2.576756146597327102e-01 -7.617348855917207562e-01
-2.970124336481919786e-02 1.355069444283896751e-01 -5.747938542566858322e-01 -9.332199717331643996e-01 -1.733143562246726166e-01 -3.147421457078456442e-01
3.303044914344559213e-02 -1.519332345093578895e-01 -7.625444829478559283e-01 -6.903582613107681620e-01 1.671904723073686372e-01 7.038840934483547862e-01
-5.501075269954677771e-02 1.247299539430825471e-01 -6.287222873631161946e-01 5.568769136108318030e-01 -3.696457787032983999e-01 7.438078390109276183e-01
1.094436250066894850e-01 2.026278583389011512e-02 -6.279456208721023724e-01 -7.699677882047180066e-01 -6.380237220605974313e-01 8.679586112040081625e-03
-6.844492279039238181e-02 -3.263174495668056535e-02 -7.429847376634781675e-01 -4.011660658578634631e-01 -3.634754108007607343e-01 8.408040279086101965e-01
1.087473258778916818e-01 -1.017214314682103049e-01 -6.612919513748546363e-01 -3.983780467834995703e-02 4.438213586534256461e-01 -8.952293286758634672e-01
-6.919027236363455013e-02 1.723661538075080546e-01 -5.682611846687851687e-01 2.262754065343184351e-01 -8.596251384636842685e-01 4.580873952850266217e-01
1.174675420838766776e-01 -1.231300315420311570e-01 -6.739280914154398561e-01 -2.186957710986920378e-01 5.108106910034222459e-01 -8.314112085244910189e-01
-1.009697381638367253e-01 -1.070599334259121765e-01 -7.470968530259072260e-01 6.716003799077254754e-01 5.750407700979562886e-01 -4.672055676390726164e-01
1.030701657931670234e-01 -1.077012790174144141e-01 -6.632483168280156605e-01 -1.458050846873281958e-01 3.969366704859702555e-01 -9.061910156820323081e-01
-4.015720581454332305e-02 -1.380205584636229055e-01 -7.127820502821565762e-01 3.389995506754421850e-01 6.558355168848966077e-01 -6.745065451381246913e-01
1.688092307014302240e-02 2.807116548366574149e-02 -6.049464536611890431e-01 1.912833479682861659e-01 2.525998082808837419e-01 -9.484745740643260037e-01
8.260002765053856000e-03 -5.316622604499807864e-02 -7.176132835862752968e-01 -6.785481882287828226e-01 -6.469490821981604967e-01 3.478925714849257500e-01
-3.601240022343259878e-02 1.403487506676630026e-01 -5.592189945675558604e-01 -9.296894085023710286e-01 -1.836114682698590517e-02 -3.678864933722211239e-01
7.141332693719160130e-02 4.918981104874151772e-02 -6.296627119818483109e-01 -4.621391616065964048e-01 -7.559728602550940257e-01 4.636080563011004685e-01
1.283019697051665242e-01 -3.673194063802882880e-02 -6.603635674920538268e-01 -8.851361253976057775e-01 -3.809097130141151921e-01 2.672860453664164804e-01
8.665560006265411036e-03 -1.121079184063649287e-01 -7.548415382127070528e-01 2.681197438027837707e-02 -6.417488387123191362e-01 7.664460490088139677e-01
-2.398044580289123567e-02 1.068318625013003204e-01 -6.488200786923002950e-01 -1.810864318589105459e-01 -6.762028680101537237e-01 7.141130061071923052e-01
-6.606605925481744135e-02 9.557547248095578374e-02 -6.214420011733091664e-01 9.506296348953469089e-01 -3.082778204349842510e-01 3.561014864606585478e-02
-1.090419978896675496e-01 4.638813200781265883e-02 -7.133741526598700311e-01 -3.375469873957769734e-02 -6.214786325856577198e-01 7.827036026188083362e-01
-6.377992940048400616e-02 -4.553237403025350155e-02 -7.444276975570438548e-01 -6.001133637034298252e-01 -9.973771755731949962e-02 7.936726897159882554e-01
-1.336579916803187495e-01 4.045671712995059510e-02 -7.090154277886383527e-01 5.431632805434251088e-01 -5.744109027920428767e-01 6.123934727141812084e-01
-4.939900669984949311e-02 -6.028340482104663917e-02 -6.661928404008676807e-01 4.338853788031322156e-01 4.347783084645317486e-01 -7.891205868240815935e-01
2.012508040981787760e-02 -1.668163730866691064e-01 -7.784816453086579324e-01 -8.316507244046122960e-01 3.976020416768563659e-02 5.538738112258310142e-01
9.061475431052153431e-03 -2.537109639182666930e-04 -6.164858009052440746e-01 2.480781819891580975e-01 5.821381679670946108e-01 -7.743205854275535538e-01
-9.028670133344800230e-02 -2.270838155245066825e-02 -7.462117204754183941e-01 -1.987194251378097409e-01 -3.740309540131246391e-01 9.058760596863848491e-01
-1.181840833338572289e-01 1.105117552868279535e-02 -6.781133566595274331e-01 6.199116938241048258e-01 1.676326935200414259e-01 -7.665564375330399249e-01
8.890638248545067179e-02 -1.164381827541323133e-01 -6.744824048750499568e-01 3.632206758364306398e-01 6.259986933894199357e-01 -6.900698345237714637e-01
8.960857884952116992e-02 -2.095143219064200812e-02 -6.102845973259155565e-01 -3.079689239766776609e-02 3.519493879792644497e-01 -9.355122552482505460e-01
8.634004242133476448e-02 -7.288876201833303925e-02 -6.478336032116329690e-01 8.334263710792505497e-02 4.500764759373939161e-01 -8.890923296529293918e-01
-1.950488092334080534e-02 -2.176404451917956229e-01 -8.176291207258030713e-01 8.541865993628027232e-01 3.967880235285816543e-02 5.184504278258948995e-01
3.131448833846935814e-02 -2.583071703534126629e-01 -8.301183314055228246e-01 -8.286673369912418707e-02 -2.536089823307232649e-01 9.637507917128852464e-01
-4.362815415752182430e-02 2.963802239527056973e-02 -6.901266553290569261e-01 -1.937729759845886746e-01 -7.050237566013156654e-01 6.821975787159061388e-01
-9.373157042494664748e-02 1.488788907836243458e-01 -5.208513106944597792e-01 8.416809824316634492e-01 5.399156692942448377e-01 -8.012107301905348894e-03
-1.370383485312701988e-01 -3.181030575159490142e-02 -7.246697468060870895e-01 6.484129977503317876e-01 6.177495215769289727e-01 -4.449113540244882259e-01
-8.799865800973236118e-02 -4.874781228061363970e-03 -7.373343820802877868e-01 -2.631462051182811290e-01 -4.609367466069504982e-01 8.475207315218001858e-01
-8.366377565950368356e-02 1.936149672309003256e-01 -5.058178871358105511e-01 9.504036388156873738e-02 -9.645511866423143177e-01 2.461876064714922929e-01
8.305626679524921729e-02 -1.753940762639578932e-01 -7.111711425219198190e-01 -2.631939262389284152e-03 5.795088961083750823e-01 -8.149616630412571672e-01
-6.098056196167402770e-03 -1.809112721542660285e-01 -7.343848735026057284e-01 8.568981075305903694e-01 2.301499115460146905e-01 -4.612555165262030576e-01
3.415556159647562678e-02 3.570086916610391847e-02 -5.984783952176961908e-01 2.534228638071880368e-01 2.883603251547985358e-01 -9.233770491930056723e-01
2.783278115832893765e-02 -2.329565904310429703e-01 -7.657698437188630303e-01 -5.304767388384993600e-03 6.976340556184164043e-01 -7.164346333646605114e-01
-6.939140149535109880e-02 -1.473098436483157025e-01 -7.601493989537354556e-01 7.374890731216685591e-01 5.109283443329982743e-01 -4.416583453114901192e-01
8.273193355459530773e-02 -2.315380022683216077e-01 -7.667606882922379796e-01 -7.054377398595139681e-01 7.084861072796735382e-01 2.012538132795344686e-02
5.877107892781360116e-02 8.862519688924798411e-03 -6.700826691779901978e-01 -1.994639329039997466e-01 -6.648178269273888885e-01 7.198829046935433240e-01
6.843671190146471961e-02 2.173603081030088535e-03 -6.733964019317442151e-01 -2.038184651852687213e-01 -6.406891914482766293e-01 7.402536006064913687e-01
1.319477926371508125e-01 -3.359735011050310471e-02 -6.363562181540401985e-01 -9.768871217741547097e-01 -1.574318288942772592e-01 -1.445917375329960342e-01
5.952159327848765419e-02 -1.772248314378313261e-01 -7.801492099462117302e-01 -5.370564165718549887e-01 -8.311688215486461306e-01 1.439749822171656757e-01
1.025169806386887900e-01 2.777036753735490429e-02 -6.196708280413368852e-01 -7.396907235613181530e-01 -6.650905421377101279e-01 -1.025290409410932191e-01
2.942956951166425181e-02 -1.034236822338038819e-01 -6.773260358428873085e-01 -2.534471028839965431e-02 4.719860500308034612e-01 -8.812416321513170114e-01
8.719093273811007183e-02 -5.712377528321690295e-02 -7.055148366144577965e-01 -6.413344153364605171e-01 -6.958310032675960599e-01 3.232791094343259730e-01
-5.856661659597955927e-02 1.634918309200013298e-01 -4.961441882696709937e-01 -8.983480304043288678e-01 2.380494999108054288e-01 -3.691927028814063205e-01
3.550584901981423958e-02 2.168909725982086020e-02 -6.025422639851297779e-01 2.334088444941635476e-01 2.940477759930573143e-01 -9.268528560378052061e-01
-5.782417899177712262e-02 -1.291276108443840109e-01 -7.283206253751398629e-01 6.786542268903774655e-01 4.674053057002298117e-01 -5.665339535518579828e-01
-4.309500395760455099e-02 1.427509693206764074e-01 -5.425198023971794514e-01 -8.951826708105651287e-01 1.464242694783039755e-01 -4.209607097915532559e-01
-7.538258174521138277e-02 7.401571389441900795e-02 -6.326798170300143020e-01 5.908103338228256618e-01 1.833137430965024461e-01 -7.857093744127728874e-01
-6.552496191775289414e-02 6.221824035381851720e-02 -6.282777418057193808e-01 6.083706837139396528e-01 2.316460615843357329e-01 -7.590949962619302216e-01
7.736428171000919729e-02 -2.389799951104449871e-01 -7.868489428422899001e-01 -8.151922297487775859e-01 5.786095439765671644e-01 2.593499906391453363e-02
2.040900277292018346e-03 3.906404140836074179e-02 -6.782800128968941022e-01 -2.793407981068985954e-02 -3.117834428984881390e-01 9.497424766322158929e-01
-1.417627870389528422e-01 7.311150090813293284e-03 -7.244077203236588547e-01 6.224268478168686336e-01 -3.077104555684739284e-01 7.196520649943267678e-01
4.315630068226836841e-02 1.291112145680330461e-02 -6.037030900224200636e-01 1.718474390560456033e-01 2.814290657986994737e-01 -9.440689268340261009e-01
9.642035394009820792e-02 -1.447406170709932827e-01 -6.947973455678261301e-01 9.943491154997566306e-02 5.481197183980900389e-01 -8.304682249600204846e-01
-4.557841855631333122e-02 -5.135388515123094633e-02 -7.209658583922146091e-01 -1.095514448721544160e-01 -5.547936775043639246e-01 8.247438731676685064e-01
1.584583332445929291e-02 -2.760085301166673721e-01 -8.144822438846430757e-01 3.474679784225537249e-01 6.461716798251790905e-01 -6.795058234944347797e-01
6.940413337395564056e-03 -2.737472011329831756e-01 -8.197325313390850798e-01 6.618804689354960136e-01 5.543554160223784777e-01 -5.045833108302173464e-01
2.273990236968049042e-02 -4.517501492641708832e-03 -6.907444388080397069e-01 -9.158795727050798030e-01 -2.667074886275845880e-01 3.000528683607723845e-01
1.206900499640958802e-01 -1.403990212796838166e-01 -6.866546533967886612e-01 -3.154726858025431735e-01 6.327039365495756851e-01 -7.072218274255965831e-01
-3.198115654875532954e-02 -1.889757339757476562e-01 -7.709625998113907031e-01 6.421896950894543377e-01 4.770314540089999333e-01 -6.000278221940821277e-01
-1.243465894717520797e-03 -1.402089117160546135e-02 -6.906221054505090606e-01 -5.776168082939161369e-02 -2.651244952777341846e-01 9.624825142471369332e-01
6.939692321128229646e-02 -2.865291540696800893e-02 -6.206828817905822859e-01 2.863792601233504653e-01 6.669568814521007472e-01 -6.878629497617171351e-01
-1.193331457604476231e-01 2.719472541292538691e-03 -6.808912015423739250e-01 6.558940576280882784e-01 1.820929695686890892e-01 -7.325606702532007075e-01
-1.102111193537352596e-01 2.525520792344881915e-02 -6.686038272116227033e-01 5.472184159117237101e-01 2.582648161938935760e-01 -7.961477815100651556e-01
5.197517016657673267e-02 -2.255712374918517338e-01 -8.200291906998886660e-01 6.113042260292816249e-02 -4.781778492035837491e-01 8.761329898841968555e-01
-5.066690740669630572e-02 1.786687401854208891e-03 -7.167640004546634858e-01 -3.933799507423802466e-01 -4.950711965057864039e-01 7.746978280234503300e-01
3.187466067674603332e-02 -2.293062916756268554e-01 -8.181413289485540696e-01 -9.484652392047778768e-01 2.081327905250335841e-01 2.389444109588797494e-01
-1.830465814404782414e-03 -1.817183613448876689e-01 -8.031036803414330905e-01 -7.704082867884245456e-01 1.226966948096284982e-01 6.256329536801248370e-01
-4.025496720053003269e-02 -1.214732234179415754e-01 -7.769897054449423912e-01 -2.714832422375321186e-01 -4.582836596915706995e-01 8.463290946457519004e-01
8.481307698128344452e-02 -1.339559107509128988e-01 -7.445462726457364733e-01 -7.537822805699411211e-01 -6.570627285893627656e-01 -8.991340138148073285e-03
2.223578016502937918e-02 -1.654189881924011674e-01 -7.134818459437013427e-01 -2.052664665836334279e-01 5.857245823989779554e-01 -7.840869794033139550e-01
-3.739574158300826984e-02 -2.010346762690952693e-01 -7.874248353680773915e-01 8.536642190759973214e-01 3.182026484068660732e-01 -4.123159900079356177e-01
1.216061180108451434e-01 -4.686737053406776071e-02 -6.823085039459547696e-01 -7.489692461489206865e-01 -4.395183777613843601e-01 4.958514534950146935e-01
5.685300800916594927e-02 -2.580710761021656197e-01 -8.024719911821731611e-01 -6.463324820473325127e-01 7.617148586246991204e-01 -4.521942946222617943e-02
7.877505899674035195e-02 -2.121060281122710486e-02 -6.888962582227434739e-01 -1.895846655759539090e-01 -5.600150796238736461e-01 8.064990794615456426e-01
-3.030167480717431416e-02 7.864403099572186973e-02 -6.616022616378155474e-01 2.887895914269765774e-01 -3.433897341178622775e-01 8.936912567469279534e-01
-7.324928985330464437e-02 1.557147825323764168e-01 -5.896938573601357980e-01 6.231421680720741207e-01 -5.589205673935111474e-01 5.470846714311691228e-01
8.487414024697284565e-02 -9.893126645686030340e-02 -7.350630280446079912e-01 -2.886924678263887434e-01 -3.988872214120715021e-01 8.703709804528565463e-01
-1.269313883485424267e-02 -2.219829827457265106e-02 -6.991954976889144246e-01 -5.339932322854975544e-01 5.384119442415596923e-01 6.518924805298111913e-01
-5.215465534718532331e-02 1.663836992887857968e-01 -5.168444845718119796e-01 -9.573494991603119786e-01 -1.794978479168460872e-01 -2.264121442209332813e-01
5.836867812985753511e-04 -2.180532464134037063e-01 -7.681135197589459285e-01 6.152778809955240513e-01 5.896414128515025110e-01 -5.232170996901205351e-01
-6.567490438600497027e-02 1.087134845391589388e-01 -5.810991901267713589e-01 6.509879518516769048e-01 6.815534297838209410e-01 -3.342149142301537590e-01
-1.607628494576349848e-02 -2.146979729256228708e-01 -8.216941917599137613e-01 7.602176397866082791e-01 -1.880778008049447947e-01 6.218487605532829754e-01
9.040581613702014518e-02 -1.636037594890082658e-01 -7.662611835502286528e-01 -5.161207636596270021e-01 -3.722220999465912783e-01 7.714078464928610934e-01
3.930124344323149971e-02 -9.371743726737043201e-02 -7.297138169894642479e-01 4.021429969313448649e-01 -2.997290441155830987e-01 8.651262972148259234e-01
-6.715778568513409985e-02 9.146955150867723539e-02 -6.212352160425644865e-01 9.657599577394377910e-01 -1.402770599837818155e-01 -2.182430994772244226e-01
-9.496382288126414828e-02 6.215048637612437948e-02 -6.979496146991266414e-01 -9.526200873055434837e-02 -6.908685593819766657e-01 7.166769030393624895e-01
6.461804289850202332e-02 -1.086741983189895983e-01 -7.375847508350634740e-01 -5.276974241010941036e-01 -6.568775693271163840e-01 5.385603842764240534e-01
8.804420637377283199e-02 -4.450239465220331980e-02 -6.972431018289360072e-01 2.496719297865883369e-01 -1.198682456341820454e-02 9.682562902008573502e-01
-4.087000029142361102e-02 2.005487810521939043e-02 -6.205678914890446762e-01 5.574676907398066206e-01 3.853350288925526668e-01 -7.353548050360472210e-01
1.321027839146421412e-01 -8.671104845522752125e-02 -6.921113931043998413e-01 -8.896792965938881137e-01 -2.490677902943400912e-01 3.826695507224207593e-01
1.180153574043538295e-01 -1.321620011780252069e-01 -7.314534140733939260e-01 -7.066299478879611851e-01 -3.299167116045518822e-01 6.259625229611563979e-01
6.956138804582299995e-02 -2.375700689204008134e-02 -6.138460841743011986e-01 4.182898905206042794e-01 7.452563906101410396e-01 -5.192556978435631798e-01
2.271303987878327962e-02 3.333849640653036711e-02 -6.597083641837315771e-01 -6.862569731794223582e-01 -4.162227273209392342e-01 5.964981207213788661e-01
7.481777264357347690e-02 -1.846267112366957452e-01 -7.754620731885509821e-01 5.047258757700990861e-01 9.997046404828612010e-02 8.574716885390892829e-01
6.713409347899824964e-02 -1.209092697249650045e-01 -7.513401152541140382e-01 -4.694353100361015052e-01 -5.926573382939321899e-01 6.545133834060697930e-01
-1.056548051904664803e-01 4.956189764614356980e-02 -6.574422915004184409e-01 5.004949278209223085e-01 2.810875403572171138e-01 -8.188373598471552217e-01
3.558467169105641436e-03 -1.745296648710024656e-01 -7.141163423303832358e-01 3.682418102186093556e-01 5.652103117281732647e-01 -7.381973128663250616e-01
1.366722098514638328e-01 -7.588685439185563486e-02 -6.541481016307921781e-01 -8.452673422456231656e-01 3.362312601536989187e-01 -4.152970741872328841e-01
-4.948208129016958001e-02 -2.359735186114176458e-02 -6.529414111542007904e-01 5.309878374800056644e-01 3.540388132269436383e-01 -7.698755972085127297e-01
1.184211726445523610e-01 -4.786693383717929157e-02 -6.877760514206923137e-01 -6.961325417278774186e-01 -4.600753465285922217e-01 5.511171924954626489e-01
-4.079266033313202339e-02 -2.913349225137132001e-02 -6.492433677210414089e-01 5.674886707035549094e-01 3.386403906640354511e-01 -7.505193498065334534e-01
-3.132083963055233566e-02 -3.031225035066287266e-02 -6.420368366536514104e-01 5.623358931718571707e-01 3.671612692706419101e-01 -7.409257355485642238e-01
-1.159549004678922801e-01 5.213383802006987811e-02 -7.073165892458783688e-01 1.224706283863793155e-01 -7.212390437317606207e-01 6.817735599006027325e-01
-1.118589663013342395e-01 3.464307249439273900e-02 -7.220091861924299304e-01 -1.347677365470528570e-02 -5.271733051927252056e-01 8.496509182388010117e-01
6.881676775134033808e-02 -1.579843747059079262e-01 -7.751194003389803022e-01 -2.052507137685785354e-01 -3.111683222207700661e-01 9.279258697459621397e-01
4.339867385274654051e-03 -3.234689199866012943e-02 -6.990193452145373465e-01 2.992135580815686868e-01 -4.896085283939783372e-01 8.189961755613091032e-01
-8.046875568148147140e-02 1.416016145881235921e-01 -5.878393936942655218e-01 9.177826816701409873e-01 -1.266957654217361062e-01 3.763284898204826701e-01
7.081853315171135477e-02 -5.770199800037577320e-02 -6.417905213401159381e-01 1.004418355577627736e-01 4.857259962983693224e-01 -8.683211929866411216e-01
3.308655752442667825e-02 -1.364724720046025797e-01 -7.646244411667797447e-01 -9.339479024818516661e-01 -1.488813687051860069e-01 3.249240734421198207e-01
-1.069310533066335500e-01 -8.577725861187578127e-02 -7.613604133383813366e-01 4.306249394732752367e-01 4.858244416243167468e-02 9.012224517969148474e-01
1.521698270892733046e-02 -6.548898984476380887e-04 -6.146705808599052245e-01 3.075359122942565304e-01 6.669159504983916964e-01 -6.787081682285590611e-01
2.660218918343355832e-02 -7.868775299145998325e-02 -6.617608395429427359e-01 3.158727322433912965e-02 6.026404617558088761e-01 -7.973874328235905917e-01
4.123257493077149560e-02 -1.574825681248211151e-01 -7.088964290487363984e-01 9.889504376632697602e-02 6.576359518378553926e-01 -7.468163932110583048e-01
5.864629851790555126e-02 3.489446035151842155e-03 -6.747870405083249423e-01 -1.818370867235541144e-01 -6.343642011081468413e-01 7.513436858351264513e-01
-6.285097949427594088e-02 5.550002756491122929e-02 -6.281084516350597946e-01 6.201747398121609800e-01 2.302044668284863316e-01 -7.499261267292471889e-01
1.810452284616219029e-02 -1.818212238554052507e-01 -7.984953928590337036e-01 3.767194967574784559e-01 -8.264483409314370421e-01 4.184083657558338443e-01
-8.036119349466389061e-02 1.510920812294608839e-01 -4.818204282832776464e-01 -2.545271472804809809e-01 8.622106538681626464e-01 -4.379597237800474385e-01
-5.135634821622316049e-02 1.571990690966932613e-01 -5.948477528033445649e-01 -2.293381983517426559e-01 -8.210436041906147286e-01 5.227727907939182517e-01
4.158019132788521449e-02 -1.210914425153262475e-01 -6.860083567181815001e-01 -1.200905169862514915e-01 2.885450044820157545e-01 -9.499052837617274481e-01
-6.597906638025026471e-02 2.215845060374147316e-02 -7.057922972000211237e-01 -1.324849961469755089e-01 -8.187480392950232666e-01 5.586585486202563233e-01
-1.180435307303923237e-01 -6.793892837628658088e-02 -7.368121915250037679e-01 7.130174376005802284e-01 4.136219000203270046e-01 -5.661475580633348326e-01
-1.050061603728472646e-02 7.992930070865014724e-02 -6.643833649618234860e-01 -1.452072974947601069e-01 -4.721664414978137825e-01 8.694674762620853148e-01
1.462718638403287183e-02 -9.397136303700216742e-02 -6.710982595016630192e-01 -8.928169999029933468e-02 4.947369215812280063e-01 -8.644444206952649479e-01
-1.007863286871776703e-01 2.629389314252211785e-02 -6.618649263209961386e-01 5.666115948969360216e-01 1.765127112752744865e-01 -8.048568588802619272e-01
8.160626283677289983e-02 4.606773574676701483e-02 -6.137333840404816110e-01 -6.326743497530799010e-01 -7.717274134785154782e-01 -6.449780190268562807e-02
5.308186859944499097e-02 -1.884024623339865256e-01 -7.327033588936743280e-01 -2.849372107422700959e-02 4.706118236437162872e-01 -8.818801615333456967e-01
-8.593316419565713571e-02 1.975028918212135345e-02 -7.117280014753287753e-01 -1.243399221606509286e-01 -7.008659954042981699e-01 7.023720098658726707e-01
1.304870907693576332e-01 -1.282783097278553663e-01 -6.989129027976058728e-01 -9.967988049257423544e-01 -1.562035897914988702e-02 7.841011978038590902e-02
1.209822963430809278e-01 -1.521035575890639091e-01 -7.018828111069403963e-01 -4.824104666686868104e-01 7.005453810407545889e-01 -5.258481822265470562e-01
-2.322557444109086752e-02 -1.196280181054712316e-01 -6.908223542581344301e-01 4.193849069885139946e-01 3.290702435907458256e-01 -8.460668263047327331e-01
7.344283241904063682e-03 -2.497427794200720308e-01 -8.365524287567613904e-01 3.882926142076828513e-01 1.253021680521326231e-01 9.129776626145891250e-01
-7.993242878921665018e-02 8.085120452423935622e-02 -6.356810545820922309e-01 6.661539272378960153e-01 -2.666173310716128328e-02 -7.453375726563437054e-01
-3.296560777824280447e-02 1.135956495493708335e-01 -5.757560614136734145e-01 -6.527209590321764177e-01 4.123766865690401406e-01 -6.355319173845289660e-01
-5.986091224424962276e-02 -6.986981187682277106e-02 -6.800523533744868843e-01 3.263940666971140159e-01 6.991110325365754719e-01 -6.361687491621725865e-01
-6.012160336906031272e-02 1.804215982564131293e-01 -5.357975393872528302e-01 -6.005401697057222155e-01 -7.940182938127433587e-01 9.426798852485306079e-02
2.889428844915922084e-02 -2.390494135032949219e-01 -8.279909595233797548e-01 -9.809020023525065746e-01 1.897107406405060259e-01 4.290800235939665891e-02
1.294345879988505477e-01 -1.229198334946963594e-01 -7.063404446936153436e-01 -9.596080145895514724e-01 -1.049167003896073203e-01 2.610458663048627059e-01
1.351761078907571523e-01 -5.347201319491046156e-02 -6.391117365444367593e-01 -9.583532225503077484e-01 -3.985928083027921037e-02 -2.827902730985153434e-01
-9.693408770087401372e-02 4.042216617674143642e-02 -7.157274143866695360e-01 -2.591428934777120219e-01 -5.203613450720205869e-01 8.136762447772681872e-01
-3.796569557790296229e-02 -2.744114040324034318e-02 -7.222245507652262919e-01 -6.784960224355199854e-01 1.791860724729788315e-02 7.343855057485103588e-01
6.877552169620623768e-02 7.935461763477577590e-03 -6.680652877792691013e-01 -2.015582670807984089e-01 -6.871639974604241141e-01 6.979827401631046868e-01
