-6.462637475948504462e-02 -2.083674377190225524e-01 -1.065027152457161952e+00 -3.652484813170742139e-01 8.112094667227441602e-02 9.273688257142165270e-01
-1.311172282010350243e-01 -6.342340906767550412e-02 -1.006298973965480181e+00 9.889655374092185536e-01 -8.731221580319890180e-03 1.478882401903917065e-01
1.095761168257979451e-01 2.882110857634664902e-02 -8.415707084236184743e-01 -5.207510283232258397e-01 -3.166183632532083014e-01 -7.928248094952391467e-01
7.408135476951745180e-02 1.273077226331169043e-01 -8.382812099895348146e-01 -7.725174657205812201e-01 3.917948551425194381e-01 -4.997134745436656034e-01
1.987981430847830105e-02 3.784518548631286144e-02 -9.422669760001990413e-01 -2.591270556696327332e-01 -4.278378795423917191e-01 8.659144980011923565e-01
-2.687127656871741294e-02 8.083948197970344807e-02 -8.853149310261962945e-01 4.967620237009000017e-01 -3.106205312161137710e-01 -8.103964322451115976e-01
-9.441780716711815902e-02 -1.325413048139810201e-01 -1.045498353244857181e+00 4.671900845780566774e-03 -3.887328061997064599e-01 9.213386883912930703e-01
9.941729191659384735e-02 -9.218208984990549498e-03 -8.401750650275133792e-01 7.942955053078569472e-02 1.939522650777799617e-01 -9.777900926956030192e-01
6.099734885002675629e-04 -2.602287817079401155e-01 -1.042872910741733827e+00 -7.870148756821070402e-01 -7.307491465789874019e-02 6.125909257431246813e-01
-6.462383753260698971e-02 -2.510889257711232947e-01 -1.025968328779866434e+00 6.289892044256721881e-01 5.283906311614945395e-01 -5.702419851402712458e-01
6.534938987448928038e-02 -7.884375375855379176e-02 -9.631658435116530192e-01 -5.655586286464057144e-01 -1.851184332485108774e-01 8.036632399427097173e-01
-3.194738974893563798e-03 -1.103280333662464141e-01 -9.431262222953411545e-01 4.485277178413627497e-01 3.292958877952240626e-01 -8.308953632131869105e-01
1.383141021810067040e-01 -5.619264214592068624e-02 -8.780352454955128172e-01 -9.895348743866174690e-01 -3.266316004744908297e-02 1.405483914827051484e-01
4.366170585391354608e-02 -1.650062821297512139e-01 -9.999852144321835778e-01 -4.414154817942108067e-01 8.802659047126043523e-02 8.929746311079556076e-01
-3.248342493696827760e-03 5.640998852506529798e-02 -9.413031158125999553e-01 -2.940545868602644219e-01 -7.011277398634184754e-01 6.495781649197065466e-01
1.174854334415314921e-01 -7.867416110191252643e-02 -9.089417579952369097e-01 -7.082518797009658140e-01 -9.583370142238477329e-02 6.994248898714812146e-01
5.813009652238215752e-02 9.115221883785980250e-02 -8.817511586182278371e-01 -8.382142921640929334e-01 -2.248577141250932346e-02 5.448772251579553361e-01
6.523040782161673018e-03 -2.684409010401854201e-01 -1.029864565158908896e+00 -9.308938781196344214e-01 3.301524934768585440e-01 1.563199242911779974e-01
5.761032776168076991e-02 1.419384835602538475e-01 -8.784683521429439423e-01 -1.066901453548029927e-01 -3.210223998443594712e-02 9.937739476722826648e-01
-8.035288836833742732e-03 -4.405360909939203679e-02 -9.261562781627491470e-01 -4.731355932479469062e-01 4.265364536669359885e-01 -7.708497675261678506e-01
-9.354219900793468018e-03 -2.327124955549930152e-01 -1.050932271793558970e+00 -7.195588335018683335e-01 -9.155145143537464503e-02 6.883701161944109082e-01
2.484691325657406580e-02 6.379297898177112291e-02 -9.230550302307677368e-01 -2.237491778018702027e-01 -6.611575754415293105e-01 7.161054153330118632e-01
8.647334204245948897e-02 -1.606646976953202480e-02 -9.164167636930675709e-01 -5.598093665013963438e-01 -3.183645749210051723e-01 7.650212223282913948e-01
-1.104469454972655806e-01 1.723234521105545397e-02 -9.920964911000405007e-01 1.476286620160219554e-01 -5.246252263158777129e-01 8.384355372146227170e-01
1.003924035498068440e-01 -5.958995126998905406e-02 -9.221089000272515435e-01 -6.703683739111647721e-01 -2.289446572775772903e-01 7.058261734759864181e-01
-4.168512326213075214e-02 -6.165836025209066318e-02 -9.366607397907195098e-01 8.392718252808016588e-02 3.162183221504157316e-01 -9.449667723096268901e-01
-7.766036260423361814e-02 -8.666109140927659438e-02 -9.558809230392307787e-01 3.847124390780636283e-01 3.589337768087502156e-01 -8.503898418280955163e-01
-1.682394942719172767e-02 6.287955586001202357e-02 -9.399971986194479712e-01 -2.901180265125671287e-01 -6.681958848449076616e-01 6.850881623329833081e-01
2.575217569662985664e-02 4.584547127610790612e-02 -9.361805685926394283e-01 -3.039760653441113680e-01 -4.517476603051811535e-01 8.387625427418103907e-01
-5.301854504125887851e-02 -1.803291756543165536e-01 -1.054797393292910446e+00 6.450791311424800001e-02 -5.951946074013761967e-01 8.009882074450073164e-01
1.040152362274516795e-01 -7.232963353737835444e-02 -8.736393290125086253e-01 -4.064173549147099829e-01 4.891825594063022031e-02 -9.123770809593244602e-01
6.629534928032664032e-02 -5.323330530787322851e-02 -8.735853630835980210e-01 4.845084454988499711e-01 3.038199970181078013e-01 -8.203322349220495413e-01
1.947297580484849818e-03 -1.777329443648166807e-01 -9.710232245308596521e-01 2.120389576185354730e-01 2.402070617039848699e-01 -9.472803428550509164e-01
-2.621435135328937724e-02 -2.937178570573543701e-01 -1.051049957699546900e+00 2.735833709511313883e-01 6.974448859021463720e-01 -6.623615102555080458e-01
2.146148004805093976e-02 -2.391990214999805131e-01 -1.006018140281515816e+00 -6.096706894487157191e-01 6.914055049302254563e-01 -3.876339486929744060e-01
-1.010382685423757282e-01 4.483474701020504632e-02 -9.307216373677088539e-01 6.980627990893948365e-01 -1.526963061513461895e-01 -6.995656985696295793e-01
1.098230606177770935e-01 2.262116611857074300e-01 -8.728453222408010248e-01 -9.582469227624305086e-01 2.424228993274073485e-01 1.516376368123244223e-01
7.689821143101154000e-02 -6.834846389641395861e-03 -9.195539893329950365e-01 -5.560944816459068019e-01 -3.051787070526406076e-01 7.730620183689330682e-01
7.611170526575107564e-02 2.030824738885297631e-01 -8.338385279357080071e-01 -8.251360911699799627e-02 -2.281995866918833382e-01 -9.701115672664359924e-01
1.801182450263818331e-03 -4.779901656112174602e-02 -9.900993460688742864e-01 2.206507967544383067e-03 -4.435224272265927414e-01 8.962605580240718961e-01
9.814349719328654964e-02 3.429523439309000582e-02 -8.385591011609062617e-01 -2.431506422597179418e-01 -2.614226615538718934e-01 -9.340963318602512055e-01
1.686959755049105211e-02 9.053394258342523093e-02 -8.403111807450189819e-01 5.812677656961945383e-01 -8.090480145709631754e-02 -8.096803058391265351e-01
-9.723636344485918348e-02 -4.176820994258240854e-02 -9.465655064143121411e-01 4.039990815861322915e-01 3.741286777170260147e-01 -8.347529422453515702e-01
-6.635249741578100324e-02 -9.139073812168456781e-04 -9.860041668965824346e-01 -3.037726207269660916e-01 -3.252335486824779465e-01 8.955140053109572618e-01
-9.642428174626092863e-02 -2.277651551390851709e-02 -1.003504978644121692e+00 -1.696782063052944545e-01 -4.181265792575367679e-01 8.924009581031434601e-01
7.585015895955726783e-02 1.393767379912018711e-01 -8.340957403956553717e-01 -7.464429428510821474e-01 2.662321182136272446e-01 -6.098716195227494863e-01
-6.468159921073733665e-02 -2.014728552208599199e-01 -1.005994218711400601e+00 5.054417629888577901e-01 1.736790064751752294e-01 -8.452007021628125116e-01
2.389087683016505662e-02 -2.224028564573759734e-02 -9.754412547618570573e-01 -4.244973955261247545e-01 -3.612542759339296694e-01 8.302393084593072681e-01
6.807025793719567730e-02 -1.467525403915026505e-01 -9.737828208585809220e-01 -7.321131856045429709e-01 -7.831809171711963391e-02 6.766657668108803092e-01
-1.149788946193210648e-01 -1.450646493266085912e-01 -1.035842074276855929e+00 8.921618843902857643e-01 2.489211009097428984e-01 3.769422469862671043e-01
-6.621913854039773728e-02 -2.562491401296871849e-02 -9.978638147723785101e-01 -2.373810471971469771e-01 -4.702465035367401347e-01 8.500108613088754872e-01
-5.366349047932753719e-02 3.487584514156880783e-02 -9.171974036218438764e-01 3.874984096631211017e-01 2.343379817845537838e-01 -8.915888586123618120e-01
7.802624210848473074e-02 -1.404934892981613281e-01 -9.635803958471160779e-01 -6.651238804633510249e-01 -1.408416310356064294e-02 7.466002009020934471e-01
3.331811791516654103e-02 -7.239200501734262272e-02 -9.848329326428639785e-01 -5.994778833860467948e-01 -2.403647464151905111e-01 7.634468259228972542e-01
2.440624754863672877e-02 -6.284729945194958423e-02 -9.898955036413548125e-01 -7.079706070863686085e-01 -1.573446593450989195e-01 6.884913054478853933e-01
7.862911430538424562e-02 1.597790339549499672e-01 -8.737038529877283466e-01 -5.728711928406693410e-01 3.293991237220972312e-01 7.505430125611876058e-01
5.853021397234549339e-02 -2.668371661125533076e-02 -9.480992119791510353e-01 -6.950741731303163862e-01 -4.844776221124063587e-01 5.311810684874932464e-01
-3.357470943059619184e-02 -1.269929768848616913e-01 -9.714554137150949176e-01 4.937477933510234784e-01 7.500208484274113740e-02 -8.663647060160271085e-01
-4.489937545877085989e-03 -2.795943237774198842e-01 -1.050487196874732243e+00 -8.297794319097064886e-01 5.718432398790888188e-02 5.551540754328034843e-01
8.897102813773391516e-02 -1.534646413445293900e-01 -9.452888465244553284e-01 -7.356704326180434350e-01 6.720158563560179044e-01 -8.475673057444207958e-02
-2.630484542232798192e-02 -4.433312304500877654e-02 -9.242119126880523616e-01 9.628170822070171164e-01 7.819555170517765441e-02 -2.585898720056312716e-01
6.231953995400974465e-03 9.737509458783250027e-02 -8.976606757708686102e-01 -1.367883013659663416e-01 -7.659778070021407981e-01 6.281456517318292354e-01
4.402352657338076680e-02 -7.270901353834041680e-02 -9.769093877789867264e-01 -5.789004359077697393e-01 -2.650432718976288293e-01 7.711201912332432684e-01
-8.971231538687206297e-02 6.477942570174412273e-02 -9.282888487653604415e-01 6.865453824347266254e-01 -4.481908964486086555e-01 -5.725210548077226402e-01
8.412723460094358174e-02 -1.592294913463278838e-01 -9.499039626786051072e-01 -7.430108059727256187e-01 6.684360604180451526e-01 -3.358832149071708240e-02
5.764663875975213625e-02 -4.104907669078857596e-02 -8.744146150360767589e-01 4.707139600445697791e-01 2.506157624439771525e-01 -8.459433240080467264e-01
5.846413115853906634e-02 1.743113463114975559e-01 -8.789750358189539758e-01 2.335661854403659199e-01 2.362867356931471971e-02 9.720537653875899187e-01
2.362079824235329209e-02 -9.295337429573034826e-02 -9.265335629451495469e-01 3.156959732810493136e-01 2.843515420711376085e-01 -9.052514860390437068e-01
5.160763323412035503e-02 1.554697471964337774e-01 -8.269973389581659617e-01 3.161360861778825804e-01 -1.547348258676238542e-01 -9.360102075724637816e-01
-7.724115224762122256e-02 -1.721985604322279484e-01 -1.052011263635869387e+00 -2.546387592491314300e-01 -3.190390333339309104e-01 9.128927634160618476e-01
-4.664790559681458726e-02 -1.994525674421415151e-01 -1.011096120114388430e+00 -4.759673706299024087e-01 2.954940804180474223e-01 -8.283346609514475878e-01
-7.706141567263512238e-02 -3.897350117526648255e-02 -9.416912070930895107e-01 -1.654076760861688811e-01 8.267112679504258210e-01 -5.377627545075728266e-01
-6.380598696430640066e-03 -2.353083434664446638e-01 -9.931470723736178785e-01 9.524599814697554123e-02 -6.287458836116317784e-02 -9.934661473726220660e-01
-1.907993083070982920e-02 -2.851437165618328495e-01 -1.027279324711912301e+00 -3.583124203435167354e-02 8.237032101286515529e-01 -5.658879250505616243e-01
9.373734745039570548e-02 5.171273774954417840e-02 -8.581010011304075480e-01 -6.691144373192478012e-01 -6.952735918441669272e-01 2.624509520940189189e-01
9.153538333245248362e-03 -2.628802471631145887e-01 -1.025991180162237226e+00 -9.310269852465636875e-01 3.242140645700753998e-01 1.675529560397117090e-01
-6.544498857191995145e-02 3.115326411713844820e-02 -9.224282739233959916e-01 4.043076211118289409e-01 -1.731911850128473040e-01 -8.980758102436227075e-01
-1.592762050397366486e-02 -7.359754295448901751e-02 -1.003071432933562157e+00 -5.889405338207402696e-02 -5.607578982353119690e-01 8.258826006418494847e-01
6.509794294358366151e-02 -1.113814007317029120e-01 -9.716377697301853411e-01 -6.368342213836111210e-01 -1.639106836348459550e-01 7.533760430655379592e-01
-4.237058944191681581e-03 -9.086626979887738043e-02 -1.011993343529568046e+00 -8.146872524766814172e-02 -3.210321976489586282e-01 9.435577220706743429e-01
1.130374121125937298e-01 -8.821901285542141369e-02 -8.807629070958593598e-01 -3.329987413481090841e-01 4.166333651939237992e-01 -8.458891637015817366e-01
-1.181905417324461832e-01 3.425249669323294360e-02 -9.666862986989325224e-01 8.750934184812850791e-01 -4.600175507006631914e-01 1.503175371608430622e-01
4.154412127384712189e-02 9.652273922071458179e-02 -8.320169826928742740e-01 -7.880139755744172692e-02 2.572039700984994903e-01 -9.631388568158613106e-01
-9.409283878809671098e-02 -1.158310340953431217e-01 -9.795862075546137859e-01 4.289501894897369549e-01 4.792825351422911884e-01 -7.656957531841853681e-01
1.060350628702729364e-01 8.621150057179852166e-03 -8.843219011628781212e-01 -6.515870292382808238e-01 -4.641634748411912481e-01 5.999888431894235818e-01
6.974667122412805953e-02 -9.076990636454296268e-02 -9.628816534654326409e-01 -5.728102412742042127e-01 -1.938235265787983663e-01 7.964426332360327043e-01
-3.883196472091854368e-02 -1.997651698552199706e-01 -1.004120914624114347e+00 9.849558092597348047e-01 -1.211700270864396814e-02 -1.723810663932084930e-01
1.063604419401795453e-01 2.470599602641172232e-01 -8.860661591726053388e-01 -7.500318252289384091e-01 -3.379954256679608693e-01 5.685168013095841522e-01
-7.815836161644419688e-02 -7.905453414792650013e-02 -1.020589775932427168e+00 -3.554894943465469193e-01 -3.109389835000849200e-01 8.814443646363452345e-01
-1.059994445515281686e-01 -1.431692883409675376e-01 -1.008365950728047800e+00 -9.353586270888253340e-02 8.014487553611714388e-01 -5.907037624032319689e-01
2.039979993481675150e-02 1.151168767285545014e-01 -8.760904555915612901e-01 7.308556926127426356e-01 -5.380550868158737732e-01 4.199365191634456540e-01
3.268787519938663733e-02 -6.330872013183186375e-02 -9.823642505541205772e-01 -6.122084962329421565e-01 -2.361009632163458549e-01 7.546238084691690995e-01
6.342798128563234550e-02 -1.174189297863910686e-01 -9.744224019810273640e-01 -6.666253432441989757e-01 -1.515739479605136830e-01 7.298191488610156208e-01
4.159564145521585377e-02 1.377951133330904687e-01 -8.296379597204452949e-01 4.521611785457408939e-01 -6.338955354966102629e-02 -8.896808602622072737e-01
-7.988086673840291696e-02 5.592320002669833555e-03 -9.244785702626083790e-01 3.348724636555479583e-01 1.960059145261044966e-01 -9.216518402065114746e-01
-4.293172214515883489e-02 -2.795519364242167737e-01 -1.052307034229744476e+00 6.733251236791087946e-01 5.773144402910934669e-01 4.618888555203452539e-01
8.834388931731688988e-02 2.808380278401249180e-02 -8.368395547079249264e-01 7.620653359583448583e-02 6.868471193158119832e-03 -9.970683970223785941e-01
-3.940643552368250369e-02 -2.020484946607540855e-01 -1.008272983537095158e+00 9.718171894103672104e-01 1.985768838047081292e-02 -2.348978981998741389e-01
4.222128972173101735e-02 1.540989532750084712e-01 -8.325224575715546305e-01 6.347830610501398185e-01 -2.533656019103794343e-01 -7.299700933410941950e-01
1.847495782896547978e-02 -4.563270641126183913e-02 -9.882057115463628305e-01 -2.103661094001296195e-01 -4.216088892274271194e-01 8.820385731589449607e-01
-1.057450542315522407e-01 -4.730482647716276190e-02 -1.017771487945629882e+00 -1.032849304723092165e-01 -4.675863242233611605e-01 8.778925062538214252e-01
3.752425736977635373e-02 -1.141264665302432341e-01 -9.280690717079642660e-01 3.165291844907284768e-01 2.957325105403575405e-01 -9.013054740625573436e-01
-4.174514489320189925e-02 4.735114227775078649e-03 -9.764110970401145284e-01 -2.491327050793173126e-01 -3.923095930501262485e-01 8.854524710342764893e-01
7.268176104364801327e-02 -1.491375029126253415e-01 -9.691202482533480822e-01 -7.331056169337569761e-01 -3.036422589989292570e-02 6.794366550353870826e-01
-4.653508037369906425e-02 -4.065238834365052928e-02 -9.365112056135697083e-01 4.868768971099936560e-01 -5.597356849599445239e-01 -6.705571191501633610e-01
-2.808443953216253550e-02 -6.525400815717072311e-02 -9.355388220633386043e-01 7.077592714555767106e-01 3.386215694275854782e-01 -6.200098760399467279e-01
3.825380248247024686e-03 -1.353913626354316391e-01 -9.636865229632127772e-01 -2.033612868228375781e-01 1.020299526259347139e-01 -9.737731130961202464e-01
1.151333547773688570e-01 -9.697581734417483335e-02 -9.153446723419003117e-01 -7.834984728324720926e-01 -1.384695042741342919e-01 6.057692130302260169e-01
1.088475218476364983e-02 -1.566768549631370744e-01 -1.022911469075665547e+00 -8.377699021319688910e-01 -5.406893611412670608e-02 5.433398027287138499e-01
-8.101248061294670511e-02 -5.495048191927621312e-02 -9.491829423283261180e-01 6.673475110800062282e-01 -3.768902913839983215e-01 -6.423402585202065973e-01
5.675966938404151951e-02 -1.744941541066430011e-03 -9.338375615940341934e-01 -6.257528084342718344e-01 -3.727669178896155233e-01 6.851848273741167894e-01
4.918060463914505909e-02 -6.732573584601368732e-02 -8.917326914919758707e-01 5.263000155415366033e-01 4.152241649013677649e-01 -7.420223625490948161e-01
-6.684669358103959014e-02 -2.153546165082566299e-01 -1.064305528320780514e+00 -1.062068497451078286e-01 1.783739526533224540e-01 9.782141064624095828e-01
-2.447461664249940376e-03 1.366173016498322540e-02 -9.614743798843287115e-01 -2.280424310676804622e-01 -4.491166287657501477e-01 8.638813016837612047e-01
7.497939182061363894e-02 3.283603274449788806e-02 -8.980697602594741591e-01 -6.624515250718945314e-01 -5.489886464322404347e-01 5.096758214967798128e-01
-4.124672010789328519e-02 -2.821431498659538462e-01 -1.051385640292756163e+00 6.906102067130758249e-01 6.058937533785690999e-01 3.949054342504697002e-01
2.747963308847885949e-02 8.104224483473068674e-02 -9.069323245788614152e-01 -1.830132731829475501e-01 -6.171461879364354974e-01 7.652690537022841522e-01
8.939400888655088528e-02 -4.527652279721947753e-02 -9.267861327497807222e-01 -6.727873098269875340e-01 -3.131147017778890818e-01 6.703106886111160900e-01
-1.163213431898154487e-01 -1.323916192535011527e-01 -1.037846373506762454e+00 7.331354517821040417e-01 7.687851614254277710e-02 6.757233924439577377e-01
-2.914792609496205320e-02 -1.585625328790594424e-01 -9.714420146559067382e-01 2.659226986166599027e-01 2.842648286138044766e-01 -9.211289950781036406e-01
-5.582346595047402854e-02 -1.493704053362623074e-01 -9.750963923801425626e-01 2.168944012541141053e-01 3.779786136602971691e-01 -9.000494354867731861e-01
-4.765058586163857524e-02 -2.705470022018715559e-01 -1.056449045227003669e+00 6.417300362068163455e-01 5.658962183362390430e-01 5.176331043342781157e-01
6.628658896539721401e-02 7.597540977101044368e-02 -8.514371924828156857e-01 -3.673808476611448159e-01 -6.076639991035568400e-01 -7.041134688139768505e-01
8.625246423217002023e-02 -1.646028814973224744e-02 -8.453134090168786807e-01 3.460354837914189075e-01 3.106851718388381478e-01 -8.852876187752263260e-01
-7.824670595928094607e-02 -1.687881433792738917e-01 -9.941091495733401784e-01 5.478145090596672206e-01 3.706091168664139568e-01 -7.500320967526741267e-01
3.838637680800616181e-02 3.867468275152394219e-02 -8.536613740532035255e-01 4.822604603290817638e-01 2.192560061490131940e-01 -8.481460087571985884e-01
-7.643683786324199925e-02 -2.773630624848962001e-02 -1.002008863940414551e+00 -2.417327160245116013e-01 -4.980910633172563884e-01 8.327488136568539367e-01
-4.232001167073818487e-02 -2.713784316148545317e-01 -1.060221284250811635e+00 4.951852302447304344e-01 4.170498366793362055e-01 7.621423892378721421e-01
1.083654505775056703e-01 2.327866504983203133e-01 -8.837704571580266011e-01 -8.767224027151299115e-01 2.447649325425441669e-01 4.140627444903169918e-01
7.967466810147694201e-02 2.566600756065730571e-01 -8.729359442540255420e-01 6.271847275044293291e-01 -7.722265967118913110e-01 1.015155205668781951e-01
7.672398010828543335e-02 2.089231207760512687e-02 -9.089086917441143720e-01 -6.335046208773926768e-01 -5.147126718253499655e-01 5.777047349549772060e-01
1.076458627381984834e-01 -9.703968793199442555e-02 -9.254590080561971854e-01 -7.888731745284016661e-01 -2.106590445230808739e-01 5.773230304345258190e-01
-1.225585971686206088e-01 2.336198768761646449e-02 -9.687166681509615795e-01 9.587515797882063540e-01 -2.841251796178387301e-01 8.263810304554248046e-03
1.253877679392042810e-01 -1.577824173944737327e-02 -8.802179700964865017e-01 -7.289493439815838416e-01 -3.917366995238475424e-01 5.614046777102781327e-01
-2.757372827589350817e-02 -1.083953567900591275e-01 -9.693338114626876001e-01 2.518185295181564753e-01 -8.876033062061991497e-02 -9.636955078755071735e-01
-2.778988617496028213e-02 7.360897965200545456e-02 -8.842987981237158124e-01 5.015461637802705042e-01 -1.113155036248067858e-01 -8.579395691131453949e-01
7.056278801840534798e-02 -5.616523569752888967e-02 -9.550103304689782080e-01 -6.743758420361671835e-01 -2.776441767413299067e-01 6.842009462136393605e-01
7.682438048154051347e-02 -1.270596632820217842e-01 -9.237630078107862408e-01 8.002109153322392032e-01 5.697750062970173834e-01 -1.871334635557573289e-01
1.008840734848211462e-01 2.467626601334516750e-02 -8.773747204487875040e-01 -6.107833454814849405e-01 -4.773693537617784144e-01 6.317137049103074276e-01
-7.737400438721130091e-02 -1.952483798186828157e-01 -1.061876826404376750e+00 2.015111682095546697e-01 -3.708792916553928509e-01 9.065549073873101493e-01
-6.478672229222724732e-02 -4.518614001460416474e-02 -9.432185052165310557e-01 4.625161359858834809e-01 -5.399888059886888136e-01 -7.032004787822588865e-01
-2.525287413028538819e-02 -5.075127785340914632e-02 -9.935469733241061308e-01 -1.382580856426346982e-01 -3.479700421790516418e-01 9.272548471161220496e-01
-3.433472432482537889e-02 -9.086186226838408042e-02 -1.018740243352191488e+00 -1.470708022724726872e-02 -6.064320422364440910e-01 7.949992955595147626e-01
-6.733716879421389190e-02 8.451073918259074946e-02 -9.412512640237592487e-01 2.456685420739125325e-01 -9.188771933570250017e-01 3.087258832096757000e-01
1.249477908585209379e-01 -2.485007281361141518e-02 -8.883673087495728149e-01 -7.847498184729876369e-01 -4.041571164017447870e-01 4.699199375089753161e-01
-6.680039542421578602e-02 -2.113825513281624990e-01 -1.009821495433142813e+00 3.535822972206844605e-01 2.610038213439744292e-01 -8.982519492525391502e-01
6.008630594098011979e-02 1.266569863965374444e-02 -9.239458138475917792e-01 -5.823363572717497050e-01 -3.338293793910948604e-01 7.412437604828963078e-01
1.181309674803843607e-01 1.001777283632286630e-02 -8.706520682620855212e-01 -6.597034819952415363e-01 -4.308235915477534039e-01 6.157778404662255234e-01
3.701722895498399390e-02 1.715313996027910404e-02 -9.443186665025813387e-01 -6.732852457789257894e-01 -3.204378438056381118e-01 6.663381769594212134e-01
5.531694229181995798e-02 -6.642110758697114536e-02 -8.868773284526278999e-01 5.110101524924424155e-01 4.275108366030086482e-01 -7.457232118129663023e-01
8.749993713813616902e-03 -1.658791642119214205e-01 -9.667712351621704503e-01 1.452463563382173639e-01 1.773871038083549567e-01 -9.733639151791869670e-01
2.915772530775952512e-02 6.837677133804526131e-02 -9.174234878487396161e-01 -2.021715058238672258e-01 -6.714820374600060093e-01 7.129085183959221750e-01
-5.036912923445919371e-02 -1.065937968897885391e-01 -9.646803365631158034e-01 -2.975083339289015874e-02 6.919655970384219756e-01 -7.213171982059548570e-01
-3.539040705231347173e-02 -1.515079531087667741e-01 -9.744694141536459631e-01 9.590272114606297471e-01 5.242170063149945158e-02 -2.784219333690325926e-01
9.251929160003752317e-02 -1.013188387338503083e-01 -8.901220165320231636e-01 1.398983623896961348e-01 5.651349729049157666e-01 -8.130503739624261872e-01
1.081041694420759591e-01 -8.552628328769371069e-02 -8.775832444239005659e-01 -2.734062475699213235e-01 3.960463896603231837e-01 -8.765821587431256168e-01
-1.452243580575520929e-02 -1.416702893690330867e-01 -9.629686253245887118e-01 1.667619547000189217e-01 3.316681082313220341e-01 -9.285400995363016774e-01
1.089989265772673965e-01 2.413958081654400123e-01 -8.844579364918874198e-01 -8.441136512647559043e-01 -3.769726740486773614e-02 5.348374143407397252e-01
-4.092810809081384726e-02 -2.256869017855555604e-01 -1.019389010026789277e+00 6.896567062036726981e-01 2.603101367866521576e-01 -6.757309081834392828e-01
6.774455861481000658e-03 9.477101524773853813e-02 -8.557505025367672102e-01 9.017529499559147066e-01 -4.078316057238891568e-01 -1.432305785036129264e-01
8.307962591102399652e-02 2.121011619880062149e-01 -8.880796584716923459e-01 1.459640220598414362e-01 1.730973888714596731e-01 9.740286434340608146e-01
1.310562293822762070e-01 -7.304215113640041140e-03 -8.499866985448053525e-01 -7.359171439050455898e-01 -9.978337823881411328e-02 -6.696784562264866958e-01
1.092228714653845079e-01 -1.065589654255926499e-01 -9.265144122762567491e-01 -7.986472111483691183e-01 -1.773216912800736067e-01 5.750822983943312261e-01
2.989282305811414089e-02 1.189348665827091728e-01 -8.814926063122181521e-01 2.621063130151108922e-01 -5.393148920889513365e-01 8.002747827144793824e-01
1.306495796543946375e-01 -3.589385881185433447e-02 -8.869195778581089318e-01 -8.348038600194223058e-01 -3.155412413802395344e-01 4.511499088827237713e-01
-3.443949212031833379e-02 9.427272875762593429e-02 -9.128710297873110502e-01 7.684299604648105186e-02 -9.938007132027346646e-01 8.034485917802271226e-02
1.810738623726401361e-02 -4.766978679713748668e-02 -9.133010708745639139e-01 6.990891324701954401e-01 7.114849007386284674e-01 7.115912368075798244e-02
-3.980503738258557578e-02 -2.249114001746072289e-01 -1.012828489005256571e+00 9.968485731908237613e-01 6.140763554304342481e-02 5.021976129405221478e-02
-2.365682317380554591e-03 -1.235257182423193378e-01 -1.027760879367242586e+00 -7.281276159744541621e-02 -4.840370784764942980e-01 8.720128487634190018e-01
-2.508863502319723642e-03 -2.107378036324354942e-01 -9.821343382385512299e-01 4.884396326252868348e-01 4.062560789058184962e-01 -7.722581975174780400e-01
-6.456820705869169806e-03 -1.008785584974478677e-01 -1.015976512292690481e+00 2.575872504876159166e-02 -3.956775708875508446e-01 9.180281847418353403e-01
-9.272407809668394008e-02 -7.416278976025217351e-02 -9.598049356466801241e-01 5.774413897809250740e-01 2.509172387519984504e-01 -7.769182586765138732e-01
-8.408385999508459496e-02 5.154240958960540353e-02 -9.715730624049633279e-01 -1.775062829741339554e-01 -4.828305774389783922e-01 8.575349281484977437e-01
-2.489693258780183507e-02 -2.238991510394947870e-01 -1.056764106418235150e+00 -1.279861366172273529e-01 -1.573559710984797355e-01 9.792132797268687794e-01
-6.147568588015320246e-02 4.991587806390967302e-02 -9.671724586921358613e-01 -1.831404275065108556e-01 -6.186901502222177385e-01 7.639908911961855731e-01
1.144174031564924587e-01 -8.598104482319807174e-02 -9.134008032441170988e-01 -7.434709675577149124e-01 -1.790962351336565506e-01 6.443411045088969225e-01
1.068599113650544295e-02 -7.356487964144856062e-02 -9.253684373248824979e-01 3.366267125772792745e-01 2.583075237687415537e-01 -9.055162502925472312e-01
8.507699944220185884e-02 -1.005918618951984478e-01 -8.915051957379159786e-01 2.326468095485103305e-01 5.380656700226906786e-01 -8.101609696535200245e-01
-9.491344373563798120e-02 5.033400842002666575e-02 -9.262057668125731613e-01 6.470767137112554135e-01 -1.565220547837166687e-01 -7.461853475772123323e-01
-7.515453563048371532e-02 -3.139923691897279767e-02 -1.003827537958548399e+00 -2.417327160245116013e-01 -4.980910633172563884e-01 8.327488136568539367e-01
1.978826214229879171e-02 -1.564177728761598218e-01 -1.014112181717904404e+00 -6.009022602026212745e-01 -8.796872315874280576e-03 7.992741011197844747e-01
-9.397169655282772843e-03 -2.925171221497173679e-01 -1.053733636671870366e+00 -8.769641111526842447e-01 4.803408108980963820e-01 1.437543515660372195e-02
8.756453871031244507e-02 -1.376583927654437822e-01 -9.259580721810336534e-01 2.814032838585663332e-01 8.499655173822904253e-01 -4.453883823077002257e-01
-1.311064788753981136e-01 -4.684109577131814750e-02 -9.964284025872512940e-01 9.931650366451570955e-01 2.544220790166287771e-02 -1.139118257368948867e-01
5.009851872762168673e-02 9.329853972479014435e-02 -8.363728328178846594e-01 -5.384680467159165262e-01 5.058977433240071653e-01 -6.738839929584485855e-01
4.231520272655448639e-02 -2.112624647063865435e-02 -9.612178326388566285e-01 -5.818545402312372827e-01 -4.391706325753054752e-01 6.845249809142843755e-01
-1.232314992745185862e-02 -2.643440376116151791e-01 -1.004463512270052927e+00 1.956622470728276546e-03 6.228612297816108478e-01 -7.823298920937677980e-01
2.215438090461612289e-02 -4.135664733579492124e-03 -9.663561420605072394e-01 -2.989164922533962820e-01 -4.984424377825913965e-01 8.137592192265921121e-01
-3.787974115304863082e-02 -2.438572570476604251e-01 -1.015255413601337642e+00 9.879296062447736615e-01 1.430070995962920699e-01 5.953202978315674798e-02
-4.384394750376714028e-02 -1.968721480334793827e-01 -1.055830003511401438e+00 -3.334783687062036761e-01 -1.297062977628561098e-01 9.337925111745664086e-01
5.070050400635985749e-02 1.065604410205500327e-02 -8.570776720310016028e-01 6.275366742068421155e-01 5.087508340037919519e-01 -5.893812954496109313e-01
-6.709117243751865078e-02 -2.234686720886273903e-01 -1.062580946774603019e+00 2.210613528788490934e-01 2.000317016686829485e-01 9.545256395670596028e-01
3.777338616961553770e-03 -8.816364175571604275e-03 -9.736388317245447954e-01 -1.895748513156240156e-01 -5.051922753571866931e-01 8.419276338665261372e-01
7.352463959232360957e-02 -1.966568498225081119e-02 -8.665259394559030603e-01 6.211533619284235197e-01 4.101874779029842100e-01 -6.677684733023905306e-01
-6.656972333680015452e-02 -4.433881842932592410e-02 -9.447645916150634315e-01 4.241925416382347769e-01 -4.634519452205701495e-01 -7.779929190486015722e-01
-4.875861514814918557e-02 -2.088928710354016061e-01 -1.012546949938441632e+00 -6.282702317475008513e-01 2.444954159850880049e-01 -7.385787076962213593e-01
1.412337122806629416e-02 -5.518036941557120933e-02 -9.250286246640293530e-01 -1.208020277912760509e-01 -4.072768973506368240e-01 -9.052802875164985830e-01
7.515955182315457381e-03 -3.930354129430179561e-02 -9.236788692645423460e-01 4.082165833635930663e-01 7.936475468987068682e-01 -4.510906697867062554e-01
2.455305358328576867e-02 1.138416049240869449e-02 -8.798911739279706712e-01 2.776964711611762948e-01 8.575914822436607118e-03 -9.606305864324684585e-01
-1.310109390142222829e-01 -5.937982550028947371e-02 -9.990478138446380330e-01 9.886835788676862080e-01 4.796475207887157532e-02 -1.421413501954859326e-01
4.939254369185375887e-02 -1.272971884577956958e-01 -9.970952725053394694e-01 -8.623129273605076861e-01 -2.040330538872056065e-01 4.634511066211973729e-01
8.979103217568766560e-02 -9.343498693455210349e-03 -8.419471420277727658e-01 2.645825715633394748e-01 2.382935046268768176e-01 -9.344582754075063669e-01
5.566366532767367398e-02 -2.981256423837824743e-02 -9.548147154616453136e-01 -6.546050113308252705e-01 -5.079118244997633536e-01 5.599266538341353128e-01
-9.053987606087671169e-02 4.501422251296627319e-02 -9.218612402545044437e-01 5.854562408061614320e-01 -5.296828200459988839e-02 -8.089717864070409270e-01
-6.173155640591986015e-02 -7.829295384483635212e-02 -1.013963600123472641e+00 -3.123181481364942225e-01 -3.743666365795132456e-01 8.731019389285157306e-01
-1.167750629593695411e-01 -8.690803532222947381e-02 -9.887164367500695938e-01 8.798030096930061772e-01 -2.652780674324425273e-03 -4.753310708230863435e-01
1.298977722064415530e-01 -4.954582439283242157e-02 -8.952353274803377392e-01 -8.477113214698717147e-01 -1.655739357581885451e-01 5.039551440846169461e-01
-4.648976551583083872e-02 7.496204685535201584e-02 -9.446306693869304105e-01 -3.597170962390863203e-01 -5.157636643080549810e-01 7.775547911580558136e-01
-1.003533520217147895e-01 -1.205641306663346873e-01 -9.863394875026892938e-01 5.036062842007567042e-01 4.430470809283335032e-01 -7.416805205709458004e-01
-3.692184157554861262e-02 8.170978589296851169e-02 -9.347330986788391360e-01 -3.739819721970936151e-01 -6.008872730906170689e-01 7.064502597559819685e-01
8.365888836982511567e-02 6.656790544793511621e-03 -8.400251662284433651e-01 2.473974945618142851e-01 1.954359531659999039e-01 -9.489990874045316493e-01
5.426162131057975235e-02 2.023504350815573949e-01 -8.529547693909464989e-01 8.791003480325665365e-01 -4.335892713294954848e-01 -1.979467652602022454e-01
2.976831673809909873e-02 -1.605846709422288354e-01 -1.007470114228859348e+00 -4.823822146952717049e-01 2.299093161819502559e-02 8.756590752164978841e-01
-8.876091811081726624e-02 3.566169009868767892e-02 -9.218948760343420590e-01 4.289263239251793758e-01 3.092995288326858550e-01 -8.487378924661668211e-01
1.111358113988700075e-01 2.140632503470458678e-02 -8.698302595113953650e-01 -6.247907744944457553e-01 -4.488014830498570085e-01 6.389160484123711514e-01
7.949326332127104947e-03 -1.503009780348028568e-01 -1.027072348485275510e+00 -8.929760256513826766e-01 -8.580187580357866162e-02 4.418504902344780327e-01
-1.592645271999063201e-03 -6.382091444864446128e-02 -9.977532024965612978e-01 3.243591305523005341e-02 -4.299244743271145586e-01 9.022820279263172871e-01
6.623800543950510503e-03 7.012370244118792950e-02 -8.473391383738222427e-01 6.155597062095843341e-01 7.097834474773108415e-02 -7.848874586003030673e-01
-2.010003068319542174e-02 3.430876805872749846e-02 -8.880002577930412588e-01 9.060601758520936411e-01 1.600782608906465565e-01 -3.917012996214068732e-01
-3.244803541073090075e-02 -1.452384579567506939e-01 -1.033647174820928605e+00 1.259992206269749948e-02 -3.790621068385926495e-01 9.252854484552868186e-01
1.263395006466421777e-01 -6.676481332505883326e-02 -8.698501808355486586e-01 -3.306733292475959596e-01 5.631957806435393676e-01 -7.572751560625933243e-01
3.232351724871311560e-02 1.497526984569578778e-01 -8.439773512913242293e-01 8.614890242502636353e-01 -3.514222837210146944e-01 -3.665229046057494333e-01
7.319302041566340400e-02 2.399676264812429238e-01 -8.525993615502300838e-01 6.422291464040338349e-01 -5.016002551543494725e-01 -5.796023701972221609e-01
7.750281247943331675e-02 1.275928023458786434e-02 -9.131301458603467980e-01 -4.472799172101160625e-01 -2.276574764619437863e-01 8.649351126364862585e-01
-8.563081376939574163e-02 -1.289829858480047997e-01 -9.932023246941554806e-01 -1.433879682817796597e-01 7.599048547790657748e-01 -6.340224777050338378e-01
-9.447013626084491134e-02 -6.076391375289878077e-02 -9.600299340441698082e-01 6.876299372332027593e-01 -1.350411861433931104e-01 -7.133925619640612004e-01
-7.661643754074178025e-02 6.240277569035720950e-02 -9.141669096706954711e-01 6.133316492122603547e-01 -2.137735620332840702e-01 -7.603454164063662146e-01
8.702054481815309217e-02 2.542923324864440060e-01 -8.860333751707409888e-01 3.308545126157949601e-01 -5.820637783248526764e-01 7.427900439854867587e-01
-2.195313819940519426e-02 5.228001087146425668e-02 -9.536388775689799147e-01 -3.136484753198172659e-01 -5.512390479711194446e-01 7.731494977825750237e-01
6.481907599139257164e-04 9.411049545369407077e-02 -8.763680294502868007e-01 4.836523371760997891e-01 -6.356885661346972638e-01 -6.016481227675434251e-01
-1.878814063123119063e-02 -2.682042501278957825e-01 -1.008516766935549924e+00 1.443807049534816811e-01 6.209119000799826482e-01 -7.704690937190156186e-01
1.963677628621513394e-03 -4.166293565797823256e-02 -9.265422481703736723e-01 1.402177584199165716e-01 4.840333825433776327e-01 -8.637422444267215393e-01
-8.889372596187601616e-02 -1.994381188860874510e-01 -1.025495149089328706e+00 5.947964398859176827e-01 6.258401438735368139e-01 -5.045208711395283707e-01
3.891777141318097238e-02 -2.084338049234611967e-01 -9.816901201996490745e-01 -4.923286515585216794e-01 5.646307041060202314e-01 -6.624233290240518768e-01
-2.650906447274715624e-02 -2.601503074615078015e-01 -1.005580207565399675e+00 3.767474016790928748e-01 5.158176997184372725e-01 -7.694111358599069472e-01
-8.329467446805732811e-02 -1.841876632089724589e-02 -9.987170929554040066e-01 -2.121720255535443633e-01 -4.284718738747027578e-01 8.782908885277170841e-01
3.553520917246309752e-02 1.072405005109707127e-01 -8.892356775202316932e-01 -3.197621296069695640e-02 -4.302335323378323473e-01 9.021511123181101821e-01
2.755652558902375523e-02 -4.196868965833896320e-02 -8.946103942941869835e-01 5.914059930478006155e-01 3.674265469950188656e-01 -7.177998913001186754e-01
-9.450702130057318795e-02 3.338850639029176774e-03 -9.314624988152750973e-01 4.801946657228965409e-01 1.762027848785280015e-01 -8.592820617307955766e-01
6.604028325036660763e-02 -1.238939843300467941e-01 -9.732476307576884977e-01 -6.684472915726709097e-01 -1.120441245083630827e-01 7.352716046144547324e-01
9.088569092623691170e-03 6.553202161577548202e-02 -9.268801435471096806e-01 -2.593119981568378085e-01 -6.753190529490235017e-01 6.904357061565850051e-01
1.017273408293445092e-01 -1.128408017661999482e-02 -8.403604213138550216e-01 1.054723543466052765e-01 1.929181552386306786e-01 -9.755296857850650483e-01
-2.829531661146305124e-02 -2.300483770216708856e-03 -9.764750780176743028e-01 -1.816575014552238021e-01 -4.989587076842199598e-01 8.473728578324528637e-01
9.609561971523199533e-03 -9.914000134500353112e-02 -9.338952712046932891e-01 3.524435618796171732e-01 2.854985591166784298e-01 -8.912205722669942487e-01
3.019839862228262950e-02 -1.675574997720011006e-01 -1.007144084471207179e+00 -5.314485344888958407e-01 9.767457699286455244e-05 8.470905770041842198e-01
5.729486425627385721e-02 1.821268555470893502e-01 -8.314491206041656479e-01 4.936540694236202231e-01 -3.061370245795249079e-01 -8.139937235157866935e-01
-8.601339584400577443e-02 2.480411288392512029e-02 -9.301475124328992816e-01 4.356392831680461764e-01 -6.617721452445186892e-02 -8.976853520240906104e-01
6.293538605052541313e-02 1.662124823780342653e-01 -8.794549336513677318e-01 4.593356015307935303e-02 9.165578053712823692e-02 9.947307806365465188e-01
-1.650748736026114508e-02 -2.330365244121376106e-02 -9.060179946230958459e-01 -2.148301538830350507e-02 5.005270583969455567e-01 -8.654542991182877509e-01
7.894031946009241740e-02 -4.291827405239082016e-02 -9.361455352865492019e-01 -6.793705619776934101e-01 -3.583609946598001472e-01 6.403382208056547231e-01
-7.922373145987468557e-02 -1.196762979230713148e-01 -1.038615906909394981e+00 -9.459120553826402822e-02 -4.505693385713635535e-01 8.877160441121823009e-01
-7.482743518282389261e-02 -1.561896031585165157e-01 -9.865326663366915660e-01 5.156385364323801124e-01 2.872542026893830092e-01 -8.072186338180998844e-01
3.127300546885836835e-02 6.362544831732203088e-02 -9.211665808319623450e-01 -2.300250445486786144e-01 -6.567417167119558030e-01 7.181774129075707558e-01
-3.205667980780881055e-02 -8.309640223393577330e-02 -1.011044268102763821e+00 4.721656029550095474e-02 -6.831253280403947192e-01 7.287732038320043904e-01
-1.001264137815477823e-01 -5.576666974308943509e-02 -1.021934619881575301e+00 1.767573254504857874e-02 -4.661146749447588333e-01 8.845477252698905613e-01
7.426264575006487345e-02 -8.284001782368426159e-02 -8.846557020855041475e-01 4.076877443482797569e-01 4.739030749014250810e-01 -7.805168663822620312e-01
-3.976067655657734845e-02 5.605137281720319609e-02 -9.553956626538400165e-01 -2.219150247125843967e-01 -6.672679890102931610e-01 7.109902619930683620e-01
3.705888610492482499e-02 1.397785276175295965e-01 -8.748139091303361869e-01 5.535841896701046982e-01 -2.853711318426342958e-01 7.823732242722443164e-01
-1.793779151936973973e-02 -2.716361007512374526e-01 -1.060643311542099010e+00 -3.899435711197797860e-01 -1.118628801015094237e-01 9.140189863442381712e-01
3.974607656555440016e-02 -1.452497335901736519e-01 -9.398642046524297022e-01 3.028756935941544493e-01 3.891907788324736606e-01 -8.699407174639155471e-01
3.713527962656203857e-02 8.860390277702698270e-02 -8.339456813547296843e-01 -4.544420682137324113e-02 2.614197097905766043e-01 -9.641548420245511508e-01
6.770545882374573443e-02 -1.719589097310495474e-01 -9.757057431049668272e-01 -8.562111668631026129e-01 1.391930276615018780e-01 4.975215963044706258e-01
-6.123321703852484255e-02 9.872172651766618345e-03 -9.805442230508308876e-01 -3.273123922077025849e-01 -2.764163845645278839e-01 9.035820827415438350e-01
-1.249435212388315952e-01 8.277656672513610328e-03 -9.691175080614629067e-01 9.417882247474401725e-01 1.058647800413846790e-01 -3.191043529534723366e-01
5.743799057037759365e-02 2.084240285999833520e-01 -8.520628558105591832e-01 8.610387627905241592e-01 -4.103629602525773468e-01 -3.003572703047240888e-01
-1.308995130216066005e-01 -4.481863079421549018e-02 -9.943062844595544902e-01 9.826725236641560279e-01 4.612421011376021535e-02 -1.795195490104083691e-01
-8.285771738600725134e-02 -9.996130628169694332e-02 -9.644608980352394889e-01 4.018066611048176640e-01 4.020720690263775987e-01 -8.227329204551414588e-01
1.114214476013708349e-01 2.487597291452843251e-01 -8.707899363628975875e-01 -9.294899720182755454e-01 -3.688198978970270714e-01 -4.502758342579299931e-03
-5.063358040116416880e-02 -1.586703712876881001e-01 -9.842573623243628944e-01 -4.901392524125303130e-01 6.280119714089859029e-01 -6.044538667354892869e-01
-2.778847485323945182e-03 -3.323642708809792460e-03 -9.716981881844641844e-01 -2.008726781754842927e-01 -5.467051995379970109e-01 8.128736629764350408e-01
3.788687965004992886e-02 -2.175890278193360061e-01 -9.908855803856277955e-01 -6.941882123662266313e-01 6.240538790629865940e-01 -3.586913461992380925e-01
-1.805131046577049606e-02 -2.151943063506775097e-02 -9.050995271264907771e-01 2.013166470213025583e-01 4.442433177401961530e-01 -8.729945488233494810e-01
-1.114318214442913939e-03 6.952979975793660561e-02 -9.273042795645292102e-01 -3.054442654565638904e-01 -6.298142077168276121e-01 7.141693527852652768e-01
-2.262391579549857812e-02 -3.230260456992924828e-02 -9.119893900105139339e-01 5.648357771899855662e-01 3.586436333705336210e-01 -7.431926325314097692e-01
6.688870781794528653e-02 1.018270589727245795e-01 -8.524401413192966848e-01 -8.878261593370861959e-01 3.973339879941813479e-01 -2.321430868697116068e-01
6.571149208883368675e-02 -1.097057263035057240e-01 -9.098107516383824311e-01 8.081166544938616081e-01 5.365225755962665932e-01 -2.430864015225800145e-01
-2.007946646256135101e-02 -2.389869860120619194e-01 -1.058050920344558499e+00 -1.707181082389352400e-01 -9.727504472229532573e-02 9.805064472983309187e-01
1.114513208313462622e-01 1.094091694278070612e-02 -8.767854414612737957e-01 -6.415783291557561885e-01 -4.458787427995836161e-01 6.241549441261928788e-01
8.294371247050347229e-02 4.235466318525842738e-02 -8.810234937925445209e-01 -6.175286832132091952e-01 -4.927033770545740654e-01 6.131082348557864714e-01
-7.903622540203378288e-02 -1.301860777610582831e-01 -1.044932305593866184e+00 9.517158802508719762e-02 -5.061511198815898949e-01 8.571775852618845892e-01
8.304744396190023858e-02 -9.944173757018140436e-02 -8.914368205269006529e-01 2.883491924929209582e-01 5.248080847239634528e-01 -8.008940113379831027e-01
-1.290076632215247932e-01 -3.869643804095566214e-02 -9.848241362516800823e-01 9.615470343226820704e-01 6.590844121916122900e-02 -2.666146623149504569e-01
4.438941104654672148e-02 9.782927655682008977e-03 -9.396778162467908091e-01 -7.184578740789459017e-01 -3.085480934622149007e-01 6.233910146888496095e-01
7.904455778664035148e-02 -1.263313626808076073e-01 -9.622693536289632643e-01 -6.109420898555163459e-01 -6.453781640357762750e-02 7.890403241259804634e-01
3.055931479521893559e-03 -2.727688821833860189e-01 -1.022990970038442304e+00 -6.421734029161102475e-01 7.037995615054073451e-01 -3.037754068583226608e-01
5.181640053114503625e-02 -1.298597374730402210e-01 -9.927886591219100554e-01 -9.303590943211313968e-01 -2.252899887401089707e-01 2.892686927191491231e-01
-1.129154237606641159e-01 -3.071277320897552315e-02 -9.539163914156787438e-01 7.204955479878030200e-01 1.424489352704193246e-01 -6.786711030905024922e-01
8.013159281871452821e-02 -5.516520463461955376e-02 -9.423559929615676900e-01 -7.590336750480445316e-01 -3.689521124744190583e-01 5.364160874206916896e-01
1.374827979916473097e-01 -2.349871884731195154e-02 -8.611841531972125319e-01 -9.841278603082115328e-01 -1.092419346419270937e-01 -1.398519012415280482e-01
2.653171814541187279e-02 1.219383734190167684e-01 -8.385319653725683553e-01 6.682550205084600847e-01 -1.695299867742901534e-01 -7.243582063796518700e-01
2.555055068771495616e-02 1.249531397424198248e-01 -8.731866726743627849e-01 7.301533556882536802e-01 -4.722442821498385457e-01 4.938232630749248564e-01
-3.174229290242897711e-02 -1.465676787847141997e-02 -9.198420390597734642e-01 -1.737485688364649172e-01 4.419030115435101935e-01 -8.800756576658943509e-01
-3.621311691435730867e-02 -1.370780114512518966e-01 -9.743529630019214238e-01 6.323203209335392927e-01 1.294880683391529119e-01 -7.638087796643220351e-01
5.657583386818591797e-03 -1.317356749507114511e-01 -1.027999777895017841e+00 -7.847765363674112926e-01 -1.754833720594354829e-01 5.944168353082027734e-01
1.897022641010850594e-02 -5.903696713634423721e-02 -9.934765249411521282e-01 -4.855457266801262994e-01 -2.905984462267645618e-01 8.244985690425776781e-01
-2.442921210990356418e-02 7.161020426059258592e-02 -8.824114237261414528e-01 4.679254066020634428e-01 -2.729930705852537387e-02 -8.833462297935154028e-01
-5.708447005510619565e-02 -1.409837738635531801e-01 -9.723221557814158977e-01 3.315339822508387990e-01 2.819699348784203696e-01 -9.003211507220962861e-01
-7.055589255369432156e-02 -1.970104233323157761e-01 -1.019137134648235632e+00 8.617740771340172135e-01 -2.198497931279443374e-01 -4.571777645964564263e-01
1.131739172577307245e-01 -9.816909599408965570e-02 -9.183245255265057860e-01 -7.874559769075957227e-01 -1.997893387749248295e-01 5.830928781458252219e-01
1.091330196122170110e-01 2.213470413503537126e-01 -8.674608552961620145e-01 -9.674482346626116502e-01 2.511625059562235807e-01 3.100498105121695172e-02
5.748794088209914499e-02 1.667975084214247117e-01 -8.269962232794372259e-01 2.120868324705466323e-01 -1.480107496858539817e-01 -9.659772220244334795e-01
-6.274268610145171399e-02 -1.130453623595661372e-01 -1.035068818141941627e+00 1.262043371750292686e-01 -6.314971697015239194e-01 7.650384238305787399e-01
-3.372273512924466726e-02 -1.414607530199991359e-01 -9.704571604892003878e-01 9.093148470982587162e-01 -8.424908857562252162e-02 -4.074906132917015533e-01
9.043829173066765537e-02 2.457580771388458984e-01 -8.920632815849056652e-01 2.773358314346806019e-01 -2.484521656636469733e-01 9.280928606446006146e-01
2.010851443671968566e-02 4.245370740115940456e-02 -9.397944829298026104e-01 -2.758064800409213979e-01 -4.483311356248558810e-01 8.502528908488131698e-01
4.067622366066307726e-02 -7.921527578719630980e-02 -9.816541563727513298e-01 -5.820216369993305161e-01 -2.671731815186546011e-01 7.680294949686630179e-01
9.901187837163311078e-02 -2.310358346653131425e-04 -9.017832560212838411e-01 -6.614762500499781206e-01 -4.710745528509480695e-01 5.835562837259984370e-01
6.890607168515444636e-02 -9.387392859795737690e-03 -8.527473268371215109e-01 6.897164382878451239e-01 5.144461391287000751e-01 -5.095452920900194194e-01
-8.925664664467169995e-02 7.139054562109030388e-02 -9.519213451396068004e-01 5.422142815582483566e-01 -8.050123191034096459e-01 2.407464204635709759e-01
1.080934708136933181e-02 -1.895585948259446984e-01 -1.030225360924701405e+00 -4.770581541938395120e-01 -2.009455050722985456e-02 8.786419785994061815e-01
6.903061861464880600e-02 5.917226576320859521e-02 -8.428975571229992969e-01 -9.601576896989275078e-03 -3.051174553745139573e-01 -9.522663220690273933e-01
7.217586315099730476e-02 1.717490217830199839e-01 -8.274209747730852937e-01 -2.883371532716643149e-01 -6.815696581848375291e-02 -9.551001591736915097e-01
