-7.542187389945449738e-02 -6.547492239752399079e-02 -8.793925644930720154e-01 4.449369783227862252e-01 3.367979892156838795e-01 -8.298181727229528848e-01
-1.510359669166345120e-01 6.331665573907045361e-03 -8.767247022915856114e-01 9.348916838228990001e-01 5.368978229610635138e-03 -3.548925380894258907e-01
-3.125402205820810436e-02 1.312357876067920814e-01 -8.132703287283683524e-01 -3.906227802435198182e-01 -7.888300509338557198e-01 4.745113215704270804e-01
-1.767069448517397806e-02 1.061693641388591902e-01 -7.933161845395606537e-01 -9.280452528287985725e-01 -3.032460165603194716e-02 -3.712309621197220633e-01
2.673291456170806199e-02 -3.241580489413610749e-03 -8.982336956817722484e-01 5.463418741327987771e-01 -3.909602062697967173e-01 7.407163247036877562e-01
2.834192399882649871e-02 -1.181599769462863270e-01 -9.672957201140939265e-01 -2.909525659943876796e-01 -6.342871095256048530e-01 7.162586593060743523e-01
9.581139176181804190e-03 -1.644887638314487255e-01 -9.208053629444864496e-01 4.824364730944012414e-01 5.024369726542184944e-01 -7.175041030811596388e-01
-1.931322320369977799e-03 -9.651308242002036575e-02 -8.772054369857963385e-01 1.062383483663331130e-01 5.585151761053376296e-01 -8.226628783386408239e-01
2.211470515297555423e-02 7.621140767092761392e-02 -8.476133696138363760e-01 -1.255247122957115491e-01 -7.912810245654426922e-01 5.984295169572956263e-01
4.613687043812555316e-02 -1.150960702603842783e-01 -9.786511107703687040e-01 6.047110522210148026e-02 -5.947102170056599579e-01 8.016626492623303291e-01
6.504772275367452783e-02 -1.826690849848578158e-01 -1.002907538101643903e+00 -6.711589524007306462e-01 -6.457412357052338958e-01 3.640932807979724850e-01
-1.218290804310792758e-01 -7.846610890601511679e-02 -9.139792896705944969e-01 4.845796127450389124e-01 4.795569158593115389e-01 -7.315789522419116064e-01
-7.953522670647666937e-02 1.529940118216442935e-01 -6.918724543942907923e-01 9.232811744898771211e-01 3.511428129432331291e-01 -1.557260342746414894e-01
-5.585043982103037735e-02 1.614016994938221872e-01 -7.734113641383597582e-01 1.174392427301078345e-01 -8.811914829224056778e-01 4.579406017072413237e-01
7.826999696393777128e-02 -1.463331004884489417e-01 -9.262925011079055082e-01 -4.957567178921538087e-01 1.965125779567131747e-01 -8.459362170811733916e-01
2.391193275623314587e-02 -1.181945896198823148e-01 -9.718741130489064739e-01 -7.083637286216079021e-01 -5.345788348990210270e-01 4.609189703747266775e-01
-4.940647927597621031e-02 1.518020401052535551e-01 -6.665444327616854014e-01 -6.242969244409176666e-01 5.251632509946416727e-01 -5.783224964830177006e-01
-3.879794403749332789e-03 5.854013573759599652e-03 -8.252381831949920921e-01 -1.235441488290428269e-01 4.459895596360954895e-01 -8.864706176663210702e-01
-2.960220743329093282e-02 -1.033157097944589486e-01 -8.915626384223339640e-01 2.189035028514431380e-01 5.460751518778668157e-01 -8.086304378026670792e-01
-9.731209137278862276e-02 -4.415518115281681123e-03 -8.508804162962961826e-01 3.206540679819471773e-01 2.947101230423939677e-01 -9.001815994914390551e-01
-8.842898521977764215e-02 3.388440057022961555e-02 -8.938795729732245121e-01 -3.649165554089031094e-01 -2.161751279855200214e-01 9.055960587529877648e-01
1.060685140545353511e-01 3.367360385726875932e-02 -8.343255213751352706e-01 -7.252167477948322505e-01 -3.924539486963186663e-01 -5.657212801994937479e-01
-4.585184819371168098e-03 -2.017366300483458830e-01 -9.630770517991478208e-01 1.272066554540992322e-01 7.609438290780788927e-01 -6.362255541835564188e-01
-7.989281132986322809e-02 8.253775282534681068e-02 -8.453260425606745621e-01 2.887943852276262935e-01 -9.239061239824758465e-01 2.509885995990155938e-01
-6.833658660412296471e-02 1.613464502813489465e-01 -7.642175594300687491e-01 5.879881805220946722e-01 -7.335167279592996747e-01 3.409151058111084542e-01
-4.719078311294129524e-02 -2.568786562573821888e-02 -9.201397615658862827e-01 -2.642522867466460257e-01 -3.353353099702206519e-01 9.042792482614783189e-01
1.259323017684001456e-01 2.954305155442954033e-03 -8.502180057809238800e-01 -7.626361251487472348e-01 5.645009006682981390e-02 -6.443597814494251841e-01
-3.575439816010136246e-02 1.350288578499431180e-01 -7.272807282772417725e-01 -8.437723179704188503e-01 4.361446518480475709e-01 -3.127716708577863436e-01
8.811469606761893059e-02 -2.043001385018717586e-01 -9.768291536875196579e-01 -4.207607360809786368e-01 4.686845555039502176e-01 -7.767207930811803607e-01
-4.393770084682402377e-02 1.797638544006278094e-01 -6.814003058218174314e-01 -7.406465792379047786e-01 -6.548434422995582649e-01 -1.504084796161943294e-01
-3.473696303747500491e-02 -1.815701793453951274e-01 -9.625975402233679645e-01 2.665602195273370500e-01 6.993809186898100050e-01 -6.631832174732221752e-01
-1.022563140904303863e-01 6.667488132440879678e-02 -8.654265565226211265e-01 2.857724600078589972e-01 -7.879141024454864306e-01 5.454589519556719557e-01
9.002645876645865367e-03 -2.225605645170797564e-01 -9.789238734732014224e-01 3.908040904227606527e-01 6.674431572333717755e-01 -6.338704873798646222e-01
4.315079706683366823e-02 -2.529453589554164217e-01 -1.042164740363354714e+00 -6.326164209384681492e-01 4.052377701050305370e-01 6.599839495315816817e-01
-9.782619208315779247e-02 -1.307997273342679512e-01 -9.441837508971804294e-01 4.802003178711459763e-01 8.120009764001830943e-01 -3.317560384402966078e-01
1.034334541032574939e-02 -1.720470457894851257e-01 -9.962521142493723225e-01 4.747738208072276728e-02 -6.135139961773775630e-01 7.882553359700305018e-01
-1.261785818081366251e-01 -8.602889464270245534e-02 -9.359859901700715579e-01 7.354941093120528350e-01 1.539872396501167084e-01 6.598002312762610844e-01
-6.718534133087021576e-02 -4.675373146449095935e-03 -8.444062040889288578e-01 9.643298716482009980e-02 6.240010881436460766e-01 -7.754503987889974637e-01
-8.739921662698423022e-02 5.243400034410081179e-03 -9.070654027409095210e-01 9.506731008945365491e-02 -7.896681674882380930e-01 6.061240729488671652e-01
6.882256019316561335e-02 -9.467277048327656097e-02 -9.001459702255515394e-01 -4.606382279127980983e-02 5.456794347573806769e-01 -8.367270036951831580e-01
-1.045581425376973100e-01 -1.169926991731407295e-01 -9.301830246477656994e-01 6.649428128875871646e-01 4.806716890959147337e-01 -5.716692950393814643e-01
6.856259419989091386e-02 1.287956486173881011e-02 -8.972466928245751427e-01 4.990517937665949616e-02 -6.631872264892169078e-01 7.467879054275873285e-01
-3.650118449303275253e-02 -7.737562535629925742e-02 -9.455813213590730237e-01 4.197120869685641575e-02 -5.798554726504930867e-01 8.136375412170938626e-01
7.111957117035022646e-02 -2.359551726377026315e-01 -1.015017931980689125e+00 -7.296447429706469645e-01 6.714531279796448482e-01 1.294961234232485103e-01
-7.875386092882039057e-02 1.715467652636435969e-01 -6.756195372181017511e-01 9.010359765659728959e-01 -2.875123504615266223e-01 -3.247627091676196232e-01
-1.013055242389366249e-02 -2.066560391540196440e-01 -9.700641632759968713e-01 4.280235228454260660e-02 7.948329778933667100e-01 -6.053168557805675976e-01
6.103330268184321838e-02 -1.283356130107660698e-01 -9.874076462464974613e-01 -1.243688708073736743e-01 -5.719878371338843470e-01 8.107788219637952487e-01
-1.024018771946736406e-01 6.508350009722560503e-02 -8.676440626237543752e-01 2.341711041973237872e-01 -7.618272685924123433e-01 6.039727699060863930e-01
8.102076965242133166e-02 -1.104563051556472913e-01 -9.109146135263707089e-01 -9.152810371531705513e-02 5.116541415211637300e-01 -8.543024322185434061e-01
3.147230703693655596e-02 -1.242172534695534514e-01 -9.716147907945474893e-01 2.369290736209740955e-01 -4.844648567018450813e-01 8.421154414294799162e-01
-4.884121282555908133e-02 1.504404090380525028e-01 -7.927553798693874887e-01 -1.117830224998420802e-01 -8.318391262474720271e-01 5.436434713345152936e-01
5.939153768678463036e-02 -1.344798047685513698e-01 -9.140409599707615129e-01 -2.401929893679508043e-01 4.230654468021737835e-01 -8.736835557457658386e-01
-5.659286288854635527e-02 1.076483953167030605e-01 -7.650010266858454644e-01 3.608026302876875535e-01 8.309362541705078709e-01 -4.235167098032512900e-01
9.177265634120902738e-02 8.083926454540478132e-03 -9.014897953309316536e-01 -9.684365462591960905e-02 -6.370953790031267383e-01 7.646769151815411281e-01
-6.488984496511614533e-03 -1.524668999310836992e-01 -9.209521455174775051e-01 1.913886331317843081e-01 6.407183236235511892e-01 -7.435391185949623560e-01
-5.942845816980407009e-02 9.748509418277476191e-02 -8.288301713055634679e-01 8.935133173957878761e-01 -5.177998049990658463e-02 4.460412371696180767e-01
-9.883792210386324606e-02 -1.275660433725833709e-01 -9.541611624476246112e-01 8.262949339812254435e-01 3.012341680148377110e-01 4.759145491549617857e-01
-3.433375843651178400e-02 1.995698348619640711e-02 -8.897358514452377021e-01 -1.596472954406307210e-01 -5.202264370740551369e-01 8.389738942468507599e-01
5.160150380488726096e-02 -2.249762459811546211e-01 -9.836769967376380874e-01 -1.686080334631484545e-01 7.092060720166399879e-01 -6.845422400892572368e-01
4.123115052382769763e-02 5.541780400083612390e-02 -8.641139994144710901e-01 -2.547300900096480594e-02 -4.978266157407497672e-01 8.669024088515089321e-01
5.004288921444993710e-02 4.172306136096412543e-02 -8.174541364104376262e-01 -1.238523229150016551e-02 2.505909560698311167e-01 -9.680138319038077421e-01
4.846613940736280851e-02 -2.470055372552589223e-01 -1.005954338431066741e+00 -2.448380627539082921e-01 7.357157690288487206e-01 -6.314876326811181828e-01
-3.491077960384918882e-02 3.861938782247510693e-02 -8.748306102047226362e-01 1.573874407078315607e-01 -3.651342797381335603e-01 9.175544404925263242e-01
-1.024364643409836489e-01 -2.590224673624489521e-02 -9.284673383810653213e-01 1.719463424799937482e-02 -4.062504398573185127e-01 9.135999806637544740e-01
6.444561740079624013e-02 -3.476091243721980001e-02 -8.586491228422148403e-01 -1.481896652916360468e-01 5.082532596037823147e-01 -8.483622146246749818e-01
-1.034829395512379957e-01 7.058360186124844338e-02 -8.567359582003923890e-01 4.005087913795964960e-01 -8.667397105417851133e-01 2.972456596783166205e-01
5.510785306243555504e-02 -1.245010147276420925e-01 -9.098979869486267802e-01 -4.545875580848038333e-01 9.946876552692811291e-02 -8.851305647863731974e-01
-2.543882295181793679e-02 7.224002945187680928e-03 -8.243092553285716884e-01 2.968905568881975432e-01 5.108016844864186057e-01 -8.068070626590059247e-01
1.220916116808688362e-01 -8.395519894926718740e-02 -9.414985878787912599e-01 -4.302184651603762622e-01 -2.431486156347593963e-01 8.693623082178970618e-01
-8.861422246805662761e-02 7.948772226105524363e-02 -8.406197597974951474e-01 4.862856082610336195e-01 -8.666041217295027410e-01 -1.119089067037729035e-01
1.002734478544423623e-02 -1.051513875069724629e-01 -8.851638839762241417e-01 -3.676682051076866076e-01 4.531711459473279358e-01 -8.120689647029232239e-01
-7.106262365991801444e-02 7.150029175236150003e-02 -8.212631987965626212e-01 4.462589171917194508e-01 2.629028764132920193e-01 -8.554151368782828557e-01
-7.342136305583317479e-02 -1.179874518764914421e-01 -9.661104086639424882e-01 2.540534097356645926e-01 -4.388559971287798733e-01 8.618945868177771974e-01
4.932767112447758798e-03 2.782397090986009000e-02 -8.183265434147192208e-01 -1.217879197650953566e-01 1.812800264571024222e-01 -9.758612886097094430e-01
-3.183712724890924023e-02 1.313205358900041420e-01 -7.426205095582986138e-01 -9.345614469939095281e-01 2.056657795551871115e-01 -2.903385763425298527e-01
4.829740134257178019e-02 -1.500469583373094662e-01 -9.271477979272392256e-01 -1.882482839982477507e-01 6.018968376397999531e-01 -7.760687987613748007e-01
1.205287699355314796e-01 2.096561178774203338e-02 -8.478488922400599925e-01 -8.586964188221000160e-01 -4.146771607754095590e-01 -3.011367009073216416e-01
-4.628140000846726887e-02 -4.746297479699219252e-02 -8.603221313564920480e-01 3.174144246766348321e-01 3.002068095109906576e-01 -8.995131764073456271e-01
6.302197586950043957e-03 6.791899777489585066e-02 -8.642041879970003837e-01 -6.630109517538522734e-01 -5.696320502635787708e-01 4.857322360796767491e-01
-3.477979117336276599e-02 -2.116020635207746248e-01 -1.007797460543450763e+00 7.459099029233771105e-01 2.817848243504652017e-01 6.035028827492173731e-01
1.008772424247026400e-01 -8.701084698855378330e-02 -9.588939057619599859e-01 -3.041776587079474958e-01 -4.742305470171785942e-01 8.261848099661108780e-01
6.048798836339292634e-02 -1.370119412847084495e-01 -9.156904607600184764e-01 -1.552313607620504354e-01 5.010599725549267358e-01 -8.513766079351829941e-01
-1.183677717011829139e-01 -9.087887546822758303e-03 -9.101082261271469243e-01 -1.000252941507342869e-01 -3.007685047748630547e-01 9.484372657511680460e-01
-1.975825504211136188e-02 4.881654557241026787e-02 -8.098068229313755140e-01 -1.656045169750093304e-01 2.680464571363418980e-01 -9.490659833616043040e-01
4.598780505192279211e-02 -1.988327814713053976e-01 -9.572402861153033182e-01 -3.047988284614376250e-02 7.395175822941660870e-01 -6.724468173911426483e-01
-4.913981815224005567e-02 1.049721190818014155e-01 -7.669154785940132113e-01 1.877737902379733592e-02 8.472488629377842306e-01 -5.308641768735467004e-01
4.650863180328572433e-02 -2.461573187382282424e-01 -1.042642138873710156e+00 -5.974084238226831101e-01 2.717816690146698799e-01 7.544785613477018593e-01
1.241645718828124217e-01 -4.973089008018836965e-02 -9.293586857096362008e-01 -6.516172243910386408e-01 -4.302267807804519006e-01 6.247398738484742919e-01
-5.416443883843752999e-02 -1.339458243097141898e-01 -9.785989039613219864e-01 9.106599792169610408e-02 -4.731318451177308759e-01 8.762723555824507571e-01
7.574591888715262455e-02 -5.527056152750053908e-02 -8.722060161383975441e-01 -2.160735055456264875e-01 4.229801020635616804e-01 -8.800000417383643248e-01
8.188891091993875937e-02 2.271084933850338675e-02 -8.263208141131114237e-01 -1.073821023183891971e-01 4.219132836189879443e-01 -9.002545557827109635e-01
6.979935664480464708e-02 -3.739328082387433777e-02 -9.256865716286566403e-01 -2.860627232640899353e-01 -9.185506868097865762e-01 2.728236685480243118e-01
-7.179240585457547169e-04 -2.642420915885846378e-01 -1.041615157483704035e+00 7.616828667668121833e-01 2.941152204732387365e-01 5.773521001606117808e-01
4.124833293509617277e-02 3.345852584148520381e-02 -8.716279495698809887e-01 -2.196021715294479704e-01 -9.055568337593254968e-01 3.629624045150349754e-01
-1.005883446318785041e-01 -1.166067029566986331e-02 -9.212310321002447067e-01 8.678846795524204280e-03 -4.755604434642197176e-01 8.796402345450181626e-01
7.121029911711951321e-02 -1.225754259210306563e-01 -9.159214182603648835e-01 -2.681067172571946489e-01 3.633452307222345135e-01 -8.922438183999802375e-01
-6.915547681737881092e-02 2.153279828364956794e-02 -8.854948188468206860e-01 1.251397419223601593e-01 -8.260850238550047075e-01 5.494757304504734874e-01
4.989293124199905421e-02 -9.838315003297230799e-02 -9.633090270256986498e-01 -2.433241605345828895e-01 -8.509476351962608209e-01 4.654905746135274414e-01
1.078002164418540437e-01 2.827410544687171054e-02 -8.334030590324321697e-01 -7.201338622552787561e-01 -2.662500768978107724e-01 -6.407168773999988298e-01
1.205890073782091287e-01 2.294833563141338711e-02 -8.510875971236459003e-01 -8.602545069794563792e-01 -4.450029136521301276e-01 -2.488666109839717810e-01
-3.986369300696599588e-03 -2.343734444834234265e-01 -1.045602084009306321e+00 4.203384022886637594e-01 -9.690528671680381789e-02 9.021779164708850773e-01
-1.350318130842849129e-01 4.336102336116422207e-02 -8.689491262511501724e-01 7.332615466313395780e-01 -6.419898676464821374e-01 2.240011474771236022e-01
-7.960914043450395550e-02 -8.715271900074139655e-02 -8.922727845535356472e-01 2.771309974378316499e-01 5.517374828208794213e-01 -7.866283495460814068e-01
2.519735965621212534e-02 7.296032312520063512e-02 -8.510403859358826040e-01 -1.373518947543255486e-01 -7.555067288474756060e-01 6.405810172597871111e-01
2.130894465732837556e-02 -6.161285699017318707e-02 -8.639332080540298442e-01 -1.706232007170655762e-01 6.403107196961610459e-01 -7.489258345251873505e-01
2.398300175661303990e-02 -9.421522855425608356e-02 -9.395376183834502903e-01 5.400254303686333746e-01 -4.068114571741329732e-01 7.368018545491256122e-01
-4.134319797980897521e-02 7.123878591291428475e-02 -8.630918185973843748e-01 1.900832639529588530e-01 -5.284923919037066709e-01 8.273839160056766229e-01
-5.106830723533472421e-02 -1.536107255011775752e-01 -9.810783844348841543e-01 -4.852621469791132403e-01 9.930447448175834524e-02 8.687112696731424943e-01
5.970812239344009537e-02 -2.189847436724274288e-01 -9.776822395570156088e-01 -1.111608799596907823e-02 7.405947666122969508e-01 -6.718599736955188639e-01
-6.906921636443957846e-02 1.241606921165652050e-01 -7.412315127507010937e-01 5.850611379425012526e-01 7.631347914506014796e-01 -2.744608441054436354e-01
-6.314179385101403863e-02 1.013256852868633373e-01 -8.207426536691762031e-01 9.103778356323738441e-01 6.027909784869957266e-02 4.093636851894184581e-01
5.716126639719729119e-02 5.377779511463093081e-04 -9.062100680662729113e-01 1.140384779608513977e-01 -5.877319829828042685e-01 8.009783653279738402e-01
3.188701271606640686e-02 -1.531942204456039347e-01 -9.234917209624211587e-01 -4.234011343882864709e-01 4.563356973953128781e-01 -7.826168990517939905e-01
-3.425186881129287098e-02 -6.842254206434207620e-02 -8.663081900523326162e-01 -4.363464189935665344e-02 7.333778256150856878e-01 -6.784194741621174529e-01
5.779382889386402988e-02 -5.970475203801452885e-02 -8.695502135511401498e-01 -2.586678757879747881e-01 3.869941284070743115e-01 -8.850573284334667390e-01
5.186126995504621723e-02 -8.589829442309682150e-02 -9.575134804781264553e-01 3.772825737208270191e-01 -4.019884024204120609e-02 9.252253308301623402e-01
-1.486479228387434237e-01 9.347358449998208890e-03 -8.900348178339013705e-01 8.160181802696714337e-01 -3.940405715511475226e-01 4.229023024777931461e-01
-2.377618461963027419e-04 -2.627168735925096074e-02 -9.056731481266395711e-01 7.539473367714915053e-01 -2.459057530113945012e-01 6.091746662584338612e-01
1.037902758903263591e-02 -3.288171722920939233e-02 -8.463612561499695985e-01 -2.336531121723393611e-01 3.671473465717273732e-01 -9.003382970181373901e-01
-8.327072849828245915e-02 3.128096378701480246e-02 -8.913034003531901117e-01 -5.530907870115983060e-01 1.862497790638602269e-01 8.120354678962945494e-01
-4.869301960368212223e-02 1.582355022433853953e-01 -6.635848815977178905e-01 -5.224853424114815903e-01 2.414470976526977286e-01 -8.177483512672130139e-01
5.124022347838153024e-02 -8.099802677890514946e-02 -8.873588038684437906e-01 -1.902046075061997743e-01 5.704391596182014634e-01 -7.990127486201284990e-01
-1.227352090446832827e-01 -2.489754154322926932e-02 -8.682963521791094985e-01 3.548858078833013185e-01 4.291050992455838209e-01 -8.306171664277438582e-01
-2.568997803716318445e-02 -7.061396060130083197e-02 -9.412319857021839153e-01 3.211578551487469235e-02 -5.836059694470768777e-01 8.114016568546676966e-01
-1.929290933608691916e-02 -2.158727796560072631e-01 -9.835785829192645879e-01 -3.405223536649398114e-02 8.450187765413520458e-01 -5.336513024055140608e-01
1.246874041650683357e-01 -1.108493812011472901e-01 -9.576186862151445656e-01 -6.831027352396604746e-01 -3.365723025026475801e-01 6.481433007415571268e-01
4.533298450656172290e-02 -2.828356762413856626e-02 -9.090615134212842730e-01 2.176532344595653035e-01 -6.020549356771428551e-01 7.682167167903083405e-01
-3.411305552780102834e-02 1.329529022498500135e-01 -7.345319111455235195e-01 -8.362586373707714404e-01 4.455414974110878945e-01 -3.196314526254669386e-01
6.716112300284496350e-02 4.131802449126956156e-02 -8.180278427254970008e-01 -6.164030691368321824e-02 2.597951873903615594e-01 -9.636944189795818572e-01
-1.100028549198857064e-01 -1.159060311576925600e-01 -9.377821117095491710e-01 8.387500355016492826e-01 5.222084840614403811e-01 -1.542617163143031322e-01
-1.708792323696677745e-02 4.189808149602700094e-02 -8.121414984932587844e-01 -1.939653265948613481e-01 2.437878176026145871e-01 -9.502341564411916908e-01
3.141613945593730445e-02 -5.152796835957493271e-02 -9.349726348965919920e-01 4.999634137175686388e-01 -4.956143117965353118e-01 7.102133756036435042e-01
8.749820754148744661e-02 -2.168616822345388329e-01 -9.862168277010292528e-01 -7.583102834044114227e-01 5.146059331141443760e-01 -4.001827678534427002e-01
1.854319846394984761e-02 -4.838842240850677046e-02 -8.545536564232177890e-01 -1.963613068533127393e-01 3.783585242729961551e-01 -9.045922088326979749e-01
5.974210930985664886e-02 -2.404355315955740147e-01 -1.003175202171809888e+00 -3.423438914526651389e-01 7.940787355250802371e-01 -5.022346282087044589e-01
-4.914841952739897046e-02 1.580136393209503887e-02 -8.950131014561556464e-01 -9.630416795785549933e-02 -6.311024254068280381e-01 7.696981459504527168e-01
-7.585766591501238998e-02 5.135950955623407033e-02 -8.287718463114739365e-01 2.959782672092864941e-01 2.515041523615841323e-01 -9.214892981932396587e-01
-2.576859591168374763e-02 -2.088950660020760519e-01 -9.761350246884135107e-01 5.268788564111646089e-01 4.376653346391802812e-01 -7.285929765802288127e-01
6.938040686277743840e-02 -2.073919640755693405e-02 -9.206444058063054658e-01 3.457347107908179673e-01 -1.791112327918244207e-01 9.210790824039933877e-01
-1.183668997307820298e-01 -1.012401637160856016e-01 -9.304662315665410688e-01 6.765319599138854834e-01 6.247235834805224819e-01 -3.899037720493756520e-01
-1.407445271922969365e-01 -2.549851962084965715e-02 -8.802456833255880575e-01 6.063434256471356143e-01 3.496975193812943972e-01 -7.141843565306271735e-01
-8.769823066607455864e-02 -9.375732847305097428e-02 -8.999328243712754194e-01 4.345635341901731841e-01 4.664089025631536489e-01 -7.704656191952895528e-01
8.813802077132078250e-02 -1.863747879617697889e-01 -1.006159029406996641e+00 -4.847647435031484653e-01 -1.198200001360144040e-01 8.663984712727350601e-01
5.748095274887070512e-03 -9.460978509618626908e-02 -8.772665667260323152e-01 -3.168181420851185481e-01 4.743471471829579511e-01 -8.213531815273639181e-01
2.211396248526655353e-02 -2.583420806741357212e-01 -1.045631740321741221e+00 2.407671078693991440e-01 -1.548930242536657176e-01 9.581437004989170614e-01
-1.044093281323945771e-01 -1.014391115316372466e-01 -9.171860287841741011e-01 5.656622404928143277e-01 5.054397100663086118e-01 -6.515803320917040731e-01
1.900676348188055573e-02 -2.802171922229010348e-01 -1.045998736232117032e+00 -4.782959963424169292e-01 5.375131688365493154e-01 6.944872448145508192e-01
-6.007518860146458806e-02 -1.509810310905546071e-01 -9.394867893175304907e-01 5.468758422923775120e-01 4.915243905781766509e-01 -6.777393205235732188e-01
1.165959387274741049e-01 -6.444072958783136906e-02 -8.860266057535234330e-01 -2.758041097566427680e-01 4.445607514486294431e-01 -8.522310903227924284e-01
6.547578327035412371e-02 9.904750951000532155e-03 -8.289826917176082999e-01 -1.292154296250115908e-01 2.537739710077310806e-01 -9.585938370268144437e-01
-9.723249025616143015e-02 -7.257529034898657638e-02 -9.474583716431452807e-01 1.542277044048304124e-02 -3.218186888822341385e-01 9.466756940146187072e-01
-2.934565944850827876e-02 -4.103387517140021784e-02 -8.523107857406938548e-01 3.279602536880135699e-01 3.566630716657624434e-01 -8.747762715751020712e-01
-7.199441847799349647e-02 5.679688646601310786e-02 -8.773450274866595455e-01 -1.175128947091350767e-01 -5.648717197644279597e-01 8.167684248227626842e-01
3.227428099551245960e-02 -2.478000323722949760e-01 -1.047387451491091470e+00 3.679335727604861050e-01 -3.126617910168842940e-01 8.757097067372373589e-01
7.593948606481470964e-02 -2.061156851164435977e-01 -1.020462048456237447e+00 -7.879240489409941040e-01 -3.174757490286193584e-01 5.276218739581850503e-01
5.470145913791595732e-02 -2.273800830642867810e-01 -1.039701751585685230e+00 -5.197009721698727658e-01 -3.695717540762511865e-03 8.543402373747522871e-01
-5.647318515863212346e-02 1.436023629795198930e-01 -8.016551624569004941e-01 2.750230168659568153e-01 -7.434221543665364695e-01 6.096604305602957297e-01
-4.941460818631226298e-02 -1.428208633428484087e-01 -9.250248344929159483e-01 5.715884070909070802e-01 4.280436946473292759e-01 -7.000466329837915502e-01
-9.038837504193078520e-02 -3.623858482593332597e-02 -9.329699740881276515e-01 -3.152020522237933969e-02 -4.163135985037492715e-01 9.086745646069323001e-01
-9.295202648263067857e-02 3.480753255394960664e-04 -8.478660472689105720e-01 3.422964807527641984e-01 2.513445548608490565e-01 -9.053502272635016723e-01
1.005718473878725316e-01 -1.507276401155560885e-01 -9.880378991099865171e-01 -7.852382155234278738e-01 -5.047437641134892017e-01 3.586567683316866928e-01
-1.393814058598208672e-01 1.148023840769342441e-02 -8.630029905002430946e-01 4.086894634014696659e-01 3.359588596110991143e-01 -8.485897519729003191e-01
6.826184951845425120e-02 -3.024449789786102030e-02 -8.563766988641501321e-01 -1.127363439460233596e-01 5.548302875593673633e-01 -8.242899179053891912e-01
6.170455204859416620e-02 -2.372763110373100545e-02 -8.511238930120488266e-01 -1.037266510614522075e-01 5.564205489719719067e-01 -8.244009670914419496e-01
-1.019952235755529485e-01 -6.571543638484336758e-02 -8.930965952500731220e-01 4.187001210803672491e-01 5.059354274006021557e-01 -7.541349692914761649e-01
-1.787587703732397559e-02 -1.409626009615115860e-01 -9.819352754776565773e-01 1.719911480164565132e-01 -6.705202532253139447e-01 7.216797316113583438e-01
-6.402499234510998505e-02 1.845593869837193479e-01 -6.762397321570580155e-01 1.596029169863738828e-01 -9.203831207838644168e-01 -3.569619305550593147e-01
-1.016548071083087784e-01 -1.110335324285416925e-01 -9.225559047391513889e-01 5.478896546029232706e-01 5.427073627202764206e-01 -6.366204872828803429e-01
-3.703069974632969275e-02 1.651393267450882996e-01 -7.104364010510960670e-01 -9.406004403009893267e-01 -3.378495283536364080e-01 3.359327160028362930e-02
-7.567177470573149822e-02 -1.070432094309920756e-01 -9.599905862925881550e-01 2.407683706081989727e-01 -4.344655225716150260e-01 8.679114594307684172e-01
8.730367041490872532e-03 3.238390888923551453e-02 -8.179153276061351674e-01 -9.723306446608702414e-02 2.089053913040056498e-01 -9.730900619462999890e-01
-4.135355700776843779e-02 -1.834865592164150738e-01 -1.003504153093226048e+00 6.810510087727039696e-01 -1.490694792452325057e-01 7.169015370378540863e-01
-3.481669549798804136e-02 -7.133847882558234932e-02 -9.412948594511092448e-01 4.564228545653325336e-02 -5.881008594331732509e-01 8.074987064461882635e-01
-5.185379799538139545e-02 1.847154925209489318e-01 -6.916317471602467792e-01 -3.722180961962401335e-01 -9.266025982079884038e-01 5.349125029621107363e-02
-4.876599630731591473e-02 1.292127864236479462e-01 -7.171141584497691124e-01 -3.537856846787648668e-01 8.736487159616224130e-01 -3.340263618563446557e-01
-9.851069060961303858e-02 -6.636141130969490376e-02 -9.451978718066637031e-01 6.989833245070949108e-02 -3.459796766819822622e-01 9.356346971140183655e-01
3.613566231316670679e-02 -2.330604099684673303e-01 -9.868886250249394587e-01 -2.652499955650808316e-01 6.817488372410664965e-01 -6.818071301865200606e-01
-2.739524470703464873e-02 3.482407853632743522e-02 -8.129149011260157209e-01 1.548860416982235644e-01 2.892702997525498643e-01 -9.446337955886007220e-01
-3.747033119657804806e-02 -2.147620170580624988e-01 -1.001087783407443865e+00 8.286576721699621118e-01 4.306267804756119255e-01 3.576129727667451408e-01
2.967442336594594901e-02 -9.557909645948020616e-02 -8.895008665943959780e-01 -3.330287489791427524e-01 4.737210192794215624e-01 -8.152792455632935642e-01
1.344322559359957883e-02 -1.260661885264773019e-01 -9.792479099378823548e-01 2.170705079479419153e-01 -6.012720767597620197e-01 7.689943330663921994e-01
1.409492405199614662e-01 -3.524958229078545974e-02 -8.929660679166505632e-01 -9.064451244183814316e-01 -2.756457121360798013e-01 3.199635569860083684e-01
9.451689454422414205e-02 -8.280973454718761062e-02 -8.887656087318428488e-01 -7.868688055918884872e-02 4.581926312163719928e-01 -8.853631387893228233e-01
2.356386440874331037e-02 -2.288520835297550571e-01 -1.033317547654506896e+00 -8.551775029371484482e-01 5.937309324976244862e-02 5.149235615779671482e-01
-3.587432544789285332e-02 1.216194347642534368e-01 -8.301739878941191142e-01 -1.264963095252491510e-01 -8.110914074794496331e-01 5.710774136572885906e-01
-2.566062238104090728e-03 -1.098682916607107984e-01 -8.867879474931705808e-01 3.221558776179999084e-01 5.208008527664294007e-01 -7.905580701466122795e-01
-6.127224026126690259e-02 9.996121810336433544e-02 -7.840282915229849214e-01 6.129735147946812068e-01 6.759905391044820355e-01 -4.090235460233142550e-01
-1.419543040633900431e-02 1.115022528103340183e-01 -8.150189184156717559e-01 -9.303622993113671580e-01 -3.653895626867785240e-01 -3.027308209665566241e-02
-5.820794896453276857e-02 -1.011896459260557407e-01 -8.983956864141477983e-01 2.103075579554515850e-01 6.020689686439912869e-01 -7.702491077974548128e-01
-7.380068576632139651e-03 -3.721427830303438572e-02 -9.108664952906763146e-01 -1.950072360567973728e-01 -9.279853110077015410e-01 3.175144728030956931e-01
1.005115979235951945e-01 -2.328159828453522928e-02 -8.492553262912924117e-01 -3.242231180444713617e-02 6.796596669407396485e-01 -7.328107060020738750e-01
2.533099821303495813e-02 -1.842423266736605281e-01 -1.014164260264511341e+00 -5.850510395919700235e-01 -5.147560691029029467e-01 6.266908890306946978e-01
-3.103125546218686928e-02 1.061172291510908972e-02 -8.956067546858064166e-01 -2.145814798810530832e-01 -5.757408320518281331e-01 7.889722953312908738e-01
-1.362298250178758385e-01 -6.459516840285035866e-02 -9.129633347801281440e-01 5.675274083837704708e-01 6.532233210613915819e-01 -5.012104683211706657e-01
8.990102536482849627e-02 -1.396164143298352922e-01 -9.289765103622087405e-01 -2.275536519475455932e-01 4.546685795753834247e-01 -8.611015144756386519e-01
5.443798062445389524e-02 -8.249718166417847887e-02 -9.579530956863449020e-01 2.776427733805402753e-01 -2.740035613292853833e-01 9.207803966030284615e-01
-4.609801598466254161e-03 -1.888371476908813351e-01 -9.509799980629222160e-01 5.866430603633053797e-01 3.433131768469713241e-01 -7.334752772458081882e-01
1.114281041055696503e-01 -1.119130667129131645e-01 -9.088034456575629916e-01 7.514991395050710232e-02 7.089718169589285246e-01 -7.012214009791678526e-01
-1.674078588327571190e-03 4.692005699641176725e-02 -8.137988485920277792e-01 -1.126850268663731475e-01 2.050113643073114000e-01 -9.722512150802278263e-01
6.909621622157399723e-02 -1.188721233577687830e-01 -9.137254763393473089e-01 -2.017193693601952720e-01 4.192509629539860061e-01 -8.851767767441034440e-01
-9.145879553933741746e-02 -6.495516174197278614e-02 -9.447630656206580380e-01 -2.862121991211468569e-02 -3.290054748722612277e-01 9.438941801255160691e-01
1.352783946390911374e-01 -4.619747148647481566e-02 -8.769515787632085058e-01 -4.954826659708290171e-01 4.456893485162304880e-01 -7.455588054215561700e-01
3.646390165821149915e-02 -7.610915182352567809e-02 -9.496451456080249320e-01 3.597896549457657578e-01 -1.993931512431060815e-01 9.114788946713743290e-01
8.812447020001273890e-02 -1.309872873706684204e-01 -9.238641823255360208e-01 -2.039613778915722320e-01 4.720664299793613794e-01 -8.576438899771348101e-01
-9.392782546709443903e-02 -1.103174029461970879e-02 -9.207294844056657102e-01 -5.157151203178136217e-02 -5.034626669041928348e-01 8.624765052918680341e-01
3.037525699972205753e-03 -1.485632196301879815e-01 -9.936034641368193254e-01 2.258914262102808268e-01 -6.021120667397763526e-01 7.657898684698304370e-01
-9.905977848567432131e-02 -9.706236651330518717e-02 -9.097030935631970072e-01 5.538468498618871472e-01 4.502717482225160328e-01 -7.003634910892366783e-01
-4.887795793989108128e-02 -8.587278726403283283e-03 -9.125941412713263201e-01 -1.682944626285485801e-01 -4.787697551091288917e-01 8.616591527055885713e-01
9.015329464479482358e-02 -1.720408792119146324e-01 -1.001878093204155329e+00 -4.630694101498714632e-01 -2.726962342195094480e-01 8.433288120454255354e-01
-1.208798944229496214e-01 5.505045085279330203e-02 -8.690952121551409615e-01 4.990206471614949124e-01 -7.509151547432193485e-01 4.325561513647561696e-01
8.912730873492283323e-02 -2.163460005954002674e-01 -9.948722126559542689e-01 -7.733470486801200527e-01 6.086500198348054891e-01 1.774246196356045469e-01
1.590554626119353512e-02 -8.164189978715666318e-02 -8.754649014144170183e-01 -4.022014323384222045e-01 4.322248455854356686e-01 -8.071032713869815689e-01
-5.932941087472502761e-02 -1.380361321255293150e-01 -9.794727768237097010e-01 2.520724373263382723e-01 -3.669606299578020425e-01 8.954325113604778563e-01
-1.188104306887071554e-01 -5.760828576961132819e-02 -9.375788923394033914e-01 3.530787064831442668e-01 -2.657116811542722945e-01 8.970689658696036073e-01
2.090859463225374498e-02 -1.930869986795709647e-01 -9.447047891845031797e-01 -1.253501487225534561e-01 7.270587256312301960e-01 -6.750355173609201564e-01
6.725460068066629882e-02 -1.892486933817481565e-01 -1.014013162677672497e+00 -6.766384244191127051e-01 -6.780465431679504329e-01 2.870772159151844805e-01
-3.397216152015469087e-02 1.509663116892528134e-01 -7.179853356337051462e-01 -9.923715018844304625e-01 -5.170436022515822322e-02 -1.119172077088561174e-01
-1.645784756686359193e-02 -2.238793534777775152e-01 -1.036887066262609958e+00 6.423319341763136237e-01 -8.561083852664329308e-02 7.616301403332730313e-01
6.450607920423105657e-02 -1.846748800452150674e-01 -1.010480958661314599e+00 -7.571996071004533091e-01 -5.936125195624262219e-01 2.725306067686112943e-01
2.994171791324762300e-02 -1.950496426190954091e-01 -9.500514239952275730e-01 -2.771296032524304676e-01 6.625539181941721978e-01 -6.958602506873781124e-01
-6.292499065537381087e-02 8.777311836402798551e-02 -8.061575240245085761e-01 9.045105413278743400e-01 3.592522653834475110e-01 -2.297792210875838348e-01
5.919958965931600148e-02 -2.394889892442391144e-01 -1.033582242746984292e+00 -6.982291594420834135e-01 3.926719118113484730e-01 5.985689689411087810e-01
1.943794619603241014e-02 -1.286397271199549164e-01 -9.021450722584402060e-01 -3.841880579712397270e-01 5.029163032814562007e-01 -7.742575333866642540e-01
-1.383458540339296550e-01 -6.797143494080722104e-02 -9.242908515131553759e-01 9.099484405046764923e-01 3.925518851467491022e-01 1.337791205339629030e-01
-4.057203655995779423e-02 -3.169382314368555248e-02 -8.522537551877692463e-01 2.855935909231344660e-01 4.033315945687321324e-01 -8.693445379400923656e-01
-9.808626817245105767e-02 6.428785319592884850e-02 -8.347335907983678416e-01 4.382145977412116311e-01 -1.713291132928446425e-01 -8.823912404737456194e-01
1.320444157958683140e-01 -6.604892323960194489e-02 -8.914197974689745951e-01 -2.331825261679102979e-01 5.081366481599197682e-01 -8.291097974856850295e-01
4.010630699539210337e-02 -4.477988831324750812e-02 -8.582631164030993798e-01 -2.625517811805359036e-01 3.364264857841945955e-01 -9.043692729531588315e-01
-6.135090732940676195e-02 6.406079350863960742e-02 -8.187587072474376004e-01 4.575758303835708030e-01 3.577185688302103039e-01 -8.140404074509149934e-01
-3.141666078392747058e-02 -1.495890192589729439e-01 -9.872035902379535655e-01 1.379829057938606329e-01 -6.648131505148843212e-01 7.341554281016765549e-01
1.538346450646640995e-02 -1.038482341008504090e-01 -9.616754972994661088e-01 1.458221467081972089e-01 -6.587083088551076715e-01 7.381322817589385243e-01
-5.293576246791206058e-02 1.403055242609533293e-01 -6.825314219869610399e-01 -4.155815699361364302e-01 8.512553477125661683e-01 -3.204002055557615969e-01
-2.454212993376925916e-02 7.616754142866405397e-02 -7.979778467698745992e-01 -3.581837104863445087e-01 4.296909165658202023e-01 -8.288969452007044492e-01
4.953577804696016051e-02 -2.150182111982555377e-01 -1.037939056904683133e+00 -9.607590442472158099e-02 -4.211129542030962458e-01 9.019053721933986134e-01
-2.916250313952752776e-02 -2.008191911342118718e-01 -9.751481616851891410e-01 5.672047833925876192e-01 3.177947776367881505e-01 -7.597928750675096987e-01
-3.030540415594112913e-02 -7.377001402791903695e-02 -9.433193163972469764e-01 3.211578551487469235e-02 -5.836059694470768777e-01 8.114016568546676966e-01
-1.076050340813363426e-01 1.565191628438572166e-02 -8.494808885192567383e-01 2.963436894235940700e-01 3.063702584942531448e-01 -9.046091324151979141e-01
-7.875523383174884429e-02 1.447094761002680995e-02 -8.948207474909540826e-01 2.356999015288966381e-01 -8.753524298063335429e-01 4.221417771927058471e-01
3.553656551033955446e-02 -1.975359010961492690e-01 -1.009271317450707306e+00 7.194315718124756620e-02 -5.623444617075434859e-01 8.237674966406766108e-01
-4.700080661352839390e-02 1.305398643071563891e-01 -7.158510271715347040e-01 -4.774416784815340709e-01 8.105649334328427491e-01 -3.391665259688033673e-01
7.256592738059769454e-02 2.091782855110548359e-02 -8.262091194724709986e-01 -9.680695255846896718e-02 3.652022536160622890e-01 -9.258810549363734044e-01
-8.018648053945719167e-02 1.633890395733714751e-01 -6.796154796867708292e-01 9.674951054216061053e-01 1.793983706222910812e-01 -1.782398541384682678e-01
7.012757691051442477e-02 -2.329548440371367046e-01 -1.023693812929790337e+00 -7.706370601978069779e-01 4.879637428216568873e-01 4.098901159349435108e-01
1.086759931771898724e-01 -7.069598734428110542e-02 -9.434887301316152719e-01 -5.995148385254289725e-01 -5.894250892300287870e-01 5.414425385708084848e-01
3.528786141971162332e-02 1.646665529594211475e-02 -8.905879301086514488e-01 1.513605340514072028e-01 -5.602164247325309709e-01 8.144001143121072372e-01
-1.369934464614936120e-01 1.752512203152017597e-02 -8.986550242024085033e-01 5.033017791439989841e-01 -4.981116750407642013e-01 7.060963661559018778e-01
-1.178573005875141327e-01 3.270766322457553665e-02 -8.463827983405011190e-01 2.821362742024273174e-01 3.171917277225931864e-01 -9.054217418659269434e-01
-1.445382824273952482e-01 1.312828783900820209e-02 -8.937904501868425555e-01 7.705888241429548202e-01 -4.032695711457341403e-01 4.935245861088524699e-01
1.280974449856950304e-01 -3.311354634763260391e-02 -9.132455027141800352e-01 -6.433978805228651732e-01 -4.612597622234922423e-01 6.109653010541696849e-01
-8.967103330382000803e-02 3.486450115619605522e-02 -8.376915092675444319e-01 2.557224198566086515e-01 2.868072803516985569e-01 -9.232267478360570712e-01
-3.870498901146420673e-02 1.713243274591665644e-01 -6.886591291017449823e-01 -9.557135432402669162e-01 -2.923321046370335186e-01 -3.396415559993844896e-02
-2.288052321930497332e-02 6.229037969398691643e-02 -8.755904531617130226e-01 3.820887482589395701e-01 -2.512360909841689360e-01 8.893191862548063265e-01
-5.845374875892311167e-02 1.488504368674541112e-01 -6.645299750039574960e-01 4.600988284610702667e-02 6.588218614469120160e-01 -7.508907014739985009e-01
-4.837479589099357574e-02 -1.369870494132934269e-01 -9.206344334520151218e-01 4.796407329255024665e-01 4.741035951616434652e-01 -7.383566539102165427e-01
-6.312670589630800522e-02 9.898523017122491663e-02 -8.205125565617333860e-01 9.266501869307037786e-01 2.221474105587362829e-02 3.752678194851144511e-01
-4.795244979441396632e-03 4.639523044856781048e-02 -8.851768553951788743e-01 6.945409770980838504e-02 -3.379002771634430635e-01 9.386157525868531470e-01
-9.092481633020056686e-02 -5.257242527469204590e-02 -8.797024268814659376e-01 2.777550695473059994e-01 4.910867489445143175e-01 -8.256427352989176294e-01
-1.277698528925044763e-01 -3.625546293393246133e-02 -8.788561874967415477e-01 2.667327788649833109e-01 6.994108478641426485e-01 -6.630822653102138586e-01
1.008849045328702107e-02 -2.689322771030787096e-01 -1.022710597999929583e+00 2.758495862741636162e-01 6.605559006954401235e-01 -6.982642106028408291e-01
9.327685959004598445e-03 -2.466820396467895860e-01 -1.050659372732544616e+00 -9.353780208161800724e-02 -9.105706261888621422e-02 9.914430346363628521e-01
-1.988150502987639026e-02 -2.370502547571815832e-01 -1.028056783142557107e+00 8.983089496968393872e-01 3.706916765962153248e-01 2.358573971637271116e-01
4.512947802729543045e-02 -4.319688668793903591e-02 -9.331290889073352579e-01 1.434110279938823895e-01 -6.313544363047139951e-01 7.621186605825202021e-01
-1.101817088269183703e-01 5.565954204149355794e-02 -8.392601695580783616e-01 4.346057727296342432e-01 -1.085109053666639956e-01 -8.940599564495573803e-01
-1.895187294003981143e-02 -2.123760982880530390e-01 -1.031904975002938984e+00 7.081768190610407965e-01 -2.914112918997145973e-01 6.430902362016742702e-01
-1.464751279891220691e-02 -1.724978539308972547e-01 -1.008034267018899977e+00 1.019935483972274903e-01 -5.837879053561347842e-01 8.054743929171420680e-01
8.535905796123974265e-02 5.638637901503320421e-02 -8.358328778902817113e-01 -5.575412517526984191e-01 -8.191988388746119787e-01 -1.343912756860422830e-01
1.028126058022705014e-01 -1.512642880066620843e-01 -9.396386380529491156e-01 -3.422996638556408677e-01 4.998372309397204893e-01 -7.956090011373851967e-01
7.812038377498425890e-02 -2.272197053984608694e-01 -1.010421917897110999e+00 -8.879442674328751339e-01 4.360921465385421691e-01 1.462142867865561524e-01
1.027108754156114828e-02 -4.655125720356275559e-02 -9.254266772987348455e-01 6.527883210639959799e-01 -1.993044411379309988e-01 7.308523432439318901e-01
6.702782738293157350e-02 -4.507021819255491862e-02 -9.368610299555149012e-01 2.567267466046158769e-02 -6.660047623636183856e-01 7.455055803176513507e-01
-1.309950150108764588e-01 -7.875902583309210558e-02 -9.321620680081020849e-01 7.582507165437795127e-01 1.358713607179961869e-01 6.376478841786311635e-01
-6.588723992240524963e-02 1.254369329304045599e-01 -8.124704977713390619e-01 7.759583935268966615e-01 -3.498304024803667867e-01 5.248878556564080533e-01
-6.514496908366357308e-02 1.205991440146968741e-01 -7.436027934128760508e-01 4.639435538676549564e-01 8.299775052454219093e-01 -3.096671109614899109e-01
1.229991966602668879e-01 -1.517829742896489031e-01 -9.532540451184909891e-01 -7.584834205974032573e-01 5.407030770811839249e-01 -3.637898886909887164e-01
-9.486456592204831062e-02 4.752466450857115859e-02 -8.354553656747426560e-01 2.592140362402307052e-01 2.380876361348266135e-01 -9.360140815905383382e-01
-7.760439805320357154e-02 -2.603144378982421778e-02 -9.268371088362692412e-01 -1.331041161668674588e-01 -4.198310554875031575e-01 8.977890504498737823e-01
2.266772840844295030e-03 -3.737980438257998417e-02 -8.462184541891958345e-01 -2.224105847329548580e-01 3.682280711345237156e-01 -9.027411696756125759e-01
-1.166131759690744035e-01 4.414593518562271585e-02 -8.854128208325222626e-01 2.665329051235826863e-01 -6.892593903878673212e-01 6.737074314927277152e-01
-9.197155372464958789e-02 3.896940851542961964e-02 -8.370394596768465645e-01 2.471850672929782888e-01 2.896438329313489879e-01 -9.246653408407836672e-01
1.395883013825713614e-01 -4.839842167859194355e-02 -9.071969051225088343e-01 -8.756338658303672862e-01 -2.821938515483198850e-01 3.919591345526867165e-01
1.077568763405192809e-01 -2.175357694693660568e-02 -8.502575731641174306e-01 -3.191834281309240962e-01 4.124356892176931355e-01 -8.532401429059217612e-01
-4.452733947559106564e-02 -3.924416512309891053e-02 -9.178224686131153387e-01 -6.256493612699082218e-01 4.548081266846454307e-01 6.338078925385508544e-01
3.292033079769671883e-02 -1.608186131804185959e-01 -9.820627403628983121e-01 -5.517333563649023248e-02 -4.995858272051484361e-01 8.645055837242987540e-01
3.674903900988057970e-02 7.894873457277390427e-02 -8.310456295211504640e-01 -3.092874231009941077e-01 -9.509676496589157813e-01 1.348782319165154567e-03
-5.579463580748660056e-02 9.526813391591140712e-02 -7.840896298846633528e-01 4.868127926790120630e-01 6.916893363306013676e-01 -5.334596206748861702e-01
-2.084069669453305143e-02 -1.361850345372292437e-01 -9.068499673311244402e-01 -3.864719921007579717e-02 7.116400495485772915e-01 -7.014804586527801922e-01
3.976158029592478937e-02 -1.953081588329725893e-01 -1.011928427387475571e+00 8.799332566335287265e-01 -3.154847134482685056e-01 3.552278979060857211e-01
-5.288462358276577874e-02 -1.112399067258232344e-01 -9.661069447140315791e-01 7.095747644113682695e-02 -4.962584074720293170e-01 8.652702638773799304e-01
5.808596532718202088e-02 -8.101840091923463716e-02 -8.888328661918162288e-01 -1.287639058739831199e-01 6.157950313719888769e-01 -7.773135376935402796e-01
-7.697898741219931030e-04 -2.483570081261679829e-01 -1.010573441885182167e+00 4.389038265778876236e-01 5.810146389929680133e-01 -6.854089438365673637e-01
2.380715927427410825e-02 -1.628097645164127694e-01 -9.856776461857755800e-01 8.126801512586608045e-03 -8.448483247749211111e-01 5.349441683224372968e-01
6.140211772594601596e-03 8.138880496251386931e-02 -8.114643704958423021e-01 -3.609826099788948084e-01 -5.079416578714031072e-01 -7.821041027201400819e-01
4.270270961240692914e-02 -1.042755161316233498e-01 -8.988825130628748106e-01 -2.803118882539192280e-01 4.505194455845970003e-01 -8.476187081781935140e-01
1.309185922437938222e-02 7.599971525646063986e-02 -8.493209382477797664e-01 -9.034154240520712864e-02 -7.646110831854813217e-01 6.381287465596365838e-01
-7.180702315431533589e-02 1.243353964627453706e-01 -8.008148104622708763e-01 9.322939836270677239e-01 -7.939228387752797489e-02 3.528807069726009327e-01
-1.391061334060962607e-01 1.256260579714009971e-02 -9.005302345186914081e-01 5.850253555511010228e-01 -4.470809005794545987e-01 6.766564872218189253e-01
1.291964015343553818e-02 -7.088746413111049471e-02 -9.341249091014603989e-01 -6.975286687562072263e-01 -3.934557178691372448e-01 5.988708995595588558e-01
1.366111768343664101e-01 -7.454873215557880628e-02 -9.295478999149521249e-01 -8.279513891109774315e-01 -2.916599741906346632e-01 4.789895162989699640e-01
5.443041410744972608e-02 -9.793520713484613061e-02 -8.991552590016952395e-01 -2.356683836989083292e-01 4.807533115925969880e-01 -8.445926037549081888e-01
-6.194749926417953551e-02 -6.916963687496974211e-02 -9.271273932678285590e-01 1.675558834655273277e-01 -7.443931691185635691e-01 6.463774715177720287e-01
-6.584500671195819832e-02 -1.165321421838501625e-01 -9.129407172042561802e-01 2.720321359023582519e-01 6.070038285570464875e-01 -7.466892721564230007e-01
3.545661547309587186e-02 4.412171952340475031e-03 -8.989276595597890385e-01 2.949213818311958724e-01 -4.912994391545132955e-01 8.195402611374492663e-01
-8.122014329419839640e-02 4.695741488409936604e-02 -8.853983579209390165e-01 -1.319607583594807898e-01 -5.462018477687748952e-01 8.271939916048510755e-01
-1.229740309697775619e-01 -8.973163639649613110e-02 -9.385560657736600199e-01 6.786670547347370963e-01 1.340119875026545004e-01 7.221162067307904664e-01
-6.223500555101012938e-02 -5.556656697357947178e-02 -8.693852636948118384e-01 3.607245563359491314e-01 3.157751558853508778e-01 -8.775897933441426657e-01
-2.396315697896802752e-02 1.323966265395831177e-01 -7.783386778779853854e-01 -9.519023881992747516e-01 -2.937475959967919548e-01 -8.714466814798507710e-02
2.813394511258503206e-02 -1.483623412914611972e-01 -9.790068473088999745e-01 -5.199860605068749031e-01 9.273809813180163009e-02 8.491255160654619383e-01
-5.973624368694953335e-02 1.175786385454690164e-01 -8.248758048111052288e-01 7.585075466092086049e-01 -2.839459634237775365e-01 5.865500759459687519e-01
1.119958879639111060e-01 3.441426394383251264e-02 -8.642584980418647200e-01 -6.600624120948023199e-01 -7.285955632768069679e-01 1.829374683134752932e-01
-7.996462894156128320e-02 -4.227741670033971499e-02 -9.345842492742919561e-01 -1.425652913441551317e-01 -3.952562024031170962e-01 9.074401755299478234e-01
1.187191205338323924e-01 -8.729324933907352257e-02 -8.979436760224485115e-01 -3.053068843945769273e-01 4.191125198118690887e-01 -8.550628059261040637e-01
-6.508697201024110646e-02 1.641689723880919716e-01 -7.622138406439532554e-01 4.337941527932506758e-01 -8.163478837560134149e-01 3.813119007970563468e-01
