-2.908612794467727719e-02 1.460440342809580794e-01 -7.596438158578073807e-01 -5.736828020943361972e-01 -6.752325859825174525e-01 4.636259240039893315e-01
8.155307667457270537e-02 -1.276354351175172375e-01 -8.252944710069809453e-01 -5.035367632771428070e-01 -1.424373324774564908e-01 8.521515911767606477e-01
9.244855174766972161e-02 -1.761151000156917223e-01 -7.799279617243094487e-01 -2.122701958753479556e-01 7.230733678344575255e-01 -6.573479053526957161e-01
-6.810949783198975982e-02 6.154257533934263946e-02 -8.778285273843916547e-01 -4.979513332074292919e-01 -5.285103391306448239e-01 6.875473010556835129e-01
-3.029740682094301044e-02 -1.475085509356471314e-01 -8.532484592008681146e-01 7.294893848141430492e-01 5.505448300746138557e-01 -4.058886885854271487e-01
2.084110900425458976e-02 2.235913051949114938e-02 -7.065429868463769525e-01 6.556912193428550140e-01 1.886999938754223283e-01 -7.310686268662440757e-01
-4.736588811966549462e-02 -1.407931729205170179e-01 -8.714422806916556352e-01 6.401887095296633357e-01 6.718314527358457688e-01 -3.725599486063788102e-01
-3.648773491290416976e-02 -1.132664622230071944e-01 -9.230082196973534714e-01 -3.925611179608429757e-01 -3.030153206868649862e-01 8.683763493407509193e-01
-1.054014208925259793e-01 1.641705393004118108e-01 -6.892492046397583616e-01 7.812306693650513667e-01 5.936275053339343799e-01 1.930933094502335634e-01
2.143771061679518308e-02 6.268562413229805674e-02 -7.140306392635341615e-01 -1.510010127975741911e-01 -6.751964204504715683e-01 -7.220169582114929208e-01
6.987941274654062285e-02 -8.819519671495210100e-02 -8.184878876473342668e-01 -6.050659245538737574e-01 -4.232273709323862154e-01 6.743692011334936343e-01
1.681445715244059280e-02 -2.834595511493740450e-01 -9.277622934294285084e-01 6.611987069191918032e-01 5.616247454305834941e-01 -4.973870879791923438e-01
-2.220638080329908129e-02 8.507203078602289248e-02 -7.299184829486502490e-01 2.380454126582972896e-01 6.381176895666328119e-02 -9.691555291360425262e-01
1.130703543275095313e-02 -2.784165373595332005e-01 -9.312411902378989748e-01 8.131861303073645297e-01 4.669741564540634271e-01 -3.473664558931241486e-01
5.437140336813649222e-02 -1.326924742163946014e-01 -7.709554890896886947e-01 6.973168749644721442e-01 4.694141277252388278e-01 -5.416636895544469921e-01
3.545625175491304293e-02 -1.042786553874755356e-01 -7.707444640651095469e-01 6.579613891237727774e-01 4.871116472619516635e-01 -5.742900430305780679e-01
-8.504513534880245307e-02 2.284590218783994278e-02 -9.027329693317726056e-01 -5.686657162227709561e-01 -6.352060372673594413e-02 8.201124533227343028e-01
1.081157428412411400e-02 4.210421256672439161e-02 -7.993449777871696194e-01 -2.622594973326131673e-01 -1.695293548619798141e-01 9.499893440975670789e-01
-5.869390625443655224e-02 -1.127714023462578485e-01 -8.831097115938513209e-01 8.857519872030458208e-01 3.947325953500564477e-01 -2.441917183977873052e-01
-6.435307375880697234e-02 -2.568695698935120203e-02 -8.203462045149482185e-01 8.773612163021791144e-01 1.223490200906899444e-01 -4.639698410582404620e-01
4.723415152336063461e-02 -2.373381783038155390e-01 -9.127714392010481959e-01 1.545454493148315511e-01 -5.965952219559360614e-01 7.875213300193363297e-01
2.209429795305887720e-02 6.191432351158548258e-02 -7.579892853708493083e-01 -7.334250759258557073e-01 -4.771092034822408956e-01 4.842049834065059177e-01
-4.136348221842919143e-02 1.494849577206500413e-01 -7.059970990286327241e-01 -7.227756747408763394e-01 8.243848816802845647e-02 -6.861481033067428070e-01
7.558568010570118623e-02 -1.573867671413758940e-01 -8.516276264196429580e-01 -7.888939586597583098e-01 -3.885216414295259435e-01 4.761273528490486684e-01
-7.568937289796363876e-02 5.299703631834723873e-04 -9.099046643023422920e-01 -9.361006933068069524e-02 -5.246252105272301014e-01 8.461711076367265383e-01
-4.057822404232447853e-03 -2.049130367480552772e-01 -8.622888282832520401e-01 8.702725021026777030e-01 4.147679642993920557e-01 -2.656940117407299851e-01
-4.285791022610881129e-02 -9.917503763642493420e-02 -9.200741763735442724e-01 -4.152971374207010125e-01 -3.886985172722578485e-01 8.224607895337745500e-01
-6.133094276737485750e-02 -5.025418000089719450e-02 -8.196567446549503089e-01 8.609125574048961393e-01 2.138066188565063419e-01 -4.616452081801674656e-01
-2.760854977417244449e-03 -1.007775572347810039e-01 -7.936334643844782377e-01 3.949801734155217181e-01 4.531576646605710024e-01 -7.991487931343084217e-01
6.485741362014556255e-02 -5.787599256928838490e-03 -6.888951006641356178e-01 -1.329356475092199619e-01 -5.282365012523339287e-02 -9.897160075540615276e-01
9.265974671168153778e-03 -1.208952382056976277e-01 -8.789374865794105096e-01 -1.192184839583168565e-01 -7.150039162391718106e-01 6.888805069424797090e-01
4.595689179942701041e-02 -1.084056525290012091e-01 -7.587104568062530419e-01 7.600480909500414439e-01 4.841950562330133989e-01 -4.334536272344559071e-01
-8.047972048379080368e-02 8.548564576094851153e-02 -8.116080710185039626e-01 8.284592358669088386e-01 -7.460631927917669992e-02 -5.550578272850777983e-01
-2.113958325803362917e-02 1.241426356786798496e-01 -7.786495784803185716e-01 -3.531059211652766705e-01 -6.328499589690336213e-01 6.890697627025249572e-01
-1.218884091567574157e-01 1.900304761416877486e-01 -6.737217342039631962e-01 8.949460986833948084e-01 1.340275370135098898e-01 4.255679731528955734e-01
4.035047094714573623e-02 1.739985670463002274e-02 -7.613824370143154052e-01 -6.690601627363408355e-01 -7.316029604476337322e-01 1.308266291833551087e-01
-3.241418176528582801e-02 5.352042773025535508e-03 -8.699197662347352145e-01 -7.604640525873469503e-01 -3.258246283611446192e-01 5.617230067175019714e-01
-3.261760367917937442e-02 -1.601909141042723583e-01 -8.806787930326451797e-01 6.899739719121650294e-01 6.514958701457421730e-01 -3.154188473550578742e-01
-1.061376796327712230e-01 1.539658078253583993e-02 -8.678711200216029376e-01 9.459026972602248007e-01 6.599596987536814063e-02 -3.176674665055284619e-01
5.258102603736881236e-02 -1.179781025590255911e-01 -8.471299705288215520e-01 -4.835859163509673708e-01 -6.206901848444995595e-01 6.171615314848263312e-01
-1.262649871335375790e-02 -1.282778505287318349e-01 -8.985142048754953814e-01 -9.431906886152180425e-01 1.950031850272089251e-01 2.690075886267801475e-01
5.796689161882403801e-04 -2.298700378506517150e-01 -9.457941498577570050e-01 5.972137540484591112e-01 7.777873764038907567e-02 7.983020731192007613e-01
8.539106096577726845e-02 -9.404710373399040313e-02 -7.219719795173976662e-01 5.959321082806426917e-01 6.181301919017667679e-01 -5.126207059607260641e-01
-2.459941150282710445e-02 -1.913859770526898652e-01 -9.025437108298621780e-01 9.604501268361713695e-01 1.397107455505814666e-01 -2.408660653518537031e-01
-6.794065484042252634e-02 -1.012591171299873603e-02 -8.212156502795212587e-01 8.454487420056511215e-01 2.230507780771059656e-01 -4.852471278021743828e-01
-8.823852295220607767e-02 2.059501299932290155e-02 -8.315676997220057265e-01 8.310404956405952337e-01 2.571606902644088533e-01 -4.931937489346016057e-01
-7.327478430707591583e-02 -2.127312345652240116e-02 -8.356836388002608640e-01 8.655349839540676937e-01 1.899737871318024907e-01 -4.634211386573043878e-01
5.781621504620411411e-02 -2.051206984062948699e-02 -6.946448462453748141e-01 5.023299503395290966e-01 3.666578547433420598e-01 -7.830878868600232856e-01
4.370470866435537810e-02 -6.791246524996977230e-02 -7.379928204468486630e-01 5.718503382933758372e-01 4.303048886407145890e-01 -6.984446244375095425e-01
-1.032588867951778761e-01 -8.083080463564613211e-03 -8.933506939341948616e-01 8.536446229897989291e-01 4.728735712494033239e-01 -2.183608097952554616e-01
-5.629555048111395399e-02 -7.378441411465395949e-02 -8.369057804559444369e-01 7.960480663473403773e-01 4.168821693596621580e-01 -4.387672879040121487e-01
-4.228215848948872063e-02 -1.556255099008150289e-01 -8.924853898205121761e-01 6.864117751526239708e-01 6.730335712135937509e-01 -2.754354496997439283e-01
-5.688900062746823916e-02 -6.908928808715657233e-02 -9.139499364543943738e-01 -8.367065901262457084e-01 3.923496940763293583e-01 3.820782637072167032e-01
-4.583155453760500569e-02 5.814128665954316350e-02 -7.500874957587891911e-01 7.174979138183814609e-01 1.079117133371251813e-01 -6.881510050787665866e-01
-5.754958144857755947e-02 -6.502717137823237070e-02 -9.176908333071364110e-01 -6.672391099499774825e-01 2.574859777229252522e-01 6.989227006108981177e-01
-3.116200819673037997e-02 3.712227401819370026e-02 -8.361007463411254115e-01 -4.548288778710299352e-01 -7.861291279367390583e-01 4.184873786197164658e-01
-1.417948611911668856e-02 1.319571447012075904e-01 -7.562588058002801539e-01 -7.931602673447338825e-01 -5.944265441764776670e-01 1.324910332212728414e-01
-7.887941365908210378e-02 -3.435341906875000184e-02 -9.204973719747167049e-01 -1.025776206798228174e-01 -1.656799478240357504e-01 9.808302537262457710e-01
-6.760290502816125591e-02 9.140234634043256645e-02 -8.463440860038504709e-01 -2.565856576480545770e-01 -7.833032496848356674e-01 5.662153471273022598e-01
6.561255094557731649e-02 -5.319150289277821408e-02 -7.866331138671496248e-01 -1.178150331702942644e-01 -2.690586217378330633e-04 9.930355207979927323e-01
-4.318923322491913935e-02 1.717857846302509595e-01 -7.112500152714011925e-01 -8.415487094543145918e-01 -4.683940884870859134e-01 -2.690775863689311986e-01
4.434075638753916943e-02 -2.117931051473867232e-01 -8.363078755150694654e-01 4.535479584834996025e-01 3.897393311488035472e-01 -8.014970387413373754e-01
5.763922097954195245e-02 -1.740500989794315778e-01 -7.942749415037865246e-01 4.045818912872494733e-01 3.881875953168779092e-01 -8.280240842418365999e-01
-8.038139856169393416e-02 1.969699326203996625e-01 -7.081280960120327483e-01 8.665342165260485341e-03 -8.785435429172766542e-01 4.775836628733423628e-01
-4.553826152084233803e-02 9.038463325006401705e-02 -7.366878755774837195e-01 4.178562930232190276e-01 4.476958875812748762e-01 -7.905469692710915819e-01
-1.057985272610287714e-01 4.352926069773294104e-02 -8.918993355257370803e-01 5.118319118499043974e-01 -4.650567209932765511e-01 7.223228781307243773e-01
-5.985053212992397231e-02 9.811432412998732921e-02 -7.734035798416236673e-01 9.737542895745071592e-01 -3.989763720508084782e-02 -2.240775804954585060e-01
-2.904578485290956746e-02 -1.443573027246154994e-01 -8.472106932959805325e-01 7.080916329089638195e-01 5.110247418018549759e-01 -4.872986278152904860e-01
9.156325325868418241e-02 -1.920554355364264554e-01 -8.264633443590315709e-01 -9.720003481274469559e-01 -7.878446897554275408e-02 -2.213782525189945949e-01
-2.325914483799738919e-02 -1.502681569543934670e-01 -8.426340994360043135e-01 8.549621801381009911e-01 3.666300153298133191e-01 -3.669088475258756032e-01
5.453073984592752416e-02 -1.276651224364248605e-01 -8.536415720314916022e-01 -4.608705342989191656e-01 -5.511925504526616892e-01 6.955466360644112500e-01
-1.360784507767179947e-03 -2.433899538957927378e-01 -9.260284950962992534e-01 9.243847985069983952e-01 3.565837650741660592e-01 -1.355018921443827129e-01
-7.270999915447735884e-02 1.552933209147075166e-01 -7.478700981265083980e-01 6.799789808941082425e-01 -2.234991215565745037e-01 6.983385484173484370e-01
-5.433013057569480164e-02 -7.357004415678657615e-03 -7.960788404208580804e-01 8.509958060138380631e-01 2.067003989883847426e-01 -4.827847172445510204e-01
-6.069232109923650836e-02 1.060410262498647227e-01 -7.601235326865606323e-01 9.689769582108457291e-01 2.147509043875436840e-01 1.223343922255270833e-01
-3.914908429717467442e-02 -4.558694951178630245e-02 -8.729625250465363751e-01 -9.412674171374423304e-01 1.562868774136724204e-01 2.993159891881688184e-01
5.320205371785916709e-02 -7.860868513191018869e-02 -7.366364734004233750e-01 5.634411726606720627e-01 3.941952749834966019e-01 -7.260469200619560359e-01
-1.196902402685324357e-02 1.771305070559658996e-05 -8.429584907694230855e-01 -8.110498825280987312e-01 -2.796008368974297609e-01 5.138301860122798104e-01
-2.366642357273181577e-02 -1.588768929769238392e-01 -9.287806190513029359e-01 2.329718763386643132e-01 -4.010745908320725306e-01 8.859250969603060799e-01
5.822091881360329235e-02 3.482051117798215523e-02 -7.077990064011809856e-01 -6.587458072312002422e-01 -6.524574451742710668e-01 -3.746374830312333981e-01
4.709635111694302628e-02 -1.930710019025156515e-02 -7.011581741006364110e-01 4.986603771692291742e-01 2.735807433558747337e-01 -8.224909756989978726e-01
4.502967328746174114e-02 -2.493848985841449206e-01 -8.630684025312961305e-01 5.733299197116369372e-01 7.290171008113135453e-01 -3.739343122636849537e-01
2.877044854282641631e-02 -4.087427880396786103e-03 -7.087358388055206015e-01 5.647048445205271605e-01 2.254542587305431722e-01 -7.939010113328416329e-01
-3.213617276016795393e-02 1.907910485358083746e-02 -8.597589794584520329e-01 -7.449873329483222006e-01 -4.267555228744525087e-01 5.127120024367467499e-01
8.354109848128550564e-02 -2.153957440805999157e-01 -8.229654245321891270e-01 -6.617179526241875331e-01 5.583241325620564854e-01 -5.004033514812628036e-01
4.462542871088907848e-02 -2.158778119311120236e-01 -9.095628843440667355e-01 -9.393374846810081946e-01 2.148672825317652912e-01 -2.673520913899329887e-01
-3.471646781305460366e-02 1.049798844101896243e-02 -8.698333001450621049e-01 -7.515742010284939267e-01 -3.531674944470196698e-01 5.571435553018588838e-01
-1.226881246750546606e-01 1.809164990334525824e-01 -6.660914272795225299e-01 8.894440908838708859e-01 3.153849851500604706e-01 3.307892385396792312e-01
5.710284708319084829e-02 -3.243317098545890533e-03 -7.676662934870518429e-01 -6.082937505430678904e-01 -5.727060554791970626e-01 5.495329717748579368e-01
-6.296232392185062421e-02 1.435753258589357040e-01 -7.595304282955583908e-01 5.945630776945243223e-01 -1.830737870325856165e-01 7.829295850483379837e-01
1.053050023441260696e-01 -1.534498816461435933e-01 -7.961506735838772553e-01 -9.771210499538890426e-01 -8.215182359566722270e-02 1.961772963849690299e-01
-4.719063274473044240e-04 -2.454041648045733881e-01 -9.246828860744494838e-01 9.388982332750437365e-01 3.114982770512805255e-01 -1.464203911587633744e-01
3.370045529129278572e-02 -1.214352078982292304e-01 -8.637305593039629192e-01 -5.629775120598610183e-01 -5.453146689150862869e-01 6.210380284498842052e-01
-4.255190113611111852e-02 1.736800446535300135e-01 -7.209104164049099372e-01 -7.786655291840656190e-01 -6.237855580994018379e-01 -6.761339487939393988e-02
-8.021526872637685379e-02 -1.412938171824958296e-02 -8.451695043326039603e-01 8.500417113466720576e-01 2.796117759738648290e-01 -4.463701868489455271e-01
-3.294285361597974748e-02 -1.524879590073048574e-01 -8.666000957076532840e-01 6.867066067974588739e-01 6.387078228947230540e-01 -3.471114419805309548e-01
3.826474589446018232e-02 -1.485084690769737092e-01 -7.934451355550217189e-01 4.744858033687185395e-01 3.228862915413941437e-01 -8.189063836215879633e-01
-1.485177604563232660e-03 -5.232649663304285437e-02 -8.524966422356301532e-01 -6.316630359479199486e-01 -4.871633661433277807e-01 6.030536159455132106e-01
-8.634756725451471493e-02 9.510174989524697309e-02 -8.281903620283904699e-01 7.370892735623851832e-01 -6.320559662427208680e-01 -2.391749534049419368e-01
4.449377471333585896e-03 -2.620127412387324162e-01 -9.296664217822241394e-01 9.097167378853968644e-01 3.679559151453081212e-01 -1.924159591113253631e-01
4.194553079744273161e-02 -4.388826473513455367e-02 -7.950090431112173395e-01 -5.537402261462940345e-01 -8.266731522588871561e-01 -9.991627135659900127e-02
1.789714919795586806e-02 -6.563283454750640233e-02 -7.541192125027406101e-01 4.619527123082504128e-01 3.439775137298600738e-01 -8.174834320273866028e-01
-4.366464216178909258e-02 1.188333501341920923e-01 -7.191086294238933085e-01 -6.318520897677677717e-02 5.535471765060949734e-01 -8.304174569147079188e-01
-8.340714099128077041e-02 -1.404984463851131037e-02 -9.166942143175657032e-01 5.880007670481235404e-02 -2.268712513842996159e-01 9.721481298006133809e-01
3.814975235601108378e-02 -1.067969039338094311e-01 -8.389732468089617923e-01 8.263722345210962328e-02 -7.900795526612931496e-01 6.074087501564797709e-01
1.851344717669210424e-02 -1.861600066756097793e-01 -9.079657262447374810e-01 -7.375831608829199748e-01 -4.065195745268590510e-01 5.391780005790870467e-01
-1.641202059709395353e-02 -9.039111644236023924e-02 -8.955550063683554995e-01 -6.232539043959147707e-01 -4.206611515990867911e-01 6.592410531744652413e-01
9.418341543679348282e-03 8.646609173676571281e-02 -7.820247180394241937e-01 -7.866284561505482165e-01 -4.235275465155976526e-01 4.492661675629308626e-01
-4.764666238380471652e-02 1.157030044219810039e-01 -7.216207297863531656e-01 1.777748930328500176e-01 6.022170099021747491e-01 -7.782870681128156720e-01
5.606510385353417197e-02 -1.944194866687561640e-01 -8.821502631999359467e-01 -1.855054880357194860e-02 -6.125432762579663404e-01 7.902193441382228123e-01
4.569905015247705676e-02 -2.303588179086244470e-01 -8.422738611388534968e-01 2.811652211325030293e-01 3.091910474189284441e-01 -9.084861114081472788e-01
-6.632409590985090253e-02 1.313587938638023089e-01 -7.563047361617809550e-01 8.717843516883986288e-01 1.224153691487456092e-01 4.743485232900116477e-01
-5.309664460207745573e-02 4.554398710859967891e-02 -7.658552209802166333e-01 9.380623967107183381e-01 4.731202459530904625e-02 -3.432207922111309983e-01
-8.963833107310902049e-02 8.070641785942911373e-03 -9.075561516305461485e-01 -4.755655064834978241e-01 -2.485511379995571646e-01 8.438363471919297920e-01
5.687713339793638856e-02 -4.857783655528395000e-02 -7.064785751295293847e-01 4.041313248846101214e-01 3.926635275557357474e-01 -8.261314824980923177e-01
1.589509910131106304e-02 7.252127751337848760e-02 -7.672181802602147105e-01 -9.467247369665602319e-01 -2.644144369112489401e-01 -1.838403600097233415e-01
-8.044634765012019517e-02 9.652303061396261263e-02 -8.402979103469458977e-01 8.973844073533693289e-02 -9.121380285310635161e-01 3.999390318059177218e-01
-4.768966943224803301e-02 1.043207546468213898e-01 -7.294520230797433280e-01 3.268676060480547041e-01 5.002468191822057042e-01 -8.018171163142500113e-01
2.181440646860993357e-02 -2.433212433080591819e-01 -9.509272449283325823e-01 -9.011819029987437613e-02 -1.954755565945556078e-02 9.957392253219794487e-01
-2.988300419266640140e-02 -1.287901803931219835e-01 -8.317908287141277945e-01 6.711881433236618344e-01 5.498847831212313464e-01 -4.971249355579057672e-01
2.491839215275384878e-02 -2.164153589349487059e-04 -8.070460726820337660e-01 -6.046014256750704696e-01 -3.854686647755576900e-01 6.970444925166692229e-01
7.190346720774122569e-02 -2.049146788417069084e-02 -6.904656364314100125e-01 -1.132584168452125256e-01 1.293668320385784332e-01 -9.851074833651495277e-01
-7.042527883683416534e-02 1.530083826266962210e-01 -6.834780919305021296e-01 -1.769810271159908133e-01 7.293408657846746079e-01 -6.608627826844467590e-01
-4.555674929377592774e-02 1.600034121769392248e-01 -7.006655066153943956e-01 -7.753638182833698655e-01 -1.189484304457179807e-02 -6.314027732010514260e-01
-7.805915024258659740e-02 6.928110266557513386e-02 -8.765002886093935519e-01 -2.944121901848066325e-01 -6.341237709128094702e-01 7.149884652453519784e-01
-9.663749724470525881e-02 6.917432199085318811e-02 -8.378600718657901458e-01 8.743550199674269274e-01 9.418074002986642768e-02 -4.760601718955150830e-01
-4.564000440637833167e-02 5.380461263334478106e-02 -8.561929609533923680e-01 -8.726280410576287005e-01 2.449488094047121978e-01 4.225167247945807447e-01
6.606756494189704870e-03 -1.862230591387947776e-01 -9.327719878023137401e-01 -6.698252506462778477e-01 -1.414204744352428288e-02 7.423840893302846577e-01
-6.818842411717986832e-04 -2.475548736214392975e-01 -9.310536772105855174e-01 9.447177351888751407e-01 3.065062257945320168e-01 -1.164574358673335225e-01
-6.243940640464252937e-04 -1.119659268739729291e-01 -8.742950785212244558e-01 -8.575614270585844023e-01 1.912179601618828884e-01 4.775186808207327882e-01
-1.932626450210150632e-03 -3.898632575270571249e-02 -8.403780131505347306e-01 -3.506151997588611846e-01 -8.053584717559831851e-01 4.779819177217074500e-01
-7.758946221264131915e-02 -5.554088915572021751e-02 -8.591970589099000577e-01 9.165410518394522255e-01 1.906633807694791405e-01 -3.515678818188366361e-01
-3.165785674733483882e-03 -1.740147948314287596e-01 -9.318197518693517312e-01 -2.970644573379015441e-01 -4.190398862731519736e-01 8.579966677666772679e-01
2.467717124704286655e-02 -2.727787264391786162e-02 -7.245839901921108384e-01 6.548740748722355898e-01 5.510195891810817370e-01 -5.172208023648560138e-01
3.995329577528937415e-02 -4.150398316984234975e-02 -7.934556390457295771e-01 -5.806632692385016448e-01 -4.581534679739083793e-01 6.729974498768447333e-01
8.583986162308594736e-02 -9.661042672076194937e-02 -8.052954049620728583e-01 -7.686509381988965162e-01 -3.619611852162460397e-01 5.274086040280407950e-01
-1.725435648828605589e-02 9.786012921710857126e-03 -8.452541279736862645e-01 -7.820667538857409840e-01 -3.338244378881407570e-01 5.262440851309276857e-01
2.554750157172710340e-02 -2.223299510568695347e-01 -8.527302562255186791e-01 6.103392353652652425e-01 5.797528111015805008e-01 -5.397894921110992783e-01
5.883882814147319701e-02 -3.344203522318784511e-02 -7.889426225422686567e-01 -4.634132524010587395e-01 -2.575594637163934886e-01 8.478863603981352526e-01
8.821741408674145524e-02 -1.516874155858236872e-01 -8.243440233815640950e-01 -2.815475473996607580e-01 -3.526940745851544351e-02 9.588988723795439650e-01
-3.863679091170857394e-02 3.882474410935078668e-02 -8.400624462177527230e-01 -3.851313175763359520e-01 -8.398091139300345453e-01 3.826153687215997357e-01
6.342570050227773482e-02 -2.504732388325234954e-02 -7.805459235197785839e-01 -5.916828021246894886e-01 -4.756059285657115998e-01 6.509304589455181533e-01
5.840852811896622698e-02 -1.013754412667494526e-01 -8.321757004069794128e-01 -3.781791404753701014e-01 -1.875523947067704589e-01 9.065344102399345294e-01
-5.714709734602436281e-02 -1.630456749975260286e-02 -8.046613189243837505e-01 8.551714854527936449e-01 1.745348439797851092e-01 -4.880771647039171546e-01
3.934341610916065185e-03 1.037105079104078398e-01 -7.688064873443797298e-01 -8.942703852913728158e-01 -4.438506351858516608e-01 5.724588750238444185e-02
7.735133362674766200e-02 -2.322752558537480583e-01 -8.664317508749889152e-01 -9.048010375112337522e-01 1.956234568933518381e-01 3.782413854031442813e-01
-7.884499141330039707e-02 -6.378017534017495216e-02 -8.677301997926205601e-01 8.467026317778459932e-01 3.451110083557712427e-01 -4.049605477724122493e-01
2.491892399912548975e-02 -1.785416328913818906e-01 -8.264461876791220352e-01 4.645494058734795928e-01 5.665262846616635484e-01 -6.806187025714537375e-01
-2.301139803182173857e-02 9.734195187986924291e-02 -7.901740861520243353e-01 -9.354973564200479152e-02 -4.581173467390965426e-01 8.839552836982431661e-01
7.317123980415156208e-03 -1.615691240334742318e-01 -8.233257279465225897e-01 3.725527578096956005e-01 4.957212196333097842e-01 -7.845157200806457398e-01
1.211889899834043931e-02 -1.266553363011264054e-02 -7.236321071364307800e-01 6.821141869049505146e-01 6.184143750184883936e-01 -3.902356938998413072e-01
1.026673295892946564e-01 -1.238136191838005995e-01 -7.432897361573251871e-01 -7.028568848286165238e-01 4.158395368408983050e-01 -5.771218927132811816e-01
-4.797828367204545752e-02 -1.905133120803035457e-02 -7.888010706241731507e-01 8.990397427116735285e-01 1.643854268424317089e-01 -4.058386039631512454e-01
-4.057430387372525787e-02 -5.826848124914283528e-02 -7.955210169975828194e-01 8.704038148537872610e-01 3.321648533067916298e-01 -3.634057089750403202e-01
-1.099780217667903348e-01 3.212039151617877841e-02 -8.926417101643976393e-01 9.297177296735705809e-01 -1.457686515065648725e-01 3.381958653924959646e-01
9.564680550245323321e-02 -4.611718729925499971e-02 -7.584999240490521988e-01 -8.539205695200881019e-01 -3.812582961677927762e-01 3.542058335963991222e-01
-2.772299800331762959e-02 1.205373194323407920e-01 -7.239216828903113354e-01 -5.212254467296446592e-01 2.086596571886641105e-01 -8.275174808687678629e-01
-5.309159361529302949e-03 1.169570275118043401e-01 -7.699864531915753263e-01 -7.460292796535447080e-01 -6.156443062987785320e-01 2.538156851368900124e-01
3.950086301529348587e-03 -2.321288235724827120e-01 -8.821425684234402986e-01 7.865885401482287653e-01 5.003567000124978792e-01 -3.618309567464919607e-01
8.602706897891912452e-02 -2.222696399219100394e-01 -8.391450625201547497e-01 -8.382431555215915653e-01 5.104419273967026882e-01 -1.918266169663226384e-01
-4.560403745725925828e-02 -2.511230199466115212e-02 -8.991512654070614730e-01 -6.822842421270595148e-01 -2.511287473874581067e-01 6.866021884473645365e-01
-1.102195506961271554e-01 4.886470732440260922e-02 -8.805426558116922209e-01 9.497285668738514319e-01 -2.221286788755718611e-01 2.206229799561538751e-01
-1.002719977640034177e-01 8.075756789829666160e-02 -8.477391539869533199e-01 9.069455489517339597e-01 -3.811404392723313772e-01 -1.793926887805972759e-01
-9.543366305624313706e-02 8.231502374204796579e-02 -8.351918635072591579e-01 8.869948705539444367e-01 -1.796241404144821863e-01 -4.254118801718517751e-01
-8.403579798300304937e-02 1.259001822032488303e-02 -8.330715219622272238e-01 6.708857219463970623e-01 5.230804676087296157e-01 -5.256416769004287337e-01
-4.930714403159853695e-03 8.878641444268281502e-03 -7.287364806193779021e-01 5.994891809915428027e-01 1.216481120978808450e-01 -7.910843562459763945e-01
-9.629535840089042953e-02 -2.791044765701350752e-02 -9.029488650035065733e-01 9.349613911683691825e-01 3.000364663754033212e-01 -1.892757667253508191e-01
-9.045674426062978724e-02 -4.129987313595512299e-02 -8.953073938275981636e-01 9.450224047660232829e-01 2.106487176851465637e-01 -2.501195158875978430e-01
-3.522851570367878382e-02 -9.315936381517685161e-02 -8.143716229275143048e-01 8.495924676223501892e-01 3.584958615391320436e-01 -3.868764094884585281e-01
3.949227118655020824e-02 -1.313482660055924622e-01 -7.846003866879598387e-01 5.754391469871302789e-01 3.972291821103618448e-01 -7.148977304444719127e-01
-3.636850435600114811e-02 -1.161544884417708146e-01 -8.269285409979565404e-01 7.253165868577751141e-01 3.309706350271516273e-01 -6.036342332726928328e-01
-4.939419421390716519e-02 -7.813499616520476476e-02 -8.284119991943775796e-01 7.989773497460652685e-01 3.850416913939986308e-01 -4.619286638445405102e-01
1.081321748652045583e-02 -1.796329716743330918e-01 -9.271021093877150898e-01 -6.214878356418128691e-01 -3.566127095537774960e-01 6.975530413767602189e-01
1.356218604797998148e-02 -9.339841133955996411e-02 -8.651187816240449857e-01 -8.613616767605080105e-01 1.076513991713858726e-01 4.964546686906763928e-01
5.943477726875979333e-02 -2.490151256215515363e-01 -8.512691851819649269e-01 -1.986420410044316132e-01 8.390125236104788442e-01 -5.065563391868362908e-01
-9.427747289061240432e-02 1.872533659701895170e-01 -7.119515067643606976e-01 5.773393362995018485e-01 -4.790684822056913705e-01 6.611903508963102860e-01
-4.470931074483040779e-02 -1.254662267240856943e-01 -8.462722838138225789e-01 6.344700004377178404e-01 5.856829834218493236e-01 -5.044038674263353617e-01
-1.072994824464643289e-02 -2.084628163914255261e-01 -8.888460766503272215e-01 7.898237886668497687e-01 5.435587903251597464e-01 -2.841165681831888112e-01
-5.353428868290798642e-02 1.310550618276513091e-01 -7.083831237463059649e-01 -4.728932642491824601e-02 6.992600915722551047e-01 -7.133015098404313914e-01
-7.375108130703175724e-02 7.350602641898783610e-03 -8.213129362540504408e-01 7.976254266814449823e-01 3.401573255580108146e-01 -4.980829976825794092e-01
-2.754076052958202153e-02 -1.601058236364185372e-01 -8.687430419613094701e-01 7.668788176119759603e-01 5.694712405896469321e-01 -2.959719331952719301e-01
-3.791274492206770513e-02 4.965133357422302912e-02 -8.324295181988409231e-01 -8.122300283158272460e-01 4.331327542306708800e-01 3.907408326686935829e-01
-1.042024968750780017e-01 2.170338285256193656e-01 -6.529332139110229916e-01 -1.659176745399437436e-01 -9.568446383252098286e-01 -2.385784218733027484e-01
-4.956336275771438399e-02 -5.233710660534367579e-03 -8.953667852801463489e-01 -6.602434704390075515e-01 -2.814768961593894225e-01 6.963112211296985654e-01
-1.015785863802187855e-01 1.604343283613721693e-01 -6.932296532009560863e-01 7.812306693650513667e-01 5.936275053339343799e-01 1.930933094502335634e-01
4.734390528712578011e-02 -7.779663602126947464e-02 -7.407475959342667560e-01 5.627855790632231292e-01 3.917732925278274436e-01 -7.278640527326363241e-01
3.796706026448269655e-02 5.673060971305445011e-02 -7.169944181477788669e-01 -5.637052192040792331e-01 -7.700442796245288157e-01 -2.987778995501867985e-01
-5.311293911334140361e-02 4.284081862462733176e-02 -8.621785286014312932e-01 -8.787429123264022257e-01 3.557744506858571132e-01 3.181751628824748823e-01
-7.948848998997308513e-02 -5.891746501945906850e-02 -8.662657199703596156e-01 9.251029809756550204e-01 1.923633886958784900e-01 -3.273847908492318881e-01
-3.997530602360317015e-02 1.089504000837170361e-01 -7.836616374904684656e-01 -1.569451350499861952e-01 -8.571246842076688521e-01 4.906174684069513070e-01
6.110135743863681634e-02 3.315514172168997770e-02 -7.269827799005356139e-01 -7.566349615717490318e-01 -6.182074916569304524e-01 2.128920669883315464e-01
-1.263025104553883171e-01 1.903183091437169183e-01 -6.634226804299161451e-01 9.269552706473358494e-01 1.809520696620545988e-01 3.286491665958454766e-01
-6.387995675780432092e-02 3.229866111213137297e-03 -8.075980958714048530e-01 8.251907553930554196e-01 2.685629284794401328e-01 -4.969247132719263882e-01
-1.016745631100691438e-01 1.253984114745927518e-02 -8.585434508120045605e-01 8.244810852367017162e-01 3.283495715212345623e-01 -4.608877292451299401e-01
-8.658893593165428726e-02 1.495720896101357389e-01 -6.911277688894507110e-01 3.655982873362170760e-01 8.759448642707374777e-01 -3.147355827588359523e-01
-3.935071160126150241e-02 -1.230687529669231665e-02 -8.871319900090256505e-01 -7.412043252908820934e-01 -2.651593958906379167e-01 6.166900704089539609e-01
2.603916869385435040e-02 1.100745274275244205e-02 -7.982217882898368089e-01 -8.967469295591585787e-01 -2.354387413812152885e-01 3.747179517758003064e-01
-4.605244409053384919e-02 -1.978338830741506807e-02 -8.976111906487548309e-01 -6.918173956036498540e-01 -2.600062672674880448e-01 6.736359789395238717e-01
-5.718494118557403832e-02 1.302864146390685374e-01 -7.664420887490613898e-01 6.264672435565666886e-01 -1.134320604882402966e-01 7.711497652233512135e-01
4.443012557746098268e-02 -2.776445633455655870e-01 -9.213056729970149350e-01 -6.448284415948938308e-01 7.555345366300024734e-01 1.156020971677761550e-01
5.208733280541852362e-02 3.662977015638727019e-02 -7.399666133188433914e-01 -7.123211543186837025e-01 -5.244563312822814183e-01 4.664162622465346519e-01
4.829408565107772694e-02 -8.784622064826785870e-02 -7.448718994579915931e-01 5.468866214562424499e-01 3.515914465090795860e-01 -7.598016043769778571e-01
1.079678247676251791e-02 -2.307570073564371715e-01 -9.501065427346111480e-01 1.130350210144214218e-01 -7.673098165026688566e-02 9.906237633326063774e-01
-6.952416416516028763e-02 7.122376349599245093e-02 -7.958926725520576451e-01 8.506939789835952226e-01 6.242443332118827876e-02 -5.219415142001901931e-01
4.143234658807104509e-02 -1.078326179843172167e-01 -7.667289934928966932e-01 6.717547593141585116e-01 4.915106197660177867e-01 -5.542227476349216309e-01
2.573818243288794258e-02 -2.638195113652390678e-01 -8.968316888046500290e-01 4.678777172956797847e-01 6.520982211925453464e-01 -5.965386421479353940e-01
-6.219912445449923138e-02 -8.881065220631292889e-02 -8.625957180353114317e-01 8.348982513923350890e-01 3.907851419588377340e-01 -3.875975782254479918e-01
6.842571923579743309e-02 -1.143406611619498386e-01 -7.441086764335480552e-01 3.851495530684283519e-01 3.619599366942602425e-01 -8.489080197521267079e-01
-8.532850398650697332e-02 8.546454747189255463e-02 -8.188443086838289586e-01 8.301555797508667345e-01 -1.241525386320859875e-01 -5.435327594172324472e-01
-7.839170285299743371e-03 -6.720636703588191152e-02 -7.748358375588797475e-01 5.210129479276185416e-01 5.708330692975515097e-01 -6.345826306227657643e-01
1.000110689880241190e-02 -3.213696790504658174e-02 -7.427714356217633984e-01 5.621946687427274991e-01 4.303849067978448018e-01 -7.061911826395637082e-01
8.002515960427752928e-02 -1.843920284481796734e-01 -7.887216697318958358e-01 2.963169827517831423e-01 5.515274101333182966e-01 -7.797523719774847040e-01
-5.199923263049123501e-02 -3.039257632194505843e-02 -9.069072813668632715e-01 -6.056979501053212367e-01 -2.628562481343915680e-01 7.510236920729751464e-01
2.122575563326636536e-02 -2.872282879991121529e-01 -9.478251292145297713e-01 -3.040892909455001902e-01 3.584870009139112246e-01 8.826192686022737988e-01
-6.197959347227315757e-02 1.183112791006880604e-01 -7.274272002054147368e-01 5.949283347557056123e-01 6.253281099361219786e-01 -5.050000311173460377e-01
-2.667406113110068391e-03 -2.136452452259665624e-01 -9.424634813529663147e-01 4.894089789960960890e-01 -2.864176013112652019e-01 8.236770052254097640e-01
3.253793351117428151e-02 -1.642257837192822867e-01 -8.903738699603083173e-01 -7.949928041069004303e-01 6.056622209785200717e-01 3.405459583689094544e-02
-9.821659788411306671e-03 -4.096733675014063020e-02 -8.497154226351013584e-01 -2.220621393352043005e-01 -8.570274744524664090e-01 4.649648527657754271e-01
-1.009117137242624210e-02 1.169397784747770452e-01 -7.776660105905456311e-01 -5.970754622333475092e-01 -6.021499692955361027e-01 5.300153836222297743e-01
7.143080911761033602e-02 -2.776715156124584527e-02 -6.919683674218979341e-01 9.598340019171622967e-03 2.444093682023233127e-01 -9.696246348994116415e-01
4.552210905056088691e-02 -8.228257486888498895e-02 -8.313921037085678645e-01 -2.487698712021416958e-01 -3.926914137144870698e-01 8.853852295904801606e-01
-1.699596095300625123e-02 -1.147427133175219910e-01 -9.097888487439316219e-01 -6.767062997025957705e-01 -3.438000272210230412e-01 6.510530894064204821e-01
-9.743133969165453101e-02 -2.130893992075524185e-02 -8.966246889619408078e-01 8.912936078572565313e-01 3.920221181114699194e-01 -2.278472372099168974e-01
4.542596886561416775e-02 -2.708798146894546011e-01 -8.956838591688812690e-01 -8.203790305035875419e-02 8.746750665648443945e-01 -4.777167679628640529e-01
8.162499604732895153e-02 -2.286027392294864291e-01 -8.392924579551336306e-01 -6.850950580819364921e-01 6.444609542986788897e-01 -3.395803877966809270e-01
5.298052614944258332e-02 -1.581346661521093599e-02 -7.825495212963073932e-01 -5.319856876724605721e-01 -4.996644875705094635e-01 6.836129226196353548e-01
1.562217650739832105e-02 7.045838837978880831e-02 -7.612832806996261414e-01 -8.856053177096894213e-01 -4.485155293561085554e-01 1.205696527768480020e-01
2.041661193847696398e-02 -2.498665812431918321e-01 -8.851173768156552768e-01 4.268382290327559780e-01 6.633295301649783093e-01 -6.146568641504701613e-01
2.693973867672683903e-02 3.479306853682305554e-03 -7.891521379750493503e-01 -9.943339030886492180e-01 -1.224451992490889658e-02 -1.055943222919748098e-01
-3.830377787543386148e-02 -7.472170219520594958e-02 -8.042476516504936113e-01 8.942058024103561875e-01 2.963729523196639293e-01 -3.354982206643988829e-01
6.239941025480048864e-02 2.393346126315433128e-02 -7.390202881444242200e-01 -6.890073475713354156e-01 -5.327589010569873107e-01 4.913622170428495473e-01
-6.455338996057562173e-02 1.922938536590248770e-01 -6.890492905216027975e-01 -7.773870954116907095e-01 -5.722579776705511989e-01 -2.611323627584019591e-01
4.059404599860524931e-02 -2.381693126776353864e-01 -9.180382011996011116e-01 -9.753234168729998377e-01 2.206062554844381018e-01 8.781374625412601692e-03
3.775792400824224543e-02 -1.588981836925007496e-01 -8.667749673675274602e-01 -7.800866429280040037e-01 1.727547702663543017e-01 6.013489992305098841e-01
-5.647877694423829309e-02 5.683403801144825546e-02 -7.727310918537847462e-01 9.380563035346877188e-01 8.591090708043268298e-02 -3.356630564173771480e-01
5.479569098263246951e-02 -9.274032791674889642e-02 -8.311645553288906640e-01 -4.101798163503410088e-01 -3.123007303529611867e-01 8.568668345080275861e-01
-4.662360303075243489e-02 4.784984329071897968e-02 -8.510812173670670999e-01 -8.318326247059706358e-01 4.710715409709856361e-01 2.935065378522202506e-01
-4.820262272540030285e-02 -7.064528491566300639e-02 -8.200647472978535024e-01 7.811596424494289259e-01 4.099228020773733605e-01 -4.709064762193393427e-01
6.817396072429381115e-02 -2.201203390846775132e-01 -8.969490319784180210e-01 -6.674280043424487552e-01 -4.615924915350584912e-01 5.843562533060746578e-01
2.716029931009223720e-03 4.373543217975503494e-02 -8.007990470738577393e-01 -1.575586364092096125e-01 -1.022932965286367790e-01 9.821972091073027933e-01
-1.145085895777130242e-01 2.172024844078786487e-01 -6.569176428324329242e-01 2.583726404188189107e-01 -9.640715318124224442e-01 -6.172244512215024903e-02
1.748102343509571124e-02 -1.438019893106286251e-01 -8.931672862436963456e-01 -4.779303691579346869e-01 -5.698941244302102582e-01 6.684334291284991236e-01
3.658007742564593767e-02 -2.520813457383599965e-01 -9.278075792589790538e-01 -9.993464417136396216e-01 -1.655203931410001092e-02 3.213595227827723694e-02
-3.592468561909251904e-03 -1.334794637786627935e-01 -8.977520202344945188e-01 -1.003398579381875599e-01 -8.254329074272339639e-01 5.555109614086546355e-01
-5.014218265876555641e-02 -4.673089621231757418e-02 -9.105010183302589821e-01 -6.537459614365628280e-01 -1.994628102170765138e-01 7.299526047940995133e-01
-2.157463410796034778e-02 -1.640989204502559806e-01 -8.587497617729563659e-01 8.443911365923342238e-01 4.812587144330484623e-01 -2.353585737264645705e-01
1.030286202781432459e-01 -1.611184175606762969e-01 -7.773765797348271001e-01 -8.659332928516064731e-01 2.965179016124514511e-01 -4.027861297941160434e-01
-7.278348021044896143e-02 5.201135054271852770e-02 -8.034568936034579556e-01 8.478030044921675001e-01 5.249573155200795010e-02 -5.277066076361689451e-01
-1.279607558741016268e-02 -1.757121551808554782e-01 -8.370735533965426578e-01 5.084858348952876472e-01 4.786956737846492227e-01 -7.157461893791002838e-01
-6.995774200775912999e-02 -5.490371671776012041e-02 -9.225247003914183175e-01 -1.908376567745967423e-02 -7.162853346538623767e-02 9.972487969815584385e-01
9.515903905849916466e-02 -3.418433012307113550e-02 -7.449425808378860037e-01 -9.029609555773222551e-01 -3.870690024519525818e-01 1.866523507586756447e-01
9.821863408053291278e-02 -1.038107549256722106e-01 -7.822999961568581906e-01 -8.785101837903118716e-01 -1.616852905095819415e-01 4.495305593722688231e-01
6.273978169599300769e-02 7.348692787770584860e-04 -7.541439366129325528e-01 -5.966703355556070010e-01 -7.391581199041238337e-01 3.124576522470847162e-01
2.233335716045418973e-02 -7.988374897060833424e-02 -8.453027922747743395e-01 -9.400390023159626018e-01 -1.675907233982588396e-01 2.970522236167541519e-01
1.096822060381946306e-03 -1.766461849240451298e-02 -8.222980484961146530e-01 -8.933094710728470833e-01 3.400784248183327252e-01 2.938449486797961030e-01
-2.039096386402868694e-02 -1.644027394198261660e-01 -8.544889033097350373e-01 8.788900969641182392e-01 4.337330336797058372e-01 -1.985644805935899426e-01
-1.104300560020931854e-01 1.666215616529344579e-01 -6.722039347844704915e-01 5.836091267371346092e-01 8.104785952623233536e-01 -5.024772443335389499e-02
-9.259752072491550523e-02 -2.367126559977809908e-02 -8.835002916833994968e-01 8.970470695540939676e-01 3.440122574687545787e-01 -2.774204781836844269e-01
5.569869625066603547e-02 -1.645035817361368835e-01 -7.905111606857844198e-01 4.875831950019268168e-01 4.000588462139524348e-01 -7.760254812296271121e-01
-8.162424863483798421e-02 -6.557768125017306160e-02 -8.768452117763639864e-01 9.442628677065779685e-01 1.681309844471924608e-01 -2.830187427351200102e-01
-1.100872748364419562e-01 1.773677540785867646e-01 -6.932013890732521277e-01 8.769032329947656912e-01 2.068639393977785845e-01 4.338755933907320617e-01
3.489408024313323670e-02 -8.621058860658949163e-02 -8.313399622782010612e-01 2.352172315325141705e-01 -2.217805776247886440e-01 9.463013417398259408e-01
-2.126884125496185038e-02 1.351197139360718613e-01 -7.295587178075716439e-01 -8.256544798062219748e-01 -1.637576086104744755e-01 -5.398871415380214200e-01
-6.726753921557740434e-02 1.279948000300827338e-01 -7.185244510115770256e-01 4.623112603565120993e-01 7.836644488785113882e-01 -4.148955653071171312e-01
-8.697803713183183127e-02 7.653771944768897328e-02 -8.213103404894100956e-01 8.235841664836707210e-01 5.131758064577584405e-02 -5.648677957133525496e-01
-3.014881298243917915e-02 -6.083366617482550108e-03 -7.591754892150773815e-01 5.192287135787536645e-01 3.337949246438502438e-01 -7.867544034051279223e-01
7.412847873530016563e-02 -1.552244967733786285e-01 -8.522776384872534639e-01 -7.888939586597583098e-01 -3.885216414295259435e-01 4.761273528490486684e-01
-8.276323194323947918e-02 8.661583835553746114e-02 -8.573428641481497525e-01 -6.399041534175094192e-02 -8.029109519050403598e-01 5.926543934329112640e-01
5.903730040341457347e-02 -2.333791335230845157e-02 -7.830684795608519044e-01 -5.673636598627190830e-01 -4.852326407724222856e-01 6.653177900794493560e-01
8.394022730917606590e-02 -8.308885492571042863e-02 -7.972395510247064498e-01 -8.020011071006282188e-01 -4.351911056405937672e-01 4.091490263714242515e-01
-5.703783658575361376e-02 6.306773972548100626e-02 -7.729041162305027024e-01 9.384209708244717341e-01 2.252719205347894146e-02 -3.447587665818548919e-01
-4.300120516032047979e-02 -3.184506011093354849e-02 -8.987805306883031031e-01 -7.545630251068523586e-01 -1.798366613313150675e-01 6.311049170960418842e-01
4.795878099524358146e-02 -4.672760817179408277e-02 -7.912017257836775341e-01 -4.857507554004107941e-01 -5.469390984623936358e-01 6.818385631519197076e-01
8.121117430396690429e-02 -1.552301072383652780e-01 -8.361154877436085542e-01 -8.375784247685230666e-01 -5.459331935119541290e-01 2.047756294383517098e-02
-3.625740368171467831e-02 6.736604703804040251e-02 -7.412508205267245298e-01 4.742908735171780243e-01 1.788638994012764771e-01 -8.620068867412151725e-01
-2.194554306041515690e-02 8.974584690479267546e-02 -7.298829445152676954e-01 2.444870794270371725e-03 -1.953674244102776916e-02 -9.998061503619549706e-01
-2.498752978952212614e-02 4.472858232736441619e-02 -7.389724121022915870e-01 5.396834089303789161e-01 9.594429476350357922e-02 -8.363829926699964945e-01
-2.771632896866193293e-03 4.454610073914231499e-02 -7.225682031745350731e-01 6.210459737941039782e-01 1.068492047111030407e-01 -7.764567894524060376e-01
-8.448582830426960844e-02 2.334027330466093009e-02 -8.239282912516461277e-01 8.281663475396845442e-01 2.453598908162876180e-01 -5.039236299097296090e-01
3.603450182502842408e-02 -2.047956123429850728e-01 -9.275032368601779931e-01 -6.764471607237840800e-01 -5.422233987032902824e-01 4.984104981311929805e-01
-5.799221351084353493e-02 -1.272264955669370479e-01 -9.055603083465558756e-01 9.240046782229123234e-01 3.464465476792927823e-01 -1.618336931027413161e-01
-4.618960430710210979e-02 9.931929367057562574e-02 -8.157758614093970628e-01 -5.026571476004308980e-01 -7.488254283055764127e-01 4.319679037719917347e-01
2.485567007007536203e-02 -1.293294059287413700e-01 -8.769763287837754051e-01 -4.698887881820605350e-01 -5.158415123315560624e-01 7.163184074811198565e-01
-2.857847994967240360e-02 -1.810090252058890736e-01 -9.301897969201129435e-01 6.839572168797140028e-01 1.420916828583470015e-01 7.155504728114144841e-01
-8.795212294044727971e-03 1.223907152865811310e-01 -7.473008126074921487e-01 -8.788019087255611872e-01 -3.918315427326619083e-01 -2.723513307109998727e-01
4.215212407335418993e-02 -1.991489753232933702e-01 -8.842627859165103077e-01 -5.758374640477579298e-01 -5.410218871950899233e-01 6.129490456595152459e-01
7.467752055538669220e-02 -2.132626247096461314e-01 -8.670009019809974404e-01 1.134962795696368596e-03 -2.834687855578554849e-01 9.589807920254747042e-01
3.533944184742061206e-02 -1.737958237594871835e-01 -8.727547403172517537e-01 -7.068008686189690692e-01 -5.757850045287780105e-01 4.109795136977828500e-01
-8.713233178034295034e-02 8.862978587115942497e-02 -8.224745821296723935e-01 8.350820082932205457e-01 -1.632713249296610936e-01 -5.253384755380809956e-01
-4.282974326099391743e-02 1.163036957714185318e-02 -7.619343949644334923e-01 7.564333838183805447e-01 3.189118494918598001e-01 -5.710549606638192222e-01
-7.547249106746512469e-03 3.193623617143940413e-02 -8.113106112250749735e-01 -8.055670302871619226e-01 -3.640972992124222318e-01 4.674343979860089981e-01
-1.017983634183046299e-01 7.354489742912706518e-02 -8.474960797862267636e-01 9.203577577222852302e-01 -6.075169853953268223e-02 -3.863299482630995763e-01
1.051411700224312270e-03 5.227795391610828846e-02 -7.187164765930947885e-01 6.098564812306702665e-01 5.047594622724019958e-02 -7.909028076530073559e-01
-6.984689284605918869e-02 -6.508067519963746383e-02 -8.519612175064062987e-01 6.906042908402220126e-01 5.697561222233838985e-01 -4.454701725840317650e-01
7.782773211547073036e-03 -2.604929269997433572e-01 -9.138175113153271800e-01 8.856935943106778453e-01 4.056267119033396540e-01 -2.258624085312064267e-01
-1.085328064916449842e-01 1.769499713173290079e-01 -6.449491906382162076e-01 -9.771592528096501029e-02 7.809339409998194981e-01 -6.169228296480647744e-01
-2.339853020703316216e-02 -1.350015068348687508e-01 -9.242364620678658049e-01 -5.789846575247149518e-01 -4.094897178244728451e-04 8.153383338646353895e-01
9.547984291331084936e-03 -2.285760831545415733e-02 -8.145938091307454165e-01 1.251457723231939601e-01 -2.696823141943964219e-01 9.547826899773509401e-01
1.450283325137694326e-02 1.622845054398192738e-02 -7.139186879236052441e-01 6.302611858678537349e-01 2.182622793265462657e-01 -7.450720871242108023e-01
8.806286041472841108e-02 -1.930340065286550721e-01 -8.497712569721682652e-01 -8.859294194063610517e-01 -1.307882513299291061e-01 4.449983113949615987e-01
2.966274185613489503e-02 -1.083971770828053988e-01 -8.539834838064983558e-01 -7.874162042920308524e-01 -5.949621010523024056e-01 1.612321913569394749e-01
-9.671871480865526505e-03 -1.991944277054893686e-01 -8.701693095045169857e-01 8.131624299837734160e-01 5.055844395138199276e-01 -2.883595619784114494e-01
-1.250003128505130789e-01 1.918862772293355445e-01 -6.414670101034189997e-01 7.563406188775072536e-01 8.816060136652625889e-02 -6.482102873317283631e-01
-1.382928421505116162e-02 1.200007215320937765e-01 -7.778628409862864412e-01 -4.919229915260263097e-01 -6.282958053308087543e-01 6.027073513835679019e-01
1.085858707683572538e-01 -1.242159851140439558e-01 -7.556560800586059612e-01 -9.386916150092079469e-01 1.741674330046940056e-01 -2.975294223971141627e-01
5.494522352202910881e-02 -2.609545681823208230e-01 -8.769524884022462663e-01 -1.075416942206459600e-02 9.017537148980653283e-01 -4.321164027291489185e-01
6.690670622033120796e-02 -9.501469734588412208e-02 -8.249703668564194459e-01 -5.679722111979976784e-01 -3.841982753008501006e-01 7.278731019640094502e-01
1.317791233032625242e-02 -1.706422571079830308e-01 -9.189270321961243715e-01 -5.344997719132760228e-01 -5.324322364187389356e-01 6.563732988527155587e-01
-8.991835339258674731e-02 2.102897021817749790e-01 -6.819258761387314571e-01 -2.362276491135851531e-01 -9.219352926455812725e-01 3.069720084450293651e-01
5.384928726500438217e-02 2.658329750589251764e-02 -7.448256816077281073e-01 -4.885718151229562767e-01 -1.635154154291823536e-01 8.570649277531323662e-01
-3.468116401917097080e-02 5.872398385347125938e-02 -8.361706009929842365e-01 -8.739333400219660986e-01 1.701244542233560364e-01 4.553001068232421789e-01
-2.650426861046959598e-02 2.245491278574904964e-02 -7.430342763181851939e-01 5.976712248832598551e-01 1.246318888370265276e-01 -7.919949489936530806e-01
