8.564545404792425765e-02 -1.019224180397951124e-01 -8.417405414427325816e-01 -2.848179107430954260e-01 -1.505694035604377146e-01 9.466824242751061824e-01
6.666767698017642130e-02 -1.843434338248537210e-02 -8.152746317805241727e-01 -4.000706234088473590e-01 -4.851554030968855957e-01 7.775395366996810109e-01
9.108525965334178520e-02 -1.525273623871726929e-02 -8.035636163488265593e-01 -3.249045559121987448e-01 -3.888814876162218215e-01 8.620952488773448996e-01
-2.085216256541266161e-02 8.936193973130943102e-02 -7.653885861948519498e-01 -7.143788720135781610e-03 -7.698430502713241586e-01 6.381932655800010012e-01
-1.690941901254747540e-02 4.942314590665208840e-02 -7.374884617679090537e-01 2.764469240156958163e-01 2.770051329000370322e-01 -9.202419543518395306e-01
2.039853063531339716e-02 1.344444585321544483e-01 -7.229789641519639432e-01 9.533157004583783234e-01 -2.808655189384404172e-01 -1.109222048599452504e-01
-6.881312666973210708e-03 -2.192910433951791860e-01 -9.035945355921426447e-01 -4.906454655960919564e-01 -1.112616858476001835e-01 8.642267435993541413e-01
-1.157074618802887422e-01 -9.899000718385851660e-02 -8.638144360377317810e-01 -1.463239221011888858e-01 -9.292075946284029941e-02 9.848629560917467884e-01
-8.299922028326547907e-02 -4.436976557619254358e-02 -7.747519680884347171e-01 3.709936709227473067e-02 3.883098583370270807e-01 -9.207817824433923715e-01
4.489966932955535839e-02 8.634641276142386579e-02 -7.663087441335120209e-01 -5.407387996912507155e-01 -3.468838391263893706e-01 7.663374926632537942e-01
1.021613209644757318e-02 -4.334460587967978173e-02 -8.510876524801027632e-01 -1.903909925869986530e-01 -3.948730830382911061e-01 8.987916990235125247e-01
-8.968422622961042326e-03 -1.283879656318104023e-01 -8.172311682521526954e-01 -1.691537828345489602e-01 1.201104307735086085e-01 -9.782435699620848357e-01
-9.105106285154694612e-02 1.351490850488445972e-02 -8.210441703877806585e-01 -2.618562267433171553e-01 3.443459914948004269e-02 9.644923923479992167e-01
-1.605075556584736537e-02 -1.389443671326787977e-01 -8.933471188651327388e-01 3.118452634304960669e-01 -3.854270337657307310e-01 8.684460451395439318e-01
8.509673952743644632e-02 -9.933766587918088642e-02 -8.414890992727527275e-01 -2.884078988911160102e-01 -1.552750579697934619e-01 9.448336045197001098e-01
-2.736076803661929846e-02 -1.909035342499281473e-01 -8.501080845095870808e-01 1.260236299063145771e-01 -2.232913987489321128e-01 -9.665707402720101760e-01
-6.811599881036770054e-02 -1.308562985930848410e-01 -8.220847860641458116e-01 5.401459190442009506e-01 1.934387169316589827e-02 -8.413490362315831916e-01
-1.054020868572167896e-01 -1.049850707912705211e-01 -8.631189213674350658e-01 -4.041023783805833269e-02 -2.512981092376163073e-01 9.670658059157456465e-01
-4.634095926763683732e-02 -2.305323977651148604e-01 -8.602036948502226332e-01 -7.082472295540570562e-01 9.586147970049825606e-02 -6.994257920170185994e-01
7.404551646739918058e-02 -1.518302583654310700e-01 -8.545018917524228597e-01 -5.928868025833052835e-01 -1.070377857581419762e-01 7.981404335970825326e-01
-8.509533055148110758e-02 -1.020635207678319556e-01 -8.000987043587415304e-01 2.061987454780870865e-01 3.919605714323194379e-01 -8.965762587787569071e-01
-1.195301001153080828e-01 -1.074264236997419381e-01 -8.650682081051510597e-01 -1.343417593205980531e-01 -4.745729256723232869e-02 9.897980082243217348e-01
1.184012852949624384e-01 -1.061588362411478442e-01 -8.002599067851728920e-01 -5.490727282452261271e-01 6.773156820300971770e-01 -4.896555993486116365e-01
-3.394481897032720907e-02 -5.427893299213343986e-02 -7.831901717891234238e-01 -1.620016824963389501e-01 1.387240881187079833e-01 -9.769908301739522738e-01
2.751113767522843714e-02 -1.970139031854601652e-01 -8.411804247119940570e-01 -8.909665245611300688e-02 3.519922613974236780e-01 -9.317527753848884320e-01
-1.337054514400801142e-01 -3.979800985987640149e-02 -8.329173670533892571e-01 4.529136010011626523e-02 -3.029689622766802981e-01 9.519235791791653689e-01
4.958664195227235200e-02 8.355122729666621118e-02 -7.639679283844384994e-01 -5.862315982552817051e-01 -3.233083245704068132e-01 7.428352714233045218e-01
-9.915934707961267247e-02 -1.895145111626846124e-01 -8.889923859793957828e-01 5.609010315788105494e-01 7.908325004233782499e-03 8.278450888719780520e-01
-4.073844571710978635e-02 -2.247938846492037179e-01 -8.671492264503904979e-01 -7.542590920845951841e-01 1.475315931578479733e-01 -6.397871919849827949e-01
-1.809452250123274111e-02 -2.878363222217901196e-01 -9.199817881431122668e-01 7.818008968051859409e-02 -1.178700390152608024e-01 9.899467296173500852e-01
-7.975690520375990078e-02 -1.086601165016102544e-01 -8.020856892946718331e-01 1.450911621134385043e-01 4.315650435077251768e-01 -8.903371091326851561e-01
8.903484081451476517e-02 2.323630868745006350e-01 -7.399029163506077866e-01 -9.925235472547878635e-01 2.809240589518479866e-02 -1.187763649712890168e-01
-5.044092169424028993e-02 -1.131008804845676924e-01 -8.089217586571816332e-01 -3.879041817409178416e-01 7.941808422603168216e-01 -4.677682498573442205e-01
1.770622457077995412e-02 -2.293915500783342276e-01 -8.923068981591475435e-01 -3.251569872300564268e-01 5.077034579572471673e-02 9.442961959275570916e-01
-3.778726103154113336e-02 -2.864071134696554166e-01 -8.968698739337397363e-01 6.488359345346612628e-01 7.603767377506739367e-01 2.896802969094944280e-02
6.093246866547950141e-02 -6.161847897140934616e-02 -7.702348421824940505e-01 3.030249528510146617e-01 5.234068156848941111e-01 -7.963800495016430947e-01
-6.978536679859156933e-02 -4.861579959223601144e-02 -8.423725363363604446e-01 -2.225621146380996895e-01 -1.131294761523145842e-01 9.683324980363512413e-01
-8.338357374378906062e-02 -1.017400010160360579e-01 -8.621610867528968214e-01 5.399567040290875752e-02 -4.226126964159542809e-01 9.047004898892102576e-01
-7.399994006281997161e-02 -2.024393169977392604e-01 -8.558643962163506869e-01 -5.802447780024119206e-01 7.410985425186417119e-01 -3.377705550779651622e-01
6.510923392095041562e-02 -4.743795737953551001e-02 -7.609734231137307292e-01 2.594731464327988402e-01 4.390539309754645791e-01 -8.601775002726210761e-01
5.180035524219282761e-02 -1.168533580103103264e-01 -8.042588684243519026e-01 -7.323581909932088893e-03 3.620426787034438654e-01 -9.321327501730873877e-01
-1.257526236288404875e-01 -7.747845510402956437e-02 -8.525480533215150647e-01 3.354383205527370349e-01 -3.807215374681651721e-01 8.617031066513777260e-01
-9.058112818778309150e-02 6.814170872209328322e-02 -7.732065688882797660e-01 6.174982635088948069e-01 -7.691204151959366575e-01 -1.647716040230522427e-01
2.800305848510472109e-02 1.277073715288631894e-01 -7.076211626170377800e-01 6.204906829168332916e-01 -1.445511338957910230e-01 -7.707764151184460788e-01
-1.272427981367162120e-01 -9.592716893926743482e-02 -8.211124544954881976e-01 1.406930049247775427e-01 7.913820394903736677e-01 -5.949117127249161641e-01
-2.109921254431329149e-02 -8.796213043311755519e-02 -8.072154881084310230e-01 -1.405888039571138448e-01 7.788804016087030879e-01 -6.112119993846436561e-01
2.110656397506585624e-02 -1.097198672397171892e-01 -8.722849030859115560e-01 -6.686299922068450474e-02 -1.807536606904587562e-01 9.812530017697846940e-01
1.222219067707477486e-01 4.060026892792341358e-02 -7.558514267816648369e-01 -4.532485650187901283e-01 -5.729142324965924571e-01 6.828872677911399514e-01
-1.255650072174437359e-01 -4.612304259141353918e-02 -8.367284574571888234e-01 1.582064304875761551e-01 -4.284721984805668349e-01 8.895967066494847586e-01
-5.935260973787817584e-02 -8.786005814861148899e-02 -7.914321931677370525e-01 -9.160699215005927570e-03 3.765328040573193147e-01 -9.263579918469017072e-01
1.316109141543697625e-01 -8.938954628691785087e-02 -8.049463769476010722e-01 -8.030120175879540412e-01 2.360310263993301363e-02 5.954952503211859982e-01
-1.977286007793914793e-02 1.304867181232688585e-02 -8.183169338348867949e-01 7.804933720315526680e-02 -4.646896870680245484e-01 8.820270946488942831e-01
-1.188016973987108676e-01 3.500883184624269118e-02 -7.779571465854530077e-01 8.459254198844012862e-01 -4.108134450758341716e-01 -3.400624903430601864e-01
1.178042994266284126e-03 -2.043048710428317094e-01 -8.972671951480402086e-01 -3.912226703772536118e-01 -1.028189225781791366e-01 9.145343576611830727e-01
1.597375304696565038e-02 -2.475236316519003887e-01 -8.613735631599646059e-01 -5.970503292172881782e-01 2.867327411548693528e-01 -7.492097433505134907e-01
1.049794627429075956e-02 1.071997856803464655e-01 -7.374282305115388292e-01 9.001893491757217980e-01 -4.171207106380213081e-01 -1.251776672870295593e-01
3.084161734081801789e-02 -9.688149952253491404e-02 -8.666787148249960326e-01 -5.509011366326386216e-01 -5.428396427327248919e-01 6.339030366977856934e-01
3.475089184603893239e-02 1.490312845531785446e-01 -7.062894007393367701e-01 5.491196086512284413e-01 -1.584221678904325914e-01 -8.205912941992605791e-01
4.765549641625812377e-02 2.346780395617395487e-01 -7.588387666220425265e-01 8.205361129251043106e-01 2.921494804211009159e-03 5.715872219126925113e-01
-2.111282551459766482e-02 -1.150425593843989180e-01 -8.196873068476241420e-01 7.238811922659165177e-01 -2.989609113100774596e-01 -6.217864528858144668e-01
-1.340847763316500296e-01 5.828501552397957926e-03 -8.070598567384771327e-01 8.775214568952695027e-01 -4.157996542106310867e-01 2.388864589019714102e-01
3.397525596798457725e-02 -2.305555713103197013e-01 -8.771782048085973171e-01 -7.443704403089130839e-01 6.546275084041772718e-01 1.318160568172705160e-01
8.204305719647898842e-02 2.048788659551308844e-01 -7.204179984172636164e-01 -8.334152846158877637e-01 -7.077180630325413668e-02 -5.480969939720464756e-01
-1.118660971657255560e-01 4.812846208366817341e-02 -7.812381799518783865e-01 7.851919737394483789e-01 -5.901923658104857306e-01 -1.874740934480579324e-01
1.358935973714289203e-01 8.475384891954550887e-03 -7.698964975545838918e-01 -4.633587820779297983e-01 -4.735306323799972072e-01 7.490443106179084376e-01
1.065256247917462928e-01 -3.479339728451376346e-02 -8.056984475451375305e-01 -3.370612840690450640e-01 -2.810263425242037760e-01 8.985621211631366068e-01
8.494064732833876696e-02 2.205501585670194276e-01 -7.270072166918076784e-01 -8.591627211580069590e-01 -5.954344291840882319e-02 -5.082263245619915715e-01
2.220418463710808078e-03 -1.179033301087051150e-01 -8.131368561523255600e-01 6.756286360500817212e-01 7.359236548527562372e-01 -4.407176394549095627e-02
-3.530264370985877753e-02 4.729405492268138472e-03 -7.586931496434812239e-01 -1.889210243027768590e-02 3.274842549801381120e-01 -9.446677464621452414e-01
1.149693363603902924e-01 -5.788927183532120019e-02 -7.612179995152689171e-01 -3.536962958206776864e-01 3.120827195518121044e-01 -8.817614793581519672e-01
-9.993367734003208436e-03 6.470865555504901057e-02 -7.327107811068197529e-01 3.833495695855753671e-01 1.076152157876351240e-02 -9.235406310238136740e-01
-4.267500558940474226e-02 -1.652593865771364579e-01 -8.350934246136257899e-01 -7.088579233182187300e-01 5.985393758749800730e-01 -3.731903804711095840e-01
-4.282147576714927933e-02 -1.439656991124405039e-01 -8.182348938827957996e-01 -4.599340001147821377e-01 3.404001706313227738e-01 -8.201148940072859883e-01
7.428928377212454248e-02 -2.870801727464808960e-03 -7.509053371636313923e-01 2.514169354877219317e-03 3.227198039549795949e-02 -9.994759618088908670e-01
8.504881778526025837e-02 -1.387345050300970994e-01 -8.185691103778371946e-01 -2.901887815447480312e-01 4.858456468294697905e-01 -8.244661779129744961e-01
1.059393573242686099e-01 8.307911764267580934e-03 -7.896001666397901575e-01 -4.146640473081885103e-01 -5.297228225233462373e-01 7.398969246914678388e-01
-8.492914541631943481e-02 -2.020177054849934817e-01 -8.995624717219403710e-01 5.026938108833152175e-01 -3.223153279603532262e-01 8.021295168870296033e-01
-1.318673234155603446e-01 9.222537708581392615e-03 -7.902659108767634555e-01 9.456235311599956450e-01 -1.946886005385038143e-01 -2.605618662369058036e-01
3.100067105194549699e-02 8.662998287989157054e-02 -7.720520667726841202e-01 2.808950065233054016e-02 -6.098202983990071990e-01 7.920417814822955371e-01
-1.270386770499409845e-01 -1.328190863200924832e-01 -8.390000221682488712e-01 7.651569240676221462e-01 3.346477408414628707e-01 -5.500416085180103165e-01
1.117025642165445642e-01 3.900278872057565561e-03 -7.895222960815606594e-01 -4.231092916602089415e-01 -5.373453503796166153e-01 7.295467783056842626e-01
-1.280464887075739855e-01 -1.226731658841815308e-02 -7.890180563552419146e-01 5.915966543244438602e-01 3.514017924222504474e-01 -7.256239927638514775e-01
5.430440154202428871e-02 -1.526524414415695030e-01 -8.203776492592319558e-01 1.795629423235758221e-02 4.413487147573293967e-01 -8.971559972933884630e-01
-1.728242117513225555e-03 -3.279040373527269958e-02 -7.772738328514822159e-01 -7.600460378956012120e-01 4.733591788223065477e-01 -4.452652109741674358e-01
1.229733097204686529e-02 1.051169851119500703e-01 -7.212791142171431913e-01 9.326121352046224944e-01 -2.672434327829287803e-01 -2.425191804857323163e-01
-7.114491934616082357e-04 -7.240240260677623108e-02 -7.911405907627837575e-01 1.513572714311530176e-01 2.001738850190677710e-01 -9.679986529646046334e-01
7.800920408335582090e-02 -3.968829388357411614e-02 -7.545367380798841950e-01 1.968400148272481942e-01 3.561959038368434083e-01 -9.134432038461193226e-01
4.779846256898560852e-02 1.157093270929528128e-01 -7.017441135208939418e-01 -4.763533200638853105e-02 9.870140425794830807e-02 -9.939763115598631016e-01
-1.147992150315483850e-01 1.594372648322736272e-02 -7.673143614286870307e-01 5.387652133835628687e-01 9.708578133112294450e-02 -8.368431130809940166e-01
-2.094181076199237365e-02 7.327825298921188113e-02 -7.349730613519562805e-01 2.329298596583866399e-01 -8.424643413331127373e-02 -9.688375605927682654e-01
7.991568090593513529e-02 2.490619804885918775e-01 -7.279659127750411907e-01 -5.651036118006249609e-01 -2.880492658051987953e-01 -7.731012407175237300e-01
-2.760722647526148762e-03 -2.481263960897970577e-01 -9.060086462183605249e-01 -5.231404416036484761e-01 -1.806245260944844000e-01 8.328858618873792308e-01
3.358289476810329827e-02 -1.161105129409981951e-01 -8.725640355136747850e-01 -7.648024565810591924e-02 -1.154193402877480845e-01 9.903681880551377104e-01
1.053933322756015964e-02 -2.416413973617595190e-01 -8.564665213337294691e-01 -3.805662591433548458e-01 9.204299420556394384e-02 -9.201616214662006188e-01
8.029522579676748317e-02 2.655965244152330706e-02 -7.898361456181060003e-01 -4.025977318369534097e-01 -5.941968068380818480e-01 6.963082801914447506e-01
8.525737889355955446e-02 -1.166015451749270043e-01 -8.439374103998049659e-01 -3.567561265366290812e-01 -1.031192584784042382e-01 9.284888177621983818e-01
-1.294199555921687894e-01 -8.496496456319957424e-02 -8.118546109131539179e-01 7.249517377794859607e-01 3.314673391458644591e-01 -6.037999511179706902e-01
-1.014541911309550654e-01 1.818507896198745186e-02 -8.185951800202643236e-01 1.709030596236466026e-01 -5.040779228710889903e-01 8.465799382723668831e-01
-3.842940293423965925e-02 -6.743623894005065789e-02 -7.859430772294351275e-01 -1.587860669589970242e-01 3.058375042514459019e-01 -9.387493839853848776e-01
5.884817176131375283e-02 6.084877018023364392e-02 -7.215336973994217473e-01 1.100884167979727657e-01 6.194296160375554160e-03 -9.939024958123372500e-01
-3.516769429872360769e-02 -2.483370996213312420e-01 -8.763084352822047007e-01 -3.522031729178404791e-01 2.472351810901956826e-01 -9.026780656568008654e-01
-1.705153448812738240e-02 -1.446019141570040467e-01 -8.207055266621057221e-01 -9.094594339727754551e-02 2.916658301156859201e-01 -9.521868928537648991e-01
4.077004312656125340e-03 9.826232406250548501e-02 -7.367484752533494108e-01 5.178088806479446138e-01 -6.528429679254339479e-01 -5.528743278109715664e-01
5.752455170288456147e-03 -2.391481923516439179e-01 -8.990257090116768879e-01 -5.115703063939130990e-01 -1.474087355977722336e-01 8.465025022322756332e-01
6.489468164529146876e-02 2.406657446542571355e-01 -7.211670783271837415e-01 6.214374890668789703e-02 -3.647646089246870948e-01 -9.290236458496857752e-01
8.511434886843423364e-02 2.591025810425051090e-01 -7.390885617379289174e-01 -7.602408819671231388e-01 -4.923030607261186797e-01 -4.238767483426594262e-01
5.002494389217131132e-02 2.433734424080306047e-01 -7.621565487787088644e-01 8.169706807241664537e-01 -1.285857073207384224e-02 5.765358306261807453e-01
4.001863942362969551e-02 1.591343492185606778e-01 -7.498671475927236596e-01 4.595051548799520824e-01 -7.199719330907761519e-03 8.881459208262497684e-01
2.264551231450012692e-02 9.804584976498519067e-02 -7.631018381045396870e-01 2.056752949485409210e-01 -5.414184820703478174e-01 8.152077651252294110e-01
-1.106568275626884784e-01 -1.698169218077878739e-01 -8.574097015684555290e-01 -7.846348808361600091e-02 8.682711354058095798e-01 -4.898456047152598414e-01
1.789793550158667521e-02 -2.164106572599293066e-01 -8.473209329706836712e-01 -8.091351864141323180e-02 4.406544697562832513e-01 -8.940227294565135097e-01
1.394320058068004298e-01 -3.015754535186878846e-02 -7.905002265589120558e-01 -6.443122597293464704e-01 -2.928468148542858196e-01 7.064718359511317214e-01
-3.138613004480583606e-03 -1.717432636524643952e-01 -8.312137789874759486e-01 -1.371118760147198579e-01 2.828640176797058148e-01 -9.493093705203897725e-01
-7.859995296759716976e-02 2.752004139387443857e-02 -7.537062030835577353e-01 2.523420806273491898e-02 4.441705422436424411e-01 -8.955868266932220934e-01
-1.253987933363414631e-01 -9.809922441289184447e-02 -8.232508329190711960e-01 2.891866591686765853e-01 7.190866681540877270e-01 -6.318903701132917439e-01
5.200831872512941267e-02 -2.006204603394999841e-01 -8.649726974626306131e-01 -8.902661917986345319e-01 4.239215208006654190e-01 1.664831881674768421e-01
-4.333449709373515119e-02 -2.564607957137192418e-02 -8.376571340366092411e-01 7.714830980342249345e-02 -2.934003817957877014e-01 9.528716357708215678e-01
-7.588754722996710056e-02 -1.996645209567460832e-01 -9.026512773100151543e-01 3.610433127931653718e-01 -5.111611571529223186e-01 7.799756391743412065e-01
3.537739174988985269e-02 3.204503630231641392e-02 -7.339820452677341400e-01 1.948545469778044659e-01 6.500594468112196322e-01 -7.344756096246938259e-01
-8.930704962004765157e-02 -1.277824278941968039e-01 -8.745728991474980285e-01 2.266399957097325890e-01 -4.731536630322198400e-01 8.513283288507936808e-01
-1.255556640580185179e-01 -7.182410486038375008e-02 -8.012907963370434761e-01 7.171777871148266037e-01 2.478434307147218407e-01 -6.513291453026167632e-01
5.894309154548089263e-02 -9.075181971840096118e-02 -8.487111298104056401e-01 -3.301049522323677987e-01 -2.873206435357694710e-01 8.991538068149728113e-01
-4.839664996285942405e-02 -1.107672699296111535e-01 -8.729846550884098333e-01 -6.717858038515427122e-02 -2.258558393061098069e-01 9.718416425471630982e-01
-1.384651487195916464e-01 -8.189272814573109183e-02 -8.242081841765968031e-01 9.071062499887915243e-01 1.755458230955357357e-01 -3.825466183682493249e-01
2.295175231312072267e-02 4.725628865262648109e-02 -7.190721759198680507e-01 -3.031911653744454038e-01 5.459134651605854760e-01 -7.810592844306044613e-01
2.281381928899530245e-02 -8.122864415202969701e-02 -8.592707489289171940e-01 -3.606238222518306502e-01 -4.402825618990517942e-01 8.222540510767263333e-01
-1.190192470406343239e-01 3.624855661565809517e-02 -7.799959670827085745e-01 8.459254198844012862e-01 -4.108134450758341716e-01 -3.400624903430601864e-01
7.808476162504567053e-02 2.182244179147234675e-01 -7.616772277814674030e-01 -6.719425794789724016e-01 2.739967628998880023e-01 6.880544628178263400e-01
2.775503032016379476e-02 3.370053715977412712e-02 -8.065341356614190715e-01 -3.867442418356021316e-01 -3.800938752397011733e-01 8.402127929353799818e-01
-8.112215510411188713e-02 -1.739455791853100619e-01 -8.353853015144777627e-01 3.417622439649420363e-01 4.016341350835944679e-01 -8.496402710180941398e-01
-1.984671372945772273e-03 -1.689029550416184799e-01 -8.945652409039517305e-01 -2.496727201508499028e-01 -3.932164558621329548e-02 9.675315710615687292e-01
8.935077243015741855e-02 1.849415886403553075e-02 -7.260738800497215095e-01 9.099309598080100592e-02 2.718127817812896474e-01 -9.580386569153386267e-01
4.090982510529923843e-02 1.313105321581500562e-01 -7.534007143173665488e-01 1.503886352318968833e-01 -2.438937779532475703e-01 9.580705002601738185e-01
6.995723812164464372e-02 2.265295512909011877e-01 -7.169133819014545939e-01 -2.415065623582460241e-01 -2.661658392295658815e-01 -9.331829008105129164e-01
-4.424978849761962429e-02 -2.803716124434346146e-01 -8.897955789406443161e-01 6.079765877969767196e-01 7.701422637881768507e-01 -1.929905754641075832e-01
1.570463850556083618e-02 -2.337207948810724467e-01 -8.931857485280464415e-01 -3.963324050728397885e-01 -2.570985203237136432e-02 9.177470393292760376e-01
-3.307009998529354677e-02 -1.394877721365736234e-01 -8.837299373014122494e-01 3.397189841153842593e-01 -3.522047011168729647e-01 8.720910848889498190e-01
8.133760462777953060e-02 -8.436629898199873856e-02 -7.781658381938928448e-01 2.096828812421584476e-01 5.348283777312053955e-01 -8.185302045052423869e-01
1.863077421691385765e-02 9.173167328260752040e-02 -7.665869944401525471e-01 1.554232531825341657e-01 -5.394456875981232802e-01 8.275517884108195554e-01
1.214836330906316972e-02 9.506292620022814555e-02 -7.151027537635693543e-01 8.021662903191344451e-01 -2.139872786924480741e-01 -5.574394022971812523e-01
5.462992804594150181e-02 1.546654219263248475e-01 -7.525586641240267216e-01 -1.542391988614139064e-01 1.263297273221521133e-01 9.799240121199702669e-01
-2.983994269073403371e-02 -1.578441655977826097e-01 -8.953417727555064154e-01 3.551684741741168994e-01 -3.943543713461467592e-01 8.475493995945103665e-01
1.871663051561077776e-02 -1.840131423389535989e-02 -7.635119390893874147e-01 4.373046918394832838e-01 2.957683449520219221e-01 -8.492854011576532747e-01
4.566703314127328051e-02 -1.979192535041665868e-01 -8.480411722057706880e-01 -5.830891648814614525e-01 5.197810931669805123e-01 -6.243673926335187030e-01
-7.381033314929265343e-02 -7.868609108022582566e-02 -7.890138323678119736e-01 1.184125217914086814e-01 2.895866902128788611e-01 -9.497989384783229738e-01
-4.439798712297898797e-02 -6.250866573979431406e-02 -8.472409829678275717e-01 1.588518117827671661e-01 -3.852117964632508218e-01 9.090533393365248793e-01
7.722690421216832357e-02 1.531495422748082591e-01 -7.149881805888632647e-01 -9.288895145295139599e-01 1.566225643389470568e-01 -3.356093594300016969e-01
4.799494821674250150e-02 2.344463520071480289e-01 -7.294038045236198586e-01 8.092961845082831118e-01 -2.538496754113728215e-01 -5.297169319871469773e-01
5.580103360082261377e-02 -1.451396762489459702e-01 -8.680056317295397061e-01 -6.926765900997535752e-01 -2.301944436589561382e-01 6.835273656821074795e-01
-1.893933394814161647e-02 -1.841176159779584487e-01 -8.480020716904026479e-01 7.280965650797592836e-01 5.167057382028372725e-01 -4.504337598663277209e-01
5.081213952837138059e-02 -1.507317412814775937e-01 -8.718354342335429275e-01 -2.286065189779298013e-01 8.558243095389935634e-03 9.734812869058725449e-01
7.309391156510487882e-03 -8.548131343942270977e-02 -8.681775498946087133e-01 -1.905573449449608214e-01 -3.589399395780205060e-01 9.137012739748445744e-01
-5.919274533801924948e-02 -9.399817340001212496e-02 -8.604663358722115518e-01 2.191948238829040663e-01 -5.405653444686103759e-01 8.122454909339141826e-01
-8.750542879848033362e-02 -1.365429172421850357e-01 -8.216740688258934444e-01 -2.326407492097085639e-01 7.437881132391540584e-01 -6.266239098624348802e-01
-4.272496314591761601e-02 4.037901656301417369e-02 -7.462068217380239954e-01 7.775936859561585757e-02 5.744645751692932789e-01 -8.148275476879599521e-01
2.339492229815432964e-02 -5.484807340909293033e-02 -8.488500827200362586e-01 -3.915292269764451549e-01 -2.873067898928829966e-01 8.741622692067383404e-01
3.119296741390399988e-02 1.731507621988390422e-01 -7.342521119488291115e-01 9.660625943859698639e-01 -2.134310215503345820e-01 1.455000438770708004e-01
-1.032100810506553917e-02 9.774698857690171383e-02 -7.514790668292035125e-01 2.948414562129388350e-01 -9.542112168673481110e-01 5.049226973278815589e-02
-5.723039653945393573e-02 -7.571434842294645640e-02 -8.510791806349977673e-01 1.403073664794646513e-01 -4.233919828893739634e-01 8.950156823970186748e-01
8.055400979679740170e-02 2.667305550408823889e-01 -7.579604285664706120e-01 -5.446165880391022895e-01 -7.488595816045214848e-01 3.776269310731791840e-01
7.596564524953863459e-03 -2.760019790888483260e-01 -8.991872760803447662e-01 -8.319516469924491675e-01 5.106400402145233608e-01 2.170327311634376588e-01
7.802327073870039820e-02 2.556977685004275247e-01 -7.707292219142398704e-01 -5.847724699511139823e-01 -2.405737509938905005e-01 7.747034456616306297e-01
1.149179794803793925e-01 -1.448960422828764888e-02 -7.971896864317773446e-01 -1.612313672202009274e-01 -2.001129929224432780e-01 9.664156643432093574e-01
-1.499067664954452025e-02 -7.490290927972058366e-02 -7.947425288811331701e-01 -4.457656953526777932e-01 6.155200798516636818e-01 -6.499445946741498892e-01
-1.066380033346904371e-01 -1.873270788422558564e-01 -8.797915058777349140e-01 9.214213015088087433e-01 2.115936170843061570e-01 3.259001784826036086e-01
-8.820478979330585723e-02 -2.042942780989803198e-01 -8.569707569695905747e-01 4.328292513548897547e-01 5.792547227733341186e-01 -6.907407656395803119e-01
7.268313161219022711e-02 2.681624010749322773e-01 -7.402268674069129029e-01 -1.929288478989077404e-01 -8.419677794790128011e-01 -5.038538656868483123e-01
-5.066730636533232218e-02 -1.755409849001987044e-01 -8.379691948052997441e-01 -7.379208046896491568e-01 6.552745723031820901e-01 -1.615181751353769735e-01
8.760006121776696408e-02 -1.548677400176895480e-01 -8.354160497355870296e-01 -7.764394495010459307e-01 6.269604525756112823e-01 -6.373674108940273475e-02
-7.961878112359102588e-02 -1.995130385832326048e-01 -8.494168868597385957e-01 1.363608091938326716e-01 6.308692049840963767e-01 -7.638126576057360229e-01
-3.966404626022735497e-02 -9.144559702326300610e-02 -7.953821349915215499e-01 -2.322949887357298737e-01 4.542871721430967735e-01 -8.600361640271270147e-01
-7.132923691838661227e-03 4.582373140565876302e-02 -7.303100056988416355e-01 7.249302092055006641e-01 4.003030357164465841e-02 -6.876581756783169963e-01
1.977286987626116627e-02 -2.534775157305690363e-01 -8.873521289298824666e-01 -8.298237740233639359e-01 2.156854099110193379e-01 5.146574666874429438e-01
5.054155304410374444e-02 -1.737872986711326562e-01 -8.705688259545203422e-01 -2.604636618000312764e-01 6.300237864007544875e-02 9.634258566010212022e-01
1.082213239321564357e-03 -2.343071627812734758e-01 -9.010232246588281146e-01 -4.958530226984455558e-01 -1.202713057637985611e-01 8.600375531863044820e-01
5.528115008804304620e-02 5.011882715212715583e-02 -7.833443723201453102e-01 -4.785943825298519805e-01 -5.767507055499974111e-01 6.620468568450800229e-01
-1.466458144356145264e-02 -1.545506672818732219e-01 -8.978759153496863599e-01 -1.408228110327218729e-01 -1.416321623662509244e-01 9.798516553419208686e-01
6.429394529658297164e-02 -1.378761639031387265e-01 -8.581122436176426005e-01 -5.275033208560094833e-01 -1.897776801138786329e-01 8.280849464979279650e-01
-4.047437279117174075e-02 -1.121057213301090982e-01 -8.132820160080298511e-01 -3.912554802696258660e-01 2.752064451544503076e-01 -8.781688685579983611e-01
-4.439241365741668915e-02 -4.451863303126680355e-02 -8.408789875279737425e-01 6.840896730194043207e-02 -2.500415254890276939e-01 9.658154320178373720e-01
-6.398662393477233534e-02 -2.349716802406610627e-01 -8.600218595687779688e-01 2.644105262074729068e-01 2.991291992607640893e-01 -9.168472041623408897e-01
1.248546283598089834e-01 -9.184999380866093466e-02 -7.891031549352548469e-01 -4.830600517289405094e-01 6.323447411909010052e-01 -6.056344728562316204e-01
5.116403218543764952e-02 -1.081003599483699451e-01 -8.577480564004668073e-01 -4.607364657931395935e-01 -2.954354641509086554e-01 8.369228134125537011e-01
5.578391263926069793e-02 -1.097027169761733952e-03 -7.492533072235492142e-01 -7.222064407946851561e-02 -4.214013667642160094e-02 -9.964980619397305617e-01
7.865728593372643684e-02 1.512906715691829107e-01 -7.305525668267220940e-01 -9.643069493169227346e-01 2.181327477494246214e-01 1.501006724114699320e-01
9.746905752992039706e-02 1.588460518853040612e-02 -7.262489739728453797e-01 3.583191936736722372e-02 2.417133772494020894e-01 -9.696858856419116046e-01
4.472401354733412243e-02 2.422175366702407351e-01 -7.465942981975932646e-01 9.837053433280399384e-01 -1.776309412436149204e-01 -2.776771904154429205e-02
-1.064258602837837575e-01 -4.497658571218925150e-02 -7.792842348923219031e-01 3.879813509487695655e-01 2.796102081225499969e-01 -8.782303814089056360e-01
4.193432861704829429e-02 -1.371176401412721735e-01 -8.733400037842349306e-01 -1.273966754391302747e-01 -2.769690742559673124e-02 9.914650616164519814e-01
-6.057948903345452413e-02 -2.134350712165795916e-01 -9.058565562139135885e-01 -1.472911730081387094e-01 -3.790362576172904424e-02 9.883666452830149884e-01
2.185375422418359137e-02 -1.458464898547386923e-01 -8.330633289396048857e-01 -2.620989021812522579e-01 1.278010269280511479e-01 -9.565411977492228601e-01
3.683023060085138800e-02 1.884543855943724561e-02 -8.083628266957756381e-01 -4.522599280795093768e-01 -3.811584977443888689e-01 8.063368756610090893e-01
-3.859354737724381840e-02 -2.519659895136231453e-01 -9.130679398055582263e-01 1.246967958493104128e-01 -1.563809960599957527e-01 9.797936992939887402e-01
3.259596367805179390e-02 -1.937998835654701768e-01 -8.404409572196945843e-01 -1.170548943863840424e-01 4.029764662761060046e-01 -9.076938466949164841e-01
5.776745813494781057e-02 -3.258196170357867405e-02 -7.564076549567996244e-01 1.993195754834487798e-01 3.396638361209762258e-01 -9.191845218783224469e-01
3.393321298638343753e-02 6.009590738482579325e-02 -7.909889488110669609e-01 -4.501379592707689947e-01 -4.859395357694971107e-01 7.491585848134378889e-01
8.221520321763603478e-02 3.593844156892384012e-02 -7.793675435481577374e-01 -4.257734641552931576e-01 -6.415094448605929145e-01 6.381086031200763342e-01
4.560092103013402287e-02 1.514724496429153966e-01 -7.518198434048111167e-01 1.580004644874366537e-01 1.397966401962722968e-02 9.873400742478004588e-01
-3.744447053714431567e-02 -1.971202494227232982e-01 -8.602542153041289330e-01 -1.672424117945660316e-02 2.674512188121369594e-01 -9.634262531781422334e-01
6.557060803319131326e-02 -1.779566247319828154e-01 -8.621660717696900678e-01 -7.658150094971770683e-01 3.623040724273104973e-01 5.312844156677517526e-01
1.430869295817005504e-01 -2.988122681528890615e-02 -7.545029575596974292e-01 -6.422703212609151002e-01 3.568061290944142261e-01 -6.783643716086958930e-01
8.620965454482497348e-02 2.099555544044648669e-01 -7.457393851591214151e-01 -9.278710140466138734e-01 1.822598192190524047e-01 3.253255901252568028e-01
1.885656813370610585e-02 7.663673073970964089e-02 -7.083860713789058572e-01 3.095402838821253999e-01 1.122910949339506193e-01 -9.442327693173476755e-01
3.860275143607490300e-02 2.075112386072838488e-01 -7.374420172164948273e-01 9.682633345684900084e-01 -2.348104027429599450e-01 -8.561652699098068475e-02
-6.319539981956297237e-02 8.169931408669968420e-02 -7.610458934971019440e-01 4.370048668940556547e-01 -8.393419996321617171e-01 -3.233137082840644161e-01
-1.389304157930664196e-01 -7.335354233066156138e-02 -8.214222716362894472e-01 9.159327880352782225e-01 1.623304043341530500e-01 -3.670367388023063615e-01
-7.810024980549254425e-02 -1.011392119496588721e-01 -7.983310029002456121e-01 1.391847065875895795e-01 4.094808730400645302e-01 -9.016390808225167586e-01
2.661697865287253502e-03 6.460188758711125911e-02 -7.890371762122742050e-01 3.380808857260117484e-02 -6.962446611018970888e-01 7.170079393104178411e-01
6.398039753443000854e-02 -7.727248923156043725e-02 -7.943979395611107108e-01 7.721704015740163962e-01 6.352002277265151875e-01 1.653909396567779244e-02
6.700172511766817884e-02 -1.625194582690425715e-02 -7.500685923260566046e-01 9.771216792972181597e-02 1.339549321482587652e-01 -9.861584093803739126e-01
1.908446014925025552e-02 8.774388160261181735e-02 -7.078939533213757240e-01 4.314277283338218694e-01 -5.040247297768432611e-02 -9.007384225969555791e-01
9.468369566307406268e-03 -4.786734916332565509e-02 -7.898954747027291390e-01 -1.758013864692586081e-01 -2.259368528253254960e-01 -9.581473848270283256e-01
-1.115005023623994590e-02 -5.990133080830234436e-02 -7.860456793217343030e-01 -6.249266197006605461e-01 4.599658196595168835e-01 -6.307916967862328139e-01
6.386266897551189092e-02 2.590654674493318432e-01 -7.722524225549078913e-01 2.812115072966666629e-01 -4.283283737192460361e-01 8.587519388222436545e-01
-9.020381277563880792e-03 -5.302479527469360077e-02 -8.525536893083375256e-01 3.328753216696032635e-01 -4.360885510657172559e-01 8.360746353363205374e-01
1.744265269352938616e-02 -2.416473950838564089e-01 -8.922940778649532945e-01 -5.773975387246820246e-01 2.673775823578072169e-02 8.160252291192988672e-01
-8.279405924725355415e-02 -1.865132933545278204e-01 -8.924475135170110152e-01 1.401430671756267732e-01 -4.203526876802851087e-01 8.964728320939616690e-01
-5.921919441437507176e-02 -9.553994676155194710e-02 -7.946190993865586139e-01 -1.111730596404856240e-02 3.875939250566364791e-01 -9.217631771595630186e-01
1.357745270543704863e-01 -7.830044081970266578e-02 -7.854999349867713976e-01 -5.368118886987590654e-01 5.650620350377077994e-01 -6.265284452526600489e-01
-2.618090645780871140e-02 4.272962891759884280e-02 -7.424640625440921404e-01 1.841316605564361497e-01 4.585064179335378576e-01 -8.694063470521049553e-01
1.506399643003915670e-02 5.900129441659535817e-02 -7.132802546727979864e-01 2.629740335450014288e-01 2.770100220407841207e-01 -9.241807752653355967e-01
7.424901457800169025e-02 1.379804968487977623e-01 -7.144357325286511129e-01 -9.246439685632296124e-01 2.142959302468523675e-01 -3.148186552275410444e-01
-1.291976017363089257e-01 -1.060901412368973062e-01 -8.321878299160196946e-01 7.812201636730462528e-01 2.129314107808659706e-01 -5.868179190971667403e-01
1.149684772635661606e-03 5.398192328786821648e-02 -7.986174681980022783e-01 -1.563382630961289432e-02 -6.256725931372605354e-01 7.799290927204965973e-01
6.574130943138266348e-02 6.696864428237071787e-02 -7.631595849678640686e-01 -4.354878865933744514e-01 -5.530507458196759485e-01 7.102711969232149425e-01
-4.412231736453467446e-02 -2.338955431366583071e-01 -9.096394841790392816e-01 1.208789406037863168e-01 -1.424236263758693610e-01 9.823969627235484836e-01
-2.074974285210581457e-02 -2.848649322477920243e-01 -8.900593135569745407e-01 6.387838491862418699e-01 6.144325351804974522e-01 -4.630635525826615195e-01
6.511833030044884840e-02 -1.586168077554478140e-01 -8.247831958102991301e-01 -1.736898128901938898e-01 5.187005845758835276e-01 -8.371269631655678944e-01
-7.241772308399175608e-03 3.205791987065914617e-02 -7.335729045681425031e-01 6.583877186365719725e-01 2.260012954236620408e-01 -7.179477880844515880e-01
-9.872472218953007306e-02 5.313587789874239797e-02 -7.972824166562607617e-01 1.740412774525390838e-01 -6.046389536574757750e-01 7.772524489911120105e-01
7.238103945217587432e-02 -9.759586652323984368e-02 -8.046265891082886590e-01 9.328492869028531809e-02 2.905779108915279019e-01 -9.522932320357861968e-01
1.013001924149607852e-01 -1.323936522604882426e-01 -8.239525690107563083e-01 -4.992366454971278178e-01 5.854364780150392855e-01 -6.387698349187455049e-01
-1.226072986791828384e-02 4.192062970904440050e-02 -7.360464209794705948e-01 6.850538516904635111e-01 1.451770114330824257e-01 -7.138801409448360946e-01
-3.172813171819008349e-02 -6.504586759032802978e-02 -7.873520652005471243e-01 -4.584126422761071185e-01 2.926285508380047085e-01 -8.391819711098940093e-01
-3.763544572542273925e-02 7.819331283289454940e-03 -8.196380623953865019e-01 6.079620603810589885e-02 -4.136057116684698776e-01 9.084239850458545318e-01
1.566284315761584667e-02 1.641468684103929501e-02 -7.441033751651923156e-01 -4.432871807266701714e-01 6.694195593383014398e-01 -5.961324760308858162e-01
-9.039787301598876945e-02 -1.749405645645249752e-01 -8.879186718047016313e-01 4.970733484252940620e-02 -2.614897477872890064e-01 9.639254601186715288e-01
-9.945939723072823313e-02 -1.168850686564362057e-01 -8.675267763108926999e-01 1.109730705486895036e-01 -3.888330380552144083e-01 9.146003750981889224e-01
7.644428076189498274e-03 4.000203176773732550e-02 -7.222048394664816184e-01 2.662389122201081482e-01 4.040642254544342116e-01 -8.751279582596830364e-01
-3.917530828636778262e-02 -9.611228543347280495e-02 -8.696672708814471298e-01 -1.901612494639910722e-02 -2.078216464980965628e-01 9.779818762322964876e-01
-4.320094765699450390e-02 -1.867394191494151090e-01 -8.530406632636110542e-01 -4.652291835474060555e-01 4.474010111114581911e-02 -8.840588951695347308e-01
-5.126724893434330028e-03 -2.040062551276166924e-01 -9.003509996045755415e-01 -4.755221224356170895e-01 -1.354167490127526907e-01 8.692186233400334139e-01
-7.594321766580530708e-02 -1.174447842514036305e-01 -8.063928854767598020e-01 2.207300485743049837e-02 5.410906933201508062e-01 -8.406745173126650705e-01
-1.820541542225673215e-02 1.797189502444649853e-02 -7.516324180973268376e-01 7.985408599720612566e-01 1.534908042410830231e-01 -5.820421530855871550e-01
-9.945765068826509236e-02 -1.531848164787177335e-01 -8.375883642083026270e-01 -3.049864590995507441e-01 7.633177963570046964e-01 -5.694990794817884616e-01
-1.791975837912588090e-02 -2.177947652457372651e-01 -9.087496229431566430e-01 -2.451743500136034370e-01 -1.819976055626960354e-01 9.522428312488638857e-01
1.949024465146903876e-02 3.861983056320861252e-02 -7.240454093538590818e-01 -2.521208239185787070e-01 5.831569989023440703e-01 -7.722454304026852290e-01
4.510304656422207265e-02 -1.856433057592939140e-01 -8.428167732704198167e-01 -6.087437279289523717e-01 5.372167453646155104e-03 -7.933487338642519759e-01
-2.971632668895929363e-02 -2.785189089540955343e-01 -8.887958587964861490e-01 -4.227760984126900379e-01 7.582421461889515824e-02 -9.030565093549633993e-01
-6.407759281382981870e-03 -1.438493436046158203e-01 -8.929669267220636808e-01 -6.647412498503696421e-01 -1.818148660190393451e-01 7.246119135384451182e-01
6.589255303924715368e-02 -5.095179363459392818e-02 -8.359315898172585690e-01 -4.006086740006162827e-01 -3.238527170219158147e-01 8.571068241432866497e-01
-4.053651650849800919e-02 -1.078681162385462522e-01 -8.091578736808416883e-01 -5.013105475536862032e-01 8.050484023384392174e-01 -3.171510756780585027e-01
5.825202334921278369e-02 8.489989837107138337e-02 -7.564811045800399203e-01 -5.916382535709789892e-01 -2.972378910577850308e-01 7.494089758142760127e-01
1.213200010489402653e-01 -5.169214786929694078e-02 -8.035042571757784469e-01 -4.259634974813968911e-01 -1.662448118417301779e-01 8.893355729695758827e-01
-8.149013624173011283e-02 -8.208406733714453118e-02 -7.914551587131258836e-01 1.973193538750090403e-01 3.177719380468529420e-01 -9.274082531314329358e-01
-5.719575842397120469e-02 -3.961555997968763121e-02 -7.772058978244409388e-01 -3.557067623975407322e-01 8.736751812626752933e-01 -3.319101939234330167e-01
-5.616800349115790708e-02 9.891807536755567801e-03 -8.179457711479410920e-01 1.109495349194964189e-02 -3.566665686169319116e-01 9.341658636655668646e-01
1.457726242853822074e-01 -3.255278235026600603e-02 -7.851348636156844085e-01 -6.946354356807283859e-01 -3.008351893795554455e-01 6.534369138085263096e-01
-3.458483814705409776e-02 -2.152449374656345560e-01 -9.078856484235194868e-01 1.743451569892670028e-01 -1.805104671684731599e-01 9.679977982810742398e-01
-8.903028366068407862e-02 -9.814629434112251416e-02 -7.994224800203988401e-01 2.420707619292346291e-01 3.802606769850663815e-01 -8.926385403722264522e-01
4.710179200232626588e-03 3.379704054876810776e-02 -7.261549265705236067e-01 2.315272192392548167e-01 4.777510841917807505e-01 -8.474367518021129753e-01
6.314015367166182779e-02 2.179270622002885127e-01 -7.131833618531583374e-01 1.507919629164831965e-02 -3.056021517046370595e-01 -9.520398850430028537e-01
7.382538895291526626e-02 1.320651299318836014e-01 -7.298133827109941629e-01 -9.381018675841289456e-01 2.541134678062121899e-01 2.353534183194934681e-01
8.245970858036505424e-02 2.426054403269422011e-01 -7.277464849459320817e-01 -6.483284032345303372e-01 -2.087404559362436851e-01 -7.321869321525024121e-01
-1.301876628052916485e-01 -1.034328280140417028e-01 -8.320248861605198387e-01 5.205448486313849488e-01 5.928880331460912867e-01 -6.144239909992836868e-01
8.193453017014282191e-02 6.688201856156190950e-02 -7.230968778662135721e-01 -2.267211677971326111e-01 -3.152287181151317563e-01 -9.215358741515139451e-01
-4.583000585291885365e-02 3.422894529406508152e-02 -7.547136773292606460e-01 -1.150592657156905008e-01 9.086973578593068313e-01 -4.012860291518773326e-01
-1.381767566974367867e-01 -5.867511537393380744e-02 -8.138294633488418750e-01 8.672327232261658470e-01 1.823465054905045180e-01 -4.633110787593255897e-01
1.211063360238906345e-01 4.631009278000949858e-02 -7.511492988746483190e-01 -4.804492905403315861e-01 -6.381590457823591578e-01 6.015991285776939312e-01
-6.087964135691593254e-02 -2.621158975049965312e-01 -8.794688460360859938e-01 6.357178412230133357e-01 6.887692063762315131e-01 -3.485108415797241732e-01
4.946615921400075722e-03 -1.218639624985951714e-01 -8.191859331779064446e-01 4.178182483106196443e-01 7.707406089383675996e-01 -4.810268444816358513e-01
-1.122031944787320046e-01 -4.406331917031772183e-02 -8.383142768917140053e-01 1.857475606914132937e-01 -4.610619932935611232e-01 8.677094456310580073e-01
3.574104315196766513e-03 9.287582771665009451e-02 -7.321012077723821898e-01 6.039394839586761377e-01 -4.779342871457418762e-01 -6.378369046129424014e-01
-1.119234072541711728e-02 2.372065109440399042e-02 -7.404298181572016579e-01 7.094315504577132225e-01 2.322774195666787167e-01 -6.653976822732476926e-01
1.249031335831009455e-02 8.120256415944465678e-02 -7.743741958548796545e-01 1.068406981855585663e-01 -6.477187066621624689e-01 7.543510736063930855e-01
-2.500758200179400981e-02 9.325000107720958498e-02 -7.510659678319125954e-01 2.938284677708107862e-01 -9.440817961871630359e-01 -1.495807261497206220e-01
-4.326908344552850283e-02 6.327678479412689183e-02 -7.404141089680082999e-01 2.423714448490608686e-01 3.191906404044062701e-02 -9.696583192406286189e-01
-7.610642532496238177e-02 -1.781819432426439420e-01 -8.355507334387327623e-01 3.135668158825129503e-01 4.080533314795513067e-01 -8.574195767800859569e-01
2.151008470113925999e-02 1.390975816060045500e-01 -7.292399468212473757e-01 9.581045114094397519e-01 -2.696672091622042688e-01 9.651601690676200884e-02
-1.000427628609065200e-01 -5.222582653251269663e-02 -7.799013873299464050e-01 2.193913101058324322e-01 3.675786999921285547e-01 -9.037440745931025754e-01
8.886169793348074053e-02 2.297108041478372331e-01 -7.390833982286050263e-01 -9.925235472547878635e-01 2.809240589518479866e-02 -1.187763649712890168e-01
-8.113683220775548544e-02 -9.394660746286855046e-02 -8.586920560039910111e-01 -1.574640104905137726e-03 -4.063481332636111887e-01 9.137169775711286857e-01
-1.036621373199775320e-01 -1.476672595536117905e-01 -8.299228070892546993e-01 4.560846863338210988e-02 6.231654325327865562e-01 -7.807590609689669670e-01
-1.306129005067156457e-01 -1.365982990051379797e-01 -8.537811621985119670e-01 9.816692342213831912e-01 1.901079718915133221e-01 1.358210611422756842e-02
-8.337168559770513632e-02 -1.764218520571347315e-01 -8.375026098661429996e-01 3.521127746853834894e-01 4.328051385357081227e-01 -8.298772836753919302e-01
6.038628955814546312e-03 -1.932443749309878667e-01 -8.944510115383214055e-01 -3.115042923764629323e-01 -1.265238621210336423e-01 9.417838330238084144e-01
-4.830263737429733861e-02 8.558842393778499924e-02 -7.704935611054104516e-01 3.700580751397645335e-02 -8.731327779317107352e-01 4.860758400820727188e-01
-1.421695325777374598e-02 -2.191099908201542268e-01 -9.075227733651772821e-01 -4.254808914767460593e-01 -1.451691020155729817e-01 8.932479738617633558e-01
-6.470873694343153015e-02 1.588905338398341124e-02 -7.614296280407156781e-01 2.139874723249844679e-01 -3.298909466656251288e-01 -9.194462056020579199e-01
-1.315011731071044632e-01 -5.944035510066282557e-02 -8.037232512141050389e-01 7.745205123295711980e-01 2.246324768784065395e-01 -5.913190562735237688e-01
2.409187799298492805e-02 1.077073354885423467e-01 -7.072223719312996648e-01 4.533417404694599639e-01 -9.819288637292325483e-02 -8.859116340887926988e-01
8.423415559190958191e-02 -2.844515653760239585e-02 -8.124543373192025797e-01 -3.565695345669490646e-01 -4.139327864111330135e-01 8.375666035322949510e-01
3.032244451634281968e-02 -8.169124333211701117e-02 -8.563444227158140132e-01 -3.317834998659386914e-01 -3.873207551231639956e-01 8.601757621948730170e-01
-3.773939379559830554e-02 -1.477538411311013211e-01 -8.851734395951502687e-01 3.896581713237502465e-01 -3.894947943997382200e-01 8.345419789657896326e-01
7.192967028858404666e-02 -3.839108655674585563e-02 -8.252707638863212569e-01 -4.969009363117913303e-01 -4.875830621384945607e-01 7.178803639939692616e-01
1.153538606064426347e-01 5.307407291263375494e-03 -7.860106210836946827e-01 -4.776811175027887990e-01 -5.760700968239824693e-01 6.632978166152019295e-01
-2.488571976540273484e-02 -1.004105345068824311e-02 -8.318041750227630482e-01 1.286403653256302515e-01 -5.667204795593258071e-01 8.138055999174103050e-01
-5.443958580557813759e-02 -2.650818043903145349e-01 -9.053703132482995297e-01 7.061256342994929325e-01 4.539319100564014886e-01 5.434449462619793669e-01
3.512611503573384586e-02 -2.060466801924212832e-02 -8.335051163933793195e-01 -2.707802951665365665e-01 -4.746159063719709303e-01 8.375068794751693302e-01
-4.453765729013106980e-03 -2.335560341637950010e-01 -9.043168565319557040e-01 -5.476400890945627431e-01 -1.369961912430431306e-01 8.254225441562635934e-01
4.530314365537355809e-02 2.453510724174657320e-01 -7.482439378517381501e-01 9.852750802264812480e-01 -1.550507015750259565e-01 7.205758964739895911e-02
-1.428515864246573397e-01 -2.797519605160921075e-02 -8.193044130799560509e-01 9.932993127399045719e-01 -1.138892112290833675e-01 1.963982881927093735e-02
4.731105794072676396e-02 -3.308096190789890090e-02 -8.363472505792217682e-01 -3.050695024532670274e-01 -4.192296387379410016e-01 8.550901172838870634e-01
-2.787011395872397712e-02 -1.265042300025818467e-01 -8.229629552968703576e-01 1.887310665163727808e-01 6.746270678204610571e-02 -9.797088178255985991e-01
-3.101642055281043572e-02 -2.381409984458531526e-01 -8.660293293351881694e-01 9.526827368176503663e-01 2.069730958682646504e-01 -2.226156790442611055e-01
7.148031565789139674e-02 2.909337081601929068e-02 -7.922466110695041142e-01 -3.344396452392218722e-01 -5.167781355284080114e-01 7.880929401612767338e-01
2.908554252416091154e-02 1.605786047285765461e-01 -7.377639053633193722e-01 9.083335053433289064e-01 -1.954885799750843423e-01 3.697491827847973478e-01
3.360330665548554984e-03 -2.731664285779627499e-01 -9.069368913623003792e-01 -6.716178200163809286e-01 -3.137991401230875999e-02 7.402329395757962782e-01
3.246134880794202676e-02 -2.154468848170947859e-01 -8.511878436819847460e-01 -3.971165742766705753e-01 4.648222587640530867e-01 -7.913524462540350024e-01
8.392404247024587427e-02 1.846098223431626995e-01 -7.372830354217018156e-01 -9.731443337091658652e-01 1.622593958940767578e-01 1.632850091521959035e-01
-4.707315434106891516e-02 -7.084753643944563528e-02 -8.504347200629159831e-01 1.768120751246466393e-01 -4.095487595927077562e-01 8.949901136918723132e-01
8.915841998068339824e-02 2.442794600638020786e-01 -7.505275388799460545e-01 -9.795521202837317309e-01 4.016123922382500155e-02 1.971413668199861746e-01
