-1.071629199672358562e-01 -1.108696125894303173e-03 -8.715954428910843710e-01 5.918692673964734974e-01 -1.812386924160462043e-01 -7.853937271731189496e-01
4.570262204600546163e-02 -1.339975602125549441e-02 -9.172991090886091214e-01 -4.450995784039786796e-01 -5.736783517476463645e-01 6.875896407310861935e-01
-1.052401631256697223e-01 5.632877420189432577e-02 -8.792216814845424944e-01 7.385309888078400720e-01 -6.618073140271959476e-01 -1.287752214932001704e-01
7.540599851736234926e-02 4.245909567498901138e-02 -8.689915327309267745e-01 -4.605053224647954746e-01 -6.196415565993793617e-01 6.355935724318592106e-01
3.865003671015043024e-02 2.628067262971224907e-02 -8.311122073390477816e-01 3.699507112400375886e-01 7.402240819741919831e-01 -5.614310106490870700e-01
-1.121678144872856470e-01 -2.743649264509153904e-02 -8.788242956328889965e-01 5.217367536663388705e-01 2.226733469898364293e-01 -8.235334482667077127e-01
5.187010199785686143e-02 -1.369712055780152871e-01 -9.636221259741463152e-01 -7.794623905538432540e-01 -2.619499108485829342e-01 5.690523929468248587e-01
-1.234603328470958300e-01 -9.847753765676180160e-02 -9.648909361344935043e-01 4.272462018671037698e-01 -2.831879237229690816e-01 8.586415333814267914e-01
-8.999652849250966424e-02 -2.035234127473695143e-01 -9.590789930643117689e-01 5.187727967870472412e-01 5.902320324549690245e-01 -6.184665982717429955e-01
5.893784532053446268e-02 3.306364860798056277e-02 -8.876764136044045239e-01 -2.944902985518192406e-01 -3.555666856935855713e-01 8.870444160715628135e-01
-8.858893618380371537e-02 -1.633585704101261082e-01 -9.864631587714943750e-01 -1.599386894559920447e-01 -1.122492080315316276e-01 9.807240850062740600e-01
6.055989885607087481e-02 1.038997587287389945e-01 -8.059244147451160023e-01 -7.800497098205121382e-01 4.490528007734592153e-01 -4.357453755651881644e-01
-1.194079768426114935e-01 -1.295543807129521663e-01 -9.320065540930109194e-01 6.418052111765514267e-01 3.467810487662948415e-01 -6.839802446877912834e-01
3.642377025604619234e-02 -5.443509627277457602e-02 -8.713747190362634010e-01 6.103766925354674466e-01 7.180721165506657178e-01 -3.343841034527669787e-01
7.567279726936575190e-02 1.429410795278076574e-01 -8.065850607124956939e-01 -8.900654318284183519e-01 1.845501594567220960e-01 -4.168030298697337210e-01
-3.006246410361548826e-02 -4.855768296340299411e-02 -9.417712578398400591e-01 1.185712693261368605e-01 -3.562074417188980102e-01 9.268533392907785107e-01
9.635232516521513579e-02 5.440700152846141696e-02 -8.161998096499895050e-01 -2.897917541256276319e-01 -2.970374570458002017e-01 -9.098293732082715080e-01
-3.130776654074652471e-02 -1.079327126824001365e-02 -8.641904984040904569e-01 -3.545432035845924590e-01 4.122161004024763042e-01 -8.392717100921190942e-01
-2.813852705394611579e-03 -2.835461048321904695e-02 -9.382648377118165683e-01 2.107163012773370647e-01 -4.257922105475389629e-01 8.799429719095658298e-01
1.424435185509793089e-01 -5.680276956232689634e-02 -8.628938995257769973e-01 -4.547456316012255528e-01 5.188080310134040030e-01 -7.239092743539052854e-01
2.179060209397940678e-02 3.676830654172059953e-02 -8.218814975249851829e-01 -3.122894590814894733e-01 5.988423865593961448e-01 -7.374707382713145964e-01
-1.013420731812720993e-01 1.043151474245377838e-02 -8.687331363459398492e-01 1.195558153452743605e-01 3.474436609782516339e-01 -9.300480146009433291e-01
-1.096779886518132879e-01 -7.297633979334698651e-02 -8.968965049416605106e-01 1.162145701192092151e-01 6.638045590087249259e-01 -7.388218196095996948e-01
5.243120490150210422e-02 2.537627847712090046e-01 -8.462523846489616863e-01 9.392656495963165320e-01 -2.964916882654539676e-01 1.728372595186309646e-01
2.118817440191880438e-02 -8.168041045094778796e-02 -8.881364773604581986e-01 1.000187389359343676e-01 2.956054053599020959e-01 -9.500598382121377972e-01
2.721960184236596296e-03 -1.676554007442222424e-03 -8.490145043361948529e-01 -4.211393756523491572e-01 5.957233899887944828e-01 -6.839263621877785804e-01
3.752078897219859877e-02 -1.209569089568517664e-01 -9.675083069079882803e-01 -9.342813642551206499e-02 -1.256598325706549946e-01 9.876643102807608487e-01
1.113929359825961279e-01 -1.237327716029040375e-01 -9.105358899922454397e-01 -6.738935443360092314e-01 7.116761500975425925e-01 -1.984554062871332902e-01
3.530134037907646516e-02 3.385349383000524348e-02 -8.977757940883773768e-01 -4.772598607247505731e-01 -3.132009937928908472e-01 8.210530816141776711e-01
-5.466604628857398007e-02 4.814412068337509121e-02 -8.435906749653696579e-01 2.234987549569716347e-01 2.041246729898930357e-01 -9.530904597200904327e-01
-2.335848977354124025e-03 -1.927240911427062497e-01 -9.343417575632322336e-01 -4.241869931817621002e-03 3.393386488958358149e-01 -9.406547123706074931e-01
3.619991253394739140e-03 -2.169421415278906806e-01 -9.939248774332540837e-01 -4.649998742823440168e-01 -9.104503431977631345e-02 8.806167830805379237e-01
-5.409265849787811553e-02 -1.925222557391003189e-02 -8.648039246872628594e-01 -1.474867529532282277e-02 3.480023885128717964e-01 -9.373776262352166988e-01
7.971688802603280055e-03 -3.285552545481266323e-02 -9.425486966269475131e-01 4.492963638672232973e-02 -4.380493731283343628e-01 8.978274190934638632e-01
8.829910733305883219e-02 1.976510634816377732e-01 -8.339275533240282368e-01 -9.524150809379340332e-01 2.003815567064272662e-01 2.296796580759763451e-01
-7.684092327457860139e-02 -4.959511597308609993e-02 -9.445964026332035468e-01 -2.829452697543995976e-01 -1.744206753499957518e-01 9.431433625563303558e-01
-4.625579750103943344e-02 -1.967234799884654550e-01 -1.001359033514038765e+00 -1.386221092305675020e-03 -2.209781628778775542e-01 9.752777706490606269e-01
-4.661158303829206206e-02 -2.520198717635089292e-01 -9.648092458597919974e-01 -3.530837761421329879e-01 3.192641245063141953e-01 -8.794329228704306223e-01
4.514707530333167407e-02 -1.958541420791086174e-01 -9.408303068544542347e-01 -6.017321417874043066e-01 4.686977586536134610e-01 -6.467154247217415941e-01
-5.870181927090342699e-02 -1.700650234333936084e-01 -9.268323760749772600e-01 4.825132323169145643e-02 4.146075153052717344e-01 -9.087202088975351311e-01
-4.474450909353513972e-02 -2.496950482999426846e-01 -1.010244292822589207e+00 1.397584633919624619e-01 -1.263201728094729970e-01 9.820951002075627434e-01
9.406555218244143368e-02 -1.042973090239780326e-01 -9.313175759649389152e-01 -4.023060202453183631e-01 -1.188100755610258935e-01 9.077632026137416599e-01
1.511565361581072332e-02 1.132935344767561775e-01 -8.385687186222816614e-01 8.202406447953457524e-01 -5.060119423156432816e-01 2.667530671982340507e-01
-9.476413657555990411e-02 -1.610409030087347759e-01 -9.374900163135461151e-01 6.891840731355797223e-01 -1.160402127382348034e-02 -7.244933816305906271e-01
6.024745185655278751e-02 1.150237516917239355e-01 -8.432678106303098664e-01 -7.202788408268219200e-01 2.166693568942907027e-03 6.936812646281779182e-01
7.993962571386617477e-02 1.528413327567098301e-01 -8.132964253149328471e-01 -9.597997692039825779e-01 1.819687310217179554e-01 -2.137095785554025407e-01
-1.351025010480032262e-01 -7.940774434626128586e-02 -9.499395867710662689e-01 7.609457355302903236e-01 -1.630588870440163041e-01 6.279915500500246051e-01
7.705581937720182295e-02 -1.811312800907242948e-02 -8.427126606549562027e-01 -6.502449073214131015e-02 -6.063342185586496208e-02 -9.960398605272153816e-01
-5.085345376896843739e-02 -1.385263347098125986e-01 -9.143303904590512898e-01 7.104930299039817487e-02 2.862971950522203435e-01 -9.555029631821189140e-01
5.326082149294108364e-02 -1.953353512360503919e-01 -9.512554026258195350e-01 -8.098681235894072961e-01 4.630281165104059293e-01 -3.601646647223999964e-01
-4.045520304699889991e-02 -8.208511556931447073e-02 -8.895298317759339213e-01 -1.414709843204083328e-01 3.911117129884946197e-01 -9.094050739679323536e-01
1.239412821949201216e-02 8.071681150295238749e-03 -8.462023871209478632e-01 -4.279646734630226379e-01 6.202393987681417142e-01 -6.573806556960911651e-01
-1.333627965451273656e-01 -8.459390109266688718e-02 -9.202234913627576063e-01 7.888599514324980966e-01 2.806233777556416120e-01 -5.467636572440887077e-01
7.051592406807839775e-02 2.345209881812153063e-01 -8.123399035249562194e-01 -1.193569465530361778e-01 -2.959890080066187590e-01 -9.477048203152675931e-01
-6.593912063037869753e-02 -1.400091553011784673e-01 -9.191837024132989420e-01 4.857718967691320167e-01 8.186418658341125532e-02 -8.702435976577802546e-01
-1.797879138087428484e-03 -2.289851075527024049e-01 -9.496737944332872550e-01 -3.296093873757914294e-01 -9.019458635577995431e-02 -9.397992276789044475e-01
4.777188071900714122e-02 -6.522121784657132493e-02 -8.803665831329128277e-01 6.681049680649319145e-01 7.296941595023944682e-01 1.455410087743328473e-01
1.454664476401465456e-01 -5.395063804386911882e-02 -8.795220737098177199e-01 -6.965190654918569368e-01 -1.112713363653831111e-01 7.088581530248574403e-01
4.078629430544485762e-02 1.797937458139463873e-01 -8.421204069349652599e-01 7.014057701956678548e-01 -6.097318749790708869e-02 7.101494321215550132e-01
-1.059787225542591776e-01 -1.529284466565988265e-01 -9.383350524863056652e-01 -2.137895475816387336e-01 7.508431904333816576e-01 -6.249228214144999516e-01
-5.573478969577045500e-02 -2.049106700176638873e-01 -9.489633306197170493e-01 -2.007729903870339450e-01 1.399821204486222381e-01 -9.695850722271643907e-01
6.205553690638913877e-02 8.577784104876595012e-03 -8.423350044597761599e-01 4.364799763337105509e-01 6.137513166751795701e-01 -6.578712271707942705e-01
-9.994876136950553436e-02 -4.423522162790211043e-03 -8.670340543070697015e-01 3.591179420073857265e-01 3.957836317478276300e-02 -9.324526030296580448e-01
-9.755487348040021989e-02 -2.064556341682033946e-01 -9.742125106498494835e-01 7.982190446607507761e-01 5.665544053350486386e-01 -2.046031831040949489e-01
8.437113130315737619e-02 2.192493130202097518e-01 -8.150785808870515403e-01 -6.698401340545525606e-01 -1.116755170783915452e-01 -7.340591077665703512e-01
-5.079635539084524642e-02 -9.719307604780375032e-03 -8.617316981911217200e-01 2.373766174827250663e-02 2.919585611094429600e-01 -9.561363511600364795e-01
2.574124895127606269e-03 -1.387573769782435018e-01 -9.811556821334843637e-01 -5.446645576863092808e-01 -1.582268112511574787e-01 8.235926151937424944e-01
-1.077107072389750647e-01 -3.837130040830026567e-02 -8.792786566162439366e-01 4.551319645852959228e-01 2.424649939332007842e-01 -8.567762960829985452e-01
-9.282183132770613354e-02 -1.435203400215558645e-01 -9.323153199305591610e-01 -3.074643582972962919e-01 7.736117809842774085e-01 -5.540672167699207673e-01
1.237853363757178589e-02 -2.046735309807763969e-01 -9.382600073545924735e-01 -2.050694019476414012e-02 2.948104745638387980e-01 -9.553356737248394071e-01
-9.392162852128019268e-02 3.178989419974791175e-02 -8.567986531539139028e-01 3.880487564471190032e-01 4.770373261364375950e-02 -9.204034531196472191e-01
-9.834646409009001333e-02 -4.111735418825184646e-02 -9.409695928695849254e-01 1.098393046716602539e-01 -5.107516826516984576e-01 8.526828518374842680e-01
-2.616535094797503222e-02 -5.369245455583064597e-02 -9.444356139371025138e-01 1.455440442223106812e-01 -3.845253276174991353e-01 9.115685402711466434e-01
7.925106793031974628e-02 1.832135999938933890e-01 -8.425753825650326156e-01 -6.963055420974675336e-01 2.788459465757107125e-01 6.613648993729919212e-01
8.450142374815405866e-02 1.785847041106388422e-01 -8.154216706338396348e-01 -9.548791605954521922e-01 1.222144144555568912e-01 -2.706832568885820245e-01
1.025753158682336103e-01 6.111114703550336175e-02 -8.341050903944597916e-01 -5.345052223167416905e-01 -7.884223019721924297e-01 3.044576178534537658e-01
5.872499037160233692e-02 -1.122623719025563904e-01 -9.486926325589533082e-01 -4.941801262980778930e-01 -2.413398866209562343e-01 8.351892371778983915e-01
1.371879456901856087e-01 -7.173804735028943558e-02 -8.701696407863107607e-01 -4.750767902706100609e-01 5.179268237088348048e-01 -7.113746190503654754e-01
-1.059701925180123044e-01 -1.128978162494886917e-01 -9.139876140287840345e-01 4.379337663025945071e-01 3.789628050840139761e-01 -8.152307702085834773e-01
-1.530623953445234622e-02 -2.692005229182871731e-02 -9.360377348627525462e-01 5.022533864009281340e-02 -2.715067870603332101e-01 9.611251114910395188e-01
2.039331856606544160e-02 -9.675959963958945254e-02 -9.653352287408211163e-01 -1.000528551041610786e-01 -2.063598591458620235e-01 9.733473350858909967e-01
1.082573926685222176e-01 -3.894558857857315787e-02 -8.969247748249180585e-01 -3.838803746862928801e-01 -2.731538069675224500e-01 8.820560388489278036e-01
-3.319469255749842029e-02 -4.369658514441571162e-02 -8.818639229602884821e-01 -1.874068989784468953e-01 -2.472205414601657270e-01 -9.506632727182767750e-01
-1.295687606963206702e-03 5.176175661018045382e-02 -8.966983904009014905e-01 -8.905330896678552433e-02 -5.411578784872065340e-01 8.361923574831883199e-01
8.573648808373462993e-02 1.832570102078361352e-01 -8.320050627881130367e-01 -9.294749603841030439e-01 2.122507911910870571e-01 3.017049877906028965e-01
8.957672530069059032e-04 -4.361945838125359798e-02 -9.468789847413948690e-01 2.645951404530406670e-01 -4.489999674083606229e-01 8.534567598396107790e-01
-8.532357709991063299e-02 -2.178274481404287588e-01 -9.719763776256399312e-01 3.850120092019099216e-01 7.118936076905512111e-01 -5.873442296470104962e-01
-1.173304734039368052e-01 -3.395134137615953701e-02 -8.841166671865656745e-01 6.205165724228198787e-01 2.038134384857347992e-01 -7.572445216977519156e-01
-3.585481026792908255e-02 -2.307734979768000239e-01 -1.008317441978273665e+00 1.110214306099435305e-01 -1.531945428007905896e-01 9.819397506982688872e-01
-1.906917127206334342e-02 -3.482758578985899189e-02 -8.656457009771462152e-01 6.431134289804364412e-01 3.194417334600750391e-01 -6.959612750642435453e-01
2.787226685608499774e-02 7.743998750498608252e-02 -8.737212956403259678e-01 2.962575032279533144e-02 -6.459432002330682820e-01 7.628103938663091110e-01
-5.455588030519342713e-02 -1.766657450409795382e-01 -9.354243378125688402e-01 -6.866078837531768286e-01 6.853396219574169335e-01 -2.426503998415190655e-01
-7.626308778426829985e-03 8.902213785280194136e-02 -8.318951872423829830e-01 3.013275695597291692e-01 -4.418199038494058928e-01 -8.449833539104356639e-01
1.536433751300351688e-02 2.829144119047781458e-02 -9.082113228067716371e-01 -8.621067491211252543e-02 -4.911455516512467923e-01 8.668008806089150253e-01
-5.659889717369973733e-02 -2.350929468711858150e-01 -9.577531804043976082e-01 1.025510181931340165e-01 3.352818000783542862e-01 -9.365198359905518855e-01
8.073992161725471878e-03 -2.475541572982112304e-01 -9.946540296220166555e-01 -6.039926756435135546e-01 -1.259755098905335491e-01 7.869707864189176005e-01
7.639969057225888018e-03 6.213277358960909297e-03 -8.448614009701168603e-01 -4.277531062792540584e-01 6.203698047417266492e-01 -6.573953037808845101e-01
5.002741516651604964e-02 2.363430349218975657e-01 -8.485041799680540509e-01 9.183906908868533225e-01 -9.815051067736500767e-02 3.833079912369956599e-01
-4.615908862471529428e-02 3.705494240990710175e-02 -8.492695757939551227e-01 -2.071454295047477426e-02 8.481295581666962180e-01 -5.293837552044056149e-01
1.457691414113366016e-02 1.386189730997015000e-03 -8.531016682219981773e-01 -3.170050965578277008e-02 6.122366378166076428e-01 -7.900388452491307056e-01
-6.382466089938194920e-02 -2.435385909884986710e-01 -1.004952082129175084e+00 4.013913705368105656e-01 1.943001799102670457e-01 8.950600023157211371e-01
7.646699644535627505e-02 -8.289272842217224047e-02 -8.694364319011183007e-01 2.609422934950555439e-01 5.293442811055358854e-01 -8.072817051850016412e-01
3.625808946848221859e-02 -1.709017876377877387e-01 -9.338637972524994613e-01 -2.430095154344958930e-01 1.036044454263384262e-01 -9.644752429669684046e-01
-1.768450630598434985e-03 -1.571489189285397436e-01 -9.901915651268272667e-01 -6.400343076491321614e-01 -2.106912265240241389e-01 7.388946420822786187e-01
5.041235178450651638e-02 2.441489611041982311e-01 -8.320657275819760557e-01 9.381896288572455500e-01 -2.310804715867405545e-01 -2.576859250249295408e-01
-6.206731152110142591e-02 -3.891084827283650127e-02 -8.745352510681940750e-01 -2.724302946363100220e-01 7.771629032108371415e-01 -5.672737931874486383e-01
1.357203159580617179e-02 7.394907795819043173e-02 -8.057633528056077354e-01 4.907037416918899053e-01 4.888098683014529405e-02 -8.699543016826173369e-01
2.144549258696306498e-03 -1.615813071942812790e-02 -9.342048378818678112e-01 7.856416939733495974e-02 -3.855139771360214795e-01 9.193512085811788026e-01
-1.235182209135175652e-01 5.884429678469816835e-03 -8.783486185934640256e-01 5.074043228888793777e-01 3.817913081355810978e-01 -7.725129449697265560e-01
-1.030392732748495327e-01 -1.611887417181267490e-01 -9.867576850313332093e-01 2.716389952547367814e-01 -9.150326088551150039e-02 9.580393569704301893e-01
-2.191263029478970545e-02 -7.590040433893674443e-02 -8.912182863600777161e-01 1.574334564415197091e-01 6.770534208749010574e-01 -7.188973306908784666e-01
-4.084467251146765149e-02 -1.553483872395649557e-01 -9.853588646480828661e-01 3.494634092776825463e-01 -4.549501262636296284e-01 8.190822353028581748e-01
1.280989453464068117e-01 -2.736827089396036070e-02 -8.865875414027316603e-01 -4.230894768336317946e-01 -1.806285152436190589e-01 8.879012524338106838e-01
-8.690474541269029018e-02 -1.389292184730816782e-01 -9.294846797775706548e-01 -3.710802546870842211e-01 7.722947004755146283e-01 -5.156164661827667972e-01
-9.930577484838064295e-02 4.932509409868970213e-02 -8.627503064462465066e-01 6.292037486628831999e-01 -3.589405094722252221e-01 -6.893941929900446741e-01
-8.752222805659390370e-02 -1.416291600789992000e-01 -9.328096967203828305e-01 -3.720321551199674559e-01 7.323010691838633957e-01 -5.703746309479087451e-01
4.051553326361289828e-03 -5.303946604693093175e-02 -8.848791267516009640e-01 4.552958824599926957e-01 -1.848207868139850885e-01 -8.709460007236018431e-01
-3.528085665760468531e-02 -1.046160581592112671e-01 -9.108326124126224776e-01 -6.186733147719226666e-01 5.798362920287993827e-01 -5.301256492902552964e-01
2.454702988781763077e-03 -6.827940952372442418e-02 -8.857047331857735850e-01 1.290628407299728719e-01 2.404221240586517927e-01 -9.620498871710532196e-01
-5.472279622748718597e-02 -1.614824109520593687e-01 -9.228759594399791322e-01 6.042460661968040991e-02 3.767022725401129590e-01 -9.243615444067172504e-01
5.589131362306815065e-02 -3.108683368078387840e-02 -9.249002527995493494e-01 -4.943433334178215510e-01 -5.318003967206735849e-01 6.876139954604553184e-01
2.420522108965697181e-02 1.427712760459456665e-01 -8.270233427898795453e-01 9.322045866447227214e-01 -2.855245813011958456e-01 2.224192485180154777e-01
6.411030725749157499e-02 -1.234872766512500920e-02 -9.058922465331882279e-01 -4.114066667619538098e-01 -4.479195612853046904e-01 7.937963348125254281e-01
-6.493819392238224519e-02 -2.478787989665482416e-01 -1.002986715651638105e+00 5.593800513438463851e-01 3.235913000894108382e-01 7.631399797317662825e-01
-9.770725692614748437e-02 -6.400794397938519564e-02 -8.893832586367020898e-01 -2.177085904410731576e-01 7.256754041820773216e-01 -6.526853586632229698e-01
7.397378464445814039e-02 -1.390795137887205213e-01 -9.080173558135193890e-01 -1.269042794264290674e-01 4.796627352678667910e-01 -8.682274841644944674e-01
-1.146920284029672304e-01 -1.583578696038657474e-01 -9.775688437610539072e-01 7.516834213072189907e-01 6.858499865284641006e-02 6.559482693716505164e-01
8.688832073557771485e-03 -2.187190938016076724e-01 -9.476552350299413119e-01 5.708529634269005060e-01 6.453877995933566813e-01 -5.075445618689764515e-01
1.175623872636914931e-02 9.210860557114733393e-02 -8.091071512739982374e-01 7.424137180667114144e-01 -1.791634831900649483e-01 -6.455403298923816369e-01
1.451565980066513994e-01 -2.526017432084373335e-02 -8.448155831177801556e-01 -7.438557409502897233e-01 2.240318354411466317e-01 -6.296732274475125291e-01
3.834164971635283230e-03 -5.185909264514118600e-02 -9.515186421558341490e-01 7.665677898099894361e-02 -4.322976699289104996e-01 8.984667288276695363e-01
-1.050839653857816164e-01 -1.832019588467335702e-01 -9.840389600169561213e-01 8.552428854909902567e-01 1.382234671401465498e-01 4.994535813754888975e-01
1.141986536527485052e-01 -1.185844228248210119e-01 -9.037215527647471935e-01 -6.061291262356500731e-01 7.227625002656525854e-01 -3.319967628434798979e-01
-1.108674786390324296e-01 4.715592958988042149e-02 -8.984467988404912786e-01 6.126505381701541353e-01 -6.809365402780896970e-01 4.012290445542621153e-01
1.436790698876657391e-01 8.435128103855124224e-03 -8.499018265387224824e-01 -7.948407736848848160e-01 -4.424438344375486998e-01 4.152969995752592847e-01
-6.530714129699402570e-02 -1.638346858164913544e-01 -9.256807402433508969e-01 2.360447569861860717e-01 3.469728124444320105e-01 -9.076853750742784888e-01
-3.811799587402996126e-02 -2.299356627213775262e-01 -1.007930846067117026e+00 1.110214306099435305e-01 -1.531945428007905896e-01 9.819397506982688872e-01
6.723061990509991703e-02 2.137230425142914725e-01 -8.056206994264553112e-01 -1.403196220122193139e-01 -2.661872989097890940e-01 -9.536533571363645656e-01
9.735597147538639640e-02 -8.294889017647348595e-02 -8.655150918815889272e-01 3.646424303014790536e-02 5.500086211635926148e-01 -8.343625564620946733e-01
-9.184148969964160691e-02 -1.828978671884143037e-01 -9.459108396256924456e-01 4.521295241101077056e-01 4.634382527088873882e-01 -7.621049004921179870e-01
1.287559796170227866e-01 -5.176517422357171383e-02 -8.554061183844445804e-01 3.368992929815976534e-01 6.546341915963440616e-01 -6.767222041439906466e-01
-5.644934978096142336e-02 -8.251941831331560673e-02 -8.887730523541078620e-01 2.066983458967974405e-02 3.238941403946506425e-01 -9.458675085634594693e-01
5.182948072173638315e-02 -7.667622794044562373e-02 -9.406926215417832360e-01 -3.593765510346145775e-01 -2.894687966597748185e-01 8.871619414327956976e-01
-8.261080324365907557e-02 -2.293126813826331378e-01 -9.795416809719350582e-01 9.722062169199927606e-01 1.553575443393600819e-01 -1.751545180660781520e-01
-8.191812478501997452e-02 2.511826687773644276e-02 -9.183674735415138235e-01 -8.973905737092696677e-02 -3.096402902410324010e-01 9.466096303342930174e-01
-3.917725810034657086e-02 -2.719751445879272644e-01 -9.786210166511924990e-01 -6.354521584696773973e-01 3.534073303767282792e-01 -6.865157049421537483e-01
4.747705206204193978e-02 1.139547400491124490e-01 -8.517554419177193470e-01 -3.087953828578879900e-01 -2.111488070926394733e-01 9.273950575612347480e-01
9.981791495999613184e-02 2.033768334035333802e-02 -8.726712612728937390e-01 -4.591406390029497131e-01 -6.041285647382966806e-01 6.513206206494687178e-01
-8.569611793730246008e-02 1.942132169042282142e-02 -9.202069514036779196e-01 -2.593753580138584147e-01 -9.904255025640229526e-02 9.606846500771680786e-01
7.221056647205531531e-02 2.147850158939556553e-01 -8.070867359606002100e-01 -1.939976658964290279e-01 -2.497295130527230900e-01 -9.486833380729248200e-01
8.199156111296770910e-02 -1.614642110727869673e-01 -9.356392347799434850e-01 -8.193736192203767699e-01 5.042102297542669920e-01 2.727616474815520720e-01
-5.628291462574245424e-02 1.582070121872769172e-02 -9.151254223148217459e-01 -7.031738360474033833e-02 -3.105701661080167986e-01 9.479460097951901698e-01
3.748621343945347795e-02 -8.639712228849687203e-02 -9.503088617360607726e-01 -3.834676489363036400e-01 -3.434073597279893031e-01 8.573353763282577367e-01
-1.720186143754352456e-02 3.231805778248737293e-04 -8.510192388536654828e-01 7.577822751664599066e-01 2.199833948225182467e-01 -6.143071946883772450e-01
-4.434210498327489924e-02 -7.124647302086951905e-02 -8.850970482007648465e-01 -5.553494715464783738e-02 3.113207562197279898e-01 -9.486807979459199736e-01
-4.581827574593227981e-02 -2.627045307858956180e-01 -1.010579378669566708e+00 3.866750214403703034e-01 1.097394830231362972e-01 9.156635155229807532e-01
-1.120822107475812415e-02 -5.250196563804552380e-02 -8.787262673009081926e-01 -7.126799652532892493e-01 4.416275331479474486e-01 -5.450251270283134053e-01
1.489943482473786440e-02 -1.076652519693231669e-01 -9.681524996958352780e-01 -1.536765595903433479e-01 -2.031943082136051237e-01 9.670034064790414829e-01
-1.281926677613487442e-01 1.656958537692394470e-02 -8.860617181453607216e-01 9.193893959787836634e-01 -1.864748755671020164e-01 -3.463383596196089043e-01
3.284532998707198614e-02 -2.408671706158641013e-02 -9.308026156384296979e-01 -2.381312919957905838e-01 -3.764335653368942047e-01 8.953162897323883040e-01
2.214266666952203685e-02 -1.802142571696439544e-01 -9.773177800421141148e-01 -5.559962430582442439e-01 -2.911380973944216466e-01 7.785286031679724550e-01
8.309828651501512120e-02 5.042600413124729425e-02 -8.133337515251405359e-01 -1.986109291642899552e-02 -1.769854241934709291e-02 -9.996460866648734234e-01
7.010364112499477274e-02 1.896554231899834353e-01 -8.002123893784357511e-01 -3.453641444888593259e-01 -2.010727143897136082e-01 -9.166751721462904623e-01
-1.065653200374441639e-01 -1.192784653251161009e-01 -9.690634358032552687e-01 1.832235212344270614e-01 -3.407241424851169542e-01 9.221367577503020163e-01
8.862352956456699682e-02 2.357971685321912786e-02 -8.781535345515705249e-01 -4.813785890908325871e-01 -6.249870757335153071e-01 6.145452051159369100e-01
9.311138986013291208e-02 2.391135245096641104e-01 -8.341414141758812795e-01 -9.919317177350795989e-01 8.213444150224099086e-03 -1.265069432336653477e-01
7.623897860781803093e-02 -2.455516683572765355e-02 -8.426476223565827484e-01 3.594997871286655100e-02 4.401773551439164267e-02 -9.983837128032135855e-01
1.041372418849224046e-01 1.286456330418784232e-02 -8.766310527650595930e-01 -4.940112556825967394e-01 -6.065142100289150351e-01 6.229714217296852263e-01
-1.205560611930609066e-01 -5.972425171194822163e-02 -8.941438870959520502e-01 6.887364373663340533e-01 2.226807477783400990e-01 -6.899676836003331148e-01
-7.667272339758832156e-02 -1.336999696181834230e-02 -9.270333423671275330e-01 -1.559471222566783007e-02 -3.988041984976916643e-01 9.169034934011389693e-01
2.438700680951113101e-02 -2.272361875674012155e-01 -9.517982016251458344e-01 -2.640222998057970560e-01 7.373718356632010806e-01 -6.217515590458453367e-01
9.273689667793691416e-02 2.447656845311343976e-01 -8.328614074519079535e-01 -9.485981046650460158e-01 -8.281772869680827098e-02 -3.054551679696784205e-01
7.010810417705874709e-02 2.265873324618094264e-01 -8.098301400230339953e-01 -1.360003789649738282e-01 -2.862198351242734029e-01 -9.484630213681592981e-01
7.794804707140262634e-02 1.664675402373667623e-01 -8.042058115818537800e-01 -7.537130666556987046e-01 2.935861982823894864e-02 -6.565475493779895366e-01
-2.228016200866235128e-02 -2.748566524714072257e-01 -1.015448423601976957e+00 -5.523444770424389832e-03 -1.370523500082019841e-01 9.905484061443424748e-01
-6.430278045025580869e-02 -1.534585943490177073e-01 -9.817121462009416044e-01 -3.868417863874507728e-02 -2.388162715865553565e-01 9.702939362628947295e-01
2.438473877294172060e-02 1.235761748991182768e-01 -8.046086258907712008e-01 6.987356558994172184e-01 -1.851294317561972269e-01 -6.910105474393563041e-01
-5.943497236014301521e-02 -2.283512204388863168e-02 -9.328740835631947892e-01 9.742178880872519320e-02 -5.037119187585956670e-01 8.583608203814070414e-01
4.587373377576803302e-02 7.407371928227521329e-02 -8.107421426861030067e-01 -6.335214772074670986e-01 4.831691250470858123e-01 -6.043162537265587275e-01
-9.017436456112340459e-02 -2.052559111385712787e-01 -9.968578843915923970e-01 6.625557614751176327e-01 -8.094795227505362234e-02 7.446256052262794078e-01
-6.734272529394703943e-02 4.070219950472309285e-03 -8.596807329677288445e-01 1.130783842092638741e-01 1.137708772900337811e-01 -9.870508935740235357e-01
-5.732525517588335506e-02 -5.867098609809652532e-02 -8.828682325232001249e-01 1.225408942380900035e-01 3.493314546094445500e-02 -9.918484786435546319e-01
6.044454538400279714e-02 -1.560889417131092194e-01 -9.603941289235756740e-01 -7.033717424971972498e-01 -2.055773847091383055e-01 6.804455384177394706e-01
-1.064551488184256600e-01 -9.011767097878031763e-02 -9.048799397056846994e-01 5.180973090484454202e-01 2.354967603432780443e-01 -8.222630079388105750e-01
-1.241610817442297260e-01 -1.060644676374066300e-02 -9.289210600781807603e-01 3.407617532259471504e-01 -3.928485756554517816e-01 8.541378250281753681e-01
2.101953271531912561e-03 -1.779727546380003578e-01 -9.300786611890597966e-01 -5.135920958085810062e-02 2.700515944763958176e-01 -9.614750999958271427e-01
4.623822244545135879e-02 8.678458759682658452e-02 -8.018225639824703155e-01 -5.256971258294302896e-01 4.090156044681548808e-01 -7.458879052486547812e-01
-9.081718593739697420e-02 -8.916741994363294732e-02 -8.971812664050932140e-01 3.180089987139211871e-01 3.367549429249426240e-01 -8.862654146205797279e-01
-9.021438975654386128e-02 2.077539030412740503e-02 -9.204844378239629421e-01 -2.918028963988228766e-02 -3.775279461447480500e-01 9.255383085406357901e-01
-7.538311362862352982e-02 -1.460342275354279129e-01 -9.822602233689288198e-01 -2.079485174904824041e-01 -9.355567440829755388e-02 9.736553547634394512e-01
-8.466986569141086993e-02 -1.702852344045787392e-01 -9.355515759533425957e-01 3.891593483300300749e-01 3.936173909828210582e-01 -8.328387305614597391e-01
9.330691071762514666e-02 2.367082971128477709e-01 -8.393965591737846399e-01 -9.936698451747446592e-01 8.812488529723798425e-02 6.967240043049997833e-02
5.193153177453026237e-02 4.283314636431652389e-02 -8.853896476489362399e-01 -4.221607147391063242e-01 -5.049421613649516249e-01 7.528703371810171463e-01
1.041042034386939902e-01 -4.124487209652298592e-02 -8.997519162130251935e-01 -4.464591849919852251e-01 -2.886345034137494103e-01 8.469736238959220120e-01
-5.299128052600037692e-02 -3.805775643699223221e-02 -8.816869423867782496e-01 -3.373247687831651964e-01 8.796268389028975010e-01 -3.353634217488246638e-01
5.234466282062776726e-02 5.466266291415899231e-02 -8.162240332430763523e-01 2.221630382246090607e-01 6.162550770483701812e-02 -9.730600604520421859e-01
-9.427339103174850465e-02 -1.291025507145967914e-02 -9.275736375999857897e-01 -4.351535377377319797e-02 -3.180574888514305920e-01 9.470722505550808190e-01
3.921026053671071432e-02 6.659469413410119831e-02 -8.101527999455098161e-01 -5.458993984083005957e-01 5.047956865366515222e-01 -6.687115683696869262e-01
5.922107700111866463e-02 1.241799158091877880e-01 -7.962442307236977657e-01 -3.297419216278670850e-01 1.752704685830660802e-01 -9.276586268470931040e-01
-1.396654197861827429e-01 -4.917363611603260687e-02 -9.189617670027641072e-01 9.529718675638669811e-01 8.129819382519647142e-02 -2.919507206920314291e-01
1.281519948250264829e-01 -9.793954638676340141e-02 -8.885906767726403643e-01 -6.492365295657988034e-01 6.519043179758242657e-01 -3.918069535904552536e-01
-1.066189774232576826e-01 7.753854647736436664e-03 -8.705166085506552687e-01 1.893815527394344944e-02 5.266102398064518297e-01 -8.498958769201150343e-01
6.994690406276730943e-02 -8.947503624546368495e-02 -8.884003903954176273e-01 8.303298706922597194e-01 5.570199033988373349e-01 1.676702280445746540e-02
-7.228718436481418319e-02 -2.471520719255683729e-01 -9.958586945079567210e-01 7.278712846761786759e-01 4.840975689193915965e-01 4.856469259762530855e-01
-1.791888795818856179e-04 -9.305494670472132246e-02 -9.695187207504967208e-01 -2.262006047051199897e-01 -3.156302965207101185e-01 9.215263438173033617e-01
1.056442659710341569e-01 -3.361140133645706268e-02 -8.458049234108957481e-01 2.623199936000960020e-01 4.405958183637933567e-01 -8.585240507976378277e-01
1.249050189661200187e-03 -7.104214604142805589e-02 -8.865569010077563039e-01 1.290628407299728719e-01 2.404221240586517927e-01 -9.620498871710532196e-01
1.024333676106274488e-01 -9.738992353493425638e-03 -8.891135190471192162e-01 -2.325890063343493963e-01 -2.553481543055047265e-01 9.384560054819682806e-01
1.084327854126469204e-01 4.019488932788135155e-02 -8.168628781624183155e-01 -3.297494721410900165e-01 -1.267482557065979232e-01 -9.355213334275214176e-01
2.709331642795318948e-02 -1.726344319168321706e-01 -9.295857614557250237e-01 -2.637945836693009749e-01 -1.357536960677695062e-03 -9.645779256857066608e-01
-2.058121006438620726e-02 -2.016894360956870969e-01 -1.003811775607379664e+00 -1.022907308106545121e-01 -1.642203034164246844e-01 9.811056509551048244e-01
-1.416508219161756177e-01 -4.395864573778876516e-02 -9.262568429075493937e-01 9.943430801333489333e-01 3.307980612774093915e-02 -1.009334702538048079e-01
-3.150752301825719692e-02 -2.431021980920370362e-01 -9.653322253435553391e-01 9.552856318527922497e-01 2.430587847789048295e-01 -1.683798940414616141e-01
5.530427611707851993e-02 -3.998961544752084596e-02 -8.527368878697689780e-01 2.882883581177018706e-01 3.942181047409274441e-01 -8.726293075918725162e-01
4.789453708032000850e-02 2.314814793479962052e-01 -8.442828176181426114e-01 9.556664600801650922e-01 -1.458235427212534185e-01 2.558067854183492251e-01
-7.343821013426883593e-02 -1.667779877027567303e-01 -9.294091007309202013e-01 3.022636245361735585e-01 3.691873496186189874e-01 -8.788272880172958157e-01
-9.941442063446639943e-02 -5.300684668232982788e-02 -9.483135875719568286e-01 1.441838479671862516e-01 -5.355811848472792347e-01 8.320840176466316462e-01
-4.603654428768397949e-03 -2.569530711545200963e-01 -1.005787789163731016e+00 -5.730188436687130293e-01 -1.889251740910373734e-01 7.974689231532738898e-01
9.098969074940486262e-03 8.989732745459280694e-02 -8.121782389106371181e-01 8.214212844426559412e-01 -2.325577070824126347e-01 -5.207532874031121084e-01
-1.308456138840712879e-01 1.546465276699612520e-02 -9.021087745005594849e-01 9.283250405894745150e-01 -3.677906995189190176e-01 5.424592484173580004e-02
-7.278093117119627600e-03 4.598129041930707622e-02 -9.001559376901654419e-01 -1.573078688808952630e-01 -3.131675230454412651e-01 9.365790606765316273e-01
1.050103242434810152e-01 -4.049808016476567213e-02 -8.474674910594183208e-01 -4.128783639077910905e-01 -2.435726244168699012e-02 -9.104604221948213727e-01
1.367934104273597629e-01 -9.494259131938014018e-03 -8.684166148990096756e-01 -5.871027704395062052e-01 -4.504086638863508685e-01 6.726383667606010697e-01
1.466784125061487420e-01 -6.219869958440635282e-02 -8.736033467763569815e-01 -9.513489697736264850e-01 3.027238827231351070e-01 -5.738805223815625356e-02
-1.153868084432300815e-02 -2.580209179915844975e-01 -1.010501416609651759e+00 -4.398573810810521567e-01 -1.339704227753275023e-01 8.880188118108298667e-01
9.862117630362871035e-02 -2.355602761618092941e-02 -8.421015076955822298e-01 4.383906171267960006e-01 5.206233134396768270e-01 -7.326424996669789191e-01
-3.595415515053862476e-02 -7.954608179052564954e-02 -9.554339566303242659e-01 1.718093495500435386e-01 -5.173661990189530879e-01 8.383398854401907796e-01
-1.367516316339591476e-01 -3.378183765039963985e-03 -9.148264316258652995e-01 8.965015765057345876e-01 -3.879850633431621842e-01 2.138983729375597276e-01
5.792359392981442229e-02 1.580250777889590230e-01 -7.936532550554830090e-01 -3.053422044098353869e-02 -4.758050474906995453e-02 -9.984005994338571721e-01
1.436862856604738739e-02 -9.027781796972236816e-03 -9.304635175211407594e-01 -2.094149692010550678e-01 -4.828559789059585494e-01 8.502914055247706715e-01
1.124722334682157036e-02 -2.400902311419672863e-01 -9.535657247167300676e-01 -4.565744033180442196e-01 1.129144294087933015e-01 -8.824908757976247520e-01
-6.117397974579191072e-02 -5.480679646407819218e-04 -9.214667540559292602e-01 4.629154667354952457e-03 -4.070915715140776547e-01 9.133756200650773316e-01
-8.068698756393757887e-02 -2.346824953519008883e-01 -9.754962516455646382e-01 9.289356422610879349e-01 2.369836391002279330e-01 -2.844597112699676078e-01
-1.285204186967337237e-01 -1.472261850985392972e-02 -8.927362958232287760e-01 8.001624039902851537e-01 -8.592888376969511077e-03 -5.997218434489681727e-01
-4.709884525997384136e-02 -2.138903491238135224e-01 -9.559654136605924002e-01 -6.567476312211989464e-01 1.574280136510267381e-01 -7.374950639856759915e-01
-1.095260232924902266e-01 -1.064388749120002975e-01 -9.130117014242681295e-01 4.672972074433604517e-01 3.737069499325960664e-01 -8.012343199637126379e-01
-6.127878027049595000e-02 -1.606437170600681918e-01 -9.836454067824449421e-01 6.527219343913860661e-02 -3.186451204005421034e-01 9.456240415770784669e-01
-1.068936210094128259e-01 -1.880554954365646070e-01 -9.667331579996865099e-01 8.830221644976958828e-01 4.502774099861317492e-01 -1.323711111307355470e-01
7.311984920758504702e-02 1.370769075050126129e-01 -8.313545259861014891e-01 -8.456760369246573150e-01 2.515050444365456439e-01 4.707199307384136722e-01
1.353391457999719716e-01 2.401827569850416982e-02 -8.467673269493627419e-01 -6.205701934208868176e-01 -5.104514548459070378e-01 5.952578830080792471e-01
6.464750796605842065e-02 -1.005179354307896705e-01 -8.968605401963426482e-01 -2.333752347562206286e-01 5.551211356403053243e-02 -9.708009090694822429e-01
-3.989196223683194598e-02 2.647376215295613178e-02 -9.103576714131896841e-01 -7.502374532993540124e-02 -3.314834215416879171e-01 9.404733802079061622e-01
3.320857757727607197e-03 -9.279861503747946494e-02 -8.940377241373689277e-01 1.166752244601266114e-01 3.605370651037736462e-01 -9.254187790851968742e-01
8.186540747652214234e-02 1.681360289226077886e-01 -8.114394318604919443e-01 -9.317880347343626690e-01 1.268957590814273340e-01 -3.401007566193037790e-01
2.581862627900854620e-02 1.075461952347811362e-01 -8.009140275363000328e-01 4.091034914648113974e-01 -7.427335177500886398e-02 -9.094601709186647120e-01
-1.747284150712131653e-02 -2.043083919386750880e-01 -1.003688953882468926e+00 -2.799751505526682505e-01 -1.417614103034537110e-01 9.494828158643981997e-01
-1.075837645875809406e-01 -5.501197707636705514e-03 -8.713601801459454066e-01 5.082264653407192467e-01 5.603825784432955176e-02 -8.593983788587521433e-01
2.882037494295829148e-03 -1.078820599352485893e-01 -8.996930538834894131e-01 1.962305767857774608e-01 3.584628324417195033e-01 -9.126872183240988257e-01
3.108534156504168602e-02 -1.978704626191201410e-01 -9.774717376462241925e-01 -6.542263059186499419e-01 -3.750928480692115596e-01 6.567292409900481465e-01
8.137152977911217555e-02 1.320934167544975243e-03 -8.914765319557181877e-01 -2.984637950044675136e-01 -3.513350379047653904e-01 8.874024195436860385e-01
-4.169692872944049528e-02 -6.415580494246818540e-03 -8.606847000581251406e-01 -4.435638735704211522e-02 3.180292709419738628e-01 -9.470427095568334508e-01
1.047766909148367502e-02 -1.951096120812410295e-01 -9.352458790382283116e-01 -1.500425181986289949e-02 2.961205897295551281e-01 -9.550327055999426884e-01
-9.832431501714734845e-02 -5.038337311765148790e-02 -9.468068566582817924e-01 1.203582340257880468e-01 -5.408341169671121440e-01 8.324736352741737289e-01
1.248450143776241722e-01 4.248754799524987608e-02 -8.372244753874362733e-01 -6.886630030475097142e-01 -6.708614296930748289e-01 2.751149039651423212e-01
1.226129552661461564e-01 -6.344088718075624467e-02 -8.587330387551190825e-01 -6.072192379583434274e-01 -4.397986329054043991e-03 -7.945221549897387714e-01
5.260085921584475854e-02 -1.599821014529718421e-01 -9.172171200728609364e-01 6.884989959768629542e-02 4.408534719372559363e-01 -8.949345828641643852e-01
-1.570190575552116510e-02 -1.513194183757111677e-01 -9.941857691065663083e-01 1.215288186887122784e-01 -2.066685174038012940e-01 9.708341105164366436e-01
-1.994174602355222245e-02 -1.233223841994368353e-01 -9.799055466334940512e-01 4.162079284843927529e-01 -4.372882706216177362e-01 7.972138537704206440e-01
-1.655620486492483459e-02 9.456765124601783368e-02 -8.554151853521005933e-01 1.205384117513068898e-01 -9.231919773934897933e-01 3.649480294079840981e-01
-1.590416090181418635e-02 -1.625647172335499269e-01 -9.960650183458117368e-01 -8.455705174089710521e-03 -1.388537420512639120e-01 9.902767993689289838e-01
-2.882278764470196791e-02 -2.525101839049085917e-01 -9.652867839417073048e-01 9.254769176670625264e-01 2.892999780616139494e-01 -2.445362908834250726e-01
-1.197899701173913978e-01 -1.482038534431029675e-01 -9.727520541974590262e-01 6.992193519509911637e-01 5.597579911143332754e-03 7.148852809761679916e-01
3.656649060658808542e-02 -1.478154365704505702e-01 -9.131570653883296362e-01 1.626760227752260257e-01 4.798507961889005857e-01 -8.621367206023140550e-01
-7.243381129581814848e-02 -1.753844803207517955e-01 -9.889591122606217199e-01 6.602859667264444898e-02 -4.118274341026186280e-01 9.088665407758691472e-01
-3.726414390272092536e-02 -2.634224567441270648e-01 -9.783263541847411204e-01 -8.306329979251697582e-01 1.241039501400535705e-01 -5.428139942166932963e-01
3.616917472186149951e-02 -2.274041218948418541e-01 -9.678314229838343996e-01 -7.551634477279310920e-01 6.534784482664202088e-01 -5.190457462474955264e-02
4.709362666695262462e-02 -1.311841624901497194e-01 -9.039577147507580346e-01 5.966342309329310950e-02 3.887321701667316720e-01 -9.194169760354951038e-01
5.681623741774836879e-04 4.236283878485330723e-02 -9.006959650816085405e-01 -5.576810624790435461e-02 -4.372240869920673845e-01 8.976218669793399885e-01
7.129434565648447297e-02 1.220112237287012263e-01 -8.117161809844546383e-01 -9.127211450020126238e-01 3.361383675866175258e-01 -2.322737809190260072e-01
2.608799377427427346e-02 -1.061073551275761584e-01 -8.960248257210383649e-01 9.809142694184089240e-02 3.285441754941434978e-01 -9.393810710831823618e-01
-2.627546678068649888e-02 -2.582406151602902877e-01 -9.634444089352443008e-01 8.735406420697482410e-01 3.217200894438843051e-01 -3.652710373141996869e-01
-2.072952056809066607e-02 9.456798748892920881e-02 -8.465185514573523307e-01 3.232607981335955949e-01 -9.118287089319808691e-01 -2.531222273082065488e-01
-4.170504310094937106e-02 -3.792723867165929269e-02 -9.377992872797367152e-01 -2.850202506621270140e-03 -2.090593075374989063e-01 9.778988098354619574e-01
6.182483951140598649e-02 1.791806279735922158e-01 -8.500643785249915041e-01 -8.219102904007955998e-03 2.110602031240336185e-01 9.774385080426772898e-01
5.335249058120843102e-02 -1.838246368615143456e-01 -9.628071933763311385e-01 -4.428455839924505533e-01 2.551372873419250134e-02 8.962348120802180462e-01
-7.876987694847052690e-02 -1.046120974263443221e-01 -9.645279938762684191e-01 1.407746112970655397e-02 -4.438709104110213355e-01 8.959801560185544078e-01
-6.744091830488421757e-03 -9.441262463990228448e-02 -8.963744283012341496e-01 3.131201594760807394e-01 3.915787966322804570e-01 -8.652293405552593519e-01
4.344047384526565636e-02 8.413897890183884287e-02 -8.631068144582217938e-01 -5.447197895793247646e-01 -3.839548753127063341e-01 7.455595244943629130e-01
-7.451845681574348346e-02 -2.189160788452127748e-01 -1.006436767675658261e+00 2.115854374646473079e-01 1.779030409357391374e-01 9.610317948323618964e-01
1.013538936606677918e-02 -1.268678590198928924e-01 -9.098670378802758973e-01 7.210355030842624524e-01 6.919374843638584904e-01 -3.647356610258753462e-02
1.019472999215651210e-01 -8.598688789716633918e-02 -8.674460019194537574e-01 -2.138076532980018665e-02 5.559105265152421982e-01 -8.309671169086407794e-01
4.947395866024131839e-02 2.275470530446612183e-01 -8.227700301395265425e-01 8.489574801592455477e-01 -2.707772287248415566e-01 -4.538181235756889587e-01
1.320003792765086781e-01 1.843158394111135343e-02 -8.537701416950035371e-01 -5.031349299504913608e-01 -4.816404204290966051e-01 7.175498224322806040e-01
-3.275374005433361047e-02 -2.201231862236408821e-01 -1.006917584194999105e+00 1.300558854827059962e-01 -1.790779371136355380e-01 9.752007788606581462e-01
7.316795586339881752e-02 1.411533746335975337e-01 -8.028205978681158816e-01 -7.846765904044994411e-01 1.690914363467209691e-01 -5.963981343241883115e-01
6.636661406629304483e-02 -3.548894661464526562e-02 -8.475785688271061380e-01 2.662178711768395933e-01 3.418317122566263411e-01 -9.012652914440758556e-01
-6.885815540807638246e-02 -2.003361334447308073e-01 -1.005395742815773374e+00 1.291533296693671007e-01 -3.991049736409576498e-01 9.077635360876569193e-01
-4.762345947827525960e-02 -6.154584323946919733e-02 -8.824238670002811924e-01 4.754258419207662428e-02 2.154399072804222548e-01 -9.753590872285665681e-01
-5.975799179156971591e-02 -1.996868174867606760e-01 -9.509798698026634689e-01 7.183984888674985747e-01 -3.210475542570125906e-01 -6.171159365131364538e-01
9.707121631120800564e-02 5.681054125558811230e-02 -8.174161483572616183e-01 -3.286029257241990242e-01 -3.828397931541699384e-01 -8.633966701251337694e-01
6.680846559695342857e-02 5.185632371632355186e-02 -8.666830484873369045e-01 -4.667143497124532359e-01 -5.688239281399519731e-01 6.772127099722191623e-01
4.165024196412963481e-02 -2.124074456042672754e-01 -9.710854190540892938e-01 -8.771257835653890611e-01 6.000576472504616510e-02 4.764972906581576018e-01
6.761258720085443208e-02 -1.273703303205560855e-01 -9.468221580727728126e-01 -5.188451363972641506e-01 -1.555507798089275362e-01 8.405972158755578016e-01
9.619905948727867917e-02 -1.414596280323387745e-01 -9.187138807437892352e-01 -5.942010048126222799e-01 5.751510972670577093e-01 -5.622511726907910568e-01
-9.970272817706631041e-02 1.804007266876691065e-02 -8.624528827140408582e-01 9.130211126724883941e-02 5.639678742273465106e-01 -8.207339162710598490e-01
-6.521133023679931418e-02 -2.187123367063546486e-01 -9.546619896846576525e-01 5.296659682102011768e-01 1.862552053401281826e-01 -8.275040547354781673e-01
2.770095410070463546e-02 -1.979447350616929946e-01 -9.809703331415978722e-01 -6.793003271955971867e-01 -3.979091995055942799e-01 6.166192783401863720e-01
-3.151525361172037663e-03 8.557041095642595185e-02 -8.654376588022366645e-01 -5.333068278789365041e-02 -7.120333353126303555e-01 7.001173956394374231e-01
-7.914452052924883518e-02 -1.269227830736690821e-01 -9.156897763199379758e-01 -2.108859854102999587e-01 7.679371585117761301e-01 -6.048137082890781002e-01
5.700304699262302016e-02 -1.008397195499298044e-01 -9.463271121408602937e-01 -4.505276687351212339e-01 -2.611738947821904411e-01 8.537054623161307587e-01
-8.731837404520054191e-02 -1.292852657496067481e-01 -9.770907083857633957e-01 2.647547091264119690e-01 -5.155446413252910975e-01 8.149347622946060410e-01
-1.034240033910620027e-01 4.537526560265780357e-02 -8.644341236510207915e-01 6.464784649024901686e-01 -3.536422047107829481e-01 -6.760198114438781269e-01
-3.047224589556155050e-02 9.120505950691377983e-02 -8.603521340133734041e-01 9.640386312446733164e-02 -9.515849658900129571e-01 2.918772822039805148e-01
-6.553197189803995626e-02 -2.140176261790988355e-01 -9.540715145929498098e-01 6.386784256984643360e-01 7.675817231421050435e-02 -7.656357172509086206e-01
-8.308642791079944023e-02 -1.325480912890270591e-01 -9.217288700932086964e-01 -3.369232889776244688e-01 8.046263852614569112e-01 -4.889366804460285043e-01
1.001316923880437026e-01 -1.861017645952206881e-02 -8.324152027889007988e-01 4.601498134427887687e-01 6.780832792610345106e-01 -5.731188494327934535e-01
2.684012128997366464e-02 -3.388757268563796082e-02 -9.356888455101125546e-01 -3.476484957808358423e-01 -3.076895397066706783e-01 8.857017954912475011e-01
7.325430417830812446e-02 -5.647962104027479113e-02 -9.273627857862268842e-01 -4.548124518923985504e-01 -3.203469236672991105e-01 8.309774257466459035e-01
-2.880757255843580111e-02 -3.147741230771426008e-02 -8.785446822794680255e-01 1.765939513141646933e-02 6.396813416826565568e-01 -7.684373278717459010e-01
3.594611600119226869e-02 -1.074224805916276365e-01 -9.650207796893908174e-01 -3.046914629736177105e-01 -2.785834795796434116e-01 9.107987468679867860e-01
9.311956563843881707e-02 -3.412636515250331432e-02 -8.438419742641493082e-01 -2.517754996227816733e-01 -6.415323510400681994e-02 -9.656570096133455516e-01
5.147977088444788407e-02 -1.488578000020140957e-02 -9.148214385360935452e-01 -4.446569134887704555e-01 -5.061170382556480218e-01 7.390032292716799400e-01
