-4.178102094090998392e-02 1.505325257864222610e-01 -6.455371808664170930e-01 2.237259639977195666e-02 -5.082907359561364968e-01 8.608948801517534166e-01
-5.838238417078324416e-02 -6.390414794336668480e-02 -7.593587708325171270e-01 -1.282106423296414943e-01 -3.501041891111418281e-01 9.278949767943839300e-01
8.567609687373659022e-02 -1.527147555284490976e-01 -7.364613060392116717e-01 -6.043348346329376897e-01 -2.922077320688915569e-01 7.412112040223991505e-01
-2.248384858305940703e-01 -6.813791565009946760e-02 -7.319270529060829533e-01 4.766871566363531931e-01 -5.634961124611134187e-01 6.747158557045779270e-01
-1.038048372843443229e-01 -1.112392908913675399e-01 -7.766722302736041028e-01 -5.639937728357882069e-02 -2.838248455895952538e-01 9.572160504651323620e-01
6.354657117373459577e-03 3.853305071188111580e-02 -7.094022303550078234e-01 6.273854207114193393e-02 -4.134643288571510089e-01 9.083562759740768655e-01
-4.280811395695901383e-02 1.055096446923944192e-01 -6.733656020043832235e-01 5.393244736159225061e-02 -5.586944904576819360e-01 8.276181229611999646e-01
2.882758680360591325e-02 -3.125285216786452547e-02 -7.201160716310638366e-01 -5.079379547609106371e-01 -2.560779282748921748e-01 8.224494688208767723e-01
-1.206479671973168660e-02 2.262276664925592651e-01 -5.924446471306246131e-01 2.339630525262162419e-02 -8.538739266544098649e-01 5.199537770612936427e-01
-6.902870666363553065e-02 4.168711800698827324e-02 -6.989891162824194426e-01 -3.817798467799516926e-01 -5.017430882977602646e-01 7.762074606302765689e-01
1.994417770292472580e-01 -1.340851631087083308e-02 -5.715934475304041973e-01 -8.340801743535665169e-01 -4.160084554096454140e-02 5.500723883277550685e-01
-5.148129532926192659e-02 -1.413169794705828042e-01 -7.807392382676919818e-01 -2.774454402449500479e-01 -3.610632230715736801e-01 8.903130778734259509e-01
6.087951232835078774e-02 1.446394272704826789e-01 -6.113057322158452767e-01 -5.473484789353023627e-01 -4.461499008667689781e-01 7.080677287970289502e-01
7.471837098417226895e-03 9.036914194186038141e-02 -6.858847130627627742e-01 6.273854207114193393e-02 -4.134643288571510089e-01 9.083562759740768655e-01
-2.905522503236635523e-01 -9.527878795102101561e-02 -6.932381835442001927e-01 7.194984744209216299e-01 -5.146196459895432396e-01 4.663566931733298393e-01
3.647767924558534009e-03 -3.126607740719345233e-03 -7.266792052190405027e-01 -6.601868548189335217e-02 -3.614058543676608726e-01 9.300684607038472995e-01
-1.939925563902252237e-01 8.553635502789722067e-02 -6.829681644672253027e-01 3.974308630982553714e-01 -6.633622824136081730e-02 9.152312351967045734e-01
6.558612540979190386e-02 3.059625333999802313e-02 -6.687851302869193271e-01 -5.465155079548005279e-01 -4.584559834675788204e-01 7.008130355434900594e-01
9.237741246843862719e-02 -1.723701116041644332e-01 -7.416264103712572053e-01 -5.174083108619718097e-01 -4.891258766833327942e-01 7.021712872296345109e-01
-1.476277073021527442e-01 -1.171986695014202717e-01 -7.721013683478047396e-01 1.650243882654739147e-01 -3.113526053036241303e-01 9.358560286968566899e-01
1.555366249858426420e-01 5.615282792954364582e-02 -5.937193971238801105e-01 -4.295756852875465270e-01 -6.599139378923358779e-01 6.164238194498693479e-01
-1.975194123760310588e-02 6.353852565115393480e-02 -6.962171375125484341e-01 6.273854207114193393e-02 -4.134643288571510089e-01 9.083562759740768655e-01
1.154200196138923940e-01 -8.694356709686426599e-02 -6.978758575657558749e-01 -5.149974907184825534e-01 -1.902962895072136118e-01 8.358019542651555778e-01
1.733062609851957203e-01 -9.478486334230845634e-02 -6.471855982233611915e-01 -4.332323567191756486e-01 -6.419843121097246197e-01 6.325866486866065230e-01
1.429744053004423920e-01 5.031232233170718215e-02 -6.087263694155978788e-01 -4.295756852875465270e-01 -6.599139378923358779e-01 6.164238194498693479e-01
-4.306389773420826045e-02 1.789248372338251292e-01 -6.287834498296485108e-01 2.270344163306781821e-02 -5.071061681264793508e-01 8.615845216727681111e-01
1.430281751354304520e-01 -7.893915214650704809e-03 -6.550858594879455099e-01 -5.955919126462432267e-01 -2.450917600999463764e-01 7.649838578176013648e-01
1.409197197371277362e-03 1.560347219722426626e-01 -6.434278760419470666e-01 2.270344163306781821e-02 -5.071061681264793508e-01 8.615845216727681111e-01
-1.973776693282629502e-01 -6.143293980350819639e-02 -7.378256870618747909e-01 2.018112557543683683e-01 -6.868134507881814566e-01 6.982546103444468022e-01
4.305742925122520680e-03 1.781543055179469759e-01 -6.304851926312724508e-01 2.270344163306781821e-02 -5.071061681264793508e-01 8.615845216727681111e-01
-7.657223166018749250e-02 -7.940185712104126659e-02 -7.653831796387671194e-01 -6.822383675208060216e-02 -4.215362419546098138e-01 9.042415080152038653e-01
-1.155428457864127872e-01 -1.195316927322028905e-01 -7.798226225394281341e-01 -5.639937728357882069e-02 -2.838248455895952538e-01 9.572160504651323620e-01
-7.054856866426960360e-02 1.478096248121898160e-01 -6.463972401170562376e-01 2.237259639977195666e-02 -5.082907359561364968e-01 8.608948801517534166e-01
2.784423963681957256e-02 9.798186325782402839e-02 -6.657791812603468529e-01 -6.259404198456317570e-01 -4.457345801144603215e-01 6.399369304030358974e-01
2.045413988019900708e-01 3.340936864667760908e-02 -5.247785246002469872e-01 -9.862897807418132823e-01 -1.146825075488065587e-01 -1.186608227958307338e-01
1.957856165547497973e-01 4.397252342943377967e-02 -5.727977093855227686e-01 -8.340801743535665169e-01 -4.160084554096454140e-02 5.500723883277550685e-01
4.901969286168208345e-02 -1.392897166374417739e-01 -7.488582742760641064e-01 -2.858347865683263378e-01 -4.232125993194478797e-01 8.597613451212583469e-01
1.403422281946471728e-01 -1.258888887838117421e-01 -6.921212784683590247e-01 -4.991642923278379329e-01 -2.336531769776845624e-01 8.344106915380958833e-01
5.823629536604466028e-02 1.199625573533125156e-01 -6.249115178075119736e-01 -5.717985241098455518e-01 -3.437359721469597229e-01 7.449107525589806489e-01
5.075937777762029590e-02 1.121624335526027610e-01 -6.342501849640245215e-01 -5.717985241098455518e-01 -3.437359721469597229e-01 7.449107525589806489e-01
8.921125539721583633e-03 1.735573875272257427e-01 -6.332493941608273724e-01 -5.473484789353023627e-01 -4.461499008667689781e-01 7.080677287970289502e-01
1.674777116137365907e-01 -7.554953749314613498e-03 -6.268945572895722185e-01 -8.474673018088811904e-01 2.784644682715364111e-02 5.301167303187829249e-01
6.615469684488524404e-02 -4.144668574978451620e-02 -7.067312567042925986e-01 -2.510307014867053654e-01 -4.641106092327649812e-01 8.494615525782696075e-01
-6.702092312576836582e-03 2.176349085824497154e-01 -6.045707834764962874e-01 1.586068368456549915e-01 -6.269500493845726607e-01 7.627434082851832775e-01
-7.452205324589235291e-02 1.268843440321532900e-01 -6.586487117474474351e-01 2.237259639977195666e-02 -5.082907359561364968e-01 8.608948801517534166e-01
-1.685276211928735945e-01 -5.950898751614613208e-02 -7.442715709364140508e-01 2.018112557543683683e-01 -6.868134507881814566e-01 6.982546103444468022e-01
2.018004284919802660e-02 1.164897309734830647e-02 -7.120988073574623378e-01 -5.079379547609106371e-01 -2.560779282748921748e-01 8.224494688208767723e-01
1.353761152243807830e-01 -1.317589476834365725e-01 -6.967358696000580665e-01 -4.991642923278379329e-01 -2.336531769776845624e-01 8.344106915380958833e-01
-1.300286595970909509e-01 5.489098690928684993e-02 -7.048114607085528283e-01 -2.352644659146169159e-02 -5.543750388175968657e-01 8.319343860225798526e-01
-1.971147511646535039e-02 -1.283753336081270569e-01 -7.655904726732267740e-01 -2.774454402449500479e-01 -3.610632230715736801e-01 8.903130778734259509e-01
-2.180058999620295146e-01 1.024060611560649037e-01 -6.624342795596726008e-01 6.009480104381021981e-01 -2.494461439916055845e-01 7.593669139475369700e-01
1.038185795100611541e-01 -1.581230098086154889e-01 -7.238012160739347722e-01 -6.043348346329376897e-01 -2.922077320688915569e-01 7.412112040223991505e-01
-1.625262506684748143e-01 4.157563947568546081e-02 -7.073940911727224501e-01 5.861438347289904538e-01 -1.289947332303289507e-01 7.998723421946967171e-01
1.004102233837738389e-01 -7.471910325357019982e-03 -6.756745583603724903e-01 -3.313898241773260978e-01 -5.580557347154349035e-01 7.607592138008825167e-01
-2.077707096670789177e-01 -3.364390730293195797e-02 -7.072970421637642113e-01 2.867647296946816415e-01 -6.777389696032751765e-01 6.770789310591690535e-01
-6.690475715426184855e-02 1.596291248029505644e-02 -7.145726578228349668e-01 -3.817798467799516926e-01 -5.017430882977602646e-01 7.762074606302765689e-01
-4.767797838945014161e-02 -2.269194863703315884e-02 -7.365494288261082989e-01 -3.175978150910985232e-01 -5.889734322451217752e-01 7.431298163569816095e-01
-1.163331547408487238e-01 8.949353560550100950e-02 -6.822397112835745236e-01 -9.873342384274139127e-02 -4.668955259781517597e-01 8.787834083765319049e-01
-1.093816658662744891e-02 2.871047467614713453e-02 -7.112509806705966664e-01 1.254596516290492625e-01 -3.311502110477402838e-01 9.352001997092145302e-01
-1.774186951239901666e-01 1.343129369832030129e-01 -6.562570538436953704e-01 6.423530327320962907e-02 -7.777546316201311427e-01 6.252771855799899026e-01
-1.588667288938863664e-01 -2.260613322819148702e-02 -7.204263167223845521e-01 5.861438347289904538e-01 -1.289947332303289507e-01 7.998723421946967171e-01
-5.106175386554812762e-02 -1.203401249921153410e-01 -7.729436821368658173e-01 -2.883125251686639023e-01 -1.678416143756314705e-01 9.427115573252775604e-01
-3.107802039622152915e-02 4.718633938898451202e-02 -7.020069433570403916e-01 1.254596516290492625e-01 -3.311502110477402838e-01 9.352001997092145302e-01
2.125036213906543181e-01 -1.211802110724407577e-01 -6.517410266457510648e-01 -2.942051440821853436e-01 -6.021666453559861854e-01 7.421850607606557126e-01
7.398086500640985164e-02 6.210645300476326514e-02 -6.416253972539818218e-01 -5.465155079548005279e-01 -4.584559834675788204e-01 7.008130355434900594e-01
-1.736013567841344918e-01 -2.827630753498903277e-02 -7.152310811751280140e-01 4.124009120254447658e-01 -5.299770981218328014e-01 7.409789222555134280e-01
-2.451205924881440928e-02 -8.518698469325241759e-03 -7.257933258032827073e-01 1.385762676755043776e-01 -4.087387075247498336e-01 9.020694468876128136e-01
-1.913356836061960442e-01 2.910371502344985192e-02 -6.897245007219996449e-01 5.279636872322129859e-01 -7.779647421629708182e-02 8.456961946016305909e-01
5.969947271218585538e-02 2.704178146545837061e-02 -6.757009775133865359e-01 -5.465155079548005279e-01 -4.584559834675788204e-01 7.008130355434900594e-01
8.626707159486729504e-02 -1.067805455578572649e-01 -7.203555830283804307e-01 -5.149974907184825534e-01 -1.902962895072136118e-01 8.358019542651555778e-01
-1.587971809925964317e-01 -7.356327087233142936e-02 -7.609078853036718160e-01 2.018112557543683683e-01 -6.868134507881814566e-01 6.982546103444468022e-01
1.155227961535323367e-01 -1.955029039467848229e-01 -7.406853771019450416e-01 -5.174083108619718097e-01 -4.891258766833327942e-01 7.021712872296345109e-01
-1.774732486470541326e-01 1.292006356070909412e-01 -6.610977587245734366e-01 8.523497670982359276e-02 -6.840879834244965041e-01 7.244022568155632502e-01
-1.657682206511067735e-01 8.802746268027567336e-04 -7.115812931023537402e-01 5.861438347289904538e-01 -1.289947332303289507e-01 7.998723421946967171e-01
-2.196574402802667081e-01 1.390879352536180946e-01 -6.463923226144026035e-01 -2.507525904608896017e-01 -6.600496534515448710e-01 7.081367052735290102e-01
4.907535327406097742e-02 -1.217302134879752196e-01 -7.420906094402676123e-01 -2.747059420329394652e-01 -3.155345731624413785e-01 9.082811120743351507e-01
1.245566749530935963e-02 1.552388507681334018e-01 -6.420595502267840704e-01 -5.473484789353023627e-01 -4.461499008667689781e-01 7.080677287970289502e-01
1.857907819622244550e-01 -7.998460036765807357e-02 -6.236153329938164402e-01 -4.332323567191756486e-01 -6.419843121097246197e-01 6.325866486866065230e-01
1.002404171839926250e-01 -1.465702773407148995e-01 -7.236516116589404302e-01 -5.715756282739161698e-01 -1.670484917132931402e-01 8.033654850562053085e-01
-2.323796293827683213e-01 -6.165994328736378732e-02 -7.211890830489215976e-01 4.766871566363531931e-01 -5.634961124611134187e-01 6.747158557045779270e-01
-5.091167242496026646e-02 -1.272527371897037296e-01 -7.748580263035163007e-01 -2.774454402449500479e-01 -3.610632230715736801e-01 8.903130778734259509e-01
-7.435472401254278330e-02 -1.717621018302235153e-02 -7.434098366347134945e-01 -1.786126110488620855e-01 -3.925688993965433804e-01 9.022123887427474509e-01
-2.390653322824959435e-03 1.579472453408155286e-01 -6.422020855886337865e-01 2.270344163306781821e-02 -5.071061681264793508e-01 8.615845216727681111e-01
-2.346963917418175560e-01 6.295588353870457121e-02 -6.622856656672903020e-01 5.869400886618760804e-01 -2.497161850782336212e-01 7.701578794192540656e-01
-1.863225588414543221e-01 3.820992052510739645e-02 -6.920164788179200555e-01 5.279636872322129859e-01 -7.779647421629708182e-02 8.456961946016305909e-01
-2.851607311181653462e-02 -6.847933606196958400e-02 -7.565771046329792249e-01 -2.401323629343627142e-01 -1.445363096672523107e-01 9.599196338544866425e-01
-1.480958115054943347e-01 -2.513376826640936756e-02 -7.287268392918019311e-01 5.861438347289904538e-01 -1.289947332303289507e-01 7.998723421946967171e-01
9.020327625976927444e-02 -7.039981716518342592e-02 -7.092854835184561058e-01 -5.073718743146529153e-01 -2.029211728486932098e-01 8.374943455117452862e-01
1.068760679006872799e-01 -1.039850440596296749e-01 -7.070204204467762654e-01 -5.149974907184825534e-01 -1.902962895072136118e-01 8.358019542651555778e-01
-1.010054301194888010e-01 4.041595607764282561e-02 -7.136364142677662503e-01 -2.352644659146169159e-02 -5.543750388175968657e-01 8.319343860225798526e-01
-5.680355388932963739e-02 4.374422496714305136e-02 -6.997746303684176938e-01 1.254596516290492625e-01 -3.311502110477402838e-01 9.352001997092145302e-01
1.533104584814840889e-02 -1.869202746135193577e-02 -7.261509981108562606e-01 -6.707219276423372900e-01 -2.706032115734397503e-01 6.905838092989780019e-01
-1.033941526044656056e-01 -9.723932135948863686e-02 -7.725585228375979607e-01 -2.659564873093606119e-02 -2.421881248598438119e-01 9.698647244051374905e-01
5.350265442955234180e-02 -1.489948871719965762e-01 -7.521451911651022559e-01 -2.858347865683263378e-01 -4.232125993194478797e-01 8.597613451212583469e-01
-1.687104112660789759e-02 1.901730217688060998e-01 -6.228532646438700304e-01 2.270344163306781821e-02 -5.071061681264793508e-01 8.615845216727681111e-01
1.003114333171740008e-01 -8.256530071098711066e-02 -7.061093899520319850e-01 -5.073718743146529153e-01 -2.029211728486932098e-01 8.374943455117452862e-01
2.676324563277991675e-02 -4.227663949281406514e-02 -7.248233588248954584e-01 -5.079379547609106371e-01 -2.560779282748921748e-01 8.224494688208767723e-01
-1.481397206091693008e-01 -6.470209776860101625e-02 -7.554552166934419555e-01 4.124009120254447658e-01 -5.299770981218328014e-01 7.409789222555134280e-01
2.383236740082386382e-02 -4.873159799175687257e-02 -7.296650994376163712e-01 -6.707219276423372900e-01 -2.706032115734397503e-01 6.905838092989780019e-01
-1.207843031335455869e-01 3.699573270946290848e-02 -7.164748749706515429e-01 -2.352644659146169159e-02 -5.543750388175968657e-01 8.319343860225798526e-01
6.582984085520975082e-02 -1.546592447907185197e-01 -7.508351634509432548e-01 -2.858347865683263378e-01 -4.232125993194478797e-01 8.597613451212583469e-01
2.019768379087654164e-01 5.307593047064140812e-02 -5.224695099668900111e-01 -9.862897807418132823e-01 -1.146825075488065587e-01 -1.186608227958307338e-01
-1.466687420501179284e-01 1.470855376276171932e-02 -7.233472536861486057e-01 5.861438347289904538e-01 -1.289947332303289507e-01 7.998723421946967171e-01
1.346541185972411347e-01 -5.115401844005428370e-03 -6.587058012655795380e-01 -3.389475547336455730e-01 -5.575756117234589304e-01 7.577756873582660591e-01
1.797074565808457203e-01 2.524862550926071023e-02 -6.039810460469380304e-01 -8.891407627011493897e-01 -1.272185869082408625e-02 4.574569470613262245e-01
9.583671026528037262e-02 6.535793335860226594e-02 -6.242138694358722040e-01 -3.389475547336455730e-01 -5.575756117234589304e-01 7.577756873582660591e-01
1.518809450092752089e-01 -1.522617999057316041e-01 -6.946105374843881686e-01 -4.368592891566774328e-01 -3.585915049078082784e-01 8.249642986732672600e-01
-5.444076193689539184e-02 2.354611055782746681e-02 -7.072436673797521944e-01 1.254596516290492625e-01 -3.311502110477402838e-01 9.352001997092145302e-01
8.215311963402854856e-02 -9.521184579141341031e-02 -7.201742842061146233e-01 -5.073718743146529153e-01 -2.029211728486932098e-01 8.374943455117452862e-01
-2.250547914716245490e-01 1.453917741072641989e-01 -6.424277676958449756e-01 -2.507525904608896017e-01 -6.600496534515448710e-01 7.081367052735290102e-01
-1.466743099441205345e-01 -6.036585295841278426e-02 -7.531693571424904476e-01 4.124009120254447658e-01 -5.299770981218328014e-01 7.409789222555134280e-01
-4.690845464178439173e-02 -1.174163964875114541e-01 -7.711529207039806710e-01 -2.883125251686639023e-01 -1.678416143756314705e-01 9.427115573252775604e-01
6.212652992863325341e-02 -7.363974986128767053e-02 -7.248105157256081732e-01 -4.444958131956012193e-01 -2.491151122961192399e-01 8.604447297050943355e-01
-1.717649172702211402e-01 -1.183293683335095020e-01 -7.682213032834300792e-01 1.650243882654739147e-01 -3.113526053036241303e-01 9.358560286968566899e-01
3.163370446928304852e-02 1.093691298179245153e-01 -6.541410379790243423e-01 -6.259404198456317570e-01 -4.457345801144603215e-01 6.399369304030358974e-01
-2.319450004494690368e-02 -1.328728682189845300e-01 -7.684998354485392813e-01 -2.774454402449500479e-01 -3.610632230715736801e-01 8.903130778734259509e-01
-6.485660007824853301e-02 -1.802405051065559399e-02 -7.401916252152187514e-01 -3.175978150910985232e-01 -5.889734322451217752e-01 7.431298163569816095e-01
-2.080824194980773756e-01 -6.443968750091938480e-02 -7.376892550051618036e-01 2.018112557543683683e-01 -6.868134507881814566e-01 6.982546103444468022e-01
-2.120779739870354286e-01 4.619327227872254554e-02 -6.779663340751049816e-01 3.974308630982553714e-01 -6.633622824136081730e-02 9.152312351967045734e-01
-5.798415658116594373e-02 -7.691818741446120045e-02 -7.642140754022153093e-01 -1.282106423296414943e-01 -3.501041891111418281e-01 9.278949767943839300e-01
3.227213857656986706e-02 -1.202903209023053754e-01 -7.466724585780667445e-01 -2.747059420329394652e-01 -3.155345731624413785e-01 9.082811120743351507e-01
-1.049017308251573716e-01 1.531468435658604223e-02 -7.304733004820209707e-01 -2.352644659146169159e-02 -5.543750388175968657e-01 8.319343860225798526e-01
-1.346510763635517804e-01 9.246450311839830849e-02 -6.827193057728160319e-01 -9.873342384274139127e-02 -4.668955259781517597e-01 8.787834083765319049e-01
-1.449531535401771265e-01 -1.177637649425199717e-01 -7.727609896114988608e-01 1.650243882654739147e-01 -3.113526053036241303e-01 9.358560286968566899e-01
-2.212736735768312257e-01 -1.160709472923022040e-01 -7.526188174595720426e-01 3.420178866817642493e-01 -4.380526543742243595e-01 8.313444756449857032e-01
2.046635036735541813e-01 1.899156823907980143e-02 -5.590368716743351341e-01 -9.596069732458002433e-01 -2.250526509722661772e-01 1.688364924664964573e-01
-3.821242459078416642e-02 2.752054382930436364e-03 -7.185817541543503273e-01 1.385762676755043776e-01 -4.087387075247498336e-01 9.020694468876128136e-01
-4.338660971567449842e-02 1.521243584605149191e-01 -6.445556034281514357e-01 2.237259639977195666e-02 -5.082907359561364968e-01 8.608948801517534166e-01
1.060322879016046133e-01 -9.575367644798656042e-02 -7.056662071357835408e-01 -5.149974907184825534e-01 -1.902962895072136118e-01 8.358019542651555778e-01
-2.151224822415926108e-01 8.946491373881874931e-02 -6.689672261146237808e-01 6.009480104381021981e-01 -2.494461439916055845e-01 7.593669139475369700e-01
-1.923212543115838669e-01 -6.134397492679675989e-02 -7.391995973460974145e-01 2.018112557543683683e-01 -6.868134507881814566e-01 6.982546103444468022e-01
1.420628199484585963e-01 4.306578805488780332e-02 -6.171194322884464567e-01 -4.295756852875465270e-01 -6.599139378923358779e-01 6.164238194498693479e-01
7.078866066150880931e-02 1.129074303344816121e-01 -6.185317964928842560e-01 -5.717985241098455518e-01 -3.437359721469597229e-01 7.449107525589806489e-01
4.139311826508308700e-02 -1.408897449942257407e-01 -7.521813970218567125e-01 -2.858347865683263378e-01 -4.232125993194478797e-01 8.597613451212583469e-01
-2.092767179265279665e-01 -4.027320665180657983e-02 -7.132949609767248456e-01 2.867647296946816415e-01 -6.777389696032751765e-01 6.770789310591690535e-01
5.993918824140388041e-02 -1.066788735352384304e-01 -7.346436300956404875e-01 -3.192631049261714371e-01 -1.612261459828444043e-01 9.338507373688896829e-01
1.516730060515471615e-02 1.548172099149094927e-02 -7.140012706238003659e-01 -5.079379547609106371e-01 -2.560779282748921748e-01 8.224494688208767723e-01
1.554477381750037079e-01 7.975481358416483535e-02 -5.890712828155634240e-01 -4.369829868997374134e-01 -1.137068629270987091e-01 8.922536738413924251e-01
-1.477696242789646730e-01 -1.555765968733618596e-02 -7.274215373271412099e-01 5.861438347289904538e-01 -1.289947332303289507e-01 7.998723421946967171e-01
1.443274181828205494e-01 -2.028024107054893568e-02 -6.580427424737632647e-01 -5.955919126462432267e-01 -2.450917600999463764e-01 7.649838578176013648e-01
2.580823406453842672e-01 -1.204725019024021071e-01 -6.302594789690237898e-01 -3.713182692492708048e-01 -6.270171652448387478e-01 6.848154623035701549e-01
6.727297819050542804e-02 3.593748234591875867e-02 -6.639755599305150469e-01 -5.465155079548005279e-01 -4.584559834675788204e-01 7.008130355434900594e-01
-1.964953242686222901e-01 1.332333094402984586e-01 -6.550513254870529156e-01 8.523497670982359276e-02 -6.840879834244965041e-01 7.244022568155632502e-01
1.934014931255620129e-01 -9.747735546770278092e-02 -6.370991894026416524e-01 -1.453776947870997205e-01 -6.719596694095646416e-01 7.261787166706122898e-01
-1.639231229880662097e-02 1.530549670017148089e-01 -6.447125980458709993e-01 2.270344163306781821e-02 -5.071061681264793508e-01 8.615845216727681111e-01
5.878048312842520939e-02 1.322028708394798642e-02 -6.854593417446361858e-01 -5.465155079548005279e-01 -4.584559834675788204e-01 7.008130355434900594e-01
-1.535211343732811873e-01 -3.544624313297840140e-02 -7.315351936606470096e-01 4.124009120254447658e-01 -5.299770981218328014e-01 7.409789222555134280e-01
-2.025758846347505970e-01 5.754609025663837835e-02 -6.812696746208413145e-01 3.974308630982553714e-01 -6.633622824136081730e-02 9.152312351967045734e-01
6.317018170548477016e-03 -2.342494728432168577e-02 -7.343772604214712230e-01 -6.601868548189335217e-02 -3.614058543676608726e-01 9.300684607038472995e-01
-1.473183425671372414e-02 8.347684585657570711e-02 -6.874883708391976711e-01 6.273854207114193393e-02 -4.134643288571510089e-01 9.083562759740768655e-01
1.398904542642279702e-01 3.162748483200593375e-02 -6.293280037770365709e-01 -3.389475547336455730e-01 -5.575756117234589304e-01 7.577756873582660591e-01
-1.720009821346520085e-01 -1.207811057599216115e-01 -7.689953522323895729e-01 1.650243882654739147e-01 -3.113526053036241303e-01 9.358560286968566899e-01
6.214220991691984247e-02 2.653204505322178525e-02 -6.741295140841853106e-01 -5.465155079548005279e-01 -4.584559834675788204e-01 7.008130355434900594e-01
-2.604893666716320832e-02 1.127106314412104487e-01 -6.695966074779511334e-01 5.393244736159225061e-02 -5.586944904576819360e-01 8.276181229611999646e-01
-1.498203265637078063e-01 9.560569767438083233e-02 -6.827546982536901732e-01 -9.873342384274139127e-02 -4.668955259781517597e-01 8.787834083765319049e-01
1.180793085220381983e-01 -9.237842124917308717e-03 -6.691529080264020379e-01 -3.389475547336455730e-01 -5.575756117234589304e-01 7.577756873582660591e-01
1.873461775413899355e-01 7.333939627123196858e-02 -5.472753887776671267e-01 -7.626324739501809669e-01 -5.722319890756535354e-01 3.015663448648532308e-01
2.008432060595192192e-01 6.221102845823345967e-02 -5.218757709176076176e-01 -9.862897807418132823e-01 -1.146825075488065587e-01 -1.186608227958307338e-01
-3.417112084237285130e-02 1.747559369146642338e-01 -6.314714875659510618e-01 2.270344163306781821e-02 -5.071061681264793508e-01 8.615845216727681111e-01
-7.065780505679260248e-02 -1.230941631048248774e-01 -7.782342969546941491e-01 -5.639937728357882069e-02 -2.838248455895952538e-01 9.572160504651323620e-01
-1.885122188064675686e-01 -7.771204153795045755e-02 -7.538004186765639991e-01 2.774796490641930902e-01 -1.293580141343204370e-01 9.519829560104723365e-01
2.658028289917344078e-01 -1.304338026394297467e-01 -6.318613808634780948e-01 -4.247561662270395999e-01 -5.650084169969602499e-01 7.073525909860629568e-01
-5.218644810050518563e-03 1.380925984446738919e-01 -6.538321484321573118e-01 2.237259639977195666e-02 -5.082907359561364968e-01 8.608948801517534166e-01
-1.478712268529532026e-01 5.554383848556376790e-02 -7.048809945427479962e-01 -2.352644659146169159e-02 -5.543750388175968657e-01 8.319343860225798526e-01
-3.455059552536966089e-02 1.249058983395987532e-01 -6.608555908357220954e-01 2.237259639977195666e-02 -5.082907359561364968e-01 8.608948801517534166e-01
-2.348521888248381873e-01 7.301374181689018750e-02 -6.589057696452300661e-01 5.869400886618760804e-01 -2.497161850782336212e-01 7.701578794192540656e-01
-2.219331893545639089e-01 -9.645609901869779679e-02 -7.459011017788897968e-01 4.957699240221833947e-01 -2.050855828151733895e-01 8.438910392677475558e-01
1.939673720734816365e-01 2.425260742982969162e-02 -5.770461081474352882e-01 -8.340801743535665169e-01 -4.160084554096454140e-02 5.500723883277550685e-01
-1.296716102034254636e-01 -3.069000251306569504e-02 -7.431240828892345940e-01 5.861438347289904538e-01 -1.289947332303289507e-01 7.998723421946967171e-01
7.383650638554052625e-02 1.309889359615472593e-01 -6.078486138780838655e-01 -5.717985241098455518e-01 -3.437359721469597229e-01 7.449107525589806489e-01
1.526315742192841385e-01 -1.367036824796703451e-02 -6.494596678458551819e-01 -5.955919126462432267e-01 -2.450917600999463764e-01 7.649838578176013648e-01
-1.315950042525743657e-01 1.045348969166737391e-01 -6.758898186058476254e-01 -9.919457694898951849e-02 -4.771166546998978908e-01 8.732239882824389676e-01
-1.655373781410238443e-01 3.156443921866840252e-02 -7.068020445770757387e-01 5.861438347289904538e-01 -1.289947332303289507e-01 7.998723421946967171e-01
2.193543165536204764e-01 -1.040652804935327247e-01 -6.351393045940338933e-01 -2.942051440821853436e-01 -6.021666453559861854e-01 7.421850607606557126e-01
-1.431291936485864225e-01 -1.075475169945197262e-01 -7.710825807638381768e-01 2.774796490641930902e-01 -1.293580141343204370e-01 9.519829560104723365e-01
-1.668019703841954748e-01 1.536156106354334867e-02 -7.084883799174148677e-01 5.861438347289904538e-01 -1.289947332303289507e-01 7.998723421946967171e-01
1.283146838867446106e-02 7.198042389726268253e-02 -6.923143351338262308e-01 -6.385356080359039233e-01 -2.958617461647242153e-01 7.104492271982416618e-01
5.094036098417278891e-02 2.646670382399809313e-02 -6.829078043342332593e-01 -5.465155079548005279e-01 -4.584559834675788204e-01 7.008130355434900594e-01
7.698160982351827386e-02 1.138557460329436694e-01 -6.133404505551959263e-01 -5.717985241098455518e-01 -3.437359721469597229e-01 7.449107525589806489e-01
-2.167192550933422779e-01 -3.213603622588867559e-02 -7.019977040278692071e-01 2.867647296946816415e-01 -6.777389696032751765e-01 6.770789310591690535e-01
-4.316410908861069429e-03 -4.953121720232222386e-02 -7.452764191633814983e-01 -6.601868548189335217e-02 -3.614058543676608726e-01 9.300684607038472995e-01
1.913353266714683532e-01 6.944812442171068023e-02 -5.445710271888176690e-01 -7.626324739501809669e-01 -5.722319890756535354e-01 3.015663448648532308e-01
-1.683410986031903533e-01 -1.923563876292850444e-02 -7.129399728252793222e-01 5.861438347289904538e-01 -1.289947332303289507e-01 7.998723421946967171e-01
-1.353801839076734514e-01 -9.649471924159201686e-02 -7.718393427741326862e-01 2.774796490641930902e-01 -1.293580141343204370e-01 9.519829560104723365e-01
2.101676645288588774e-01 3.097867526109473069e-03 -5.489388671819621646e-01 -9.596069732458002433e-01 -2.250526509722661772e-01 1.688364924664964573e-01
1.895201288190950795e-01 -6.344051328987455191e-03 -5.861034693417550567e-01 -8.340801743535665169e-01 -4.160084554096454140e-02 5.500723883277550685e-01
-1.456973043879768448e-01 -1.976546712437691686e-02 -7.296187160928081505e-01 5.861438347289904538e-01 -1.289947332303289507e-01 7.998723421946967171e-01
1.623548641712516116e-01 -7.118696670818216998e-02 -6.368781989779039865e-01 -8.125827902628711685e-01 -2.069840739254720785e-01 5.448548449906828184e-01
7.106155088607095383e-02 7.192080056979700473e-03 -6.798257045226340223e-01 -5.465155079548005279e-01 -4.584559834675788204e-01 7.008130355434900594e-01
-1.080010483388331305e-01 7.563047365547485856e-02 -6.903683923708848758e-01 -2.352644659146169159e-02 -5.543750388175968657e-01 8.319343860225798526e-01
1.838660482641840677e-01 -4.330991707892609122e-02 -5.978047680203817382e-01 -8.891407627011493897e-01 -1.272185869082408625e-02 4.574569470613262245e-01
-1.348893740212726289e-01 2.402505901367539554e-02 -7.235022857561017595e-01 2.100855076995112591e-01 -3.432770593910370316e-01 9.154370212911868698e-01
1.985560057891295749e-01 -1.143549621349959217e-01 -6.516847447000477800e-01 -1.453776947870997205e-01 -6.719596694095646416e-01 7.261787166706122898e-01
-1.889130083505738689e-01 -8.925334006833533784e-02 -7.555241041114101330e-01 1.650243882654739147e-01 -3.113526053036241303e-01 9.358560286968566899e-01
9.886725011110680805e-02 2.725978517561132922e-02 -6.508692114558192188e-01 -3.313898241773260978e-01 -5.580557347154349035e-01 7.607592138008825167e-01
1.084517746866152724e-02 1.383837057477816379e-01 -6.542653932016510021e-01 -6.259404198456317570e-01 -4.457345801144603215e-01 6.399369304030358974e-01
-1.139402784112897166e-01 -1.599612461130160979e-01 -7.969770285430806123e-01 -8.438012914483730698e-02 -4.368855736899871500e-01 8.955506626132723191e-01
3.068061874593041097e-02 1.766340519085850547e-01 -6.144903426218850662e-01 -5.473484789353023627e-01 -4.461499008667689781e-01 7.080677287970289502e-01
1.022894299340638968e-01 -1.289204712355057070e-01 -7.185237597465790049e-01 -5.715756282739161698e-01 -1.670484917132931402e-01 8.033654850562053085e-01
1.653584221368958884e-01 -7.558901615467855661e-02 -6.340710561242721699e-01 -8.125827902628711685e-01 -2.069840739254720785e-01 5.448548449906828184e-01
-1.395751340683050457e-01 1.807671978573357346e-02 -7.246574915161854147e-01 2.100855076995112591e-01 -3.432770593910370316e-01 9.154370212911868698e-01
1.930710202900302042e-01 -1.374555713175465432e-01 -6.664600971678624752e-01 -3.060093661504880713e-01 -4.016459011583052297e-01 8.631563229861142217e-01
-1.436485512685974630e-01 -7.077958355360415565e-02 -7.625481037530748019e-01 2.018112557543683683e-01 -6.868134507881814566e-01 6.982546103444468022e-01
1.285855650403162909e-01 5.996583052622572046e-02 -6.084191316257716586e-01 -4.295756852875465270e-01 -6.599139378923358779e-01 6.164238194498693479e-01
-3.780607212405409645e-02 5.219500510862984388e-02 -6.993308107633749993e-01 1.254596516290492625e-01 -3.311502110477402838e-01 9.352001997092145302e-01
8.089379183408160201e-02 -1.451648164391395879e-01 -7.373840699465123993e-01 -6.043348346329376897e-01 -2.922077320688915569e-01 7.412112040223991505e-01
-1.801422278268020871e-01 2.153691499196211043e-02 -6.977167888374679050e-01 5.861438347289904538e-01 -1.289947332303289507e-01 7.998723421946967171e-01
1.385104456597103517e-01 -1.298098847033423986e-01 -6.943150585874642289e-01 -4.991642923278379329e-01 -2.336531769776845624e-01 8.344106915380958833e-01
1.411229086690892198e-01 -1.460349911021561753e-01 -6.976008091514352971e-01 -4.368592891566774328e-01 -3.585915049078082784e-01 8.249642986732672600e-01
1.349472320231047129e-01 6.150291699219759267e-02 -6.023402584250455716e-01 -4.295756852875465270e-01 -6.599139378923358779e-01 6.164238194498693479e-01
-5.584882429893131724e-03 -1.099771343015407271e-01 -7.570890408369942426e-01 -2.401323629343627142e-01 -1.445363096672523107e-01 9.599196338544866425e-01
-7.996119952551095089e-02 1.218663225698037728e-01 -6.614701084750478355e-01 2.237259639977195666e-02 -5.082907359561364968e-01 8.608948801517534166e-01
-8.982410580137026312e-02 8.367889694932600930e-02 -6.820737666896035112e-01 -3.817798467799516926e-01 -5.017430882977602646e-01 7.762074606302765689e-01
1.752101029377201372e-02 -9.996623775252959365e-02 -7.483331688215406619e-01 -3.467542637446183740e-01 -1.319924697164559513e-01 9.286223497811573191e-01
-6.022092438286936328e-02 7.612640764938687077e-02 -6.876922829058423892e-01 6.273854207114193393e-02 -4.134643288571510089e-01 9.083562759740768655e-01
-1.857862101032194124e-01 -3.034496505711627851e-02 -7.105972921616607874e-01 2.018112557543683683e-01 -6.868134507881814566e-01 6.982546103444468022e-01
2.176265576072175245e-01 -1.207236922091333847e-01 -6.493398807397005035e-01 -2.942051440821853436e-01 -6.021666453559861854e-01 7.421850607606557126e-01
-1.138595628161868795e-01 -1.244599939115293152e-01 -7.811847374029378122e-01 -5.639937728357882069e-02 -2.838248455895952538e-01 9.572160504651323620e-01
1.807285266383532873e-01 3.144811958750983599e-02 -6.018240253619085989e-01 -8.891407627011493897e-01 -1.272185869082408625e-02 4.574569470613262245e-01
1.126884174076119294e-01 -4.017722027916052069e-02 -6.883407056712250727e-01 -5.073718743146529153e-01 -2.029211728486932098e-01 8.374943455117452862e-01
1.215059085690869956e-01 -1.252513189258643300e-01 -7.040887392933339317e-01 -5.715756282739161698e-01 -1.670484917132931402e-01 8.033654850562053085e-01
7.383132028226302435e-02 -1.671215454230653430e-01 -7.517983468751832099e-01 -6.043348346329376897e-01 -2.922077320688915569e-01 7.412112040223991505e-01
3.924672827723534735e-02 -6.516421984906983766e-02 -7.278310004355544871e-01 -2.366879202390890780e-01 -4.868792201292496125e-01 8.407897795639693861e-01
5.496058895802327648e-02 1.305239844534344107e-01 -6.225524455079660680e-01 -5.717985241098455518e-01 -3.437359721469597229e-01 7.449107525589806489e-01
-1.354051653793243715e-01 -1.945233633488962360e-02 -7.371102635402390080e-01 5.861438347289904538e-01 -1.289947332303289507e-01 7.998723421946967171e-01
4.197480829449895014e-03 2.260391537672509221e-01 -5.934859768305202898e-01 2.339630525262162419e-02 -8.538739266544098649e-01 5.199537770612936427e-01
-1.961406644100543439e-01 -1.131468898928945054e-02 -6.912911371356929013e-01 5.861438347289904538e-01 -1.289947332303289507e-01 7.998723421946967171e-01
1.598579827919309471e-01 3.628216030681276350e-02 -6.119805024273529126e-01 -4.295756852875465270e-01 -6.599139378923358779e-01 6.164238194498693479e-01
-1.680288155650327131e-01 2.101130778171931071e-02 -7.066782219293639145e-01 5.861438347289904538e-01 -1.289947332303289507e-01 7.998723421946967171e-01
-1.600423447881791916e-01 -3.941445301960605496e-02 -7.307439528512919003e-01 4.124009120254447658e-01 -5.299770981218328014e-01 7.409789222555134280e-01
2.520265465716926001e-01 -1.271070908888912721e-01 -6.382062260431452527e-01 -4.557091330076958879e-01 -5.844195550773112480e-01 6.714037308033159457e-01
6.851334547590892665e-02 1.198091921421120809e-01 -6.170935544809634798e-01 -5.717985241098455518e-01 -3.437359721469597229e-01 7.449107525589806489e-01
-3.172620598258998892e-02 1.444902957785993980e-01 -6.493659431583340691e-01 2.237259639977195666e-02 -5.082907359561364968e-01 8.608948801517534166e-01
4.439164766306039067e-02 2.445271190209792264e-02 -6.893321997236497856e-01 -5.465155079548005279e-01 -4.584559834675788204e-01 7.008130355434900594e-01
-2.081476577372091130e-01 -2.388509029445166215e-02 -6.973690622976668196e-01 2.867647296946816415e-01 -6.777389696032751765e-01 6.770789310591690535e-01
-1.167792624802594659e-01 -1.873079366313675290e-02 -7.436913046906575842e-01 2.100855076995112591e-01 -3.432770593910370316e-01 9.154370212911868698e-01
-7.030511552820860321e-02 1.202706497116040607e-01 -6.626631663328578226e-01 2.237259639977195666e-02 -5.082907359561364968e-01 8.608948801517534166e-01
1.754900015136451608e-01 -1.085986122211612392e-01 -6.597090098895599386e-01 -4.332323567191756486e-01 -6.419843121097246197e-01 6.325866486866065230e-01
-1.519672618366604659e-02 1.447292770835793274e-01 -6.496544050862383957e-01 2.237259639977195666e-02 -5.082907359561364968e-01 8.608948801517534166e-01
-7.657105411762918368e-02 -1.338035579570907296e-01 -7.822400732212452246e-01 -4.427367220987506874e-02 -3.352838700207803613e-01 9.410762819521810707e-01
1.990762654800484199e-01 4.083040798325044546e-02 -5.616824132072352205e-01 -9.596069732458002433e-01 -2.250526509722661772e-01 1.688364924664964573e-01
5.658366597605857945e-02 1.574227914680254581e-01 -6.065717617685472129e-01 -5.473484789353023627e-01 -4.461499008667689781e-01 7.080677287970289502e-01
7.340050376794073073e-02 -3.762684331295426676e-02 -7.025029907111340899e-01 -2.510307014867053654e-01 -4.641106092327649812e-01 8.494615525782696075e-01
1.582115559216010769e-01 -1.056070347135738413e-01 -6.685062804097459122e-01 -4.332323567191756486e-01 -6.419843121097246197e-01 6.325866486866065230e-01
2.070342953694198906e-01 -1.497470741318296106e-01 -6.672292959216951092e-01 -3.060093661504880713e-01 -4.016459011583052297e-01 8.631563229861142217e-01
-1.953195325925158668e-02 1.692979753022810230e-01 -6.350696551372512211e-01 2.270344163306781821e-02 -5.071061681264793508e-01 8.615845216727681111e-01
7.198289489947293229e-02 -1.097066131836309383e-01 -7.298232983486883096e-01 -5.149974907184825534e-01 -1.902962895072136118e-01 8.358019542651555778e-01
-5.049298576021612334e-02 1.201222126203168039e-01 -6.632656765735986948e-01 2.237259639977195666e-02 -5.082907359561364968e-01 8.608948801517534166e-01
-2.027227456479976930e-01 -9.367711546925880373e-02 -7.545607193325418738e-01 1.650243882654739147e-01 -3.113526053036241303e-01 9.358560286968566899e-01
4.394562814890331376e-02 6.802570553034147094e-02 -6.659965515067920450e-01 -6.385356080359039233e-01 -2.958617461647242153e-01 7.104492271982416618e-01
-7.019299070512020899e-02 1.293005576123514577e-01 -6.573346295801884009e-01 2.237259639977195666e-02 -5.082907359561364968e-01 8.608948801517534166e-01
-1.000524205974133024e-01 -1.480482622668921056e-01 -7.898568618299584010e-01 -8.438012914483730698e-02 -4.368855736899871500e-01 8.955506626132723191e-01
-1.855690461837700145e-02 1.293267434338035704e-01 -6.588679074257853818e-01 5.393244736159225061e-02 -5.586944904576819360e-01 8.276181229611999646e-01
-6.797244217892518814e-02 1.257108229557620527e-01 -6.595117923786444347e-01 2.237259639977195666e-02 -5.082907359561364968e-01 8.608948801517534166e-01
1.033205003460685662e-03 2.039814054489862138e-01 -6.151978015254374599e-01 2.270344163306781821e-02 -5.071061681264793508e-01 8.615845216727681111e-01
4.231753802437509399e-02 5.960645730611786874e-02 -6.709659805151662049e-01 -6.385356080359039233e-01 -2.958617461647242153e-01 7.104492271982416618e-01
-3.903211387573530394e-02 -9.523140110377838197e-02 -7.646915821730271290e-01 -2.938693961997312365e-01 -1.799350859391094792e-01 9.387567005488113292e-01
-4.491885805495422768e-02 1.435701901394839941e-01 -6.495663477561351984e-01 2.237259639977195666e-02 -5.082907359561364968e-01 8.608948801517534166e-01
-4.195755330928172683e-02 5.177020882649153305e-02 -6.989242967304664100e-01 1.254596516290492625e-01 -3.311502110477402838e-01 9.352001997092145302e-01
-5.414774757143529793e-02 9.385311019441126140e-03 -7.138913833676537868e-01 -3.175978150910985232e-01 -5.889734322451217752e-01 7.431298163569816095e-01
-4.944495385864428744e-02 -3.885226498986284888e-02 -7.479100473851152397e-01 -1.786126110488620855e-01 -3.925688993965433804e-01 9.022123887427474509e-01
-1.987555033698604201e-02 -1.182687793197212539e-01 -7.630371194998004647e-01 -2.883125251686639023e-01 -1.678416143756314705e-01 9.427115573252775604e-01
-1.586734939187756099e-01 1.238144838891049176e-01 -6.683961875655215490e-01 8.523497670982359276e-02 -6.840879834244965041e-01 7.244022568155632502e-01
-5.341327524978613933e-02 -1.614509116594532723e-02 -7.338118084014590981e-01 -3.175978150910985232e-01 -5.889734322451217752e-01 7.431298163569816095e-01
1.952721596534228235e-02 9.363360456807703902e-02 -6.769429853958490728e-01 -6.259404198456317570e-01 -4.457345801144603215e-01 6.399369304030358974e-01
1.531495727724914990e-01 -5.350169450375270863e-02 -6.473866019075584788e-01 -8.474673018088811904e-01 2.784644682715364111e-02 5.301167303187829249e-01
1.324510914899430236e-01 7.905050502056680528e-02 -6.004236911848180869e-01 -4.369829868997374134e-01 -1.137068629270987091e-01 8.922536738413924251e-01
1.707123018517598678e-01 5.816037859147293182e-02 -5.843473805296344192e-01 -4.369829868997374134e-01 -1.137068629270987091e-01 8.922536738413924251e-01
-4.006156644309907117e-02 1.916100959060362818e-01 -6.190254700752467754e-01 1.586068368456549915e-01 -6.269500493845726607e-01 7.627434082851832775e-01
1.720438271915727124e-01 -4.634528707637971395e-02 -6.175573560284095542e-01 -8.474673018088811904e-01 2.784644682715364111e-02 5.301167303187829249e-01
1.064593516854675168e-02 2.098536464652718814e-01 -6.090459972867030558e-01 -5.473484789353023627e-01 -4.461499008667689781e-01 7.080677287970289502e-01
1.674669736659100405e-01 -1.166420905622268973e-02 -6.266958687862529409e-01 -8.474673018088811904e-01 2.784644682715364111e-02 5.301167303187829249e-01
1.182807350085741255e-01 -1.836647988410267662e-01 -7.304068251961181035e-01 -5.174083108619718097e-01 -4.891258766833327942e-01 7.021712872296345109e-01
1.935486747533427671e-02 1.239348598743907764e-01 -6.560058636450117886e-01 -6.259404198456317570e-01 -4.457345801144603215e-01 6.399369304030358974e-01
-1.754013828954653631e-01 -6.309873569832256945e-02 -7.458158283455745829e-01 2.018112557543683683e-01 -6.868134507881814566e-01 6.982546103444468022e-01
1.805689797136472985e-01 -9.308881358336244805e-02 -6.404904172588089528e-01 -4.332323567191756486e-01 -6.419843121097246197e-01 6.325866486866065230e-01
-5.456398428808630074e-02 -1.477195302102770336e-01 -7.842964179609714925e-01 -2.774454402449500479e-01 -3.610632230715736801e-01 8.903130778734259509e-01
1.333567435829104662e-02 -1.290137428439681322e-01 -7.556634327846932786e-01 -2.858347865683263378e-01 -4.232125993194478797e-01 8.597613451212583469e-01
-1.866199843221196253e-01 8.140469766707311705e-02 -6.878572650930557808e-01 5.279636872322129859e-01 -7.779647421629708182e-02 8.456961946016305909e-01
1.325413749215148818e-01 5.799318346875764058e-02 -6.077742142162328998e-01 -4.295756852875465270e-01 -6.599139378923358779e-01 6.164238194498693479e-01
1.978159386671001496e-01 5.334874873002859452e-02 -5.521591913665433449e-01 -9.596069732458002433e-01 -2.250526509722661772e-01 1.688364924664964573e-01
4.315509070738904329e-02 -5.882716055392170351e-02 -7.230611462340107432e-01 -2.366879202390890780e-01 -4.868792201292496125e-01 8.407897795639693861e-01
-1.102736436417655758e-01 8.642981661253795744e-02 -6.832363153961907853e-01 -2.352644659146169159e-02 -5.543750388175968657e-01 8.319343860225798526e-01
8.257155572395199344e-03 1.975001581602102707e-01 -6.186764354267272337e-01 -5.473484789353023627e-01 -4.461499008667689781e-01 7.080677287970289502e-01
-1.832222168369607718e-01 1.356693473995471688e-01 -6.539736737781802756e-01 6.423530327320962907e-02 -7.777546316201311427e-01 6.252771855799899026e-01
2.355227619643891768e-01 -1.086820277433745707e-01 -6.322303399108222255e-01 -3.996104289109559948e-01 -6.138562837856396115e-01 6.808024441513748082e-01
-7.730099704868163835e-02 9.879757065394688398e-02 -6.756489173773833068e-01 5.393244736159225061e-02 -5.586944904576819360e-01 8.276181229611999646e-01
2.255563616970153711e-03 2.112233906015677509e-01 -6.109675681574543438e-01 2.270344163306781821e-02 -5.071061681264793508e-01 8.615845216727681111e-01
1.874907067809343519e-01 -7.224472804778186985e-02 -6.149338310455958467e-01 -1.453776947870997205e-01 -6.719596694095646416e-01 7.261787166706122898e-01
5.233830571293191652e-03 7.194577487510386837e-02 -6.941160602011638980e-01 6.273854207114193393e-02 -4.134643288571510089e-01 9.083562759740768655e-01
6.944386575034022790e-02 -7.360001250481067181e-02 -7.210189598012267664e-01 -4.444958131956012193e-01 -2.491151122961192399e-01 8.604447297050943355e-01
1.234082654914477190e-01 5.161076174916783867e-03 -6.561744992738940407e-01 -3.389475547336455730e-01 -5.575756117234589304e-01 7.577756873582660591e-01
-8.076394296930317074e-02 -1.098190745380139138e-01 -7.750792885339087279e-01 -2.659564873093606119e-02 -2.421881248598438119e-01 9.698647244051374905e-01
3.540259990845672639e-02 1.399089865711246848e-02 -7.019683005478772886e-01 -5.079379547609106371e-01 -2.560779282748921748e-01 8.224494688208767723e-01
6.543026832306812757e-02 1.136563216173103186e-01 -6.222993618662464588e-01 -5.717985241098455518e-01 -3.437359721469597229e-01 7.449107525589806489e-01
-1.328723432310792707e-01 9.303689414437045849e-03 -7.294855017244848971e-01 2.100855076995112591e-01 -3.432770593910370316e-01 9.154370212911868698e-01
1.323972901544810121e-01 -4.629968238560933091e-02 -6.756674783442728760e-01 -5.955919126462432267e-01 -2.450917600999463764e-01 7.649838578176013648e-01
-3.646546477119749774e-02 -1.574319701303250954e-02 -7.272305476030442861e-01 1.385762676755043776e-01 -4.087387075247498336e-01 9.020694468876128136e-01
-9.591910406974986369e-02 5.774856710555284489e-02 -7.018330605116012144e-01 -3.817798467799516926e-01 -5.017430882977602646e-01 7.762074606302765689e-01
-6.906271144987591662e-03 1.161026056006708163e-01 -6.685542590202548929e-01 5.393244736159225061e-02 -5.586944904576819360e-01 8.276181229611999646e-01
-3.186410350456710810e-02 8.302131977592905332e-02 -6.865124213871850456e-01 6.273854207114193393e-02 -4.134643288571510089e-01 9.083562759740768655e-01
1.696875826829556400e-01 -1.152780052802196697e-01 -6.704614675285942571e-01 -4.332323567191756486e-01 -6.419843121097246197e-01 6.325866486866065230e-01
1.650877526683251773e-01 -1.604967599742409060e-02 -6.302690295995343472e-01 -8.474673018088811904e-01 2.784644682715364111e-02 5.301167303187829249e-01
-1.789351156579893354e-01 1.998569383516631340e-02 -6.988515208028058812e-01 5.861438347289904538e-01 -1.289947332303289507e-01 7.998723421946967171e-01
-2.145324614067272428e-01 1.314604255715584036e-01 -6.546032506636902948e-01 8.523497670982359276e-02 -6.840879834244965041e-01 7.244022568155632502e-01
-7.773474907887747976e-02 1.004147508372185554e-01 -6.745289528172896398e-01 5.393244736159225061e-02 -5.586944904576819360e-01 8.276181229611999646e-01
7.383256711663636895e-02 -7.035349775065384906e-03 -6.856613834302661692e-01 -2.510307014867053654e-01 -4.641106092327649812e-01 8.494615525782696075e-01
-1.342039040819201570e-02 2.189279318779971950e-01 -6.021109404827053035e-01 1.586068368456549915e-01 -6.269500493845726607e-01 7.627434082851832775e-01
2.327039748052107115e-01 -1.032295876442456406e-01 -6.289686038665354140e-01 -3.996104289109559948e-01 -6.138562837856396115e-01 6.808024441513748082e-01
-5.578014025625258054e-02 1.238908404036688227e-01 -6.609031977041353034e-01 2.237259639977195666e-02 -5.082907359561364968e-01 8.608948801517534166e-01
5.413224867470244756e-02 2.473081498335385348e-02 -6.815542514623736947e-01 -5.465155079548005279e-01 -4.584559834675788204e-01 7.008130355434900594e-01
1.926297438201689805e-01 -3.129806721739993025e-02 -5.832755505174772592e-01 -8.340801743535665169e-01 -4.160084554096454140e-02 5.500723883277550685e-01
