4.189387692680954234e-02 6.175459209262433580e-02 -7.031555916717663335e-01 -4.845060396549823352e-03 -5.799198337858537666e-01 8.146591383956491850e-01
6.252532486189807392e-02 -1.200756600541409841e-01 -8.016862508276919597e-01 2.828160739801985901e-01 -4.734704579594864460e-01 8.341707221774574688e-01
7.304841788738669628e-02 3.021941090129567908e-02 -7.270289827143995298e-01 2.288832930231799179e-01 -6.168856287162448604e-01 7.530368910340505817e-01
-1.569298220748361825e-02 3.222733764150943758e-02 -7.238691069476878015e-01 5.964137390882133793e-01 -3.692503234052310623e-01 7.127024978853020443e-01
-3.224669760254319367e-02 -1.458810401625241712e-02 -7.315621995021340807e-01 6.557749674641309978e-01 -3.442876890426882497e-01 6.718818193857184484e-01
-2.856116677634015083e-02 1.957257179801641933e-01 -6.031640171531528205e-01 6.572938807849779685e-01 -5.507625131197316781e-01 5.144175428819092177e-01
2.255575334930411124e-01 1.410334164425686709e-01 -6.271455823080461789e-01 -6.200895026531964005e-01 -6.115532494156080690e-01 4.914179807745364670e-01
3.237168432949443647e-02 -4.659741457956767530e-02 -7.621993771590354072e-01 3.301519733869954232e-01 -5.217276840370033142e-01 7.866383528522224999e-01
1.843768636421916907e-01 9.112848604044410106e-02 -6.978435863285253893e-01 1.007007883505852408e-01 -7.433604305578932481e-01 6.612674356917589424e-01
-1.740620840809028180e-01 1.269823842187797064e-02 -6.097647283859460865e-01 8.745931828509031503e-01 7.880857524697422456e-02 4.784098378778061100e-01
1.953983958606281823e-01 -9.247829592138237520e-02 -7.972332601286743481e-01 1.235745397794180273e-01 -4.525275548321912034e-01 8.831467291656032170e-01
-6.837812243878166329e-02 1.165665105152206664e-02 -6.845773384858886423e-01 6.421930359763041718e-01 -2.727061304038948530e-01 7.163933772611744688e-01
-2.206398725907313674e-01 -1.594020732277036390e-01 -6.030462180135279793e-01 9.701061060951502446e-01 -1.604125336099806176e-01 1.821042612838372765e-01
-1.768442718636154820e-01 -2.720672006975202034e-02 -5.992242282976768530e-01 7.963642944089273090e-01 5.547094521079658919e-02 6.022681170608253920e-01
8.208287890591152436e-02 -1.276576523362832061e-01 -8.056374970001072278e-01 -7.380241372174881076e-02 -4.349716024638119460e-01 8.974145690698961397e-01
-5.615103532969607791e-02 4.459670292836739186e-02 -6.829988706680666377e-01 6.421930359763041718e-01 -2.727061304038948530e-01 7.163933772611744688e-01
-3.779652840945708220e-02 -3.545331201153498896e-02 -7.368372255900490497e-01 6.557749674641309978e-01 -3.442876890426882497e-01 6.718818193857184484e-01
1.994834524781279039e-01 -7.889850863992080299e-02 -7.908465309976390190e-01 1.235745397794180273e-01 -4.525275548321912034e-01 8.831467291656032170e-01
7.890853004723077935e-02 -1.302468025589826606e-01 -8.071534980502825807e-01 -7.380241372174881076e-02 -4.349716024638119460e-01 8.974145690698961397e-01
9.326424560393584140e-02 -8.065327574560039736e-02 -7.852816372132407352e-01 2.264631685627106761e-02 -3.114851202688353471e-01 9.499811388569536774e-01
4.343289283012975732e-02 6.646094276884124095e-03 -7.375635571768105470e-01 3.795665355324684409e-02 -3.730793822664358328e-01 9.270226895706132897e-01
1.827080383000747599e-01 7.802162924172681424e-02 -7.105969525235313888e-01 -5.188104453392410331e-01 -2.465768413021639516e-01 8.185570127610818369e-01
1.389694016605112215e-01 8.329306834283813077e-02 -6.997368781907342683e-01 1.007007883505852408e-01 -7.433604305578932481e-01 6.612674356917589424e-01
5.832982176290133630e-02 1.737450375577530640e-02 -7.338558692752668033e-01 3.795665355324684409e-02 -3.730793822664358328e-01 9.270226895706132897e-01
2.548266933848128413e-01 -3.320279743961561392e-02 -7.731026105537122106e-01 1.461302231216026759e-01 -6.900835526537743014e-01 7.088234252951689518e-01
-1.316485576556485904e-01 -2.781623948879924368e-02 -6.798878509451335983e-01 7.064149515307968086e-01 -2.617680196295313344e-01 6.576134275947954633e-01
-6.862040622919263200e-02 -4.126103501001967405e-02 -7.277521611594565121e-01 2.393128541320953540e-01 -6.431525917853792018e-01 7.273816752757111814e-01
2.204246181053412523e-01 9.841597653014129421e-02 -6.741287336118995110e-01 -6.675179312701028378e-01 -4.737928217331991432e-01 5.744041900151628521e-01
1.674104285312425222e-01 8.540782447583074311e-02 -7.016907137013017604e-01 1.007007883505852408e-01 -7.433604305578932481e-01 6.612674356917589424e-01
6.223268386257537615e-02 -7.819640781176209754e-02 -7.834705446722648459e-01 1.080194432027746926e-01 -3.487358426015261248e-01 9.309753551921587933e-01
-3.096450851915474520e-02 -8.397924039393078396e-03 -7.296416604767902436e-01 6.557749674641309978e-01 -3.442876890426882497e-01 6.718818193857184484e-01
-8.143987172596610369e-02 1.149182396384608729e-01 -6.174688975033236771e-01 5.623296736339435942e-01 -4.720673010467122954e-01 6.789240026933907046e-01
-1.978811338152631216e-01 -1.170782968611885355e-01 -6.229961663113466885e-01 8.655871406624399134e-01 -4.048610121291156827e-01 2.946972391754110188e-01
4.438501009796273766e-02 -8.887568053550361225e-02 -7.835574766957135173e-01 2.276026246444252943e-01 -2.293241486220805037e-01 9.463654051758902952e-01
4.288916825485530882e-02 5.983899362480651213e-02 -7.045133022114639099e-01 -4.845060396549823352e-03 -5.799198337858537666e-01 8.146591383956491850e-01
4.103192008991869699e-02 1.080855067441894857e-01 -6.759669000511770998e-01 -1.042475731877136463e-01 -5.899308704697224792e-01 8.006959544991519850e-01
3.098087075886841318e-03 1.256646378634441452e-01 -6.679539182772455952e-01 -1.042475731877136463e-01 -5.899308704697224792e-01 8.006959544991519850e-01
-1.191773357176018622e-01 -1.186518961440123504e-01 -7.305734806867640874e-01 5.101339970965423909e-01 -2.277034850288264800e-01 8.294060693725552325e-01
-1.136887249517154613e-01 -1.425352856614961194e-01 -7.417711952221038851e-01 4.890433091030156332e-01 -2.760065422305320038e-01 8.274400464489968243e-01
-1.838942250533633360e-01 6.315333320849243759e-02 -5.791932877728945828e-01 5.908775520511548862e-01 -6.260977496589239522e-01 5.087880957275494609e-01
1.961552651771213407e-01 1.139149248521276053e-01 -6.782484573455439536e-01 -3.535461052338478294e-01 -7.530608062357666554e-01 5.548914971285056064e-01
-9.587387804310365524e-02 -1.269623657535235983e-01 -7.471880310389196200e-01 5.101339970965423909e-01 -2.277034850288264800e-01 8.294060693725552325e-01
-1.784481893105378247e-01 7.025850503988796160e-03 -6.008119640319311561e-01 8.745931828509031503e-01 7.880857524697422456e-02 4.784098378778061100e-01
-8.581506956415746457e-02 5.156434945122228414e-02 -6.537549429733442441e-01 6.421930359763041718e-01 -2.727061304038948530e-01 7.163933772611744688e-01
9.273111886873680945e-03 3.333290664260077363e-02 -7.235817403450167662e-01 -4.845060396549823352e-03 -5.799198337858537666e-01 8.146591383956491850e-01
1.016079964232596139e-02 1.077210866973846853e-01 -6.802546974409152680e-01 -1.042475731877136463e-01 -5.899308704697224792e-01 8.006959544991519850e-01
-1.502704030023501169e-01 4.733337528479922979e-02 -6.171388531592419957e-01 4.595285709197174939e-01 -4.647119272086937536e-01 7.568859340868107077e-01
3.411470893645793256e-02 1.600787933959884890e-01 -6.448588574626709091e-01 -4.976446450602365137e-03 -5.682033163101239959e-01 8.228731532349938815e-01
-1.086384416657050211e-01 -3.340090096587208096e-02 -7.056792660672687179e-01 6.059752975056903468e-01 -2.193310430227765895e-01 7.646488294501150307e-01
2.103472952138409346e-01 -4.982105493261626550e-02 -7.726604021237351017e-01 3.954845606825266868e-01 -6.767218846330393944e-01 6.209987545240781559e-01
1.664534183448464488e-01 -7.368961697591421001e-02 -7.855207602856092430e-01 4.572989488627057786e-02 -3.489640710597160522e-01 9.360196866642924718e-01
8.226934655104410632e-02 5.499776874979454833e-02 -7.095332975766287520e-01 2.288832930231799179e-01 -6.168856287162448604e-01 7.530368910340505817e-01
2.229242561421463098e-01 9.997949675747816456e-02 -6.699342344883200129e-01 -6.675179312701028378e-01 -4.737928217331991432e-01 5.744041900151628521e-01
1.677959808989417101e-01 -3.254949840198156225e-02 -7.514082903306869010e-01 -3.649307836752232470e-01 -4.117646386197121311e-01 8.350301823937653634e-01
2.082685559090509952e-01 -9.480838388447446197e-02 -8.015541236412887516e-01 2.623440312503748095e-01 -4.581161109803761344e-01 8.492969081113611596e-01
1.269751682558439843e-02 4.556324593738160511e-02 -7.148551362419501842e-01 -4.845060396549823352e-03 -5.799198337858537666e-01 8.146591383956491850e-01
9.569307008335641018e-02 3.734905274470865649e-02 -7.280707990952887121e-01 2.209737370758841357e-01 -6.185047756971672195e-01 7.540705868567708636e-01
5.075550044742625083e-02 9.381501289326933668e-02 -6.850202329332427675e-01 -1.166183626551513808e-01 -4.481329908433959175e-01 8.863278061808648189e-01
3.022264014882678276e-02 1.843202755027670281e-01 -6.278865537505335936e-01 -1.249150024500219475e-01 -6.709980625701894574e-01 7.308610279594631720e-01
-4.349917256777092317e-02 -7.973478649543876140e-03 -7.171899911658093929e-01 6.557749674641309978e-01 -3.442876890426882497e-01 6.718818193857184484e-01
3.113753560652357533e-02 -9.614993163410221616e-03 -7.436043864960470984e-01 3.795665355324684409e-02 -3.730793822664358328e-01 9.270226895706132897e-01
-1.949022929455648256e-01 -1.239493575174530487e-01 -6.411852438119870490e-01 8.655871406624399134e-01 -4.048610121291156827e-01 2.946972391754110188e-01
2.149447276500592863e-01 1.339516804831394625e-01 -6.421644518787736899e-01 -4.048771162676090274e-01 -6.038618855982113010e-01 6.866042119333362059e-01
1.289175357027825541e-01 -1.026839173814786538e-01 -7.944964872484784335e-01 4.572989488627057786e-02 -3.489640710597160522e-01 9.360196866642924718e-01
-6.667837608029084095e-02 1.138896785747443435e-01 -6.304105184200021750e-01 5.623296736339435942e-01 -4.720673010467122954e-01 6.789240026933907046e-01
8.839534143084201712e-02 -1.348823788810923352e-01 -8.088932513305864269e-01 2.764005057787243674e-02 -6.015618543710121724e-01 7.983478959512335660e-01
-9.526039874417058240e-02 -7.911004241570596118e-02 -7.293923700581920189e-01 6.059752975056903468e-01 -2.193310430227765895e-01 7.646488294501150307e-01
2.466184761596998398e-01 -6.625534142843328422e-02 -8.001221309985052654e-01 4.601274708947590830e-01 -6.108728272366431566e-01 6.442958167425137939e-01
-1.200859515616730655e-01 3.804155784398265128e-02 -6.427807068970613491e-01 5.208528561350131980e-01 -5.292143935705346802e-01 6.698092473934430524e-01
4.369718508288351379e-03 -4.213367564218297584e-02 -7.576393701297465810e-01 -1.594172767012255465e-01 -4.327738090244541147e-01 8.872953071619561483e-01
-1.983729739936808678e-01 5.980813692029277040e-02 -5.581570648296398929e-01 9.351305538590067856e-01 -6.783981907704113301e-02 3.477479060856320525e-01
1.511974234325869637e-01 9.273086451787089513e-02 -6.909895658575284649e-01 1.007007883505852408e-01 -7.433604305578932481e-01 6.612674356917589424e-01
1.944316285220447360e-01 1.229316901241119114e-01 -6.671097256635784012e-01 -3.535461052338478294e-01 -7.530608062357666554e-01 5.548914971285056064e-01
-2.076405988072316244e-02 -5.065506172020658310e-02 -7.578019453289749352e-01 4.864866294333963226e-01 -3.536473212266258437e-01 7.989144707487562114e-01
5.216118490524840334e-02 1.438573496956944975e-02 -7.348061234710957512e-01 3.795665355324684409e-02 -3.730793822664358328e-01 9.270226895706132897e-01
-3.461716681287634739e-02 -7.333460832136427798e-02 -7.598608276671422468e-01 3.026373190891004650e-01 -1.915319542350362447e-01 9.336627675994529918e-01
-8.880108148547205538e-02 -1.240388161853748193e-02 -6.959405079065411615e-01 1.805631660773167890e-01 -5.760899654984791285e-01 7.971933860162766505e-01
-7.029996676320812710e-02 1.324709544196640831e-01 -6.144910037143814785e-01 5.623296736339435942e-01 -4.720673010467122954e-01 6.789240026933907046e-01
-1.691556892807236645e-01 -8.225961483943136643e-02 -6.299533712307935351e-01 6.764902448215517339e-01 -5.975574887860721773e-01 4.304485988558451881e-01
2.003520910112444597e-01 -6.012105502213329483e-02 -7.801354399465676437e-01 1.011937706916982010e-01 -7.268771371876813214e-01 6.792712626094500328e-01
5.300387714720074250e-02 8.859542761976514635e-02 -6.873634589222444857e-01 -1.166183626551513808e-01 -4.481329908433959175e-01 8.863278061808648189e-01
-1.557880802658102304e-01 -1.333082892102159245e-01 -6.997338703239651680e-01 7.290103412000166205e-01 -3.713820391256492798e-02 6.834944595485642482e-01
2.330077792181625418e-01 1.235032788014012450e-01 -6.366702977157493448e-01 -8.216057312776310351e-01 -3.150435200610620101e-01 4.750911520953470246e-01
5.793437857158387043e-03 2.148921960125913522e-01 -6.035898183325363320e-01 -3.820070417220890191e-02 -8.584495646416345771e-01 5.114734119847633709e-01
-1.592059855196375009e-02 -1.230495962253452397e-01 -7.768500004653084989e-01 2.594786114806766353e-01 -2.272129849816765523e-01 9.386400319823230420e-01
-7.941292743323813408e-02 -1.355923660596928537e-01 -7.597133509976377042e-01 4.890433091030156332e-01 -2.760065422305320038e-01 8.274400464489968243e-01
1.856701537796184576e-01 1.183892673984923566e-01 -6.788567173277861855e-01 -3.535461052338478294e-01 -7.530608062357666554e-01 5.548914971285056064e-01
-8.387590957819512916e-02 -1.476180993586033996e-01 -7.612858932695362180e-01 5.037736500121098304e-01 -3.224795849652316027e-01 8.013856916829301680e-01
-1.395539040029737943e-01 -6.400901252431530353e-02 -6.728820454412030028e-01 9.133663173682332603e-01 4.464598399352990438e-02 4.046834644638217515e-01
1.691248885864788387e-01 -7.473400779724419241e-02 -7.860406435028783889e-01 4.572989488627057786e-02 -3.489640710597160522e-01 9.360196866642924718e-01
2.004091204832715301e-01 1.055781727670276060e-01 -6.868522065390005871e-01 -3.535461052338478294e-01 -7.530608062357666554e-01 5.548914971285056064e-01
-3.740365528513972526e-02 4.678834836686012605e-02 -6.981568333381760194e-01 5.964137390882133793e-01 -3.692503234052310623e-01 7.127024978853020443e-01
-1.222546861376433563e-01 -3.211109507116179790e-02 -6.916884420033954095e-01 7.064149515307968086e-01 -2.617680196295313344e-01 6.576134275947954633e-01
8.246501412537118880e-02 -6.295914100362787202e-02 -7.791609435567489195e-01 3.292037432667283686e-02 -3.215562352614982355e-01 9.463180419492400741e-01
1.795427501319935282e-01 3.209046978771878250e-02 -7.259751192076161486e-01 -4.581918887616205360e-01 -1.953125014454447639e-01 8.671292982319200870e-01
-1.142846369844065235e-01 -4.926813195435064685e-02 -7.057560613650568637e-01 6.059752975056903468e-01 -2.193310430227765895e-01 7.646488294501150307e-01
2.159809415063063120e-01 -8.648136850498333583e-02 -7.994448005571287430e-01 2.623440312503748095e-01 -4.581161109803761344e-01 8.492969081113611596e-01
-1.325530142877522424e-02 -1.683832438288680733e-02 -7.474049775864015643e-01 4.864866294333963226e-01 -3.536473212266258437e-01 7.989144707487562114e-01
-4.528882432764928800e-02 1.442300413535484715e-01 -6.270419501063279055e-01 5.626573529654494976e-01 -4.708285171467725405e-01 6.795124800879561722e-01
-7.509806833192647635e-02 -2.710754385188025861e-02 -7.131064219427799555e-01 2.393128541320953540e-01 -6.431525917853792018e-01 7.273816752757111814e-01
-2.066061523244535347e-01 -1.400335120638164788e-01 -6.289053083238513864e-01 8.655871406624399134e-01 -4.048610121291156827e-01 2.946972391754110188e-01
1.903554762854056670e-01 5.455899342526669693e-02 -7.128176554104816987e-01 -5.188104453392410331e-01 -2.465768413021639516e-01 8.185570127610818369e-01
-1.605252284155695985e-01 5.481058209861810332e-02 -6.063137119761540239e-01 4.588988589511904803e-01 -4.747489015598285733e-01 7.510161900525391676e-01
-1.946044182855670157e-01 7.497588408317246156e-02 -5.517555380605538851e-01 5.475073733430048106e-01 -7.232377403308015706e-01 4.209071715904114108e-01
-3.523546203056831388e-02 -3.056245844639185385e-03 -7.227358947492525942e-01 6.557749674641309978e-01 -3.442876890426882497e-01 6.718818193857184484e-01
2.259587005389099290e-01 6.169193156163990666e-02 -6.910628905823495982e-01 -4.204172481232056890e-01 -2.582915982686090905e-01 8.697900825741566866e-01
-3.772236854299844400e-02 -9.471276219442206767e-02 -7.636967214363608036e-01 2.558139989230265865e-01 -2.404086783249196890e-01 9.363561637224776524e-01
1.976064410173445363e-01 -9.686600690476604436e-02 -7.997905002928407114e-01 1.235745397794180273e-01 -4.525275548321912034e-01 8.831467291656032170e-01
1.355089140026475292e-01 -1.096924063755012058e-01 -7.976737805329717768e-01 1.235745397794180273e-01 -4.525275548321912034e-01 8.831467291656032170e-01
2.265883418685686324e-01 5.685130718816976125e-02 -6.921960151726013200e-01 -4.204172481232056890e-01 -2.582915982686090905e-01 8.697900825741566866e-01
4.058023859701088976e-02 -8.353327941002038071e-02 -7.813478465063055101e-01 2.276026246444252943e-01 -2.293241486220805037e-01 9.463654051758902952e-01
2.398167030293243684e-01 7.951294398383436379e-02 -6.664477358024066822e-01 -8.570487236701820333e-01 -3.784969020680079566e-01 3.495820080899938453e-01
-8.300656744450500557e-02 3.741776783948641549e-02 -6.616576682249220021e-01 6.421930359763041718e-01 -2.727061304038948530e-01 7.163933772611744688e-01
-1.307384737030000965e-01 1.898395752384873791e-02 -6.495545157562759853e-01 5.208528561350131980e-01 -5.292143935705346802e-01 6.698092473934430524e-01
1.154377873560328976e-01 4.843573833686667246e-02 -7.247632784657559446e-01 2.209737370758841357e-01 -6.185047756971672195e-01 7.540705868567708636e-01
-3.824150350045990576e-02 -1.055507472292639831e-01 -7.663375367204213751e-01 2.558139989230265865e-01 -2.404086783249196890e-01 9.363561637224776524e-01
-1.995380580853460817e-01 6.761803248947043099e-02 -5.535004512138096411e-01 9.351305538590067856e-01 -6.783981907704113301e-02 3.477479060856320525e-01
-8.840882177671469111e-02 1.452826850603700440e-02 -6.765668978740905226e-01 1.805631660773167890e-01 -5.760899654984791285e-01 7.971933860162766505e-01
6.670198091166637533e-02 -8.289492034183862379e-02 -7.853834302595050776e-01 2.264631685627106761e-02 -3.114851202688353471e-01 9.499811388569536774e-01
-7.717263673636474974e-02 -8.599777804113806212e-02 -7.450386016556421742e-01 4.305537971462247149e-01 -3.596029315351932376e-01 8.278340168139158850e-01
1.740232621830559712e-01 1.331053757841219216e-02 -7.331216199171779468e-01 -4.581918887616205360e-01 -1.953125014454447639e-01 8.671292982319200870e-01
-2.754151933496166993e-02 1.278780275277394476e-02 -7.221265377998778989e-01 6.557749674641309978e-01 -3.442876890426882497e-01 6.718818193857184484e-01
2.506625249840438441e-01 -4.560957785490844102e-02 -7.843229003531758670e-01 1.461302231216026759e-01 -6.900835526537743014e-01 7.088234252951689518e-01
-1.638548843050773585e-01 -3.885172137383965940e-02 -6.208104222606876110e-01 9.133663173682332603e-01 4.464598399352990438e-02 4.046834644638217515e-01
-1.506799902547378833e-01 3.989371278518891173e-02 -6.214579753756743763e-01 4.595285709197174939e-01 -4.647119272086937536e-01 7.568859340868107077e-01
-2.044384175540338855e-01 2.944890375229462440e-02 -5.482907486376531470e-01 9.287248008475276206e-01 -7.174481450293307416e-02 3.637621831398363259e-01
-1.380541930199313261e-01 1.731968630658725986e-02 -6.451806480777891872e-01 5.208528561350131980e-01 -5.292143935705346802e-01 6.698092473934430524e-01
-1.741030329995489068e-01 -1.596211486705698956e-01 -6.885768239144989256e-01 6.708912672052159687e-01 -2.429459957791599289e-01 7.006298243171297235e-01
2.275212329614447748e-01 1.309516992703556870e-01 -6.372140732123366957e-01 -6.200895026531964005e-01 -6.115532494156080690e-01 4.914179807745364670e-01
-3.774051518875921191e-02 -1.410011524480750400e-01 -7.778325645434203128e-01 2.897384002047718732e-01 -4.109737756430400513e-01 8.643796707353105235e-01
9.601326609891580599e-02 -3.153898821120255241e-02 -7.689557777575849462e-01 3.292037432667283686e-02 -3.215562352614982355e-01 9.463180419492400741e-01
-1.558413551609928172e-01 -1.043241534502803991e-01 -6.815085336608769362e-01 6.764902448215517339e-01 -5.975574887860721773e-01 4.304485988558451881e-01
-1.456003581500609767e-01 -6.962881236484268210e-02 -6.615435897588640701e-01 8.359582904535823866e-01 -3.891020814458088783e-01 3.870055643481926655e-01
1.868606799158088749e-01 1.142517886670182600e-02 -7.267629758684432950e-01 -4.581918887616205360e-01 -1.953125014454447639e-01 8.671292982319200870e-01
-1.536574631445691563e-01 -1.081031435260646351e-01 -6.901867950714534183e-01 6.764902448215517339e-01 -5.975574887860721773e-01 4.304485988558451881e-01
-1.232978803369404533e-02 2.209861527301784090e-01 -5.851974371682073794e-01 4.802317992894616361e-01 -8.089272285928050810e-01 3.391373730398493658e-01
7.983780033759617367e-02 8.214582729748751144e-02 -6.884143069241968060e-01 -4.845060396549823352e-03 -5.799198337858537666e-01 8.146591383956491850e-01
2.182150745256448143e-01 1.424727316604801688e-02 -7.088949064859977334e-01 -4.204172481232056890e-01 -2.582915982686090905e-01 8.697900825741566866e-01
-6.409942277622404302e-03 -2.024677150281153221e-02 -7.489008874134385207e-01 -1.594172767012255465e-01 -4.327738090244541147e-01 8.872953071619561483e-01
2.617393221247689417e-02 -1.834730135861569605e-02 -7.469154622737561589e-01 3.795665355324684409e-02 -3.730793822664358328e-01 9.270226895706132897e-01
-9.853400488789898493e-02 5.220376417839899669e-02 -6.470474480962965513e-01 1.805631660773167890e-01 -5.760899654984791285e-01 7.971933860162766505e-01
1.757713695739896997e-01 -1.126762158649621121e-03 -7.354497807839247558e-01 -4.581918887616205360e-01 -1.953125014454447639e-01 8.671292982319200870e-01
-2.254737678143898388e-02 2.102184523131390148e-01 -5.953314160395543064e-01 6.572938807849779685e-01 -5.507625131197316781e-01 5.144175428819092177e-01
-8.438564198132043892e-02 9.375088184123278601e-02 -6.297470367446287298e-01 5.623296736339435942e-01 -4.720673010467122954e-01 6.789240026933907046e-01
-3.460524945815729447e-02 1.823111596630695164e-01 -6.095021920327996501e-01 5.626573529654494976e-01 -4.708285171467725405e-01 6.795124800879561722e-01
1.705577853792060450e-01 7.928871512733841331e-02 -7.090487731083050527e-01 1.007007883505852408e-01 -7.433604305578932481e-01 6.612674356917589424e-01
-2.015648172503482771e-01 -1.673089619789837612e-01 -6.490950590717380342e-01 7.988628210904605842e-01 -3.184497030721478161e-01 5.103018515473483063e-01
-1.675958507314700419e-01 -9.117377791708719537e-02 -6.447796257065747660e-01 6.764902448215517339e-01 -5.975574887860721773e-01 4.304485988558451881e-01
8.743852344664937437e-02 -8.865044431567914440e-02 -7.887174198559343541e-01 5.483974069449188554e-02 -4.456920255387778473e-01 8.935050202498597827e-01
3.960826044698902149e-02 1.815011258330953003e-01 -6.288706521719712450e-01 -1.249150024500219475e-01 -6.709980625701894574e-01 7.308610279594631720e-01
-6.956529509363106045e-02 -3.937677272423794478e-02 -7.257752180048941959e-01 2.393128541320953540e-01 -6.431525917853792018e-01 7.273816752757111814e-01
5.057881901656782753e-02 1.701694855262125550e-01 -6.373991153169635826e-01 -1.249150024500219475e-01 -6.709980625701894574e-01 7.308610279594631720e-01
-1.187239437476541315e-01 -1.358482300734551763e-02 -6.846296804721033746e-01 5.208528561350131980e-01 -5.292143935705346802e-01 6.698092473934430524e-01
-6.771087363392204461e-02 -8.249544861055067846e-02 -7.484382567119118868e-01 4.305537971462247149e-01 -3.596029315351932376e-01 8.278340168139158850e-01
-3.936534497078682943e-02 -5.579517179398153087e-02 -7.497617358615136229e-01 3.860277929941576813e-01 -4.144396380508449385e-01 8.241494581981745338e-01
1.257173692537444654e-01 7.257706247602346838e-02 -7.079743904427153733e-01 2.209737370758841357e-01 -6.185047756971672195e-01 7.540705868567708636e-01
5.387907426963603474e-02 -6.628727377825112399e-02 -7.780402246099790142e-01 1.080194432027746926e-01 -3.487358426015261248e-01 9.309753551921587933e-01
-8.399942662907033605e-03 2.240593658618938722e-01 -5.834318721913838157e-01 4.802317992894616361e-01 -8.089272285928050810e-01 3.391373730398493658e-01
8.264018148707190370e-02 8.155076180095395533e-02 -6.888212410176030032e-01 -4.845060396549823352e-03 -5.799198337858537666e-01 8.146591383956491850e-01
1.837089917894003110e-01 4.062707566039933799e-02 -7.212270316051054841e-01 -5.188104453392410331e-01 -2.465768413021639516e-01 8.185570127610818369e-01
1.808443456229353041e-01 -9.057325534402568823e-03 -7.345554985721484131e-01 -4.581918887616205360e-01 -1.953125014454447639e-01 8.671292982319200870e-01
-2.085840980446372062e-01 6.314077324907840794e-02 -5.332524922975494519e-01 8.899438073421820361e-01 2.104324618579193548e-02 4.555844615033147194e-01
-1.108487737217365987e-01 1.708771874104943536e-02 -6.665192321208724957e-01 5.208528561350131980e-01 -5.292143935705346802e-01 6.698092473934430524e-01
1.976091494398320714e-01 9.810028146582613906e-02 -6.920213500745304724e-01 1.007007883505852408e-01 -7.433604305578932481e-01 6.612674356917589424e-01
-1.164225854868170956e-01 -1.783152948334543186e-02 -6.897745590012154260e-01 5.208528561350131980e-01 -5.292143935705346802e-01 6.698092473934430524e-01
3.323494027128331973e-02 9.407763209848747643e-02 -6.871927143754673617e-01 -1.166183626551513808e-01 -4.481329908433959175e-01 8.863278061808648189e-01
-1.047545271900722080e-01 3.681359595688885045e-02 -6.556728419512970474e-01 5.208528561350131980e-01 -5.292143935705346802e-01 6.698092473934430524e-01
6.219247817362608816e-02 7.376417151429949526e-02 -6.944857800681407678e-01 -4.845060396549823352e-03 -5.799198337858537666e-01 8.146591383956491850e-01
-6.280967812184852506e-02 -1.076634641454617680e-01 -7.601634734433199148e-01 2.594786114806766353e-01 -2.272129849816765523e-01 9.386400319823230420e-01
2.598688814674050551e-01 -4.965501533030489828e-02 -7.903521351320451638e-01 1.749928304471957408e-01 -6.950552846845179378e-01 6.973346832936124784e-01
-2.127108936836793682e-02 -9.320922209098558842e-02 -7.682639095778580618e-01 3.026373190891004650e-01 -1.915319542350362447e-01 9.336627675994529918e-01
-1.455121149965833971e-01 1.992879612518844504e-02 -6.373198153806129973e-01 5.208528561350131980e-01 -5.292143935705346802e-01 6.698092473934430524e-01
-1.251066442103159482e-01 7.190309937214857394e-02 -6.171508872391627820e-01 4.588988589511904803e-01 -4.747489015598285733e-01 7.510161900525391676e-01
-1.962529279944366378e-01 -1.567516277334433106e-01 -6.547509879626544071e-01 8.775198540214419474e-01 -5.245678858117765880e-02 4.766625547805668495e-01
-3.131901360874702472e-02 1.573220641617666393e-01 -6.295380323490871177e-01 5.626573529654494976e-01 -4.708285171467725405e-01 6.795124800879561722e-01
-1.618575747100453877e-01 -4.540114780079457929e-02 -6.245957751514056300e-01 9.133663173682332603e-01 4.464598399352990438e-02 4.046834644638217515e-01
-2.936815846677742758e-02 7.342514997774966801e-02 -6.910807154328860724e-01 5.964137390882133793e-01 -3.692503234052310623e-01 7.127024978853020443e-01
-1.577765239387500795e-01 -5.095357630493602130e-02 -6.331941019559363948e-01 9.133663173682332603e-01 4.464598399352990438e-02 4.046834644638217515e-01
-2.192831712234784014e-01 -1.489149928150481916e-01 -5.917177408996274757e-01 9.275725965172340048e-01 -3.461679383778438757e-01 1.406301412553854213e-01
-1.468659472075228289e-01 4.583607228638544168e-02 -6.201251145843426071e-01 4.595285709197174939e-01 -4.647119272086937536e-01 7.568859340868107077e-01
2.659048731525541845e-02 1.625622882649218059e-01 -6.431894797108432815e-01 -4.976446450602365137e-03 -5.682033163101239959e-01 8.228731532349938815e-01
2.038659541258042440e-01 5.965171965417505502e-03 -7.188926555628525339e-01 -5.188104453392410331e-01 -2.465768413021639516e-01 8.185570127610818369e-01
-1.482594022358773300e-01 1.765064211253588450e-02 -6.369834501963159701e-01 5.208528561350131980e-01 -5.292143935705346802e-01 6.698092473934430524e-01
-1.909900758666143589e-02 1.121717957839860058e-02 -7.311714827809400186e-01 6.557749674641309978e-01 -3.442876890426882497e-01 6.718818193857184484e-01
2.677268685878342880e-01 -4.254245451495992925e-02 -7.852347479433435806e-01 1.749928304471957408e-01 -6.950552846845179378e-01 6.973346832936124784e-01
-1.487999057282387294e-01 -6.040898701935468879e-02 -6.524110833373004681e-01 9.133663173682332603e-01 4.464598399352990438e-02 4.046834644638217515e-01
-8.800816527058127892e-02 -1.122274020433872005e-01 -7.479806041009737783e-01 5.101339970965423909e-01 -2.277034850288264800e-01 8.294060693725552325e-01
-5.897254496107550564e-02 1.160728160199654690e-01 -6.352750241432717493e-01 5.623296736339435942e-01 -4.720673010467122954e-01 6.789240026933907046e-01
1.573012460637129850e-01 3.775169745647099367e-02 -7.364524127775984308e-01 -4.581918887616205360e-01 -1.953125014454447639e-01 8.671292982319200870e-01
1.618942300286793368e-01 -4.171491694371111392e-02 -7.585071065756058273e-01 -3.649307836752232470e-01 -4.117646386197121311e-01 8.350301823937653634e-01
-1.435761375549041985e-01 -1.384117677680845593e-01 -7.130363432595078210e-01 7.290103412000166205e-01 -3.713820391256492798e-02 6.834944595485642482e-01
2.045443540876152044e-01 1.153623956868922856e-01 -6.709389864208938903e-01 -3.535461052338478294e-01 -7.530608062357666554e-01 5.548914971285056064e-01
3.002666450390211426e-03 -2.809001053546018173e-02 -7.510352568459018885e-01 -1.594172767012255465e-01 -4.327738090244541147e-01 8.872953071619561483e-01
-4.523194576550737533e-02 -1.103949937028069345e-01 -7.656714930481092196e-01 2.558139989230265865e-01 -2.404086783249196890e-01 9.363561637224776524e-01
-1.671018154200273331e-01 -1.058498658615220495e-01 -6.659296918242654240e-01 6.764902448215517339e-01 -5.975574887860721773e-01 4.304485988558451881e-01
9.272330790251248405e-04 1.364606147070528408e-01 -6.602823748886621491e-01 -1.042475731877136463e-01 -5.899308704697224792e-01 8.006959544991519850e-01
7.854318401086982093e-02 2.579762749521929965e-02 -7.323214124063458508e-01 2.288832930231799179e-01 -6.168856287162448604e-01 7.530368910340505817e-01
-3.475947009622239875e-02 3.210918083425890607e-02 -7.069283744774482736e-01 6.421930359763041718e-01 -2.727061304038948530e-01 7.163933772611744688e-01
-1.566254783790165528e-01 -6.504275251270184854e-02 -6.342376363368690262e-01 9.133663173682332603e-01 4.464598399352990438e-02 4.046834644638217515e-01
-9.885770663902102018e-02 -2.655154686179970330e-02 -7.047977471891556656e-01 2.393128541320953540e-01 -6.431525917853792018e-01 7.273816752757111814e-01
-4.115048670164548478e-02 7.446662700783639177e-02 -6.806812736042231471e-01 5.964137390882133793e-01 -3.692503234052310623e-01 7.127024978853020443e-01
-7.644043899366695372e-03 8.488656118064186185e-02 -6.972184207094979103e-01 -1.166183626551513808e-01 -4.481329908433959175e-01 8.863278061808648189e-01
1.386359787665557841e-01 -5.064728394894419533e-02 -7.730762622641527138e-01 -3.649307836752232470e-01 -4.117646386197121311e-01 8.350301823937653634e-01
-1.401396116268759928e-01 -8.790952122263256951e-02 -6.917189135030110680e-01 8.359582904535823866e-01 -3.891020814458088783e-01 3.870055643481926655e-01
-1.960021733360288454e-01 2.603820154885556903e-02 -5.711203475957796760e-01 9.351305538590067856e-01 -6.783981907704113301e-02 3.477479060856320525e-01
-9.589925212259153842e-02 2.375044178839515879e-02 -6.682059437774997557e-01 1.805631660773167890e-01 -5.760899654984791285e-01 7.971933860162766505e-01
-1.436021391608919562e-01 -1.053453004638095318e-02 -6.601680778808414196e-01 7.064149515307968086e-01 -2.617680196295313344e-01 6.576134275947954633e-01
-1.139574587538860762e-01 -9.484368610625798501e-02 -7.235657999205525881e-01 4.865684491686017021e-01 -4.124674647957934370e-01 7.701439701501225921e-01
2.097497916653295602e-01 -8.858725193465022407e-02 -7.986559529406694891e-01 2.623440312503748095e-01 -4.581161109803761344e-01 8.492969081113611596e-01
-1.792439882525156680e-01 5.126969978671393896e-02 -5.971141931994102814e-01 4.588988589511904803e-01 -4.747489015598285733e-01 7.510161900525391676e-01
-1.357091265761167231e-01 2.542438482916322545e-02 -6.406007045034838310e-01 5.208528561350131980e-01 -5.292143935705346802e-01 6.698092473934430524e-01
-1.922746451670484247e-01 5.348868424395374771e-02 -5.757889298450455939e-01 9.351305538590067856e-01 -6.783981907704113301e-02 3.477479060856320525e-01
1.974350194845468365e-01 1.153051443138837368e-01 -6.755463580206843011e-01 -3.535461052338478294e-01 -7.530608062357666554e-01 5.548914971285056064e-01
9.283364291403549406e-02 -1.492776813777559886e-01 -8.198938937649674630e-01 2.764005057787243674e-02 -6.015618543710121724e-01 7.983478959512335660e-01
1.804161404125231016e-01 1.358043407300228711e-01 -6.608958894317975563e-01 -4.048771162676090274e-01 -6.038618855982113010e-01 6.866042119333362059e-01
-1.163882783775524038e-01 2.849747691813161315e-02 -6.531968196418697081e-01 5.208528561350131980e-01 -5.292143935705346802e-01 6.698092473934430524e-01
8.934234000808456699e-02 9.937923049351368027e-03 -7.485960070255123222e-01 2.288832930231799179e-01 -6.168856287162448604e-01 7.530368910340505817e-01
1.557977395632123563e-01 -6.554438804030451871e-02 -7.793014196123209114e-01 1.011937706916982010e-01 -7.268771371876813214e-01 6.792712626094500328e-01
2.199781647910974414e-01 -2.043284055616907680e-02 -7.467685827312798841e-01 3.954845606825266868e-01 -6.767218846330393944e-01 6.209987545240781559e-01
-1.774157932441409180e-01 -2.986847622892800994e-02 -5.982233628460010832e-01 7.963642944089273090e-01 5.547094521079658919e-02 6.022681170608253920e-01
6.114703552640533835e-02 1.572947944935041420e-01 -6.465726114073313546e-01 -3.225215952192680979e-02 -4.757367596435028712e-01 8.789962080294045910e-01
-2.058538108400995437e-01 3.999139324326351358e-02 -5.425977989671402213e-01 9.287248008475276206e-01 -7.174481450293307416e-02 3.637621831398363259e-01
-1.945627048972475015e-01 7.065588263197769558e-02 -5.575711337614507324e-01 5.908775520511548862e-01 -6.260977496589239522e-01 5.087880957275494609e-01
2.086884048373689182e-01 1.371458772259090686e-01 -6.430444177459790911e-01 -4.048771162676090274e-01 -6.038618855982113010e-01 6.866042119333362059e-01
-1.711329933361630251e-01 1.638872476471089565e-02 -6.157274083772317219e-01 8.745931828509031503e-01 7.880857524697422456e-02 4.784098378778061100e-01
-2.345402998344086470e-02 2.448677815563615745e-02 -7.201212148840905325e-01 6.557749674641309978e-01 -3.442876890426882497e-01 6.718818193857184484e-01
2.178097313682628156e-01 9.423797088627373919e-02 -6.806137017462147165e-01 -6.675179312701028378e-01 -4.737928217331991432e-01 5.744041900151628521e-01
1.102052600144766414e-01 -6.241508909976351688e-02 -7.797054505249133571e-01 2.264631685627106761e-02 -3.114851202688353471e-01 9.499811388569536774e-01
-1.678863122391752172e-01 -4.233503737574308146e-02 -6.119891682084086515e-01 8.745931828509031503e-01 7.880857524697422456e-02 4.784098378778061100e-01
8.769411936103751332e-03 2.356130462355590927e-01 -5.685899752539709251e-01 -3.820070417220890191e-02 -8.584495646416345771e-01 5.114734119847633709e-01
1.678600488251603684e-01 -1.093338761625555627e-01 -8.020168094655025781e-01 1.235745397794180273e-01 -4.525275548321912034e-01 8.831467291656032170e-01
-3.891889999579033199e-02 1.866228165191418653e-01 -5.996755323543246918e-01 6.572938807849779685e-01 -5.507625131197316781e-01 5.144175428819092177e-01
1.435601622010997391e-01 -2.571406863400226353e-02 -7.586293563104892224e-01 -3.649307836752232470e-01 -4.117646386197121311e-01 8.350301823937653634e-01
5.695287084588351867e-02 -5.586722870525927948e-02 -7.744936071991354032e-01 1.080194432027746926e-01 -3.487358426015261248e-01 9.309753551921587933e-01
-1.520814110498948102e-01 4.732764568499306379e-02 -6.160428527062212778e-01 4.595285709197174939e-01 -4.647119272086937536e-01 7.568859340868107077e-01
1.204764830120992336e-01 -9.604152607178645384e-02 -7.921187019805846496e-01 -4.625583757160149634e-02 -3.048174058130934672e-01 9.512868897466872919e-01
1.108166660177971191e-01 9.957573579832927624e-02 -6.802922930927136624e-01 9.709645216086489061e-02 -2.159332085527496947e-01 9.715683858699231124e-01
-1.945852008373727127e-01 5.381676360454168417e-02 -5.695116007512506240e-01 9.351305538590067856e-01 -6.783981907704113301e-02 3.477479060856320525e-01
-1.192072183064056545e-01 1.081737699020848820e-02 -6.649737702873010914e-01 5.208528561350131980e-01 -5.292143935705346802e-01 6.698092473934430524e-01
-1.890840561965516642e-01 -9.214722662050077451e-02 -6.079487921292247021e-01 7.351671334160079230e-01 -5.661386883896690758e-01 3.728488587260458398e-01
-3.893084674653571504e-03 1.083925210586563215e-01 -6.815897653536368006e-01 -1.042475731877136463e-01 -5.899308704697224792e-01 8.006959544991519850e-01
-1.514318853970728351e-01 7.954578736374358361e-02 -5.962339202293133189e-01 4.588988589511904803e-01 -4.747489015598285733e-01 7.510161900525391676e-01
-2.007030047101670822e-01 4.667303894570035139e-02 -5.544538067460568209e-01 9.351305538590067856e-01 -6.783981907704113301e-02 3.477479060856320525e-01
1.764396802805544839e-01 1.207162625939596362e-01 -6.815798246106916647e-01 -3.535461052338478294e-01 -7.530608062357666554e-01 5.548914971285056064e-01
-1.361558727626965004e-01 1.222142851429845745e-02 -6.506849270169039468e-01 5.208528561350131980e-01 -5.292143935705346802e-01 6.698092473934430524e-01
-1.360535453493504354e-01 -1.026269000388915081e-02 -6.681686452068001936e-01 7.064149515307968086e-01 -2.617680196295313344e-01 6.576134275947954633e-01
1.883528677212747138e-01 6.206441278554986757e-02 -7.118260465856156571e-01 -5.188104453392410331e-01 -2.465768413021639516e-01 8.185570127610818369e-01
-1.622271521766216196e-01 8.352056210200349551e-02 -5.791890414088385342e-01 5.475073733430048106e-01 -7.232377403308015706e-01 4.209071715904114108e-01
2.006289264002868444e-01 6.027819994620413346e-02 -7.045834127091405996e-01 -5.188104453392410331e-01 -2.465768413021639516e-01 8.185570127610818369e-01
-1.055660875799222242e-01 -1.282322106845802390e-01 -7.418009003244959709e-01 4.890433091030156332e-01 -2.760065422305320038e-01 8.274400464489968243e-01
-8.573208417496155920e-02 -2.716307752384434018e-02 -7.096568711188930845e-01 2.393128541320953540e-01 -6.431525917853792018e-01 7.273816752757111814e-01
5.304210231001310269e-03 -5.181418741037121124e-04 -7.388856301050711339e-01 3.795665355324684409e-02 -3.730793822664358328e-01 9.270226895706132897e-01
9.199424417528780096e-02 -6.656050352758123567e-02 -7.806305451827941777e-01 2.264631685627106761e-02 -3.114851202688353471e-01 9.499811388569536774e-01
-6.411244396722639086e-03 1.963853658840785388e-01 -6.200338409037325915e-01 -4.976446450602365137e-03 -5.682033163101239959e-01 8.228731532349938815e-01
-1.343294468838719113e-01 -7.632530459150368984e-02 -6.926222922007120308e-01 8.359582904535823866e-01 -3.891020814458088783e-01 3.870055643481926655e-01
-1.599257979832510029e-02 5.384620933655083486e-02 -7.124176815511975569e-01 5.964137390882133793e-01 -3.692503234052310623e-01 7.127024978853020443e-01
1.031200203950178168e-01 4.341781958107286503e-03 -7.564301767376729879e-01 -6.625835636681394469e-02 -3.869403939591455344e-01 9.197211325909119273e-01
-1.527617433583395856e-01 -3.575671755340723013e-02 -6.461889753458820440e-01 9.133663173682332603e-01 4.464598399352990438e-02 4.046834644638217515e-01
1.479588257567140963e-01 1.048888260464432981e-01 -6.828233545675407301e-01 9.709645216086489061e-02 -2.159332085527496947e-01 9.715683858699231124e-01
-1.422576255834527570e-01 2.899683489613369761e-02 -6.332619023918636403e-01 4.595285709197174939e-01 -4.647119272086937536e-01 7.568859340868107077e-01
-2.911069061389446114e-02 4.512481232014356469e-02 -7.059585448621967796e-01 5.964137390882133793e-01 -3.692503234052310623e-01 7.127024978853020443e-01
-1.038344718667970484e-01 -7.734991342249121493e-02 -7.220926434068487554e-01 6.059752975056903468e-01 -2.193310430227765895e-01 7.646488294501150307e-01
-1.652119178499245333e-01 -1.336822501533937134e-02 -6.216500069845619647e-01 8.745931828509031503e-01 7.880857524697422456e-02 4.784098378778061100e-01
1.402263501937591750e-01 6.033897489529327363e-02 -7.222640597937973750e-01 2.209737370758841357e-01 -6.185047756971672195e-01 7.540705868567708636e-01
-5.342925483801242575e-02 1.205990162543254113e-01 -6.367191996227647977e-01 5.623296736339435942e-01 -4.720673010467122954e-01 6.789240026933907046e-01
1.780265232832895783e-01 7.827785730409608789e-02 -7.113224969006620713e-01 1.007007883505852408e-01 -7.433604305578932481e-01 6.612674356917589424e-01
-6.653302362106457146e-02 1.103404178161961936e-02 -6.864683372292799124e-01 6.421930359763041718e-01 -2.727061304038948530e-01 7.163933772611744688e-01
2.928015202476124540e-02 -7.067359264128690588e-02 -7.755658113780007357e-01 1.949289763967578804e-01 -2.086784755001735714e-01 9.583610947987381001e-01
-1.980751545602817409e-01 8.325070442143639449e-02 -5.376448850078808794e-01 2.954508946532736768e-01 -6.939688471565241823e-01 6.565942491560714522e-01
-1.407909795497271355e-01 2.824534675266550734e-02 -6.346137457982061747e-01 4.595285709197174939e-01 -4.647119272086937536e-01 7.568859340868107077e-01
-1.049034532566591252e-02 -2.179836915611839919e-03 -7.408219431216400697e-01 -1.594172767012255465e-01 -4.327738090244541147e-01 8.872953071619561483e-01
1.228738123932352766e-01 -9.249001809061320467e-02 -7.908641362540214104e-01 -4.625583757160149634e-02 -3.048174058130934672e-01 9.512868897466872919e-01
3.428486869293410205e-02 -3.697027192869665330e-02 -7.568066362101045774e-01 3.168560353808421159e-01 -5.035714405515530068e-01 8.037524849750503630e-01
-4.367689307935221366e-02 4.469335345512320118e-02 -6.939925885527982174e-01 5.964137390882133793e-01 -3.692503234052310623e-01 7.127024978853020443e-01
2.352471586902975809e-01 5.783233342626681317e-02 -6.877194100086837514e-01 -4.204172481232056890e-01 -2.582915982686090905e-01 8.697900825741566866e-01
1.631543581614523231e-01 3.784194670621479628e-02 -7.333392953919651847e-01 -4.581918887616205360e-01 -1.953125014454447639e-01 8.671292982319200870e-01
9.409301740402874203e-02 6.099731337158280364e-02 -7.082051101056614506e-01 2.209737370758841357e-01 -6.185047756971672195e-01 7.540705868567708636e-01
-1.724095136045531163e-01 -3.507989085108988159e-02 -6.049153309875490159e-01 8.745931828509031503e-01 7.880857524697422456e-02 4.784098378778061100e-01
1.800607013530247380e-01 -6.314363800350274170e-02 -7.803469669759436345e-01 1.011937706916982010e-01 -7.268771371876813214e-01 6.792712626094500328e-01
-1.788880062344025065e-02 9.229250230731381177e-02 -6.909118803071880865e-01 5.964137390882133793e-01 -3.692503234052310623e-01 7.127024978853020443e-01
-1.710523588408004447e-01 -1.029278776326787159e-01 -6.556646798206675619e-01 6.764902448215517339e-01 -5.975574887860721773e-01 4.304485988558451881e-01
-1.607973042110577566e-01 3.053592806981346094e-02 -6.210609265723164851e-01 4.595285709197174939e-01 -4.647119272086937536e-01 7.568859340868107077e-01
1.088930632529485493e-01 7.120725204286934562e-02 -7.041677236319016098e-01 2.209737370758841357e-01 -6.185047756971672195e-01 7.540705868567708636e-01
-9.142461651431775527e-02 -6.840541333780655875e-02 -7.293616786060881374e-01 6.059752975056903468e-01 -2.193310430227765895e-01 7.646488294501150307e-01
-1.849261140020209693e-01 -3.475930451654508230e-02 -5.878421887775086008e-01 7.963642944089273090e-01 5.547094521079658919e-02 6.022681170608253920e-01
2.051872503533398451e-01 4.861380800181371725e-02 -7.052080030960090617e-01 -5.188104453392410331e-01 -2.465768413021639516e-01 8.185570127610818369e-01
-1.529394006113672377e-01 -1.824271264992625985e-02 -6.477202062610192268e-01 9.133663173682332603e-01 4.464598399352990438e-02 4.046834644638217515e-01
2.227792912866191077e-01 8.950445750193500305e-02 -6.787429533923110547e-01 -6.675179312701028378e-01 -4.737928217331991432e-01 5.744041900151628521e-01
5.130337345933226600e-02 7.085038142972709119e-02 -6.966247397255121987e-01 -4.845060396549823352e-03 -5.799198337858537666e-01 8.146591383956491850e-01
5.114552503953341545e-02 -1.337850926018601949e-01 -8.056094537300294567e-01 2.828160739801985901e-01 -4.734704579594864460e-01 8.341707221774574688e-01
8.154505167349986039e-02 -1.829531504170972891e-02 -7.632728598064050241e-01 1.080194432027746926e-01 -3.487358426015261248e-01 9.309753551921587933e-01
-2.635092634893721267e-02 -4.594903497065175313e-02 -7.523167404024579952e-01 4.864866294333963226e-01 -3.536473212266258437e-01 7.989144707487562114e-01
-1.513037983498478900e-01 1.392580791901729988e-02 -6.375590669994674053e-01 5.208528561350131980e-01 -5.292143935705346802e-01 6.698092473934430524e-01
-2.219499236129959252e-01 -1.598906296600976218e-01 -5.964976731719299208e-01 9.701061060951502446e-01 -1.604125336099806176e-01 1.821042612838372765e-01
3.899567002503762092e-02 2.264617662776006318e-02 -7.309426588563268101e-01 3.795665355324684409e-02 -3.730793822664358328e-01 9.270226895706132897e-01
1.106805252684501389e-01 5.210915945817710254e-02 -7.203561864158294359e-01 2.209737370758841357e-01 -6.185047756971672195e-01 7.540705868567708636e-01
-1.891374805557537175e-01 4.831762154713448859e-02 -5.852338822971427934e-01 9.351305538590067856e-01 -6.783981907704113301e-02 3.477479060856320525e-01
-7.462937563619519155e-02 7.946536988646499267e-02 -6.488160990758501390e-01 5.847242930585679899e-01 -5.124956655308421372e-01 6.288447295789773017e-01
1.441618495520259891e-01 7.510073485917416469e-02 -7.097369776738087221e-01 1.007007883505852408e-01 -7.433604305578932481e-01 6.612674356917589424e-01
-9.976452675630442801e-02 -1.099880194648048121e-01 -7.401349478732558440e-01 5.101339970965423909e-01 -2.277034850288264800e-01 8.294060693725552325e-01
1.437105679746386588e-01 1.026814024262068525e-01 -6.828893975835360619e-01 9.709645216086489061e-02 -2.159332085527496947e-01 9.715683858699231124e-01
2.095603778024890951e-01 -5.437751286031193565e-02 -7.771245674528332037e-01 3.954845606825266868e-01 -6.767218846330393944e-01 6.209987545240781559e-01
7.517388655648675477e-02 -1.432803505918009979e-01 -8.147634462388162468e-01 2.764005057787243674e-02 -6.015618543710121724e-01 7.983478959512335660e-01
2.589194770765330111e-01 -4.062206680926060132e-02 -7.811694928754672196e-01 1.461302231216026759e-01 -6.900835526537743014e-01 7.088234252951689518e-01
-2.918612931503769548e-02 1.134387138453048088e-01 -6.633834129548492609e-01 5.847242930585679899e-01 -5.124956655308421372e-01 6.288447295789773017e-01
-5.071623878103526106e-02 -1.406155356325959893e-01 -7.732997834908519330e-01 2.897384002047718732e-01 -4.109737756430400513e-01 8.643796707353105235e-01
-4.054404576401328397e-02 9.216190544195235201e-02 -6.701625465251614955e-01 5.847242930585679899e-01 -5.124956655308421372e-01 6.288447295789773017e-01
2.029454387490499390e-01 9.924497848312680004e-02 -6.913770803436194434e-01 -5.188104453392410331e-01 -2.465768413021639516e-01 8.185570127610818369e-01
1.746468946027587288e-01 5.194355162312072616e-02 -7.235617862400977041e-01 -5.188104453392410331e-01 -2.465768413021639516e-01 8.185570127610818369e-01
1.358188755036107143e-01 -1.145169962237337080e-01 -8.001892891382277329e-01 1.235745397794180273e-01 -4.525275548321912034e-01 8.831467291656032170e-01
3.720994293663110880e-02 -5.046261775867460359e-02 -7.667935392880075307e-01 3.301519733869954232e-01 -5.217276840370033142e-01 7.866383528522224999e-01
6.560318167207403184e-02 7.827518411571171564e-02 -6.912543049414442420e-01 -4.845060396549823352e-03 -5.799198337858537666e-01 8.146591383956491850e-01
-1.995999134215851664e-02 1.749525419102673784e-01 -6.267276435040224358e-01 5.626573529654494976e-01 -4.708285171467725405e-01 6.795124800879561722e-01
