-1.152211796902131019e-01 -5.918961903817657362e-03 -7.562893101429205567e-01 -5.122884870358528353e-01 2.162926707060146836e-01 -8.311305472964979346e-01
-1.001930353794723907e-02 -6.922306202173293677e-02 -8.493888815643440005e-01 -3.475502617094345936e-01 5.224695379530912565e-01 -7.786105557316745918e-01
1.547896549785064413e-01 1.407130365465376620e-01 -9.605092482290218392e-01 -9.932437399031674996e-01 1.128694825528910040e-01 2.696948370680751772e-02
6.274092889802791728e-02 1.246485195528854450e-01 -8.211340056916877073e-01 -7.929296726616464897e-01 1.946526881781419360e-01 -5.773845037734535168e-01
1.008242328739532012e-01 3.503859213306607240e-02 -8.957135037076657813e-01 -7.599823197743440506e-01 1.597861789103193486e-01 -6.299962306709828708e-01
-1.138946276420252542e-02 -7.401263986347522694e-02 -8.519912214753315727e-01 -3.475502617094345936e-01 5.224695379530912565e-01 -7.786105557316745918e-01
-9.830697846807581741e-02 -1.085427823600879221e-01 -8.217515975398149708e-01 -3.296843229944358966e-01 5.787392428643847175e-01 -7.459015591486983787e-01
-1.472518569684485856e-01 6.043330009416837505e-03 -7.380791181228038011e-01 -3.922383970089384775e-01 8.562447750951698855e-02 -9.158697990233550801e-01
-1.921774492042712390e-01 8.330470746962417850e-02 -7.185805957495717822e-01 6.649249172114347906e-02 5.624515383544778646e-02 -9.962003971163334581e-01
7.649995623645618192e-02 2.031728953073087124e-02 -8.839302859738815688e-01 -4.790991324746428082e-01 2.810220242602565199e-01 -8.315591639460853113e-01
5.775465029282336737e-02 3.659045454002219505e-02 -8.545544076771666164e-01 -8.478804506323137646e-01 3.296393405628061934e-01 -4.152549175974477036e-01
2.556110759859578363e-02 1.499005389925169573e-01 -7.614945093235622187e-01 -7.932083033203634059e-01 1.957998640376573118e-01 -5.766133893576053104e-01
1.580032042111390311e-01 1.689575951743130799e-01 -9.681266598698782255e-01 -9.921487097528066679e-01 1.243281678411485847e-01 1.354416542664770712e-02
1.572222721123801015e-01 1.619852197703062213e-01 -9.613294979634218196e-01 -9.921487097528066679e-01 1.243281678411485847e-01 1.354416542664770712e-02
1.545043615611020327e-01 1.371063782344815185e-01 -9.559219985100680939e-01 -9.932437399031674996e-01 1.128694825528910040e-01 2.696948370680751772e-02
3.750555560728130455e-02 -5.140246417093311676e-02 -8.702760203349678703e-01 -8.597736636510399100e-01 2.505027236047753791e-01 -4.450141938844850431e-01
9.402031459468757069e-02 -5.081154405019294718e-02 -9.370678546191238967e-01 -8.183640434087774418e-01 4.042834986272665354e-01 -4.084545815550777448e-01
1.038456935350823979e-02 -4.430083255120830649e-02 -8.411443828180583671e-01 -1.586560279597376277e-01 4.827069529310909490e-01 -8.612910439474106283e-01
1.143647570016495252e-01 -7.371341993862692843e-02 -9.811162525519709909e-01 -8.845548353044567769e-01 4.282106898861006150e-01 -1.849279546384886841e-01
6.676127396893019594e-02 -1.017257186558385290e-01 -9.320375156485412038e-01 -7.463931370864650416e-01 4.644184117751959939e-01 -4.766684631003292316e-01
1.436763998959741662e-01 1.748638339354942209e-03 -1.024293260592790134e+00 -8.880188856009580967e-01 -1.291419764363702372e-01 -4.412990015150054512e-01
1.221544330847562504e-01 -7.050589710545936140e-02 -1.009827715380424484e+00 -8.661714026460115567e-01 3.303673029127233152e-01 -3.749727275475032706e-01
-9.475102972442266125e-02 -1.646311847405245443e-01 -8.645847377944982926e-01 -2.635987584120477734e-01 5.930103460340717669e-01 -7.608248313903652749e-01
8.037314053252948842e-02 -1.412730008354682043e-01 -9.821706179048789176e-01 -7.258010940287447088e-01 3.020627351658251580e-01 -6.180379243467327699e-01
-8.523261566617598706e-02 -7.671936296654653827e-03 -7.752297180686829048e-01 -5.122884870358528353e-01 2.162926707060146836e-01 -8.311305472964979346e-01
-1.068655248203315006e-01 -1.521776174365550294e-01 -8.506096231747959369e-01 -3.536259168718639545e-01 5.426382887277250155e-01 -7.619005174713952000e-01
-4.799034201235863675e-03 3.028431176801588132e-02 -7.955763164167439783e-01 -2.014123096189239237e-01 4.672041436616909960e-01 -8.609026482008966807e-01
1.247541951480657108e-01 4.425748672427425034e-02 -9.647986231997426332e-01 -9.705989166128312640e-01 2.268389670626746180e-01 8.050978879575416969e-02
7.531079639184128094e-02 6.772109018515252987e-02 -8.656888474261077437e-01 -8.478804506323137646e-01 3.296393405628061934e-01 -4.152549175974477036e-01
-2.318162068336384815e-02 1.009919809176055699e-01 -7.595969167225877783e-01 -2.837952615616932683e-01 4.338415140042001239e-01 -8.551267685212956549e-01
-3.778959037425382722e-02 -9.306960242235107206e-02 -8.397459957929039875e-01 -4.113375000757605870e-01 5.302669535980996107e-01 -7.413625421837918283e-01
-1.277819043440076574e-01 -1.601809976548466685e-01 -8.458523005260960570e-01 -4.292211808581763988e-01 4.294989630833467853e-01 -7.945437801739074768e-01
1.302022550641717402e-01 4.659222843035920603e-02 -1.010302507833521712e+00 -8.880188856009580967e-01 -1.291419764363702372e-01 -4.412990015150054512e-01
-1.177517825636628102e-01 4.553726136098832505e-02 -7.470207981172040101e-01 -3.922383970089384775e-01 8.562447750951698855e-02 -9.158697990233550801e-01
-2.041124975443165679e-01 -1.097740415599311598e-01 -7.822937309826922814e-01 -5.447616245255171297e-01 1.604879366205336777e-01 -8.230907572337348155e-01
1.458890356100866204e-01 1.096575788040333455e-01 -9.749740001302270587e-01 -9.118459424332254759e-01 4.076268201241532996e-01 -4.875810479842363626e-02
1.102987194133547011e-01 -4.952054930748349404e-02 -9.569130635249273320e-01 -7.366484583217445259e-01 3.127701969981265817e-01 -5.996030793132656189e-01
-4.452992155846912520e-02 -9.971721756435400486e-02 -8.407609643248024067e-01 -4.113375000757605870e-01 5.302669535980996107e-01 -7.413625421837918283e-01
-6.481909600787831571e-02 -1.036399248452806315e-01 -8.329904672735343185e-01 -3.400063483421091881e-01 5.685569376992090085e-01 -7.490919113708024435e-01
-1.692956371046120678e-01 -1.516960835720783662e-01 -8.188395219564369443e-01 -4.292211808581763988e-01 4.294989630833467853e-01 -7.945437801739074768e-01
-1.080462253233601955e-01 -1.064419282942130757e-01 -8.158168684282880445e-01 -3.296843229944358966e-01 5.787392428643847175e-01 -7.459015591486983787e-01
-8.073423281907605997e-02 -3.740594435848811766e-02 -7.857403626187509094e-01 -5.122884870358528353e-01 2.162926707060146836e-01 -8.311305472964979346e-01
3.436854858552294834e-02 -2.729114405074668619e-03 -8.368165871125374800e-01 -8.597736636510399100e-01 2.505027236047753791e-01 -4.450141938844850431e-01
-5.988874512701550940e-02 1.003900305598141446e-01 -7.477201315464595544e-01 -2.837952615616932683e-01 4.338415140042001239e-01 -8.551267685212956549e-01
-1.277913717345361688e-01 5.611969831344675030e-02 -7.352092412697568413e-01 -3.913483617605511555e-01 6.414406190141785924e-01 -6.598487645105054478e-01
-5.534068406813911351e-02 -1.443181167230287165e-01 -8.654891884555858672e-01 -3.657421116397938654e-01 4.511122590211126271e-01 -8.140825741496579004e-01
-2.279365021710208494e-01 -1.284142379459383143e-01 -7.714284555743419203e-01 -4.400462136806627678e-01 1.485685871993557838e-01 -8.855996300376935970e-01
6.500502613141619090e-02 -8.095971624064932093e-02 -9.150645088096626134e-01 -6.909985412047910946e-01 3.973790508557734635e-01 -6.038301963249397275e-01
-8.188975410094447016e-02 -1.261751783484277856e-01 -8.426887585010095494e-01 -3.296843229944358966e-01 5.787392428643847175e-01 -7.459015591486983787e-01
3.264794538976183158e-02 1.433402380491197725e-01 -7.734710689048345245e-01 -7.932083033203634059e-01 1.957998640376573118e-01 -5.766133893576053104e-01
-9.104207464265194616e-02 5.865919473002626644e-02 -7.545361563830799145e-01 -3.913483617605511555e-01 6.414406190141785924e-01 -6.598487645105054478e-01
6.802033369078480662e-02 9.241963209134240742e-02 -8.375252027224978635e-01 -8.068073102351757120e-01 1.279370939315350453e-01 -5.767963801441843286e-01
1.001928836569171144e-01 -6.260479970162027841e-02 -9.513225572844911104e-01 -7.366484583217445259e-01 3.127701969981265817e-01 -5.996030793132656189e-01
6.373713807205788617e-02 3.206057116517866540e-02 -8.703655683026846335e-01 -8.478804506323137646e-01 3.296393405628061934e-01 -4.152549175974477036e-01
1.194713404350673386e-01 -6.712662873188632306e-02 -9.902901963424471932e-01 -8.845548353044567769e-01 4.282106898861006150e-01 -1.849279546384886841e-01
2.046909810878320621e-02 8.463002930186186434e-02 -7.768379137631173936e-01 -2.118708477582393612e-01 3.144538609968395848e-01 -9.253267061824085316e-01
1.569901555756346781e-02 1.963928857064457245e-01 -7.350292966258356042e-01 -1.858136660905807536e-01 2.141286617101235135e-01 -9.589693413911675179e-01
-1.702358308684376875e-01 4.822390498598867759e-02 -7.190967291081886703e-01 6.649249172114347906e-02 5.624515383544778646e-02 -9.962003971163334581e-01
-4.411999679149298387e-02 -1.476221417721450546e-01 -8.751824862880533962e-01 -5.738392387555548702e-01 4.579803692012139327e-01 -6.789421989321071660e-01
8.973691137651841621e-02 3.776648438518236811e-02 -8.856598149441055057e-01 -4.790991324746428082e-01 2.810220242602565199e-01 -8.315591639460853113e-01
1.500910307655578257e-01 1.653403639557110213e-02 -1.048038623932910030e+00 -9.653023566036569303e-01 -1.159493999143135640e-01 -2.339809757115671740e-01
1.102256912566164232e-01 1.954628105945073469e-02 -9.109840702150480141e-01 -7.599823197743440506e-01 1.597861789103193486e-01 -6.299962306709828708e-01
5.250987935363139042e-02 -7.772015688067814704e-03 -8.747045896885594640e-01 -8.597736636510399100e-01 2.505027236047753791e-01 -4.450141938844850431e-01
1.750497029930135617e-02 -5.335834809252307936e-02 -8.475322586682457748e-01 -1.586560279597376277e-01 4.827069529310909490e-01 -8.612910439474106283e-01
-2.329151751891797920e-02 8.662924883408182342e-02 -7.661387077786757649e-01 -2.118708477582393612e-01 3.144538609968395848e-01 -9.253267061824085316e-01
1.131304968189770083e-01 8.500618252792836727e-02 -8.978856003259043650e-01 -7.599823197743440506e-01 1.597861789103193486e-01 -6.299962306709828708e-01
3.825952986346585483e-02 4.956501541011922030e-02 -8.118208419774011197e-01 -8.184763328519160108e-01 2.768379367530615087e-01 -5.034453787011931025e-01
8.019290214458697774e-02 9.363802549300083433e-02 -8.557588589435939364e-01 -8.184763328519160108e-01 2.768379367530615087e-01 -5.034453787011931025e-01
1.496375276609100413e-01 3.324256040505108728e-02 -1.055335008343324388e+00 -9.656531571662547719e-01 -2.119479495931908264e-01 -1.503065092339212760e-01
1.216865912686407036e-01 -3.012527433322790063e-02 -9.819213201901326737e-01 -8.529634036451988477e-01 -9.317755764453640455e-02 -5.135867743559962006e-01
-1.329972807330640980e-02 -1.320837046933417969e-01 -8.903210343044886121e-01 -5.104270658324817633e-01 5.957200344668475145e-01 -6.201466366920501683e-01
2.796146139575678494e-02 -6.592520298262151413e-02 -8.645051285843440292e-01 -7.352585024447165774e-01 3.700284025022850809e-01 -5.678678683675981720e-01
6.022905054537831121e-02 5.215960775671262678e-02 -8.472475470724921687e-01 -8.478804506323137646e-01 3.296393405628061934e-01 -4.152549175974477036e-01
-1.440869713987190381e-01 -1.488336625021441373e-01 -8.309102053095915874e-01 -4.292211808581763988e-01 4.294989630833467853e-01 -7.945437801739074768e-01
6.914944373225255514e-02 -1.130326998274801958e-01 -9.467934399517745625e-01 -7.463931370864650416e-01 4.644184117751959939e-01 -4.766684631003292316e-01
6.614383496632526838e-02 9.349508081588954467e-02 -8.346618652781487846e-01 -8.068073102351757120e-01 1.279370939315350453e-01 -5.767963801441843286e-01
5.469337639528000505e-02 1.050096072674675668e-01 -8.160912758958099866e-01 -8.068073102351757120e-01 1.279370939315350453e-01 -5.767963801441843286e-01
-1.155257998434138372e-01 3.895862953233729387e-02 -7.485891518379486076e-01 -3.922383970089384775e-01 8.562447750951698855e-02 -9.158697990233550801e-01
1.070162239373731172e-01 -9.839714560675616450e-02 -9.994324865487443921e-01 -8.661714026460115567e-01 3.303673029127233152e-01 -3.749727275475032706e-01
-2.112666627107578909e-01 -1.151994930624836988e-01 -7.786166211442986373e-01 -5.447616245255171297e-01 1.604879366205336777e-01 -8.230907572337348155e-01
-3.664108648637932897e-02 6.982134895284519693e-02 -7.687939045887803857e-01 -2.118708477582393612e-01 3.144538609968395848e-01 -9.253267061824085316e-01
-1.045102821726179854e-01 -7.615663756874960222e-02 -7.961290192459314907e-01 -2.487953261913990743e-01 5.227048295680742918e-01 -8.154020767765592925e-01
2.015771871419740763e-02 5.222364509347973693e-03 -8.150159625692335874e-01 -2.014123096189239237e-01 4.672041436616909960e-01 -8.609026482008966807e-01
1.497183049121811604e-01 -3.034564819848744460e-02 -1.062562135918477590e+00 -9.713888019352996395e-01 2.331138050940101125e-01 -4.540649016710357477e-02
4.154409584335664457e-02 -7.004878935646159654e-02 -8.835017113380266851e-01 -6.562804428775196319e-01 3.686271755602629208e-01 -6.583388077084244561e-01
1.243584460100802813e-01 1.332057681614740030e-01 -8.907537065610431348e-01 -7.148715603778660332e-01 2.650102486522511458e-01 -6.470921265725514404e-01
6.106239655135951155e-02 1.485900777152896202e-01 -8.107574771902719135e-01 -7.929296726616464897e-01 1.946526881781419360e-01 -5.773845037734535168e-01
1.589285784087858945e-04 -6.776421866108227332e-02 -8.524107022974177772e-01 -1.586560279597376277e-01 4.827069529310909490e-01 -8.612910439474106283e-01
-3.469009256556777193e-02 8.026100900066758526e-03 -7.957627263294900777e-01 -3.084786730783325437e-01 3.179845467480439392e-01 -8.965080793195743247e-01
3.665662276770578765e-02 -5.391055913803553812e-02 -8.700477007021264475e-01 -8.597736636510399100e-01 2.505027236047753791e-01 -4.450141938844850431e-01
-1.510533288589253065e-01 -1.196493293707559524e-01 -8.132212311880936406e-01 -3.950553121482512364e-01 1.095811141576021053e-01 -9.120982840480658105e-01
1.508138027471663256e-01 -2.127264995679729181e-02 -1.039418157812810772e+00 -9.713888019352996395e-01 2.331138050940101125e-01 -4.540649016710357477e-02
2.761056927319650856e-02 9.863410484914492127e-02 -7.796226983524240373e-01 -8.068073102351757120e-01 1.279370939315350453e-01 -5.767963801441843286e-01
-1.028632830003576304e-01 -3.338724779559936948e-03 -7.632349359995425075e-01 -5.122884870358528353e-01 2.162926707060146836e-01 -8.311305472964979346e-01
-2.231230238890074824e-01 -1.401579129532850576e-01 -7.757903522666876883e-01 -4.400462136806627678e-01 1.485685871993557838e-01 -8.855996300376935970e-01
-5.026322766135312564e-02 -1.273050680491224773e-01 -8.575589731060984100e-01 -3.400063483421091881e-01 5.685569376992090085e-01 -7.490919113708024435e-01
1.948817047131902805e-02 1.532580821348164257e-01 -7.520288288781240560e-01 -3.087711411916844728e-01 3.313990610920321545e-01 -8.915352178542945705e-01
-7.607743364201088876e-02 -5.099964902256572119e-02 -7.921624999228511488e-01 -5.192612627872611464e-01 2.153293360145132340e-01 -8.270435405830383058e-01
-1.871296436489651160e-01 -1.519720191438616586e-01 -8.077011055411547069e-01 -5.525635546713694168e-01 3.802449823357602621e-01 -7.416786847802878668e-01
-2.006043297587258023e-01 -1.528376428486847571e-01 -7.981060187056087107e-01 -5.525635546713694168e-01 3.802449823357602621e-01 -7.416786847802878668e-01
-2.002519886809188687e-01 -1.019065086068748210e-01 -7.834661310415859115e-01 -6.506508304323145309e-01 5.197611192595325003e-02 -7.575961857393425092e-01
2.937869587761951853e-02 1.668166621359360724e-01 -7.610019229646814987e-01 -7.932083033203634059e-01 1.957998640376573118e-01 -5.766133893576053104e-01
-6.134066273796012075e-02 -1.131844986246649531e-01 -8.418135808773278272e-01 -3.400063483421091881e-01 5.685569376992090085e-01 -7.490919113708024435e-01
-5.379191177200726495e-03 2.083523938355662519e-01 -7.306922677647187392e-01 -2.374085588834506655e-01 -8.259800719971722993e-02 -9.678919078985620539e-01
-1.626662813429219021e-02 -6.062863385027127822e-02 -8.408331457537780995e-01 -3.475502617094345936e-01 5.224695379530912565e-01 -7.786105557316745918e-01
7.767771789191435516e-02 -5.238440886420876047e-02 -9.107612841293892814e-01 -6.909985412047910946e-01 3.973790508557734635e-01 -6.038301963249397275e-01
9.576745987811662031e-02 -1.289252264153430971e-01 -9.942142337010599906e-01 -7.258010940287447088e-01 3.020627351658251580e-01 -6.180379243467327699e-01
2.260874331617182195e-02 1.575413890878942236e-01 -7.548385465174818343e-01 -7.932083033203634059e-01 1.957998640376573118e-01 -5.766133893576053104e-01
6.696561787184504566e-02 -1.297955058546199081e-01 -9.577753326471629691e-01 -7.474813775721179665e-01 3.877614410821705326e-01 -5.393631939544701881e-01
5.221039120249795773e-02 6.628201259377003440e-02 -8.253089999924502207e-01 -8.184763328519160108e-01 2.768379367530615087e-01 -5.034453787011931025e-01
-1.077898939847446273e-02 8.971807272089479812e-02 -7.679540096954006190e-01 -2.118708477582393612e-01 3.144538609968395848e-01 -9.253267061824085316e-01
-1.530019494830289484e-01 -4.658931886178983156e-02 -7.789655309850225251e-01 1.674918069818364386e-01 6.449338169048436376e-01 -7.456586795622438535e-01
-1.693147598361566808e-01 -3.315228515466285553e-02 -7.710078212228259620e-01 1.674918069818364386e-01 6.449338169048436376e-01 -7.456586795622438535e-01
-7.569554510587298002e-02 -3.142879625095966467e-02 -7.873067957041860465e-01 -5.192612627872611464e-01 2.153293360145132340e-01 -8.270435405830383058e-01
1.325865099031237615e-01 7.768334882059232949e-02 -9.935083465285698967e-01 -9.118459424332254759e-01 4.076268201241532996e-01 -4.875810479842363626e-02
-1.774628528448992382e-01 -1.415860464434686994e-01 -8.089624168255858949e-01 -4.292211808581763988e-01 4.294989630833467853e-01 -7.945437801739074768e-01
-2.027669968759134300e-01 1.323737044812945199e-02 -7.432089823257368444e-01 1.210855517915808699e-01 6.053785521414346560e-01 -7.866734378091513324e-01
-5.616615223055791695e-02 1.983352897962079378e-02 -7.841850436582731287e-01 -3.084786730783325437e-01 3.179845467480439392e-01 -8.965080793195743247e-01
-1.493631606021369185e-01 -4.264256582948642432e-02 -7.747345578751241302e-01 1.674918069818364386e-01 6.449338169048436376e-01 -7.456586795622438535e-01
8.809773540579117490e-02 -3.251804973806683013e-02 -9.096115270680259490e-01 -6.909985412047910946e-01 3.973790508557734635e-01 -6.038301963249397275e-01
-1.172644300148799057e-01 5.445685550621875287e-02 -7.430690973381018916e-01 -3.913483617605511555e-01 6.414406190141785924e-01 -6.598487645105054478e-01
1.150219601720861851e-01 -5.600483954811924688e-03 -9.416507069941042474e-01 -9.705989166128312640e-01 2.268389670626746180e-01 8.050978879575416969e-02
-8.988539314544244374e-02 -2.023458487654533899e-01 -8.809622470884315160e-01 -3.382319598095855917e-01 2.879157544745769570e-01 -8.959373079008942087e-01
-1.885233426425017567e-01 4.337633460876692826e-02 -7.221472316834589567e-01 4.027433171933665346e-01 2.766612808850406613e-01 -8.725000608109617639e-01
-1.816209565023578221e-01 -7.490825115814336854e-02 -7.946062626299865705e-01 -3.950553121482512364e-01 1.095811141576021053e-01 -9.120982840480658105e-01
7.497003818219105664e-02 1.340590396533149486e-01 -8.347558478705660034e-01 -7.929296726616464897e-01 1.946526881781419360e-01 -5.773845037734535168e-01
-2.468947221835643760e-02 -1.497764838185231817e-01 -8.924899928706392371e-01 -5.702570772957945566e-01 3.564085308895050819e-01 -7.401214933396021989e-01
-6.211815166668119281e-02 -1.231578516244446059e-01 -8.490865759084288422e-01 -3.296843229944358966e-01 5.787392428643847175e-01 -7.459015591486983787e-01
-9.735532966626563034e-02 -5.516677453693522720e-02 -7.848568085197396016e-01 -2.487953261913990743e-01 5.227048295680742918e-01 -8.154020767765592925e-01
-4.736015025826992991e-02 -1.438368916878715875e-01 -8.698905815639221828e-01 -5.738392387555548702e-01 4.579803692012139327e-01 -6.789421989321071660e-01
-2.150041251243617058e-01 -1.395992509409465787e-01 -7.809005013645492488e-01 -5.447616245255171297e-01 1.604879366205336777e-01 -8.230907572337348155e-01
1.196935237458736090e-01 2.274463324880371742e-02 -9.651952050295092844e-01 -9.705989166128312640e-01 2.268389670626746180e-01 8.050978879575416969e-02
1.854639560861945022e-02 1.164316367296763625e-02 -8.111544756867775652e-01 -2.014123096189239237e-01 4.672041436616909960e-01 -8.609026482008966807e-01
5.886718174876527654e-02 7.616413837373556261e-02 -8.306972274307684589e-01 -8.184763328519160108e-01 2.768379367530615087e-01 -5.034453787011931025e-01
-1.121061633962968235e-01 -1.583805052166974425e-01 -8.525950513955133925e-01 -3.536259168718639545e-01 5.426382887277250155e-01 -7.619005174713952000e-01
-7.467064389746633224e-02 -9.256624488835153708e-02 -8.201140682063250420e-01 -3.400063483421091881e-01 5.685569376992090085e-01 -7.490919113708024435e-01
4.367546650305798028e-02 1.300991723202873651e-01 -7.931135878180644028e-01 -7.929296726616464897e-01 1.946526881781419360e-01 -5.773845037734535168e-01
1.225671741758284222e-01 8.060295812766020418e-02 -9.103861232925860580e-01 -7.599823197743440506e-01 1.597861789103193486e-01 -6.299962306709828708e-01
1.533114402840493329e-01 2.815734320037938110e-02 -1.071767589849673019e+00 -9.656531571662547719e-01 -2.119479495931908264e-01 -1.503065092339212760e-01
1.441458611625280606e-01 1.073592470679196470e-01 -9.236693076062272301e-01 -7.155078091978329669e-01 2.754643476211419140e-01 -6.420030904649729475e-01
6.871670168547272528e-02 1.548370358891204834e-01 -8.191632075679552427e-01 -7.929296726616464897e-01 1.946526881781419360e-01 -5.773845037734535168e-01
1.242186461456617624e-01 5.305309714431017537e-02 -1.000121072006953993e+00 -9.599458259618790512e-01 -2.867260128967661845e-02 -2.787147164281945089e-01
5.486417648403336955e-02 -1.337794505209105866e-01 -9.482266095899334335e-01 -5.753351437186671191e-01 4.160054330814023094e-01 -7.042222320041989780e-01
9.582687414330830211e-02 -8.495818348385129892e-02 -9.612133758492373836e-01 -7.463931370864650416e-01 4.644184117751959939e-01 -4.766684631003292316e-01
-1.104420969697710031e-01 5.091869540495815027e-02 -7.496481987414921333e-01 -3.922383970089384775e-01 8.562447750951698855e-02 -9.158697990233550801e-01
-1.516134667670618850e-02 -1.345604117815352718e-01 -8.908474336583600550e-01 -5.738392387555548702e-01 4.579803692012139327e-01 -6.789421989321071660e-01
1.431155371880991622e-01 1.051550430936069452e-01 -9.530753972807127772e-01 -9.486141039261053454e-01 3.111238824207426812e-01 5.773397284022754872e-02
8.428620946995891983e-02 -1.248105499724646780e-02 -8.975390859550010925e-01 -5.262471930729186731e-01 1.780674203643893838e-01 -8.314781329581951708e-01
4.991052482730679030e-02 1.920594793540843920e-02 -8.523382669347800977e-01 -8.478804506323137646e-01 3.296393405628061934e-01 -4.152549175974477036e-01
-7.979432403400206486e-02 -1.317786992279868993e-02 -7.800146069095162948e-01 -5.122884870358528353e-01 2.162926707060146836e-01 -8.311305472964979346e-01
-1.389331360955058381e-01 -2.563692990403299357e-02 -7.576832531880498545e-01 1.674918069818364386e-01 6.449338169048436376e-01 -7.456586795622438535e-01
1.201018880868616051e-01 7.456667093009322622e-02 -9.089431645407094473e-01 -7.599823197743440506e-01 1.597861789103193486e-01 -6.299962306709828708e-01
-1.925760634377755021e-01 -1.306582837942437403e-01 -7.940011586806595689e-01 -5.447616245255171297e-01 1.604879366205336777e-01 -8.230907572337348155e-01
-2.217612577004841046e-01 -1.467380696005515016e-05 -7.563306074127921219e-01 1.210855517915808699e-01 6.053785521414346560e-01 -7.866734378091513324e-01
-2.652294635908298767e-02 -2.938701202165458840e-02 -8.152910032044579092e-01 -3.475502617094345936e-01 5.224695379530912565e-01 -7.786105557316745918e-01
1.119672563403607546e-01 -4.600492260610411499e-02 -9.571291096118120789e-01 -7.366484583217445259e-01 3.127701969981265817e-01 -5.996030793132656189e-01
-2.216952579628354569e-01 5.849098713109729397e-02 -7.335468808255590778e-01 6.589488979287438930e-01 1.772224748815702244e-01 -7.310120001171970250e-01
2.660891407920198959e-02 -4.161263151493656970e-02 -8.469115747809117245e-01 -7.352585024447165774e-01 3.700284025022850809e-01 -5.678678683675981720e-01
1.392016428152496044e-01 9.371139659217894713e-02 -9.832232863642209608e-01 -9.118459424332254759e-01 4.076268201241532996e-01 -4.875810479842363626e-02
5.945699346555324838e-02 -1.282887218331136003e-01 -9.487353070382053000e-01 -5.753351437186671191e-01 4.160054330814023094e-01 -7.042222320041989780e-01
-2.014208002726498026e-01 -7.348522929312048535e-02 -7.805124257965081469e-01 -6.506508304323145309e-01 5.197611192595325003e-02 -7.575961857393425092e-01
-1.259911729724831897e-01 -1.326564281033665582e-01 -8.278293923713483382e-01 -3.536259168718639545e-01 5.426382887277250155e-01 -7.619005174713952000e-01
1.423398417495835011e-01 1.679732398665442772e-02 -1.026007581561035886e+00 -8.880188856009580967e-01 -1.291419764363702372e-01 -4.412990015150054512e-01
-7.972205708049159845e-02 -1.000860115933391581e-01 -8.235287399453267154e-01 -3.400063483421091881e-01 5.685569376992090085e-01 -7.490919113708024435e-01
3.999625297998750384e-02 1.605565470553816376e-01 -7.777335221857077929e-01 -7.932083033203634059e-01 1.957998640376573118e-01 -5.766133893576053104e-01
4.853121404749941026e-02 1.596603502719277923e-01 -7.897788151390252587e-01 -7.932083033203634059e-01 1.957998640376573118e-01 -5.766133893576053104e-01
-6.781525005722656430e-02 7.350134622948673035e-02 -7.587312743689362815e-01 -2.837952615616932683e-01 4.338415140042001239e-01 -8.551267685212956549e-01
-6.769366443771844544e-02 -9.260217052081037847e-02 -8.233081262916193133e-01 -3.400063483421091881e-01 5.685569376992090085e-01 -7.490919113708024435e-01
-1.243838410280993095e-01 -1.249370069585063747e-01 -8.254078043190952174e-01 -3.950553121482512364e-01 1.095811141576021053e-01 -9.120982840480658105e-01
-4.513236101042477494e-02 7.836462622781387166e-02 -7.637918149014171210e-01 -2.837952615616932683e-01 4.338415140042001239e-01 -8.551267685212956549e-01
1.232449007608932418e-01 -1.417885694211551591e-02 -9.874024371788991949e-01 -8.529634036451988477e-01 -9.317755764453640455e-02 -5.135867743559962006e-01
-1.478484266339303577e-01 -1.717934995580455704e-01 -8.412894067532988851e-01 -4.292211808581763988e-01 4.294989630833467853e-01 -7.945437801739074768e-01
-6.173480099441500113e-02 -7.870615305973979736e-02 -8.161866376946267376e-01 -4.113375000757605870e-01 5.302669535980996107e-01 -7.413625421837918283e-01
1.355091306457499589e-01 -2.908001036141473136e-02 -1.005067390088471457e+00 -8.529634036451988477e-01 -9.317755764453640455e-02 -5.135867743559962006e-01
-1.530197524409786236e-01 7.160896994963644735e-02 -7.166273097666969738e-01 6.649249172114347906e-02 5.624515383544778646e-02 -9.962003971163334581e-01
9.804217070973569870e-02 9.440540819360550631e-03 -9.000174903316434660e-01 -4.790991324746428082e-01 2.810220242602565199e-01 -8.315591639460853113e-01
1.273937253425710125e-01 9.363855749195425238e-02 -9.108863112019222052e-01 -7.155078091978329669e-01 2.754643476211419140e-01 -6.420030904649729475e-01
-9.317591952946939482e-02 -1.396578898492902843e-01 -8.459085895203622973e-01 -3.657421116397938654e-01 4.511122590211126271e-01 -8.140825741496579004e-01
-1.146962999561144114e-01 -7.179252977598690744e-02 -7.921599332309012809e-01 1.674918069818364386e-01 6.449338169048436376e-01 -7.456586795622438535e-01
-4.458341158045582564e-02 -6.719644942480086647e-02 -8.234686776717702328e-01 -5.989505666659908911e-01 3.098923513455915102e-01 -7.383934921625386893e-01
6.303990835530794146e-02 -6.948466531632165044e-02 -9.052640079446265808e-01 -6.909985412047910946e-01 3.973790508557734635e-01 -6.038301963249397275e-01
6.625014832618478233e-02 -1.430197313226312938e-01 -9.662910130171853407e-01 -7.474813775721179665e-01 3.877614410821705326e-01 -5.393631939544701881e-01
8.486164195007980804e-02 7.269217848273339111e-02 -8.710479543169967753e-01 -4.790991324746428082e-01 2.810220242602565199e-01 -8.315591639460853113e-01
1.553808570992388782e-01 1.490370786382062551e-01 -9.773614097619689467e-01 -9.921487097528066679e-01 1.243281678411485847e-01 1.354416542664770712e-02
-9.276056742771385255e-02 -1.553227615707886977e-01 -8.580190900281003952e-01 -2.635987584120477734e-01 5.930103460340717669e-01 -7.608248313903652749e-01
1.519990962914403165e-01 1.388698641709863180e-01 -9.190786009146835189e-01 -7.975589097194650812e-01 -3.523597504096336042e-02 -6.022111021809632980e-01
1.386060613748581472e-01 2.633003424505583889e-02 -1.021283812785850786e+00 -8.880188856009580967e-01 -1.291419764363702372e-01 -4.412990015150054512e-01
1.121714658441060608e-01 6.333730608193559319e-02 -9.022245792760732463e-01 -7.599823197743440506e-01 1.597861789103193486e-01 -6.299962306709828708e-01
1.178439666800180918e-01 2.193141266339532908e-02 -9.261598470878930067e-01 -8.910712739588676490e-01 2.800841522811171047e-01 -3.571342217798354479e-01
-1.244664667542804137e-01 -4.684751170265673975e-02 -7.727791317685774874e-01 1.674918069818364386e-01 6.449338169048436376e-01 -7.456586795622438535e-01
-7.995192618064130008e-02 -7.626193219282869501e-03 -7.784727014284535951e-01 -5.122884870358528353e-01 2.162926707060146836e-01 -8.311305472964979346e-01
1.164369411917159230e-01 -6.322465874836448452e-02 -9.722998036371638397e-01 -7.333705405979096259e-01 4.376587667764000877e-01 -5.202138541473984024e-01
8.017935264353119595e-02 1.014694062433787458e-01 -8.525256151183813191e-01 -8.068073102351757120e-01 1.279370939315350453e-01 -5.767963801441843286e-01
-4.315015901124800296e-02 2.898500327767489920e-02 -7.854177474518462265e-01 -3.084786730783325437e-01 3.179845467480439392e-01 -8.965080793195743247e-01
-9.438383472435374344e-02 -1.034884577823266399e-01 -8.195639938672502067e-01 -3.296843229944358966e-01 5.787392428643847175e-01 -7.459015591486983787e-01
4.722013352697732730e-02 6.308588679318673231e-02 -8.189535956817304285e-01 -8.184763328519160108e-01 2.768379367530615087e-01 -5.034453787011931025e-01
7.946310521825371287e-02 1.544302473493001752e-02 -8.872847290336296489e-01 -4.790991324746428082e-01 2.810220242602565199e-01 -8.315591639460853113e-01
-3.330590409852886291e-02 -1.553293764106392083e-02 -8.045952209791017440e-01 -3.084786730783325437e-01 3.179845467480439392e-01 -8.965080793195743247e-01
1.125878324097135397e-01 8.569232043427736645e-03 -9.235248287351894847e-01 -8.910712739588676490e-01 2.800841522811171047e-01 -3.571342217798354479e-01
9.692044912905366238e-02 5.376238906613194785e-02 -8.862553350665181018e-01 -7.599823197743440506e-01 1.597861789103193486e-01 -6.299962306709828708e-01
1.565859409576749739e-01 2.901189023585360599e-02 -1.102232247724350467e+00 -9.728823055663978758e-01 -2.139729932658316902e-01 -8.783836103133067785e-02
-1.729907975737179082e-01 -9.903152296601856752e-02 -8.012424390565144883e-01 -3.950553121482512364e-01 1.095811141576021053e-01 -9.120982840480658105e-01
-1.758761334473954718e-01 2.958389564649514802e-02 -7.255316802622832073e-01 2.303088736875888720e-01 5.844037851687223784e-01 -7.780938494688312002e-01
1.231166440703435755e-01 1.319432287041877039e-01 -8.898988932012192876e-01 -7.148715603778660332e-01 2.650102486522511458e-01 -6.470921265725514404e-01
-4.629971805537839991e-02 4.131468772940567052e-02 -7.798809460175788466e-01 -2.014123096189239237e-01 4.672041436616909960e-01 -8.609026482008966807e-01
7.248391130254352999e-02 -1.267232483400141940e-01 -9.632141883330298526e-01 -7.474813775721179665e-01 3.877614410821705326e-01 -5.393631939544701881e-01
-1.234650220361916406e-01 4.348323475493064486e-03 -7.485360587201010940e-01 -5.122884870358528353e-01 2.162926707060146836e-01 -8.311305472964979346e-01
1.015148029356027597e-03 -9.841886032087410197e-02 -8.684043714873552755e-01 -4.794708995323491152e-01 6.217713834785056903e-01 -6.192802299354187578e-01
-3.080431244488977122e-02 4.121199608085535093e-02 -7.835619004237885932e-01 -2.014123096189239237e-01 4.672041436616909960e-01 -8.609026482008966807e-01
1.185849065849131773e-01 1.334875054955133311e-01 -8.842600370414068767e-01 -7.148715603778660332e-01 2.650102486522511458e-01 -6.470921265725514404e-01
4.612907186241987402e-03 7.260818239841300425e-02 -7.772927277864404294e-01 -2.118708477582393612e-01 3.144538609968395848e-01 -9.253267061824085316e-01
-7.157333525732749446e-02 -6.929886175960454919e-02 -8.039991676333071435e-01 -4.113375000757605870e-01 5.302669535980996107e-01 -7.413625421837918283e-01
4.668116014870796193e-02 -2.480364550816947095e-02 -8.730306889049819219e-01 -8.597736636510399100e-01 2.505027236047753791e-01 -4.450141938844850431e-01
1.516113417700013788e-01 3.621461586723467851e-02 -1.129985054465815875e+00 -9.540403166127282564e-01 -2.977960442543655661e-01 3.353491171804633825e-02
1.456137308961258092e-01 -3.894457347082073972e-02 -1.036210816864998829e+00 -8.661714026460115567e-01 3.303673029127233152e-01 -3.749727275475032706e-01
-9.082056772620476781e-02 -1.217930831485874443e-01 -8.353413550337162041e-01 -3.296843229944358966e-01 5.787392428643847175e-01 -7.459015591486983787e-01
-4.766949194509654403e-02 -1.137042560247478601e-01 -8.490233742680696194e-01 -4.113375000757605870e-01 5.302669535980996107e-01 -7.413625421837918283e-01
3.903542413112730518e-03 1.947497925941953784e-02 -8.034784537931147774e-01 -2.014123096189239237e-01 4.672041436616909960e-01 -8.609026482008966807e-01
2.409740986180675115e-02 2.107325824849872742e-01 -7.466508486798756339e-01 -6.746891371625982625e-01 -2.625633462619418323e-01 -6.898224825232360802e-01
1.138788366532392793e-01 -1.025630458386539955e-02 -9.423138922716024490e-01 -9.705989166128312640e-01 2.268389670626746180e-01 8.050978879575416969e-02
-3.739567822309697309e-02 -6.945503894722554472e-02 -8.302469288865859109e-01 -5.989505666659908911e-01 3.098923513455915102e-01 -7.383934921625386893e-01
2.919641094572778331e-02 -7.999097430444112797e-03 -8.297904682398442588e-01 -8.597736636510399100e-01 2.505027236047753791e-01 -4.450141938844850431e-01
1.198632147127618730e-01 -3.920101829783773084e-02 -9.756295640551716497e-01 -9.599458259618790512e-01 -2.867260128967661845e-02 -2.787147164281945089e-01
1.117635519623895873e-01 -5.172235263735364130e-03 -9.322450084424396266e-01 -8.910712739588676490e-01 2.800841522811171047e-01 -3.571342217798354479e-01
7.532318746918804930e-02 -3.829027825885552433e-02 -8.993924758559289634e-01 -6.562804428775196319e-01 3.686271755602629208e-01 -6.583388077084244561e-01
1.466009943091193812e-01 1.117325025291257407e-01 -9.709418928533087856e-01 -9.118459424332254759e-01 4.076268201241532996e-01 -4.875810479842363626e-02
1.157462077349697971e-01 -7.632649038448392764e-02 -9.937747693717292607e-01 -8.845548353044567769e-01 4.282106898861006150e-01 -1.849279546384886841e-01
-1.047165407484695610e-01 3.911626154969180535e-02 -7.532036825339460950e-01 -3.922383970089384775e-01 8.562447750951698855e-02 -9.158697990233550801e-01
3.104642655297774889e-02 1.699444138522949732e-01 -7.622340214065526087e-01 -7.932083033203634059e-01 1.957998640376573118e-01 -5.766133893576053104e-01
2.502988253339858467e-03 1.014528555483953098e-01 -7.670073344322548836e-01 -2.118708477582393612e-01 3.144538609968395848e-01 -9.253267061824085316e-01
3.877420117968694707e-02 -1.530429983867083975e-03 -8.446536188462001604e-01 -8.597736636510399100e-01 2.505027236047753791e-01 -4.450141938844850431e-01
-1.219387900244777168e-01 -1.412040069938448883e-01 -8.357979802357431431e-01 -3.536259168718639545e-01 5.426382887277250155e-01 -7.619005174713952000e-01
1.224611147078513151e-01 9.414191944018149294e-02 -9.051729746868232285e-01 -7.155078091978329669e-01 2.754643476211419140e-01 -6.420030904649729475e-01
-1.934420539206999912e-01 1.717833604480578300e-02 -7.387409378473305255e-01 1.210855517915808699e-01 6.053785521414346560e-01 -7.866734378091513324e-01
-4.348226543475386396e-03 2.402091331616470482e-01 -7.336637390506105527e-01 -2.374085588834506655e-01 -8.259800719971722993e-02 -9.678919078985620539e-01
-5.313189231471804330e-02 4.688785408037410285e-02 -7.752580186539588247e-01 -2.014123096189239237e-01 4.672041436616909960e-01 -8.609026482008966807e-01
-1.321935749392445236e-01 -1.948886847817608153e-02 -7.513560275180477532e-01 -2.487953261913990743e-01 5.227048295680742918e-01 -8.154020767765592925e-01
-2.283043137691276869e-01 1.413448027098830433e-02 -7.502579607542020357e-01 6.589488979287438930e-01 1.772224748815702244e-01 -7.310120001171970250e-01
4.475062040739760660e-02 -2.671478247432692438e-02 -8.703766562308855592e-01 -8.597736636510399100e-01 2.505027236047753791e-01 -4.450141938844850431e-01
5.820353143875774127e-02 6.101234484521587259e-02 -8.379500682373178799e-01 -8.184763328519160108e-01 2.768379367530615087e-01 -5.034453787011931025e-01
-7.786147732730711035e-02 -8.583185666055487273e-02 -8.135544101775397108e-01 -3.400063483421091881e-01 5.685569376992090085e-01 -7.490919113708024435e-01
1.034682638993425358e-01 -5.299209052577680962e-03 -9.116473476539413978e-01 -8.910712739588676490e-01 2.800841522811171047e-01 -3.571342217798354479e-01
-6.431693837680520220e-02 -1.717088254015903398e-02 -7.907386858856818579e-01 -5.192612627872611464e-01 2.153293360145132340e-01 -8.270435405830383058e-01
-9.637179534639488121e-02 -7.608825056125611587e-03 -7.683473768738225962e-01 -5.122884870358528353e-01 2.162926707060146836e-01 -8.311305472964979346e-01
2.699303772909093790e-02 1.596160878379869197e-01 -7.601652230325088855e-01 -7.932083033203634059e-01 1.957998640376573118e-01 -5.766133893576053104e-01
-9.606887788612951395e-02 5.499167902949646247e-02 -7.551200209709758582e-01 -3.913483617605511555e-01 6.414406190141785924e-01 -6.598487645105054478e-01
7.324233368993146587e-02 9.328829739766933415e-02 -8.446512830033935382e-01 -8.184763328519160108e-01 2.768379367530615087e-01 -5.034453787011931025e-01
-2.173622202427293038e-01 -1.565675122248762485e-01 -7.837574180830656490e-01 -7.081059456880839376e-01 1.001363234549577791e-01 -6.989697321101310257e-01
-4.562688673598076783e-02 -1.027359110385591967e-01 -8.423114749228147735e-01 -4.113375000757605870e-01 5.302669535980996107e-01 -7.413625421837918283e-01
-1.781409682118643423e-01 -3.713212028154740107e-02 -7.764326194040176432e-01 1.674918069818364386e-01 6.449338169048436376e-01 -7.456586795622438535e-01
6.311183115416556244e-02 5.885568563576208667e-02 -8.478181908269758482e-01 -8.478804506323137646e-01 3.296393405628061934e-01 -4.152549175974477036e-01
-8.884710563599348965e-02 -1.875225070186214982e-02 -7.758853662080674729e-01 -5.122884870358528353e-01 2.162926707060146836e-01 -8.311305472964979346e-01
-8.554084479414492126e-02 -1.561727739187714070e-01 -8.611829931232446445e-01 -2.635987584120477734e-01 5.930103460340717669e-01 -7.608248313903652749e-01
-1.354712922357677596e-01 -4.958655748779092903e-02 -7.776201152604037548e-01 1.674918069818364386e-01 6.449338169048436376e-01 -7.456586795622438535e-01
-1.347722938520313218e-01 1.752529086421259971e-02 -7.423502786494967642e-01 -3.922383970089384775e-01 8.562447750951698855e-02 -9.158697990233550801e-01
-1.675216075976271868e-01 -5.914175868788659057e-02 -7.926451313511980734e-01 5.397835026972640921e-02 4.808386106848405173e-01 -8.751460267731498988e-01
1.590519768072184426e-01 1.080048788417063525e-02 -1.085182912874959271e+00 -9.728823055663978758e-01 -2.139729932658316902e-01 -8.783836103133067785e-02
1.265837887063237521e-01 1.050249003198705927e-01 -9.050981031040737923e-01 -7.155078091978329669e-01 2.754643476211419140e-01 -6.420030904649729475e-01
8.897247874870103934e-02 7.779821238841855280e-02 -8.716908314362992183e-01 -4.790991324746428082e-01 2.810220242602565199e-01 -8.315591639460853113e-01
-1.689486509831130689e-01 -1.574553469722456411e-01 -8.221401977867012212e-01 -4.292211808581763988e-01 4.294989630833467853e-01 -7.945437801739074768e-01
-2.009199179263768953e-01 6.484772059780241626e-02 -7.210610847122396194e-01 4.027433171933665346e-01 2.766612808850406613e-01 -8.725000608109617639e-01
1.441499446692000863e-01 1.073913277684116624e-01 -9.481304412780192648e-01 -9.486141039261053454e-01 3.111238824207426812e-01 5.773397284022754872e-02
-5.846805367123678043e-02 -1.407690852385376779e-01 -8.621175128295746060e-01 -3.657421116397938654e-01 4.511122590211126271e-01 -8.140825741496579004e-01
-8.574760727942619398e-02 -1.825083792758693327e-02 -7.776653337720006443e-01 -5.122884870358528353e-01 2.162926707060146836e-01 -8.311305472964979346e-01
-1.737814986787057925e-01 -7.574393635248745371e-02 -7.981021520840545502e-01 -3.950553121482512364e-01 1.095811141576021053e-01 -9.120982840480658105e-01
-2.192848371279494113e-01 6.282620217998718948e-02 -7.303230737027992525e-01 6.589488979287438930e-01 1.772224748815702244e-01 -7.310120001171970250e-01
7.564491810124171489e-02 -8.164372427404172419e-03 -8.911455132964598569e-01 -5.262471930729186731e-01 1.780674203643893838e-01 -8.314781329581951708e-01
1.041770405942910038e-01 -6.759531994930151333e-02 -9.588205325646846910e-01 -7.366484583217445259e-01 3.127701969981265817e-01 -5.996030793132656189e-01
1.865142682935151675e-02 -6.345839878179880544e-02 -8.534039752819214675e-01 -1.586560279597376277e-01 4.827069529310909490e-01 -8.612910439474106283e-01
1.012426521669745894e-01 -6.482330519784719469e-02 -9.537694972790379255e-01 -7.366484583217445259e-01 3.127701969981265817e-01 -5.996030793132656189e-01
-5.464704940603203054e-02 7.613614088669450053e-02 -7.617647306241005500e-01 -2.837952615616932683e-01 4.338415140042001239e-01 -8.551267685212956549e-01
4.321656220234098428e-02 1.334247866564549634e-01 -7.913622096623975644e-01 -7.929296726616464897e-01 1.946526881781419360e-01 -5.773845037734535168e-01
-5.269847190598135611e-02 -1.214340084658035133e-02 -7.967202067221609285e-01 -3.084786730783325437e-01 3.179845467480439392e-01 -8.965080793195743247e-01
1.172209353147279504e-01 1.042909551383170014e-01 -8.949781845492748023e-01 -7.155078091978329669e-01 2.754643476211419140e-01 -6.420030904649729475e-01
6.528057963316924797e-03 9.163457252763805572e-02 -7.712654974244715911e-01 -2.118708477582393612e-01 3.144538609968395848e-01 -9.253267061824085316e-01
-1.796720729580073561e-01 -7.331689601911300924e-02 -7.952591904319722405e-01 -3.950553121482512364e-01 1.095811141576021053e-01 -9.120982840480658105e-01
7.775656631043723066e-02 -1.215564509258890424e-01 -9.668068076281567391e-01 -7.474813775721179665e-01 3.877614410821705326e-01 -5.393631939544701881e-01
-1.997626363671093364e-01 -9.340049510533392219e-02 -7.833028355778886009e-01 -6.506508304323145309e-01 5.197611192595325003e-02 -7.575961857393425092e-01
-2.697040189876070276e-02 1.170091393602561841e-01 -7.502133414209938289e-01 -2.837952615616932683e-01 4.338415140042001239e-01 -8.551267685212956549e-01
-6.546721369569826268e-03 -1.664342070600890316e-02 -8.156565312010003455e-01 -3.475502617094345936e-01 5.224695379530912565e-01 -7.786105557316745918e-01
-1.167333894465822225e-01 -9.290955881157493546e-02 -8.080658696686486842e-01 5.397835026972640921e-02 4.808386106848405173e-01 -8.751460267731498988e-01
8.570966112439318274e-02 -2.400477141207087509e-02 -9.017475147384055312e-01 -6.562804428775196319e-01 3.686271755602629208e-01 -6.583388077084244561e-01
-2.321020187755709341e-01 9.707157226035434405e-02 -7.305899346820254880e-01 6.009050658253057842e-01 3.100118996414226724e-01 -7.367535028394514018e-01
1.228514430772735255e-01 -6.022420664725527256e-02 -9.904751073436574016e-01 -8.845548353044567769e-01 4.282106898861006150e-01 -1.849279546384886841e-01
7.858331166828079473e-02 4.449024572374806613e-02 -8.769614501376037374e-01 -4.790991324746428082e-01 2.810220242602565199e-01 -8.315591639460853113e-01
-1.521385640287908625e-01 4.865234128963559501e-02 -7.280282507747798393e-01 -3.913483617605511555e-01 6.414406190141785924e-01 -6.598487645105054478e-01
-1.475087056253239493e-01 -1.337682236738859110e-01 -8.186341572891744356e-01 -3.536259168718639545e-01 5.426382887277250155e-01 -7.619005174713952000e-01
5.666558549920857474e-02 1.049563525096655625e-01 -8.188617613501634196e-01 -8.068073102351757120e-01 1.279370939315350453e-01 -5.767963801441843286e-01
4.549933081090884457e-02 5.914053134096831921e-02 -8.183254992747764911e-01 -8.184763328519160108e-01 2.768379367530615087e-01 -5.034453787011931025e-01
1.632772409063863728e-01 1.998365927721303947e-01 -9.486525919196066026e-01 -9.659574299947537579e-01 2.571785459146063157e-01 2.802568391992162761e-02
-8.647541518612368583e-02 -1.300813669409436046e-01 -8.436122250795469180e-01 -3.657421116397938654e-01 4.511122590211126271e-01 -8.140825741496579004e-01
5.322828001753379668e-02 -1.297495115671380983e-01 -9.445095084967625176e-01 -5.753351437186671191e-01 4.160054330814023094e-01 -7.042222320041989780e-01
-9.072500460022177304e-02 -5.143432755363543281e-03 -7.711863287214839602e-01 -5.122884870358528353e-01 2.162926707060146836e-01 -8.311305472964979346e-01
-4.634459790356572351e-03 1.287094304256337085e-01 -7.527994412322936979e-01 -3.087711411916844728e-01 3.313990610920321545e-01 -8.915352178542945705e-01
5.456673298682518380e-02 -8.401974679735400853e-02 -9.051331517263870863e-01 -6.909985412047910946e-01 3.973790508557734635e-01 -6.038301963249397275e-01
6.358190581847374123e-02 1.018787762184271807e-03 -8.815441206883812830e-01 -5.262471930729186731e-01 1.780674203643893838e-01 -8.314781329581951708e-01
-5.293586788563075379e-02 6.819333157830023695e-02 -7.656161590636022529e-01 -2.118708477582393612e-01 3.144538609968395848e-01 -9.253267061824085316e-01
6.541149854844766076e-02 3.739648051375067672e-02 -8.695485566085501272e-01 -8.478804506323137646e-01 3.296393405628061934e-01 -4.152549175974477036e-01
-2.364269396687824487e-01 -1.340239162983295484e-01 -7.678131855139602724e-01 -4.650787000615500544e-01 1.325414571603205638e-01 -8.752911315001870030e-01
-1.742485149477507878e-01 1.751249635533646751e-02 -7.341163984928024133e-01 2.303088736875888720e-01 5.844037851687223784e-01 -7.780938494688312002e-01
-4.347937384485947576e-02 1.053557522013927744e-01 -7.506466749691429463e-01 -2.837952615616932683e-01 4.338415140042001239e-01 -8.551267685212956549e-01
7.293093355700036584e-02 -1.589350765858138156e-02 -8.910830707930083028e-01 -5.262471930729186731e-01 1.780674203643893838e-01 -8.314781329581951708e-01
-1.734606798573912756e-01 4.722392579319786843e-02 -7.193684337059926825e-01 6.649249172114347906e-02 5.624515383544778646e-02 -9.962003971163334581e-01
-1.804104026864692678e-01 -4.364635240114915493e-02 -7.825766641146176816e-01 1.674918069818364386e-01 6.449338169048436376e-01 -7.456586795622438535e-01
-1.061265472788141540e-01 -5.088573999511501224e-03 -7.616789191221707833e-01 -5.122884870358528353e-01 2.162926707060146836e-01 -8.311305472964979346e-01
-4.490647390757183943e-02 -2.172756149730814892e-02 -8.028007767799320016e-01 -3.084786730783325437e-01 3.179845467480439392e-01 -8.965080793195743247e-01
8.081320452590959325e-02 1.178511111992301824e-01 -8.482444967150017945e-01 -7.929296726616464897e-01 1.946526881781419360e-01 -5.773845037734535168e-01
-1.514439388275584386e-01 -1.247215128327920780e-01 -8.136614282358428651e-01 -3.950553121482512364e-01 1.095811141576021053e-01 -9.120982840480658105e-01
-3.646972720261353745e-02 -1.700140540205844278e-02 -8.040274381455158048e-01 -3.084786730783325437e-01 3.179845467480439392e-01 -8.965080793195743247e-01
-1.741218290076310959e-01 -3.355733212646195424e-02 -7.724379302265742542e-01 1.674918069818364386e-01 6.449338169048436376e-01 -7.456586795622438535e-01
1.260132502990688741e-01 5.825966446564709300e-02 -9.890714724916368494e-01 -9.705989166128312640e-01 2.268389670626746180e-01 8.050978879575416969e-02
