-2.441854533471957134e-02 -6.542865526551262800e-02 -5.932917191248677780e-01 -9.073013836883344618e-01 1.536866789310028236e-01 -3.913880476923033980e-01
4.857565166022612818e-02 4.529343271193648351e-02 -8.254216337517505941e-01 -8.657640312729267817e-01 1.594951217791385628e-02 5.001982159257841731e-01
3.945496097895640625e-02 1.671611732773402303e-02 -6.747590896287349871e-01 -9.916532792245648098e-01 1.287203854182354390e-01 7.405145572413557656e-03
2.931007120045092326e-02 1.452734642096160378e-01 -5.770288545376109912e-01 -7.221790291019881680e-01 2.325231108828370308e-01 -6.514525714360775988e-01
-7.449720064305979939e-02 -1.339836400213673673e-01 -5.882663258189924083e-01 -4.267194618808505813e-01 4.565566364680859746e-01 -7.806833791935532396e-01
-3.516101900944822861e-02 -1.665858414626806561e-01 -6.578228181186871470e-01 -6.800273804275985823e-01 5.012934960930045536e-01 -5.350398047282384217e-01
-1.534674620360741530e-02 -1.279213581537623490e-01 -6.579295578175535786e-01 -7.887586934070396349e-01 4.089458276957911864e-01 -4.589368514131590970e-01
6.223277427074035834e-02 1.191532329428232340e-01 -7.414796699326466900e-01 -9.614020324519562122e-01 9.781543129947616044e-02 -2.571736250025367654e-01
5.609123817288454161e-02 -2.749985481409676635e-02 -7.511331369355472853e-01 -9.484750641386351377e-01 2.231702221109572448e-01 -2.249224414551782569e-01
2.492029355360736095e-02 1.555378917012575912e-01 -5.684988061282401084e-01 -7.221790291019881680e-01 2.325231108828370308e-01 -6.514525714360775988e-01
3.789690398902334501e-02 1.064680037988217781e-01 -6.154872066671168707e-01 -9.834622863904558532e-01 -6.395296719053579493e-02 -1.694460068434289202e-01
6.135313038881132219e-02 7.402850549488994292e-02 -7.369828918454190969e-01 -9.716372664596767406e-01 -2.431961411998434172e-02 -2.352224028357468022e-01
4.768506568598764733e-02 -1.156918115912326794e-01 -8.335066422990615731e-01 -9.656294829852182238e-01 1.222536173504786411e-01 -2.293768833915548200e-01
-7.446268863857372078e-02 -1.913225586229672648e-01 -6.234014220510958326e-01 -8.066366865970794331e-01 3.052373168320923202e-01 -5.061298610523095043e-01
7.113770088132334579e-02 1.870403770320047121e-01 -7.977339130708925863e-01 -8.852756303389414105e-01 -1.016784647390899660e-01 4.538155441765870934e-01
5.725527078187168939e-02 -6.912942941382106687e-02 -8.358672427147003647e-01 -9.452980612946023653e-01 2.235624754699972183e-01 2.375529306794446349e-01
-6.666580772268114463e-02 -1.247188840769124507e-01 -5.871287608821624815e-01 -4.267194618808505813e-01 4.565566364680859746e-01 -7.806833791935532396e-01
-7.977672256428149089e-02 -7.422472050797807031e-02 -5.417814324769572032e-01 -3.049701495472266766e-01 6.447077194246676468e-01 -7.009601731905933386e-01
4.153379835522953006e-02 7.977540595838632231e-02 -6.265212678979474870e-01 -9.834622863904558532e-01 -6.395296719053579493e-02 -1.694460068434289202e-01
4.678894219281379795e-03 8.392584568517960641e-02 -5.763257530113211624e-01 -6.479663221260202333e-01 2.357768149769938759e-01 -7.242575087010030277e-01
-2.411224072974112176e-02 9.798231191490899827e-02 -5.377625949727724564e-01 -7.056036682139349425e-01 3.389154408795023721e-01 -6.223020065342004248e-01
-4.923281881982438657e-02 -1.928929141485051513e-01 -6.598236591747155266e-01 -7.410613817350115706e-01 1.836350239125482953e-01 -6.458376007121552353e-01
4.280987838412678159e-02 1.019697310483812097e-01 -6.423042867896479047e-01 -9.834622863904558532e-01 -6.395296719053579493e-02 -1.694460068434289202e-01
6.515166854013601516e-02 2.517937092618350529e-03 -7.835501009285884555e-01 -9.780861386084839237e-01 2.081133777614879166e-01 6.027226447552002514e-03
6.838920856880929822e-02 1.338604984770969952e-01 -7.589006279539263211e-01 -9.614020324519562122e-01 9.781543129947616044e-02 -2.571736250025367654e-01
2.505459277959922902e-04 2.260974893029118471e-01 -5.398006186126451666e-01 -6.072330289869515285e-01 -1.585687233088986514e-01 -7.785396640477080243e-01
5.812249635253110419e-02 1.280148520732962703e-01 -8.182301425708140563e-01 -9.066471602152704756e-01 2.014330424642977457e-01 3.706961778561548848e-01
3.844785257302776871e-02 -5.744777575100465036e-03 -6.898087664256810081e-01 -9.986489938767392216e-01 4.807113749099183736e-02 -1.973202395343168908e-02
6.143865023172281198e-02 2.287013160318212834e-01 -8.109053768075038526e-01 -8.904282306843842587e-01 4.509805445999859330e-02 4.528837946804900594e-01
6.608282254936932720e-02 3.505537378225485196e-02 -7.524904863338952588e-01 -9.716372664596767406e-01 -2.431961411998434172e-02 -2.352224028357468022e-01
6.024018507608241979e-02 -1.076787785124268086e-02 -7.520271947434822302e-01 -9.484750641386351377e-01 2.231702221109572448e-01 -2.249224414551782569e-01
3.950078502994591734e-02 6.408918148493225608e-02 -8.572007976574681498e-01 -9.515719534430367998e-01 -2.879643707265826524e-01 -1.076445010794631063e-01
3.309095301984011500e-02 1.684710687135991258e-01 -5.919986074611073290e-01 -9.853449770757451986e-01 5.225647084379785208e-03 -1.704933100275460023e-01
9.337927071017371877e-03 -1.122553822202092960e-01 -6.971066280513185109e-01 -8.150765076961313804e-01 4.871227762564604435e-01 -3.136266689139762809e-01
-1.656918854726482926e-01 5.174626953351881692e-02 -4.487811313719161088e-01 1.488123507797082523e-01 4.107229138597549567e-01 -8.995340862279591621e-01
-1.587194799628415670e-02 -2.541114166733570226e-02 -5.989768455062762786e-01 -7.213034946648571033e-01 2.193484143514159712e-01 -6.569684480291149153e-01
3.698723108233193529e-02 8.689114252964617868e-02 -8.475764238563153752e-01 -9.066471602152704756e-01 2.014330424642977457e-01 3.706961778561548848e-01
8.921502758101846481e-03 1.359562712318377886e-01 -5.577523416843364057e-01 -7.221790291019881680e-01 2.325231108828370308e-01 -6.514525714360775988e-01
4.423511475393390735e-02 9.519660409591838846e-03 -9.373742931657096378e-01 -9.851794201928497641e-01 -9.755227457941202662e-02 1.410853066512021137e-01
-6.641314657856453585e-02 -1.631256191852834686e-02 -5.166904233890675657e-01 -7.556168380018764008e-01 -2.600491873440069837e-02 -6.544974700712477000e-01
5.691435146242287274e-02 9.185328458623251424e-02 -7.204904522375795706e-01 -9.716372664596767406e-01 -2.431961411998434172e-02 -2.352224028357468022e-01
-7.769431612280898458e-02 -1.479338118910119779e-02 -5.037266826924842178e-01 -7.556168380018764008e-01 -2.600491873440069837e-02 -6.544974700712477000e-01
-1.510891832496336906e-01 -4.355549111741078422e-02 -4.851009714796447603e-01 -3.552756286636324923e-01 5.950023800893730064e-01 -7.209378581858786328e-01
-3.034765866515337640e-02 -4.130832482777661852e-02 -5.781620120025623422e-01 -8.558444395062677623e-01 7.593307788758145438e-02 -5.116292241933811935e-01
-8.436071321357485608e-02 -5.112663190047065515e-02 -5.185425995645145392e-01 -3.049701495472266766e-01 6.447077194246676468e-01 -7.009601731905933386e-01
6.292735593169301866e-02 9.259434662502592783e-02 -7.454050925860423726e-01 -9.716372664596767406e-01 -2.431961411998434172e-02 -2.352224028357468022e-01
5.540872776334675176e-02 -7.423608269746409527e-02 -8.246770966648350187e-01 -9.581292278041176891e-01 2.557691322631671649e-01 -1.287265854780275109e-01
5.902005542459615173e-02 -2.983422388030153305e-02 -7.917423913246517397e-01 -9.694571874104598308e-01 1.309022664712703732e-01 -2.074062641553657826e-01
6.289968843666172982e-02 1.193246180146386171e-01 -7.439076348138188299e-01 -9.614020324519562122e-01 9.781543129947616044e-02 -2.571736250025367654e-01
-6.344703019396566966e-04 -1.515245611601560849e-01 -7.158549503699810357e-01 -8.923468304027493136e-01 2.052002376131745187e-01 -4.020074585796432620e-01
-8.575623956121161684e-02 -1.775464490077660606e-01 -5.970943885087600655e-01 -8.066366865970794331e-01 3.052373168320923202e-01 -5.061298610523095043e-01
6.537506137104590054e-02 1.166190252467631944e-01 -7.541904828067960143e-01 -9.614020324519562122e-01 9.781543129947616044e-02 -2.571736250025367654e-01
6.638438324402805291e-02 8.683131853065491346e-02 -7.590892566350917470e-01 -9.716372664596767406e-01 -2.431961411998434172e-02 -2.352224028357468022e-01
4.996208555458666462e-02 1.150881354685252822e-01 -8.311645770424695989e-01 -9.066471602152704756e-01 2.014330424642977457e-01 3.706961778561548848e-01
6.708775144477636954e-02 5.014998959753301511e-02 -7.582021939801044663e-01 -9.716372664596767406e-01 -2.431961411998434172e-02 -2.352224028357468022e-01
5.602867181173382810e-02 1.041432780369574117e-02 -9.049268696196283157e-01 -9.217801007375359124e-01 1.838264997854794844e-02 3.872770636947978629e-01
6.317408416932937532e-02 1.348625173420253953e-01 -7.390236125541451706e-01 -9.614020324519562122e-01 9.781543129947616044e-02 -2.571736250025367654e-01
5.567156853077836337e-02 -4.284301368934025772e-02 -8.700308008687752670e-01 -9.906058842962480737e-01 1.266428826115978401e-01 5.159033127896781729e-02
-1.066530522558829658e-01 -2.054818301587922336e-01 -5.806377128486223116e-01 -8.066366865970794331e-01 3.052373168320923202e-01 -5.061298610523095043e-01
6.999136906742192688e-02 1.201587771086038564e-01 -7.701014660836391634e-01 -9.614020324519562122e-01 9.781543129947616044e-02 -2.571736250025367654e-01
-2.571774570516791383e-02 1.332232003618495988e-02 -5.752345611561175964e-01 -7.213034946648571033e-01 2.193484143514159712e-01 -6.569684480291149153e-01
-1.452522665342889652e-01 -1.461845780280072830e-02 -4.704997216887116807e-01 -7.690731819494817101e-02 3.319352906649629675e-01 -9.401618090622633206e-01
5.512710086709105006e-02 8.007292535916418763e-02 -8.151911031909301331e-01 -8.657640312729267817e-01 1.594951217791385628e-02 5.001982159257841731e-01
-8.856142267898101106e-02 -5.634385374100463889e-02 -5.215135132916024485e-01 -3.049701495472266766e-01 6.447077194246676468e-01 -7.009601731905933386e-01
3.532079723547772165e-02 1.480052833198538531e-01 -6.055129956147539128e-01 -9.853449770757451986e-01 5.225647084379785208e-03 -1.704933100275460023e-01
1.749459394710638216e-02 6.713482015204384756e-02 -5.932576814914343188e-01 -6.479663221260202333e-01 2.357768149769938759e-01 -7.242575087010030277e-01
7.020857772352663562e-02 1.516746441423122149e-01 -7.590163865849399727e-01 -9.608813371510948054e-01 8.760167120508367822e-02 -2.627413235804383351e-01
4.930989817678000514e-02 1.228978816917177391e-01 -6.866092537594981060e-01 -9.851954230290956849e-01 4.143595691550972654e-03 -1.713849732539766413e-01
2.686245246466055503e-02 1.528871373453367377e-01 -5.715979543614269076e-01 -7.221790291019881680e-01 2.325231108828370308e-01 -6.514525714360775988e-01
3.627164656215942778e-02 -5.620496781663419233e-02 -7.034462073632600232e-01 -9.663637938548211848e-01 1.879958373398454008e-01 -1.754952508457344740e-01
-8.168124932960256490e-02 -7.926386665243437268e-02 -5.455875725520196173e-01 -3.049701495472266766e-01 6.447077194246676468e-01 -7.009601731905933386e-01
-4.811025068961084783e-02 -1.192342566466612769e-01 -6.002501603665665320e-01 -7.288265795983110973e-01 4.736286588624309957e-01 -4.944569853639463886e-01
6.152910577844042384e-02 1.411069566783653972e-01 -7.307977743593863096e-01 -9.608813371510948054e-01 8.760167120508367822e-02 -2.627413235804383351e-01
6.013141751338169777e-02 5.243855017925936300e-03 -8.821549181171247644e-01 -9.515719534430367998e-01 -2.879643707265826524e-01 -1.076445010794631063e-01
2.082068246641767539e-02 -3.818998209144889439e-02 -6.576630274067130077e-01 -7.470335035496461495e-01 4.139457202465899877e-01 -5.201825499417227494e-01
-5.740300299851530674e-02 -1.342091275706841780e-01 -6.008967750600457958e-01 -7.288265795983110973e-01 4.736286588624309957e-01 -4.944569853639463886e-01
2.383300304619159846e-03 -6.946920886491499136e-02 -6.560761995955806114e-01 -7.470335035496461495e-01 4.139457202465899877e-01 -5.201825499417227494e-01
5.480176289277152030e-02 5.089679175765854380e-02 -7.279829138703773905e-01 -8.359323476126564456e-01 1.485480952912421049e-01 -5.283470200541846573e-01
-6.326331192070446495e-03 -6.361394539564116379e-02 -6.345198411577948061e-01 -9.073013836883344618e-01 1.536866789310028236e-01 -3.913880476923033980e-01
7.036850694190466271e-02 6.566095112774184006e-02 -7.775810225813032384e-01 -9.945371480981060053e-01 7.271432569613363317e-02 7.488983837239045205e-02
5.377346042226674450e-02 -7.124534160453238618e-02 -8.039410692108135414e-01 -9.563881916440410969e-01 2.803285430663505773e-01 -8.208248793828223921e-02
4.770516777986770485e-02 -7.016830070513853379e-03 -9.245774072880307282e-01 -9.851794201928497641e-01 -9.755227457941202662e-02 1.410853066512021137e-01
-1.576980744676778901e-01 5.734259841745655006e-02 -4.461160327107478452e-01 -1.066537617038314928e-01 1.716477010550118421e-01 -9.793681850238713515e-01
-8.326224417266887834e-03 1.143791587137808763e-01 -5.467317552777163359e-01 -7.056036682139349425e-01 3.389154408795023721e-01 -6.223020065342004248e-01
-1.293024317239838128e-01 -9.191390885454710225e-02 -5.283501488615068853e-01 -9.081025275454521761e-01 -1.097520740726278810e-01 -4.041092447622524064e-01
9.202800148250062096e-03 2.899489132093026333e-02 -6.058566197170514034e-01 -6.424603462979749935e-01 3.889666111011947369e-01 -6.602648551022068935e-01
1.139555040693336499e-03 -1.402106119575635690e-01 -7.137122360450782743e-01 -8.900836914716341308e-01 3.053219547083479424e-01 -3.384221123823062949e-01
5.882754547830160163e-03 -7.033414589369937908e-02 -6.617900524449287225e-01 -7.470335035496461495e-01 4.139457202465899877e-01 -5.201825499417227494e-01
3.399372537287492085e-02 -1.250980521361504949e-01 -7.835602552233326135e-01 -8.936358631072407466e-01 2.633091815699420413e-01 -3.634325509218243599e-01
-3.752986475685072404e-02 4.451434198815526488e-02 -5.513932734951381143e-01 -6.479663221260202333e-01 2.357768149769938759e-01 -7.242575087010030277e-01
5.224503666337051988e-02 -7.453253004588718256e-02 -8.580341911546217615e-01 -9.906058842962480737e-01 1.266428826115978401e-01 5.159033127896781729e-02
5.836279144606956737e-02 1.857486682041427917e-01 -8.230355216218956382e-01 -8.924245200730906991e-01 -9.063141440265257143e-02 4.420004781622849932e-01
-2.439039338445855853e-02 8.756561008572780191e-02 -5.431203079874290518e-01 -7.056036682139349425e-01 3.389154408795023721e-01 -6.223020065342004248e-01
8.265152241563709576e-03 2.005832819596462813e-01 -5.408551292834549162e-01 -6.072330289869515285e-01 -1.585687233088986514e-01 -7.785396640477080243e-01
-3.554657494621782376e-02 -1.446546507758823263e-01 -6.424313051021672827e-01 -7.636172820572456610e-01 3.393839570039830500e-01 -5.492787782827802667e-01
6.643757949069539759e-02 8.577077592935891670e-02 -7.957961367099219974e-01 -8.657640312729267817e-01 1.594951217791385628e-02 5.001982159257841731e-01
3.845629905768017248e-02 -9.343258118821324426e-03 -6.990028626219927377e-01 -9.986489938767392216e-01 4.807113749099183736e-02 -1.973202395343168908e-02
4.160689945742972878e-02 1.536698108709908250e-01 -6.415850875880816373e-01 -9.851954230290956849e-01 4.143595691550972654e-03 -1.713849732539766413e-01
3.835012626884930914e-02 -3.202951083939606456e-03 -6.786703871800136012e-01 -9.986489938767392216e-01 4.807113749099183736e-02 -1.973202395343168908e-02
4.079574586828285665e-02 1.015532741280534418e-01 -6.304571086691145299e-01 -9.834622863904558532e-01 -6.395296719053579493e-02 -1.694460068434289202e-01
4.282765763132069525e-02 4.275248714691697038e-02 -6.756862642268653962e-01 -9.916532792245648098e-01 1.287203854182354390e-01 7.405145572413557656e-03
3.847885123746888625e-02 5.536591626531095879e-04 -6.760333810934581189e-01 -9.986489938767392216e-01 4.807113749099183736e-02 -1.973202395343168908e-02
5.483396123257963661e-02 2.398232192546605884e-02 -8.935292135667480817e-01 -9.257311870021310840e-01 -3.264228181653067162e-01 1.909709747386879597e-01
4.918855103722660771e-02 3.652021184246736357e-02 -8.261385192125244581e-01 -9.581223152913118657e-01 -2.413099831789521921e-01 1.541788602856750123e-01
1.542084980100456859e-02 1.870650152574124536e-01 -5.481422056574714041e-01 -6.188987530483378574e-01 1.424547389081084747e-01 -7.724448076321280832e-01
5.093080628686374317e-02 2.866374440135964485e-02 -8.276079190513162542e-01 -9.581223152913118657e-01 -2.413099831789521921e-01 1.541788602856750123e-01
3.455099386409490880e-02 7.221351576393918170e-02 -6.068640769087023656e-01 -6.479663221260202333e-01 2.357768149769938759e-01 -7.242575087010030277e-01
4.779807551488945982e-02 -8.449460215816279041e-02 -7.795675187923337690e-01 -9.563881916440410969e-01 2.803285430663505773e-01 -8.208248793828223921e-02
-8.543905888658107073e-02 -1.597884878581563028e-01 -5.828109944060577696e-01 -7.493451740560703733e-01 4.328057802492076833e-01 -5.011596219786190742e-01
-5.185432136420559807e-02 -1.780529997325123737e-01 -6.473497827255504378e-01 -6.800273804275985823e-01 5.012934960930045536e-01 -5.350398047282384217e-01
3.077929256673542571e-02 1.565332160503716818e-01 -5.790045491555345647e-01 -9.853449770757451986e-01 5.225647084379785208e-03 -1.704933100275460023e-01
1.807945292568056408e-03 -1.458693886602668299e-01 -7.183898264072686723e-01 -8.923468304027493136e-01 2.052002376131745187e-01 -4.020074585796432620e-01
-1.222948873524688507e-01 -1.994516287621220518e-01 -5.402474852442816777e-01 -9.433649510208732547e-01 -7.338714870240233001e-02 -3.235380898607102540e-01
-1.129052230952993091e-01 -2.026029502943616223e-01 -5.659549446198567368e-01 -8.823417400535326083e-01 2.322188355118025294e-01 -4.093256236700148487e-01
-2.554988273995330295e-02 -7.648343948274044513e-02 -5.948130378340280577e-01 -9.121428982815565911e-01 1.258632290392001363e-01 -3.900689435091547197e-01
4.598987174795801658e-02 4.725473977661402009e-02 -7.150650309112660530e-01 -8.359323476126564456e-01 1.485480952912421049e-01 -5.283470200541846573e-01
-1.044029883264649058e-02 -1.524952348061213436e-01 -6.943391697428932252e-01 -8.900836914716341308e-01 3.053219547083479424e-01 -3.384221123823062949e-01
3.819501803025262404e-02 -8.736853628976135044e-02 -7.463080918293136801e-01 -8.543372618186566569e-01 4.317732243045959706e-01 -2.892744818365654003e-01
3.675548564161500859e-02 6.527031748275889667e-02 -9.071473084558920874e-01 -8.704369595247117841e-01 -4.178900138728310898e-01 2.602065252808631879e-01
-7.351822884027614524e-02 -1.136458653296747515e-02 -5.086842074231510136e-01 -7.556168380018764008e-01 -2.600491873440069837e-02 -6.544974700712477000e-01
-1.379866673440608045e-02 1.017690775548592830e-01 -5.473944171976679041e-01 -7.056036682139349425e-01 3.389154408795023721e-01 -6.223020065342004248e-01
2.052211427272673458e-02 -3.077830233007462085e-02 -6.513362608490702588e-01 -7.470335035496461495e-01 4.139457202465899877e-01 -5.201825499417227494e-01
4.134018156282067563e-02 3.325549362542173232e-02 -7.097982006127955268e-01 -9.916532792245648098e-01 1.287203854182354390e-01 7.405145572413557656e-03
-2.234497076376869978e-02 -8.712214913486912571e-02 -6.095469171700780286e-01 -7.887586934070396349e-01 4.089458276957911864e-01 -4.589368514131590970e-01
-8.233526755485302828e-02 -1.766606692334776740e-01 -6.020123130852064186e-01 -8.066366865970794331e-01 3.052373168320923202e-01 -5.061298610523095043e-01
5.904597460701758310e-02 5.656751301246203990e-03 -8.975193910800685071e-01 -9.217801007375359124e-01 1.838264997854794844e-02 3.872770636947978629e-01
-1.367404478300101589e-01 -3.612520066127775792e-02 -4.860396314250154393e-01 -3.552756286636324923e-01 5.950023800893730064e-01 -7.209378581858786328e-01
4.512873821924107479e-03 1.054937876466947033e-01 -5.661286142625320261e-01 -7.056036682139349425e-01 3.389154408795023721e-01 -6.223020065342004248e-01
1.379758341169623828e-02 -6.010145693927264332e-02 -6.650136602669484143e-01 -7.470335035496461495e-01 4.139457202465899877e-01 -5.201825499417227494e-01
5.915693871967110662e-02 6.438935127676572237e-03 -8.112725232923917451e-01 -9.581223152913118657e-01 -2.413099831789521921e-01 1.541788602856750123e-01
1.104759929972672951e-02 1.178127323061262804e-01 -5.668289907725074794e-01 -7.056036682139349425e-01 3.389154408795023721e-01 -6.223020065342004248e-01
3.616597531856746012e-02 2.846791716268942674e-02 -9.537682839190891881e-01 -8.382212177917087725e-01 -2.658915572874216982e-01 4.761164456380966303e-01
5.548939873217139523e-02 -1.289567405752188312e-01 -8.734312393256403739e-01 -9.656294829852182238e-01 1.222536173504786411e-01 -2.293768833915548200e-01
-1.207695271047864657e-03 -1.148976566974699298e-01 -6.729188759315718471e-01 -8.373334756424479774e-01 4.550343215236943295e-01 -3.030122387033394316e-01
4.272637380753619568e-02 4.145862474244191992e-02 -6.667589540548465310e-01 -9.916532792245648098e-01 1.287203854182354390e-01 7.405145572413557656e-03
6.940199896646666311e-02 1.333368795059220457e-01 -7.628859385091887324e-01 -9.614020324519562122e-01 9.781543129947616044e-02 -2.571736250025367654e-01
6.712435368093505605e-02 1.575453469396887740e-01 -8.121713379980193270e-01 -8.852756303389414105e-01 -1.016784647390899660e-01 4.538155441765870934e-01
-2.162595359418323024e-02 6.284852016881350978e-02 -5.596533531145625462e-01 -6.479663221260202333e-01 2.357768149769938759e-01 -7.242575087010030277e-01
-6.835335279350158999e-02 -6.012127047687881171e-02 -5.337798133654008126e-01 -3.049701495472266766e-01 6.447077194246676468e-01 -7.009601731905933386e-01
-1.511571867235905198e-01 5.923721110218620883e-02 -4.464962823214260190e-01 -1.066537617038314928e-01 1.716477010550118421e-01 -9.793681850238713515e-01
-3.335278206840394666e-02 -1.470318355431122492e-01 -6.469499514175126587e-01 -7.636172820572456610e-01 3.393839570039830500e-01 -5.492787782827802667e-01
5.455004457527606182e-02 -2.075925890616361902e-02 -7.405255937571271208e-01 -9.354278363041759192e-01 2.010034200083728739e-01 -2.908133219304535610e-01
6.781168785345863259e-02 1.446024369041145341e-01 -7.526559870824665044e-01 -9.614020324519562122e-01 9.781543129947616044e-02 -2.571736250025367654e-01
4.359553721905150975e-02 1.016013459514516770e-01 -6.467252025023015882e-01 -9.834622863904558532e-01 -6.395296719053579493e-02 -1.694460068434289202e-01
3.965661475529750658e-03 5.776457373519345261e-03 -6.103441899551312888e-01 -7.213034946648571033e-01 2.193484143514159712e-01 -6.569684480291149153e-01
5.378084193416743375e-02 5.734110504466283231e-02 -7.245557888007372327e-01 -8.359323476126564456e-01 1.485480952912421049e-01 -5.283470200541846573e-01
-1.401021710110185725e-01 -2.480778871530477797e-02 -4.750425319235664356e-01 -3.552756286636324923e-01 5.950023800893730064e-01 -7.209378581858786328e-01
3.919722070493492777e-02 1.360158143265021574e-02 -6.551355357807427948e-01 -9.916532792245648098e-01 1.287203854182354390e-01 7.405145572413557656e-03
8.755067829873891885e-03 5.306411238178266460e-02 -5.912416155507245197e-01 -6.424603462979749935e-01 3.889666111011947369e-01 -6.602648551022068935e-01
4.792522898649045904e-02 1.125125577717227786e-02 -9.242540593745735000e-01 -9.217801007375359124e-01 1.838264997854794844e-02 3.872770636947978629e-01
6.484691633303117653e-02 2.105752775561666179e-01 -8.048530463581786698e-01 -8.924245200730906991e-01 -9.063141440265257143e-02 4.420004781622849932e-01
-1.268115133812270645e-01 1.872127213393825693e-02 -4.602372285904552940e-01 -7.690731819494817101e-02 3.319352906649629675e-01 -9.401618090622633206e-01
-8.592388171476407488e-02 -4.988413601916506096e-02 -5.167197193689248014e-01 -3.049701495472266766e-01 6.447077194246676468e-01 -7.009601731905933386e-01
-3.897740956346889413e-02 1.676451434652431391e-02 -5.551508869084867959e-01 -8.516624295313346416e-01 7.825207036162705465e-02 -5.182159005751401093e-01
4.325336754971431663e-02 5.642274422570262016e-02 -6.584551380640308871e-01 -9.927999135450451540e-01 8.099083822437659619e-02 -8.825426782124441705e-02
5.733382786334854236e-02 -3.566137530060858873e-02 -8.670516240174460654e-01 -9.452980612946023653e-01 2.235624754699972183e-01 2.375529306794446349e-01
6.793967799150026077e-02 1.662870844186808625e-02 -7.622279937631357694e-01 -9.945371480981060053e-01 7.271432569613363317e-02 7.488983837239045205e-02
4.500319347510797069e-02 -1.264622696148953729e-01 -8.279569661342803810e-01 -9.656294829852182238e-01 1.222536173504786411e-01 -2.293768833915548200e-01
2.746196402986704477e-02 3.887833792983007297e-02 -6.178010053012438219e-01 -6.424603462979749935e-01 3.889666111011947369e-01 -6.602648551022068935e-01
-1.522293064174339572e-01 -2.924980591163855049e-03 -4.658004633898797375e-01 -7.690731819494817101e-02 3.319352906649629675e-01 -9.401618090622633206e-01
2.835857697128888605e-02 7.930988524999904588e-02 -5.990137792920118276e-01 -6.479663221260202333e-01 2.357768149769938759e-01 -7.242575087010030277e-01
4.701362920653748972e-02 -9.549709577666930238e-02 -8.044351363767194840e-01 -9.581292278041176891e-01 2.557691322631671649e-01 -1.287265854780275109e-01
-3.289950314716608148e-02 -3.706926853819834423e-03 -5.683127470404242265e-01 -8.558444395062677623e-01 7.593307788758145438e-02 -5.116292241933811935e-01
-4.533165464054943194e-02 1.975699144415593578e-02 -5.442561240841170545e-01 -8.516624295313346416e-01 7.825207036162705465e-02 -5.182159005751401093e-01
5.157117012342683771e-02 1.146345627763671465e-01 -6.986037879203720324e-01 -9.927999135450451540e-01 8.099083822437659619e-02 -8.825426782124441705e-02
6.948289012375000184e-02 6.525539135116527334e-02 -7.889482365779332262e-01 -9.945371480981060053e-01 7.271432569613363317e-02 7.488983837239045205e-02
6.241236703162997279e-02 1.609103514752397435e-01 -7.274252510971653818e-01 -9.608813371510948054e-01 8.760167120508367822e-02 -2.627413235804383351e-01
-2.635494153177455820e-02 9.219817903215030055e-04 -5.785733794255374374e-01 -8.558444395062677623e-01 7.593307788758145438e-02 -5.116292241933811935e-01
4.853917024797279461e-02 5.899758192765883896e-02 -8.259217530672106067e-01 -8.657640312729267817e-01 1.594951217791385628e-02 5.001982159257841731e-01
6.390348901129994097e-02 1.263237627963175458e-01 -7.449980714675911164e-01 -9.614020324519562122e-01 9.781543129947616044e-02 -2.571736250025367654e-01
-1.614751430397057819e-01 6.118625781825592913e-02 -4.450310537544630018e-01 -1.066537617038314928e-01 1.716477010550118421e-01 -9.793681850238713515e-01
-7.605619120310466719e-02 -1.215470927950143276e-01 -5.801410858653093250e-01 -4.267194618808505813e-01 4.565566364680859746e-01 -7.806833791935532396e-01
3.531708634056314466e-02 -1.235933145556368240e-01 -7.857240448942502953e-01 -8.936358631072407466e-01 2.633091815699420413e-01 -3.634325509218243599e-01
2.708464027295150872e-02 -7.955804173962879866e-02 -6.924428338132493366e-01 -8.150765076961313804e-01 4.871227762564604435e-01 -3.136266689139762809e-01
4.039714235730777064e-02 2.505942312184776186e-02 -6.936157458076837035e-01 -9.916532792245648098e-01 1.287203854182354390e-01 7.405145572413557656e-03
-5.992070618568919732e-02 1.057468735146674561e-02 -5.252542426078459226e-01 -7.556168380018764008e-01 -2.600491873440069837e-02 -6.544974700712477000e-01
-5.620573777637313806e-02 3.354592693639992657e-02 -5.304558790648794542e-01 -7.556168380018764008e-01 -2.600491873440069837e-02 -6.544974700712477000e-01
-2.450541436820224961e-02 -1.356845731162989802e-02 -5.838178241380989064e-01 -8.558444395062677623e-01 7.593307788758145438e-02 -5.116292241933811935e-01
4.773996802857725930e-02 1.386184979914706072e-01 -6.772045326579326785e-01 -9.851954230290956849e-01 4.143595691550972654e-03 -1.713849732539766413e-01
3.701768951094734639e-02 1.862454676270971776e-01 -6.202538280379056301e-01 -9.746334883983771569e-01 -1.928721195211378081e-01 -1.135337342107395758e-01
6.097437276718049165e-02 4.627270619089440470e-03 -8.028138319842612614e-01 -9.581223152913118657e-01 -2.413099831789521921e-01 1.541788602856750123e-01
2.731891772566852686e-02 9.007469160475418957e-02 -5.945792295700799146e-01 -6.479663221260202333e-01 2.357768149769938759e-01 -7.242575087010030277e-01
6.353021578879498865e-02 -1.785953989922737378e-02 -8.503952515258117462e-01 -9.515719534430367998e-01 -2.879643707265826524e-01 -1.076445010794631063e-01
-1.432857455811239467e-01 -5.834566393913991761e-02 -5.011530612997018297e-01 -3.552756286636324923e-01 5.950023800893730064e-01 -7.209378581858786328e-01
5.067102365345037968e-02 2.898249303319492404e-02 -8.620297516112844782e-01 -9.515719534430367998e-01 -2.879643707265826524e-01 -1.076445010794631063e-01
-1.301825869041938755e-01 -9.104282902581591064e-02 -5.266088664359862559e-01 -9.081025275454521761e-01 -1.097520740726278810e-01 -4.041092447622524064e-01
2.534132166977272685e-02 -8.263279405382390960e-03 -6.403403364463325920e-01 -7.470335035496461495e-01 4.139457202465899877e-01 -5.201825499417227494e-01
-2.075934194742723449e-02 -4.221513810273689812e-03 -5.865360568619724102e-01 -7.213034946648571033e-01 2.193484143514159712e-01 -6.569684480291149153e-01
1.977659980284870306e-02 1.152382479717741909e-01 -5.781285642821937243e-01 -7.056036682139349425e-01 3.389154408795023721e-01 -6.223020065342004248e-01
3.887703032260794028e-02 1.443297529247719868e-01 -6.261184273383414434e-01 -9.851954230290956849e-01 4.143595691550972654e-03 -1.713849732539766413e-01
-5.677039427760556187e-03 -1.135967562184608814e-01 -6.617842909509993321e-01 -7.887586934070396349e-01 4.089458276957911864e-01 -4.589368514131590970e-01
-4.411682004498422571e-02 -2.007970363779222611e-01 -6.679414008327784202e-01 -7.410613817350115706e-01 1.836350239125482953e-01 -6.458376007121552353e-01
4.202216399047786072e-02 9.874803717859531593e-02 -6.365164591552131546e-01 -9.834622863904558532e-01 -6.395296719053579493e-02 -1.694460068434289202e-01
-6.510440954804720681e-02 -1.410296627822136550e-01 -5.975210318961937661e-01 -4.267194618808505813e-01 4.565566364680859746e-01 -7.806833791935532396e-01
4.705878137321010957e-02 1.855900058380760033e-03 -9.258703767125509021e-01 -9.217801007375359124e-01 1.838264997854794844e-02 3.872770636947978629e-01
3.871362393711436783e-02 1.030881654813823635e-02 -6.626592711429711846e-01 -9.916532792245648098e-01 1.287203854182354390e-01 7.405145572413557656e-03
-1.313478927293454945e-01 -1.515193453351538766e-01 -5.142199284016474303e-01 -8.653274156073732515e-01 1.703654526321121340e-02 -5.009173783407387948e-01
1.203430020241866814e-02 1.040100895204997683e-01 -5.754649078753506508e-01 -7.056036682139349425e-01 3.389154408795023721e-01 -6.223020065342004248e-01
-5.085834628853246747e-02 4.047954668378003773e-02 -5.318482733037956933e-01 -7.590053866244036440e-01 5.240584027891385110e-01 -3.863594356829361809e-01
3.469853173007373358e-03 -2.579541206993424957e-02 -6.228822951171009148e-01 -7.470335035496461495e-01 4.139457202465899877e-01 -5.201825499417227494e-01
-9.984513402142052713e-03 -1.648940331158889883e-01 -7.019247050897030604e-01 -8.923468304027493136e-01 2.052002376131745187e-01 -4.020074585796432620e-01
5.198911495062183419e-02 -7.360009508501287601e-02 -8.652371649803101139e-01 -9.906058842962480737e-01 1.266428826115978401e-01 5.159033127896781729e-02
4.097110101272385951e-02 -8.718728034260897486e-02 -7.542363738351742786e-01 -8.543372618186566569e-01 4.317732243045959706e-01 -2.892744818365654003e-01
5.938248693181048810e-02 1.998281727148139286e-02 -8.059096464465510534e-01 -8.657640312729267817e-01 1.594951217791385628e-02 5.001982159257841731e-01
3.346031753968436995e-02 1.450542306380712410e-01 -5.948510337872472409e-01 -9.853449770757451986e-01 5.225647084379785208e-03 -1.704933100275460023e-01
-1.308308448089042786e-01 -4.444042638855482535e-02 -4.958145613266286555e-01 -3.552756286636324923e-01 5.950023800893730064e-01 -7.209378581858786328e-01
3.212250804227468476e-02 5.718809551179722395e-02 -6.115494691113390058e-01 -6.424603462979749935e-01 3.889666111011947369e-01 -6.602648551022068935e-01
-1.428155196380905823e-01 -3.018683101532467633e-02 -4.781448191823802207e-01 -3.552756286636324923e-01 5.950023800893730064e-01 -7.209378581858786328e-01
6.230525014800950001e-02 -3.431839183088358780e-02 -8.485326559458793438e-01 -9.452980612946023653e-01 2.235624754699972183e-01 2.375529306794446349e-01
4.075366890339306158e-02 2.813482667815048535e-02 -6.993302063964729198e-01 -9.916532792245648098e-01 1.287203854182354390e-01 7.405145572413557656e-03
6.733779400330976161e-02 9.776331323136264184e-02 -7.946204063554653807e-01 -8.657640312729267817e-01 1.594951217791385628e-02 5.001982159257841731e-01
4.702956523022975427e-02 7.072246323897966869e-02 -7.101118995252791999e-01 -8.359323476126564456e-01 1.485480952912421049e-01 -5.283470200541846573e-01
3.769791514695557122e-02 1.261628120996800551e-01 -6.197795844636195817e-01 -9.851954230290956849e-01 4.143595691550972654e-03 -1.713849732539766413e-01
-4.263683354488408822e-02 -6.534642900786664932e-02 -5.640135173612299546e-01 -6.760016926123421088e-01 4.342877665208937921e-01 -5.953283526219310673e-01
-9.135783992784710095e-02 -1.542023164575233307e-01 -5.735964108735808198e-01 -7.613914138164991074e-01 -3.110831472892279254e-03 -6.482849972767068536e-01
-1.694943428966012855e-02 -5.851034055892687796e-02 -6.078897172209702937e-01 -9.073013836883344618e-01 1.536866789310028236e-01 -3.913880476923033980e-01
-9.538716619052432788e-02 -1.701863991945891663e-01 -5.769160859962159105e-01 -7.493451740560703733e-01 4.328057802492076833e-01 -5.011596219786190742e-01
-1.087116764674848357e-01 -2.029649195544928619e-01 -5.751999004443444363e-01 -8.823417400535326083e-01 2.322188355118025294e-01 -4.093256236700148487e-01
-1.327064121099988114e-01 5.941110766134077847e-02 -4.520633406727995185e-01 -3.748144914228749291e-01 2.445794811825563742e-01 -8.942566602513414287e-01
4.205964915516368502e-02 1.115240805423455411e-01 -8.485556468137096520e-01 -9.066471602152704756e-01 2.014330424642977457e-01 3.706961778561548848e-01
4.213129944761881407e-02 -1.251748303013373587e-01 -8.151807019579476732e-01 -9.656294829852182238e-01 1.222536173504786411e-01 -2.293768833915548200e-01
-1.006154138060323111e-01 -1.258639696029659749e-01 -5.628596493079475183e-01 -7.613914138164991074e-01 -3.110831472892279254e-03 -6.482849972767068536e-01
-1.602679731486976455e-02 -5.423360986733845313e-02 -6.083491928443501839e-01 -9.073013836883344618e-01 1.536866789310028236e-01 -3.913880476923033980e-01
-1.805742397971964175e-02 -1.601694697948061741e-01 -6.812290144683474935e-01 -8.900836914716341308e-01 3.053219547083479424e-01 -3.384221123823062949e-01
2.713361348863616018e-02 -1.351191556048131903e-01 -7.739524381935537489e-01 -8.936358631072407466e-01 2.633091815699420413e-01 -3.634325509218243599e-01
6.180523984275726468e-02 7.526528269229063040e-02 -7.389782984585110404e-01 -9.716372664596767406e-01 -2.431961411998434172e-02 -2.352224028357468022e-01
-6.166549829420499285e-02 -2.592325788430119640e-02 -5.243100999007632712e-01 -8.516624295313346416e-01 7.825207036162705465e-02 -5.182159005751401093e-01
3.855421643327854725e-02 8.635203220450051592e-03 -6.549144971735076926e-01 -9.916532792245648098e-01 1.287203854182354390e-01 7.405145572413557656e-03
6.340267472054207654e-02 1.386829748266686368e-01 -7.384578647634549853e-01 -9.608813371510948054e-01 8.760167120508367822e-02 -2.627413235804383351e-01
1.456881295338208551e-02 -8.134017636403560736e-02 -6.781213255137200635e-01 -4.133464045422057809e-01 -1.539127488441498215e-01 -8.974717909746630085e-01
4.844449548264932737e-02 -1.007608176405300482e-01 -8.255438480210605112e-01 -9.581292278041176891e-01 2.557691322631671649e-01 -1.287265854780275109e-01
-8.428268616695040738e-02 -1.024621169400972143e-01 -5.644832939700078489e-01 -4.267194618808505813e-01 4.565566364680859746e-01 -7.806833791935532396e-01
4.452761158999452018e-02 4.743851635952896911e-02 -8.570947900533953945e-01 -9.515719534430367998e-01 -2.879643707265826524e-01 -1.076445010794631063e-01
6.751658222200107584e-02 1.347812723971247850e-01 -7.552882410246671840e-01 -9.614020324519562122e-01 9.781543129947616044e-02 -2.571736250025367654e-01
4.418398893423707702e-02 5.431996145175400914e-02 -6.951267148128007500e-01 -9.916532792245648098e-01 1.287203854182354390e-01 7.405145572413557656e-03
7.837124004878852357e-02 1.607374964468444023e-01 -7.859942313681052006e-01 -9.614020324519562122e-01 9.781543129947616044e-02 -2.571736250025367654e-01
-1.030835779748717762e-01 -1.015097680802424102e-01 -5.536498269681966455e-01 -4.267194618808505813e-01 4.565566364680859746e-01 -7.806833791935532396e-01
2.431800067077706691e-03 -1.009712094802492181e-02 -6.139599871030645417e-01 -7.213034946648571033e-01 2.193484143514159712e-01 -6.569684480291149153e-01
2.481182863787560755e-02 -8.265604331762557710e-02 -6.913478751420456536e-01 -8.150765076961313804e-01 4.871227762564604435e-01 -3.136266689139762809e-01
-9.146573669084494262e-02 -1.237134672833867244e-01 -5.729852010885816416e-01 -4.267194618808505813e-01 4.565566364680859746e-01 -7.806833791935532396e-01
-7.922793513838079227e-02 -1.512229725770460886e-01 -5.878569191880702594e-01 -7.613914138164991074e-01 -3.110831472892279254e-03 -6.482849972767068536e-01
3.804346020275101853e-02 4.485183244722323881e-02 -9.356307614585471777e-01 -8.704369595247117841e-01 -4.178900138728310898e-01 2.602065252808631879e-01
7.659441414389001057e-02 1.634222539145367692e-01 -7.922916740755722165e-01 -9.066471602152704756e-01 2.014330424642977457e-01 3.706961778561548848e-01
-2.428609894662153712e-02 -9.821839461560225026e-02 -6.160983229984253740e-01 -7.887586934070396349e-01 4.089458276957911864e-01 -4.589368514131590970e-01
6.533597946317815097e-02 1.244881291639002296e-01 -8.036180902534003634e-01 -8.734918046849350359e-01 1.023155694110553793e-01 4.759659561400866878e-01
-2.835590674501687128e-02 -7.812884641653243534e-02 -5.912024508046772597e-01 -7.887586934070396349e-01 4.089458276957911864e-01 -4.589368514131590970e-01
5.316257188588253274e-02 1.180445093766519524e-03 -9.113103373648901995e-01 -9.217801007375359124e-01 1.838264997854794844e-02 3.872770636947978629e-01
6.409141160833149720e-02 -1.029529478241392182e-02 -8.067992002348021163e-01 -9.581223152913118657e-01 -2.413099831789521921e-01 1.541788602856750123e-01
7.384003045113517183e-02 1.343385784353788859e-01 -7.901289647484921463e-01 -8.734918046849350359e-01 1.023155694110553793e-01 4.759659561400866878e-01
5.704986942083798557e-02 -2.733395376918267700e-02 -8.816368337826402390e-01 -9.906058842962480737e-01 1.266428826115978401e-01 5.159033127896781729e-02
-1.049983060492371174e-02 -1.561470420114005608e-01 -6.963160371969184803e-01 -8.923468304027493136e-01 2.052002376131745187e-01 -4.020074585796432620e-01
-4.507568693587891973e-02 -1.470207963248837679e-01 -6.306457364353146300e-01 -7.636172820572456610e-01 3.393839570039830500e-01 -5.492787782827802667e-01
-1.172747578476979469e-01 -3.370673987588215792e-02 -4.934166613767204668e-01 -2.512139169485883006e-01 5.981457951343059909e-01 -7.609948591774432503e-01
3.329519662136667946e-02 -1.115981643525680717e-01 -7.688287408043155136e-01 -8.535293730237317744e-01 4.404110446160972581e-01 -2.784344108867893297e-01
4.640563148085782852e-02 -5.273256209356601276e-02 -7.364275441171191927e-01 -9.354278363041759192e-01 2.010034200083728739e-01 -2.908133219304535610e-01
6.876571941655847120e-02 3.242326204033982306e-02 -7.665938922428491287e-01 -9.945371480981060053e-01 7.271432569613363317e-02 7.488983837239045205e-02
3.476923722081495111e-02 1.432692859452927014e-01 -6.024704818700917786e-01 -9.853449770757451986e-01 5.225647084379785208e-03 -1.704933100275460023e-01
7.619143036339996733e-02 1.694684925527286112e-01 -7.782684982132924700e-01 -9.527550286660575463e-01 -2.220087782389684739e-01 -2.072919625465020899e-01
3.705998899985738643e-02 -3.250603938879200600e-02 -6.847639588002034650e-01 -9.986489938767392216e-01 4.807113749099183736e-02 -1.973202395343168908e-02
3.840009091450296425e-02 -1.291672437411175989e-01 -7.981877547058655598e-01 -9.685216615755630754e-01 2.034917451667584698e-01 -1.433767788308053237e-01
4.187499956115934424e-02 1.096562861594309324e-01 -6.397793523525461268e-01 -9.834622863904558532e-01 -6.395296719053579493e-02 -1.694460068434289202e-01
-2.886070757181856839e-03 -3.535171253329657398e-02 -6.213591789653697406e-01 -7.470335035496461495e-01 4.139457202465899877e-01 -5.201825499417227494e-01
-5.185248901026628249e-03 1.635410555350697293e-01 -5.359704761582881893e-01 -6.188987530483378574e-01 1.424547389081084747e-01 -7.724448076321280832e-01
5.900799345370087712e-02 -1.442673893802135822e-02 -8.803736334535220420e-01 -9.452980612946023653e-01 2.235624754699972183e-01 2.375529306794446349e-01
5.769880554081620663e-03 1.504754458327722255e-01 -5.490762241020595846e-01 -7.221790291019881680e-01 2.325231108828370308e-01 -6.514525714360775988e-01
-3.974522263112534315e-02 -9.312246683304728490e-02 -5.881688487199252524e-01 -7.371861517880107240e-01 4.613874040024658618e-01 -4.936377629799501565e-01
2.807694612207764853e-03 -1.325243144443710441e-01 -7.104848655572973959e-01 -8.373334756424479774e-01 4.550343215236943295e-01 -3.030122387033394316e-01
-4.735297531671218280e-02 3.257545017522822661e-02 -5.406378270673941611e-01 -7.556168380018764008e-01 -2.600491873440069837e-02 -6.544974700712477000e-01
-6.682909622984666009e-02 -1.106336699420952391e-01 -5.788022401101321490e-01 -4.267194618808505813e-01 4.565566364680859746e-01 -7.806833791935532396e-01
-8.292695678233430456e-02 -2.867897559120367174e-02 -5.008034518531634394e-01 -2.512139169485883006e-01 5.981457951343059909e-01 -7.609948591774432503e-01
-5.449709318167588606e-02 -1.864985203479706533e-01 -6.518001610198111972e-01 -6.740626663842180788e-01 3.910044557674868249e-01 -6.267017132232605148e-01
6.006480728807653963e-02 -4.646989735095533730e-02 -8.071251936603907051e-01 -9.694571874104598308e-01 1.309022664712703732e-01 -2.074062641553657826e-01
-1.012142909851051348e-01 -1.095194719596288974e-01 -5.593557824417890734e-01 -4.267194618808505813e-01 4.565566364680859746e-01 -7.806833791935532396e-01
-9.408737634778453762e-02 -1.215526033858171928e-01 -5.702885106341630816e-01 -4.267194618808505813e-01 4.565566364680859746e-01 -7.806833791935532396e-01
-7.101548692786731906e-04 -1.013984299004486028e-01 -6.609379189534869692e-01 -9.121428982815565911e-01 1.258632290392001363e-01 -3.900689435091547197e-01
-5.202318911062674828e-02 -8.025595692843023876e-02 -5.642316042875914484e-01 -6.760016926123421088e-01 4.342877665208937921e-01 -5.953283526219310673e-01
-3.501906490902512853e-02 -9.593963994506592152e-03 -5.656409014270281643e-01 -8.558444395062677623e-01 7.593307788758145438e-02 -5.116292241933811935e-01
3.280038790322370446e-02 -2.273595976383133849e-02 -6.602715909598650956e-01 -6.081978172493881507e-01 4.132464584084875603e-01 -6.777335610001338218e-01
4.913317418594011221e-02 -1.055686724688032208e-01 -8.342074360454917459e-01 -9.656294829852182238e-01 1.222536173504786411e-01 -2.293768833915548200e-01
6.731929355794853687e-02 1.178672240104298857e-01 -7.609839309125803197e-01 -9.614020324519562122e-01 9.781543129947616044e-02 -2.571736250025367654e-01
-8.340307758344561728e-02 1.305170459712040772e-02 -4.982422809111001771e-01 -7.556168380018764008e-01 -2.600491873440069837e-02 -6.544974700712477000e-01
-1.326651621237917300e-01 -1.405238635317720419e-01 -5.115704009514614459e-01 -8.653274156073732515e-01 1.703654526321121340e-02 -5.009173783407387948e-01
3.943350061317434097e-02 3.255491247198388782e-02 -6.373877391730861097e-01 -9.927999135450451540e-01 8.099083822437659619e-02 -8.825426782124441705e-02
-1.218588020314542858e-01 -1.124672653921927612e-01 -5.379742076057868472e-01 -7.613914138164991074e-01 -3.110831472892279254e-03 -6.482849972767068536e-01
-2.714731598694222064e-02 -8.336638485773355256e-02 -5.979466378330182685e-01 -7.887586934070396349e-01 4.089458276957911864e-01 -4.589368514131590970e-01
-8.447352709961522543e-02 -1.289081094801929062e-01 -5.798450375163645143e-01 -4.267194618808505813e-01 4.565566364680859746e-01 -7.806833791935532396e-01
-7.307435195862317656e-02 -4.507472554096406125e-02 -5.178867741909415345e-01 -3.049701495472266766e-01 6.447077194246676468e-01 -7.009601731905933386e-01
-1.936993165217330620e-03 4.498090182538640874e-02 -5.855997490121369609e-01 -6.424603462979749935e-01 3.889666111011947369e-01 -6.602648551022068935e-01
3.945067254465936188e-03 -7.529482945436015602e-03 -6.147641620793717898e-01 -7.213034946648571033e-01 2.193484143514159712e-01 -6.569684480291149153e-01
-8.939823088799574158e-02 -2.008445189113029772e-01 -6.053406447553132397e-01 -8.066366865970794331e-01 3.052373168320923202e-01 -5.061298610523095043e-01
-3.185684696322772791e-02 -2.049859728426881855e-01 -6.832000789106875693e-01 -7.410613817350115706e-01 1.836350239125482953e-01 -6.458376007121552353e-01
4.944087170179417567e-02 -7.070090120600430739e-02 -7.659537138950017754e-01 -9.484750641386351377e-01 2.231702221109572448e-01 -2.249224414551782569e-01
-7.953060038728533565e-02 1.787413647869426012e-02 -5.029046609246505817e-01 -7.556168380018764008e-01 -2.600491873440069837e-02 -6.544974700712477000e-01
1.384430722437332562e-02 -1.120117493581060941e-01 -7.084397378722452343e-01 -8.150765076961313804e-01 4.871227762564604435e-01 -3.136266689139762809e-01
4.715272077663125450e-02 8.333963554206873237e-02 -6.776185847529021533e-01 -9.927999135450451540e-01 8.099083822437659619e-02 -8.825426782124441705e-02
7.775461905753415504e-02 1.642813540751089929e-01 -7.899208772246840704e-01 -9.066471602152704756e-01 2.014330424642977457e-01 3.706961778561548848e-01
-9.755413061136293529e-02 1.684402861548654415e-02 -4.721733751226193099e-01 -7.590053866244036440e-01 5.240584027891385110e-01 -3.863594356829361809e-01
3.203060607153122852e-02 -1.223163386204357966e-01 -7.767178177088168711e-01 -8.936358631072407466e-01 2.633091815699420413e-01 -3.634325509218243599e-01
-4.879120839899692141e-02 9.558234532446486728e-03 -5.401105582819616391e-01 -8.516624295313346416e-01 7.825207036162705465e-02 -5.182159005751401093e-01
-1.737027011669929275e-03 2.500083939545680138e-03 -6.051769679562348792e-01 -7.213034946648571033e-01 2.193484143514159712e-01 -6.569684480291149153e-01
-8.277648371882717626e-02 -1.538591024155448461e-01 -5.836766049933641565e-01 -7.613914138164991074e-01 -3.110831472892279254e-03 -6.482849972767068536e-01
1.334028936459982079e-02 1.746611470036901204e-01 -5.488359241979327008e-01 -7.221790291019881680e-01 2.325231108828370308e-01 -6.514525714360775988e-01
-1.214210644740580138e-02 6.836535549922867494e-02 -5.663422332906670187e-01 -6.479663221260202333e-01 2.357768149769938759e-01 -7.242575087010030277e-01
7.265144187718668156e-02 1.720069877469560249e-01 -7.647167252428689332e-01 -9.527550286660575463e-01 -2.220087782389684739e-01 -2.072919625465020899e-01
3.585777337231337708e-02 1.443905806833004346e-01 -6.087271739273554250e-01 -9.853449770757451986e-01 5.225647084379785208e-03 -1.704933100275460023e-01
5.990177014468592992e-02 1.339434851513784386e-01 -7.272347856768126562e-01 -9.608813371510948054e-01 8.760167120508367822e-02 -2.627413235804383351e-01
5.919106466987544835e-02 1.789232024214780226e-01 -8.228573534229058906e-01 -8.852756303389414105e-01 -1.016784647390899660e-01 4.538155441765870934e-01
4.707527369108955445e-02 -8.664642525856067201e-02 -7.784946749163516033e-01 -9.563881916440410969e-01 2.803285430663505773e-01 -8.208248793828223921e-02
-1.499214050269159250e-02 3.881584464994086020e-02 -5.765285209491204377e-01 -6.424603462979749935e-01 3.889666111011947369e-01 -6.602648551022068935e-01
4.791874005334717523e-02 1.179157986774230366e-01 -6.779744759582079228e-01 -9.834622863904558532e-01 -6.395296719053579493e-02 -1.694460068434289202e-01
4.935657989584924660e-02 3.913758066732370838e-02 -8.941762252822307300e-01 -9.257311870021310840e-01 -3.264228181653067162e-01 1.909709747386879597e-01
