-2.458975986574240755e-02 2.835376513435114085e-02 -8.495649078563715095e-01 8.890645933625743735e-01 -1.710239887836739192e-01 4.246350716669098913e-01
-2.359009403749686914e-02 1.244435239880826854e-01 -7.447447849171339174e-01 9.481236265271456576e-01 -2.741864486278012825e-01 -1.608831259327342111e-01
6.350967691225592460e-02 -1.115653333198659974e-01 -5.752496780002221977e-01 6.084176633704666548e-01 2.504538039382038783e-01 -7.530609795970742981e-01
-2.312674306532824797e-02 -1.778841603349005582e-02 -8.845573976780788383e-01 9.856402250701409296e-01 1.159262803373037470e-01 1.227780283716870396e-01
-2.887309913661497904e-02 1.785678913583169658e-01 -6.134381903622004861e-01 9.910291932550499006e-01 -1.246172990974802192e-01 4.828733666184216455e-02
-1.818287937495951037e-02 7.166770018962591304e-02 -8.553627352168264864e-01 8.008830599481311374e-01 -3.392207457927292474e-02 5.978591950822171874e-01
-3.042428650366093765e-02 1.710081557678987951e-01 -6.011120159461179613e-01 9.910291932550499006e-01 -1.246172990974802192e-01 4.828733666184216455e-02
-3.161490043886888007e-02 1.228409445566856772e-01 -6.523940328770366781e-01 9.728451068192311979e-01 -1.982331925311149323e-01 1.194822142278955807e-01
1.182734629879978738e-01 -2.117424701765130979e-01 -5.567369167736310187e-01 6.764914918804770805e-01 3.362471352511989253e-01 -6.552076964205232334e-01
-2.208483416023935414e-02 -3.741044604238571991e-02 -6.783944181106176252e-01 8.148604910493547626e-01 3.103469861911680727e-01 -4.895785210656849462e-01
-3.123332981093932328e-02 8.141003939628893571e-02 -7.652404029046715461e-01 9.785346992141273903e-01 -8.197011312671419192e-02 -1.890786687807766431e-01
1.203904424118102615e-03 -3.037920491663935116e-02 -6.196452816108973805e-01 9.909192088689411371e-01 -5.133798859963083910e-02 -1.242720098054896499e-01
-5.793805967448504082e-03 1.549739325432985815e-01 -8.613274808183538633e-01 8.379557271201751867e-01 -6.397250343508091575e-02 5.419757542462088074e-01
1.802916015327491947e-02 -4.578940117590747649e-02 -5.678358696261377458e-01 8.910657845387438547e-01 9.960644155480749551e-02 -4.428095803222212301e-01
1.898573629949779767e-02 -1.682407983350318603e-01 -6.549312786207797110e-01 8.992757371721495918e-01 3.443845326643385496e-01 -2.696339040162645806e-01
4.122738570341882847e-02 -1.926346918209004000e-01 -6.412525331761842473e-01 7.911962963329818299e-01 4.082821002420118361e-01 -4.553176334065531794e-01
1.134446831253971555e-01 -1.383049396161172007e-01 -5.330244773272412306e-01 4.326382146702006937e-01 1.952010163318862734e-01 -8.801822188785571877e-01
8.090042773807992749e-02 -1.538070322332352191e-01 -5.623776142770944286e-01 7.331623601389581912e-01 2.729605604491347481e-02 -6.795056136632467991e-01
3.766507468587371177e-02 -1.111129371725965015e-01 -5.959546231037822217e-01 4.173123510651437496e-01 6.344253353080437918e-01 -6.506572796547799298e-01
8.145664511711425346e-03 3.175699962889964867e-02 -5.693369730520727590e-01 8.566353446043646347e-01 2.781658353980962506e-01 -4.345108219502027413e-01
7.215114357320787097e-02 -1.782541143260776006e-01 -5.733687652128046652e-01 6.805569838948993810e-01 5.907815155659043027e-01 -4.333813477037637973e-01
-3.381240965750417077e-02 2.431504272131653280e-02 -7.442058888951638140e-01 9.889983052562402177e-01 8.976075651033524339e-02 1.175812858875806971e-01
1.501729338883355837e-02 -1.068267082153583590e-02 -5.659996738888000145e-01 8.910657845387438547e-01 9.960644155480749551e-02 -4.428095803222212301e-01
-2.001042351772029659e-02 -7.967252726237604443e-02 -8.606354322970870552e-01 9.680370616178012311e-01 1.121019410672774025e-01 2.243599833823365086e-01
7.438431871833305065e-02 -1.197397729406604744e-01 -5.680397662468945619e-01 7.331623601389581912e-01 2.729605604491347481e-02 -6.795056136632467991e-01
1.898614536289441879e-02 -1.876550550227942468e-02 -5.598313209011063218e-01 8.910657845387438547e-01 9.960644155480749551e-02 -4.428095803222212301e-01
-4.087067254457760201e-02 7.978347542666457126e-02 -6.399754980632154089e-01 8.536757519723950915e-01 1.274513434242360854e-01 -5.049691728746648067e-01
-8.782096314501207715e-03 -5.719925863584828657e-02 -6.581740790291075172e-01 9.694249242479108242e-01 -1.028922200173125884e-01 -2.227745661130132449e-01
-2.853345177741871755e-02 1.692039574995204132e-01 -6.445748961473071192e-01 9.910291932550499006e-01 -1.246172990974802192e-01 4.828733666184216455e-02
-2.405683492830668069e-02 1.359301414158928523e-01 -7.670715695596851402e-01 9.481236265271456576e-01 -2.741864486278012825e-01 -1.608831259327342111e-01
-1.784165658025912982e-02 -5.274430219651599777e-02 -6.810522517812176435e-01 8.148604910493547626e-01 3.103469861911680727e-01 -4.895785210656849462e-01
-3.116778097365777850e-02 1.448170454807882479e-01 -8.241236970851312238e-01 9.481236265271456576e-01 -2.741864486278012825e-01 -1.608831259327342111e-01
-2.505766187508160978e-02 -8.418043304485355038e-02 -7.649161392009183880e-01 9.503756291176927995e-01 3.065459491934576230e-01 5.306359026895788450e-02
2.813673569297115915e-02 -1.856855653323064570e-01 -6.526169302415488760e-01 6.805569838948993810e-01 5.907815155659043027e-01 -4.333813477037637973e-01
-3.459710121296598329e-02 5.555619557301366002e-02 -7.717395312836751176e-01 9.776181520233968580e-01 -7.729095723651838168e-02 -1.956753861982162834e-01
-2.245566987709982434e-02 2.877699235136063453e-03 -9.094574766331076088e-01 9.856402250701409296e-01 1.159262803373037470e-01 1.227780283716870396e-01
-2.946121252811410851e-02 -2.532212526972719979e-02 -7.583421477768984564e-01 9.741789146562409574e-01 7.379237336431777872e-02 -2.133778992127573215e-01
9.167148767742650667e-04 -1.318996359089421103e-02 -6.209436910112838826e-01 8.166877529193420360e-01 3.773111329138203462e-01 -4.366433592886136972e-01
-3.390621483071670772e-02 9.233026039161459919e-02 -6.833080219476626027e-01 9.756926910982876011e-01 -5.956617595490812378e-02 2.108924920889564958e-01
-3.640867560736479186e-02 3.986107041544772328e-02 -8.307542912287617654e-01 9.793057924087281707e-01 2.575478510155234171e-02 2.007407681540697986e-01
-3.602151661216292794e-02 -1.805035888188547682e-02 -7.011220244798513912e-01 9.647549811105694539e-01 -6.781003232441815132e-02 2.542629071227376358e-01
-1.612616653773412539e-02 1.194101238866500519e-01 -8.529827349603080755e-01 7.782469581231237221e-01 -1.223717273724226479e-01 6.159195016493588248e-01
2.696572286400117716e-02 -2.209843474886996340e-01 -6.812081070126482230e-01 9.234011187951722821e-01 1.912728611890914254e-01 -3.327838132787748204e-01
-3.222870552713558850e-02 1.367155611847727659e-01 -6.412682994304479411e-01 9.912465502918799132e-01 -4.335037604717022208e-02 1.247037346313920186e-01
-2.724102321214311173e-02 3.484463032726105303e-02 -9.518901164546390570e-01 9.631022902422429199e-01 -1.024121003881564712e-01 -2.488890118591666756e-01
-1.902506825228231571e-02 -6.888578443234594229e-02 -6.932541265034236622e-01 8.148604910493547626e-01 3.103469861911680727e-01 -4.895785210656849462e-01
-5.406287199050741239e-03 -8.712187864369058676e-03 -6.289007654767267974e-01 8.166877529193420360e-01 3.773111329138203462e-01 -4.366433592886136972e-01
6.947962274153232642e-02 -3.190033475661107482e-02 -4.867640332692416694e-01 5.712719569384789864e-01 6.639472537664502516e-01 -4.825167307272044681e-01
-1.522635624860722674e-02 2.626847721589506066e-02 -8.700090620635503313e-01 8.890645933625743735e-01 -1.710239887836739192e-01 4.246350716669098913e-01
6.336604409023435802e-02 -9.989968070116823917e-02 -5.685372614275507885e-01 4.173123510651437496e-01 6.344253353080437918e-01 -6.506572796547799298e-01
6.208084853926280379e-03 1.194728836052034865e-01 -8.840741517323130738e-01 8.379557271201751867e-01 -6.397250343508091575e-02 5.419757542462088074e-01
-2.769011978536847080e-02 -3.663317094100881216e-02 -6.872312045006609971e-01 8.148604910493547626e-01 3.103469861911680727e-01 -4.895785210656849462e-01
6.082737251534350159e-02 -7.565063785641544525e-02 -5.465213882757405939e-01 4.173123510651437496e-01 6.344253353080437918e-01 -6.506572796547799298e-01
8.486172058873139856e-02 -2.127539161213827801e-01 -5.912231963620749875e-01 5.239114302568210757e-01 5.693165819417145279e-01 -6.335577659317698229e-01
-2.110799070274441483e-02 2.385009338791469619e-02 -9.242656184907652728e-01 9.093526303121467480e-01 -9.555226522190479743e-02 -4.049043817438174875e-01
8.960495518092559397e-02 -1.296928872523433196e-01 -5.522980608179335338e-01 6.736332454134288383e-01 5.762159079231208431e-02 -7.368161256028091799e-01
-3.306999044055803499e-02 -3.631984008210675623e-03 -8.339514464709163466e-01 9.769545299903169555e-01 1.396153565109009842e-01 1.614540137554123789e-01
-1.460021202990943213e-03 2.230164114342068349e-01 -8.105513409357376631e-01 8.516269385802881509e-01 -3.989576894133272100e-01 3.399475246892451619e-01
-3.085408052751648436e-02 8.435099757601544068e-02 -6.996824280279446695e-01 9.756926910982876011e-01 -5.956617595490812378e-02 2.108924920889564958e-01
6.152037277581688494e-03 4.484291924445485064e-03 -5.945923505926035135e-01 9.909192088689411371e-01 -5.133798859963083910e-02 -1.242720098054896499e-01
-3.586831537205899256e-02 7.975633888270376726e-02 -7.885108236882937272e-01 9.785346992141273903e-01 -8.197011312671419192e-02 -1.890786687807766431e-01
6.535771078706109627e-02 -1.927437644341281897e-01 -5.994195575952149246e-01 7.911962963329818299e-01 4.082821002420118361e-01 -4.553176334065531794e-01
-2.861135484729908016e-02 1.454176449624031697e-01 -6.669968615133191614e-01 9.912465502918799132e-01 -4.335037604717022208e-02 1.247037346313920186e-01
6.847967918059100212e-02 -1.770756706839100303e-01 -5.775277767211175473e-01 6.805569838948993810e-01 5.907815155659043027e-01 -4.333813477037637973e-01
-3.192469260684264315e-02 1.036482515359436613e-01 -7.784591930859072750e-01 9.785346992141273903e-01 -8.197011312671419192e-02 -1.890786687807766431e-01
3.147698091164566770e-03 2.112310274247623521e-01 -8.384797099991612157e-01 6.647314025946094995e-01 -4.678371413302092607e-01 5.824607897503325527e-01
-2.684352699941901926e-02 1.240189664486487237e-01 -7.631945055906748099e-01 9.481236265271456576e-01 -2.741864486278012825e-01 -1.608831259327342111e-01
3.401790774760867679e-04 -6.151109210580500697e-02 -6.136715596634548797e-01 9.909192088689411371e-01 -5.133798859963083910e-02 -1.242720098054896499e-01
-3.191052571566216356e-02 5.096611846165162441e-02 -7.236915848979054156e-01 9.897226239987704233e-01 -1.369514830454926502e-01 4.115117053776717881e-02
-3.869447448323760225e-02 4.080665837826629935e-03 -8.037140375579486795e-01 9.797642531764079177e-01 1.352489671078456468e-01 1.475456712138192295e-01
-2.833628465882381472e-02 5.060046639202055163e-02 -9.652058861909581511e-01 9.673990324524245343e-01 -1.918885362984471266e-01 -1.652812803899827709e-01
-3.772205293648790876e-03 -1.473426657332830014e-01 -7.246206067813023566e-01 9.488039321904861989e-01 3.154424749865216149e-01 -1.634451694755065243e-02
-3.509639062425511796e-02 -6.857223824706314922e-04 -8.232376524334902301e-01 9.797642531764079177e-01 1.352489671078456468e-01 1.475456712138192295e-01
-1.972349028932914375e-02 -1.036849637300858301e-01 -8.691130454655564552e-01 9.894867004679346323e-01 -1.446231844909576514e-01 -4.517795635020689258e-04
7.949159835612257252e-03 5.056762343461460030e-03 -5.804989615314588569e-01 9.909192088689411371e-01 -5.133798859963083910e-02 -1.242720098054896499e-01
-2.164058113268271799e-02 -7.522037786551404384e-03 -8.793229224640175534e-01 9.556012698777404113e-01 -2.539779353806772000e-01 -1.494035519919726385e-01
-2.392839633400581367e-02 -2.744296164953174966e-02 -6.751444128620808227e-01 8.148604910493547626e-01 3.103469861911680727e-01 -4.895785210656849462e-01
5.114676784649244308e-03 -1.174730464141309910e-01 -6.453951877495236467e-01 8.285127083093380973e-01 4.205631173189855465e-01 -3.697206465980265588e-01
1.726993197852349782e-01 -1.947291647951497617e-01 -5.246897781535909688e-01 2.425253016245449145e-01 2.316336856557979496e-01 -9.420866805880627748e-01
5.261216688177787482e-02 -9.362911939634006864e-02 -5.693203508334078178e-01 4.173123510651437496e-01 6.344253353080437918e-01 -6.506572796547799298e-01
-1.550121719141282252e-02 -1.198363009194292894e-01 -7.877512650655220661e-01 9.822821542660490346e-01 9.287175698747139607e-02 -1.627777815443795240e-01
-1.011332586416686247e-02 -1.271501764878176233e-01 -7.114518854213667254e-01 9.529802710078358885e-01 3.024442706043372064e-01 -1.886971776265155068e-02
6.445512151390507538e-02 2.461639192535036019e-02 -4.605746117629956893e-01 7.742674314525442858e-01 -1.371099298646127063e-01 -6.178274934999258283e-01
-3.428657837217547605e-02 3.309877209228502537e-02 -7.260080806904407602e-01 9.897226239987704233e-01 -1.369514830454926502e-01 4.115117053776717881e-02
2.941525836786136952e-02 -1.042100488177415407e-01 -5.945151294642205819e-01 4.173123510651437496e-01 6.344253353080437918e-01 -6.506572796547799298e-01
3.797119984048159119e-02 -3.004063888507849805e-02 -5.183890281692269397e-01 9.284927621065136583e-01 1.546854728636256060e-01 -3.375997559252280067e-01
8.277430281053167749e-02 8.076327148146803317e-03 -4.490176415407640120e-01 4.408675497094837747e-01 5.346347503322356198e-01 -7.209725981965916519e-01
-2.787425827847081136e-02 1.213402243273815073e-01 -8.377549229478645776e-01 7.782469581231237221e-01 -1.223717273724226479e-01 6.159195016493588248e-01
-2.272091625949341012e-02 -1.152535694963907065e-01 -8.287038764811657243e-01 9.822821542660490346e-01 9.287175698747139607e-02 -1.627777815443795240e-01
-1.822117420308598176e-02 -5.919624764415024054e-02 -9.017744734243655635e-01 9.986651743339191034e-01 5.164475293849364601e-02 -8.301003102171028306e-04
-1.617944916643111394e-02 6.414289886367781357e-02 -9.227054640375734751e-01 9.093526303121467480e-01 -9.555226522190479743e-02 -4.049043817438174875e-01
-8.686906103038747121e-03 -1.314918926815829558e-01 -7.090023149657942447e-01 9.529802710078358885e-01 3.024442706043372064e-01 -1.886971776265155068e-02
-3.707021090919455919e-02 1.834707767403576453e-02 -7.081529951321977601e-01 9.897226239987704233e-01 -1.369514830454926502e-01 4.115117053776717881e-02
-3.424573964646257518e-02 6.952880545327924135e-03 -7.690243044775944004e-01 9.741789146562409574e-01 7.379237336431777872e-02 -2.133778992127573215e-01
-1.575620161494985239e-02 1.287396459777308544e-01 -8.515966030781555451e-01 7.782469581231237221e-01 -1.223717273724226479e-01 6.159195016493588248e-01
-3.431598068133814849e-02 2.566323397344935642e-02 -7.628743983454769895e-01 9.741789146562409574e-01 7.379237336431777872e-02 -2.133778992127573215e-01
1.195391758568294382e-01 -1.887493473023661994e-01 -5.421487881233710837e-01 5.393148047711453508e-01 2.162017490277063914e-01 -8.138773525980570467e-01
-3.541452687042753733e-02 9.869859923484410047e-02 -6.615114250654392514e-01 9.728451068192311979e-01 -1.982331925311149323e-01 1.194822142278955807e-01
1.593144940513708044e-02 -7.220968974279386166e-02 -5.832663009289789091e-01 7.667858089231455176e-01 3.938101155058363334e-01 -5.069054311795812007e-01
-3.104184363536154068e-02 4.447519941943973987e-02 -9.785775411855999195e-01 9.741498404884054718e-01 -2.014083026818459521e-01 -1.023073012410745664e-01
-3.951568730542037722e-02 1.039705186144800897e-01 -8.238220198000989480e-01 9.793057924087281707e-01 2.575478510155234171e-02 2.007407681540697986e-01
-1.835438679975448864e-02 6.815622881532634736e-02 -9.312092954154826963e-01 9.631022902422429199e-01 -1.024121003881564712e-01 -2.488890118591666756e-01
-1.381717595155471968e-02 -1.159559971759367147e-01 -7.190874348698325091e-01 9.529802710078358885e-01 3.024442706043372064e-01 -1.886971776265155068e-02
-1.800042063037236156e-02 -8.802091473017702172e-02 -6.928552055650412100e-01 9.546210614596668531e-01 1.849731540165322208e-01 -2.334171401392691469e-01
-6.582847533943412448e-04 -5.369433714085750792e-02 -6.244413402127200197e-01 9.694249242479108242e-01 -1.028922200173125884e-01 -2.227745661130132449e-01
-3.822574553117864034e-03 1.282970110577647815e-01 -8.675240571009205093e-01 8.379557271201751867e-01 -6.397250343508091575e-02 5.419757542462088074e-01
-1.806633396075058365e-02 7.742093672462897758e-02 -6.020199095107382492e-01 8.536757519723950915e-01 1.274513434242360854e-01 -5.049691728746648067e-01
6.131968821140053099e-04 2.308103421008828315e-01 -8.065982596458357579e-01 8.516269385802881509e-01 -3.989576894133272100e-01 3.399475246892451619e-01
-2.633907435394429453e-02 1.753105138546769137e-01 -6.738519204283730524e-01 9.910291932550499006e-01 -1.246172990974802192e-01 4.828733666184216455e-02
1.228906281899321967e-01 -1.859804124947700699e-01 -5.391924011427132735e-01 5.393148047711453508e-01 2.162017490277063914e-01 -8.138773525980570467e-01
-1.498326437379955169e-02 5.824941562538907269e-02 -6.016466082508489244e-01 8.536757519723950915e-01 1.274513434242360854e-01 -5.049691728746648067e-01
-3.631922577818380571e-02 -1.786062205073602610e-02 -6.912470287215480846e-01 9.126717486464549500e-01 2.711582092415408263e-01 -3.057834279086147911e-01
4.193903487228326649e-02 -1.811039633617314015e-01 -6.246970003223345502e-01 6.805569838948993810e-01 5.907815155659043027e-01 -4.333813477037637973e-01
1.361558288601616776e-02 -8.320660535700177829e-02 -5.953128678324965950e-01 7.667858089231455176e-01 3.938101155058363334e-01 -5.069054311795812007e-01
3.201426002347137340e-02 -1.078818506388407178e-01 -5.964284080044548464e-01 4.173123510651437496e-01 6.344253353080437918e-01 -6.506572796547799298e-01
9.379251567177242233e-02 1.511090564484920441e-02 -4.352292210994480048e-01 4.706530600389335350e-01 6.246046258448686439e-01 -6.231811602168184638e-01
7.658659061416148162e-02 3.625524971671937463e-02 -4.479542629980801660e-01 7.742674314525442858e-01 -1.371099298646127063e-01 -6.178274934999258283e-01
-3.601142364325010149e-03 2.110026741813190998e-01 -8.297056086812445441e-01 8.164230677532767766e-01 -5.426962405416586588e-01 1.973174217910791672e-01
-9.595400307811004247e-05 1.839582659925892427e-02 -5.955439322086857334e-01 8.166877529193420360e-01 3.773111329138203462e-01 -4.366433592886136972e-01
8.934560056231037606e-02 -8.265981645787411070e-02 -5.330893542965596810e-01 5.712719569384789864e-01 6.639472537664502516e-01 -4.825167307272044681e-01
-2.169857115261960082e-02 -1.172458716867881001e-01 -8.538280541328966411e-01 9.894867004679346323e-01 -1.446231844909576514e-01 -4.517795635020689258e-04
1.400014398795098106e-02 -1.471158142603501140e-01 -6.459098089367044659e-01 9.168302717187243323e-01 2.138481771434387058e-01 -3.371812717109278212e-01
-2.394737139041572607e-02 -9.141841747868770240e-02 -7.393814265173461742e-01 9.311322692681348601e-01 3.622588076540979030e-01 -4.196728969810833987e-02
-3.517703437949158685e-02 -1.299585592453610453e-02 -8.114179582276239699e-01 9.797642531764079177e-01 1.352489671078456468e-01 1.475456712138192295e-01
-4.193397038475717847e-02 7.821103604679467691e-02 -6.421699312172141072e-01 8.536757519723950915e-01 1.274513434242360854e-01 -5.049691728746648067e-01
-5.139057091252613799e-03 -6.959683133046966341e-02 -6.365950142180606397e-01 9.694249242479108242e-01 -1.028922200173125884e-01 -2.227745661130132449e-01
7.985509344594821091e-02 -1.677641296602632726e-01 -5.641891639702716343e-01 6.736332454134288383e-01 5.762159079231208431e-02 -7.368161256028091799e-01
-2.969591859804079567e-02 -2.150168101412310018e-02 -8.389152787981315473e-01 9.769545299903169555e-01 1.396153565109009842e-01 1.614540137554123789e-01
-2.611804869398128004e-02 1.859554281981248280e-01 -6.407066188219318059e-01 9.504515803569283383e-01 -2.990852079243202510e-01 8.479287586751302341e-02
-4.935178948631456508e-03 5.663946769436854073e-02 -8.815444436235690961e-01 9.556012698777404113e-01 -2.539779353806772000e-01 -1.494035519919726385e-01
-2.893622534051768988e-02 -3.433577743101973168e-02 -8.324140395103294399e-01 9.769545299903169555e-01 1.396153565109009842e-01 1.614540137554123789e-01
8.912675740457705331e-02 -2.137136702911252018e-01 -5.878420287044195947e-01 6.764914918804770805e-01 3.362471352511989253e-01 -6.552076964205232334e-01
-2.279618185591991003e-02 1.282274526609105125e-01 -7.191963524659291673e-01 9.912465502918799132e-01 -4.335037604717022208e-02 1.247037346313920186e-01
-2.583822089007566797e-02 1.391613093648206567e-01 -6.912148528858662599e-01 9.912465502918799132e-01 -4.335037604717022208e-02 1.247037346313920186e-01
6.216353851748188108e-02 3.307194447156224654e-02 -4.653229247274444647e-01 7.742674314525442858e-01 -1.371099298646127063e-01 -6.178274934999258283e-01
8.488405411828388314e-02 -1.215890623424986799e-01 -5.567852124570024097e-01 7.331623601389581912e-01 2.729605604491347481e-02 -6.795056136632467991e-01
-4.142213675521560362e-02 4.368407647853413123e-02 -6.622756803305575035e-01 9.756926910982876011e-01 -5.956617595490812378e-02 2.108924920889564958e-01
-2.776343872171937316e-02 2.349133691868234702e-02 -8.452622541211360918e-01 8.008830599481311374e-01 -3.392207457927292474e-02 5.978591950822171874e-01
-2.466219310244161314e-02 -7.506010437964651116e-02 -8.424072318638355927e-01 9.975054819028207342e-01 2.789431987444450367e-02 6.484381614744393063e-02
8.779110604875696097e-03 -1.705304188608735838e-01 -6.918965140451087681e-01 8.992757371721495918e-01 3.443845326643385496e-01 -2.696339040162645806e-01
8.236455313486264196e-02 -7.525256585053221280e-03 -4.608028915914158530e-01 4.257281051640981473e-01 5.345023723892835532e-01 -7.301114944880777724e-01
-2.344529546417693441e-02 2.007830686781867935e-01 -6.183650555071699140e-01 9.504515803569283383e-01 -2.990852079243202510e-01 8.479287586751302341e-02
-2.996798261269368463e-02 1.248317269432547109e-02 -9.657522080157867617e-01 9.033429968362195472e-01 -3.652912730640319426e-03 -4.289033530943074379e-01
-2.214757695403218526e-02 -9.623376561044477695e-02 -7.410149748207242038e-01 9.311322692681348601e-01 3.622588076540979030e-01 -4.196728969810833987e-02
-1.881762941848042284e-02 -4.771231688119074998e-02 -9.048756463992492227e-01 9.986651743339191034e-01 5.164475293849364601e-02 -8.301003102171028306e-04
-3.329958587349522714e-02 -3.316919458337810878e-02 -7.154819836941573863e-01 9.647549811105694539e-01 -6.781003232441815132e-02 2.542629071227376358e-01
-1.380253165603890532e-02 -8.363945850497651879e-02 -6.722147118855531511e-01 9.546210614596668531e-01 1.849731540165322208e-01 -2.334171401392691469e-01
9.562220039181663911e-02 -2.890106541882228250e-03 -4.492934015527555447e-01 4.408675497094837747e-01 5.346347503322356198e-01 -7.209725981965916519e-01
-1.620630510151897102e-02 1.046835227140919394e-01 -5.896553099374806095e-01 8.748194147677481602e-01 1.679496721921670821e-01 -4.544049946423984188e-01
-2.129888846453983214e-02 -1.032717249746729210e-01 -8.108118506745209952e-01 9.733361517169516475e-01 1.999250916401604794e-01 -1.124575186170699570e-01
-1.016171013536342795e-02 2.194594314656174161e-01 -5.669369588954956685e-01 7.392682737712246155e-01 -2.687530593953914027e-01 -6.174578629031546306e-01
-3.061229201187894503e-02 -6.606933597319883389e-02 -7.169633710718599229e-01 9.126717486464549500e-01 2.711582092415408263e-01 -3.057834279086147911e-01
-1.727416934932864481e-02 4.213381840608287909e-02 -9.199701742621682055e-01 9.093526303121467480e-01 -9.555226522190479743e-02 -4.049043817438174875e-01
6.310527825713140027e-02 -5.490601574579553196e-02 -5.222995894437253428e-01 4.603791958300410547e-01 6.713889952271822059e-01 -5.807648518417066752e-01
-3.007281851089457433e-02 6.004376507276626591e-03 -8.470862814190285306e-01 8.890645933625743735e-01 -1.710239887836739192e-01 4.246350716669098913e-01
-1.047532772919588379e-02 5.559473805048623096e-02 -9.078776324989413782e-01 9.093526303121467480e-01 -9.555226522190479743e-02 -4.049043817438174875e-01
-1.713688769170017279e-02 -2.991602934652369539e-02 -6.654082362208929569e-01 8.148604910493547626e-01 3.103469861911680727e-01 -4.895785210656849462e-01
8.435864639836872236e-02 -1.522941404991434884e-02 -4.652802199451188114e-01 4.257281051640981473e-01 5.345023723892835532e-01 -7.301114944880777724e-01
-2.764700891483019146e-02 1.724426763783729055e-01 -7.757807314230869000e-01 9.557758998817912355e-01 2.588378392436592734e-01 1.396259366336568275e-01
1.085400876719420232e-01 -1.837270317727324742e-01 -5.481031713973957276e-01 5.393148047711453508e-01 2.162017490277063914e-01 -8.138773525980570467e-01
-2.327309061834197806e-02 -8.496322579752074722e-02 -8.439146241032239315e-01 9.680370616178012311e-01 1.121019410672774025e-01 2.243599833823365086e-01
4.148900541229212646e-02 -3.565927268845122539e-02 -5.171850079326426597e-01 4.603791958300410547e-01 6.713889952271822059e-01 -5.807648518417066752e-01
-2.652008218116590904e-02 -7.411005638405089579e-02 -7.118795868882673572e-01 9.126717486464549500e-01 2.711582092415408263e-01 -3.057834279086147911e-01
9.304700305562511875e-03 -1.024006680455650936e-01 -6.188606291373475177e-01 8.285127083093380973e-01 4.205631173189855465e-01 -3.697206465980265588e-01
-1.931599721302603920e-02 -8.266060948683112697e-02 -8.621386441309978332e-01 9.680370616178012311e-01 1.121019410672774025e-01 2.243599833823365086e-01
6.432200898667214325e-03 1.967709662927482339e-01 -8.538425738673955934e-01 6.647314025946094995e-01 -4.678371413302092607e-01 5.824607897503325527e-01
-2.596320440231698889e-02 1.548801789222425673e-01 -7.547495448764255377e-01 9.557758998817912355e-01 2.588378392436592734e-01 1.396259366336568275e-01
3.644529310163976965e-02 -1.967775173692383819e-02 -5.178375030783091137e-01 9.284927621065136583e-01 1.546854728636256060e-01 -3.375997559252280067e-01
-1.997495636562101815e-02 -1.478114933672535457e-02 -6.605378543280097103e-01 8.148604910493547626e-01 3.103469861911680727e-01 -4.895785210656849462e-01
-2.756438362309571524e-02 8.060309822419930992e-02 -7.464966359550422315e-01 9.776181520233968580e-01 -7.729095723651838168e-02 -1.956753861982162834e-01
-2.531269218920990591e-02 7.945653306190353371e-02 -6.137564691667418693e-01 8.536757519723950915e-01 1.274513434242360854e-01 -5.049691728746648067e-01
-3.150085912323708631e-02 -5.171583601396900765e-02 -7.744799025850487295e-01 9.696477131941930727e-01 5.927624817963417225e-02 -2.372122229123500570e-01
-2.131870308580729664e-02 2.599434932230892167e-04 -9.292337086916873101e-01 9.986651743339191034e-01 5.164475293849364601e-02 -8.301003102171028306e-04
4.493701810472827685e-02 -2.586923830971417718e-02 -5.031340290735439869e-01 4.603791958300410547e-01 6.713889952271822059e-01 -5.807648518417066752e-01
-2.146388161451805512e-02 2.066868535544589824e-01 -6.197508228406500841e-01 9.504515803569283383e-01 -2.990852079243202510e-01 8.479287586751302341e-02
-2.194785230928438663e-02 4.392893221255514402e-02 -9.351456143513804387e-01 9.631022902422429199e-01 -1.024121003881564712e-01 -2.488890118591666756e-01
2.713362887810754492e-02 -5.153354695859445334e-02 -5.508070450907046611e-01 8.910657845387438547e-01 9.960644155480749551e-02 -4.428095803222212301e-01
7.637647511389510091e-02 -2.185526899676950019e-01 -6.034507399500600444e-01 5.239114302568210757e-01 5.693165819417145279e-01 -6.335577659317698229e-01
1.920244015549004910e-02 2.399430706350327291e-01 -8.310371247243119042e-01 4.854707110841012252e-01 -4.568210136939415689e-01 7.454077743940807910e-01
-2.926381876900724724e-02 -5.840843979875477016e-02 -7.375260974580654105e-01 9.647549811105694539e-01 -6.781003232441815132e-02 2.542629071227376358e-01
1.001424852631391943e-01 -5.351769222175398882e-02 -4.840720044807908518e-01 4.408675497094837747e-01 5.346347503322356198e-01 -7.209725981965916519e-01
-2.740582993806298454e-02 1.800734458974118102e-01 -6.396663602588394948e-01 9.910291932550499006e-01 -1.246172990974802192e-01 4.828733666184216455e-02
-3.234240396901316011e-02 3.707848758282430990e-02 -9.763996073317676716e-01 9.741498404884054718e-01 -2.014083026818459521e-01 -1.023073012410745664e-01
4.199608801769921101e-02 -1.940164025401362735e-02 -5.024447687898792037e-01 9.284927621065136583e-01 1.546854728636256060e-01 -3.375997559252280067e-01
-2.136630545238450349e-02 -9.502074772363999777e-02 -7.684047955246937622e-01 9.503756291176927995e-01 3.065459491934576230e-01 5.306359026895788450e-02
-1.749046488689651527e-02 1.967789181925511388e-01 -5.658396508888404730e-01 7.392682737712246155e-01 -2.687530593953914027e-01 -6.174578629031546306e-01
-1.567330733315572613e-02 1.996723209048253678e-01 -8.109183480457418103e-01 8.164230677532767766e-01 -5.426962405416586588e-01 1.973174217910791672e-01
-3.522590138281252864e-02 2.549467158404314024e-02 -7.670869441783683129e-01 9.741789146562409574e-01 7.379237336431777872e-02 -2.133778992127573215e-01
4.831543744589579525e-02 -3.369097129717842087e-02 -5.094981736325762123e-01 4.603791958300410547e-01 6.713889952271822059e-01 -5.807648518417066752e-01
-2.021456032261057315e-02 -4.613663272514456626e-02 -8.811696672608534397e-01 9.856402250701409296e-01 1.159262803373037470e-01 1.227780283716870396e-01
-1.836759435689145140e-02 2.135759787322994915e-02 -6.282652013746140574e-01 8.566353446043646347e-01 2.781658353980962506e-01 -4.345108219502027413e-01
-3.571578736043670710e-02 3.846944036217517932e-02 -7.705794273659686278e-01 9.776181520233968580e-01 -7.729095723651838168e-02 -1.956753861982162834e-01
2.868238137838734908e-02 -9.771079701894215541e-02 -5.886480601151906633e-01 4.173123510651437496e-01 6.344253353080437918e-01 -6.506572796547799298e-01
-2.944928417518978200e-02 1.675400999828483284e-01 -6.300727251658502226e-01 9.910291932550499006e-01 -1.246172990974802192e-01 4.828733666184216455e-02
-1.865367994511010763e-02 -9.037044106342465022e-02 -8.630605222989706782e-01 9.829809460596644621e-01 -2.425026417028480069e-02 1.820999296301850645e-01
-1.820823494480134849e-02 -5.950983316411806445e-02 -9.057174427654856030e-01 9.986651743339191034e-01 5.164475293849364601e-02 -8.301003102171028306e-04
-8.194363797507634231e-03 2.105882273216765077e-01 -8.118405202936148646e-01 8.164230677532767766e-01 -5.426962405416586588e-01 1.973174217910791672e-01
1.550511407715516113e-02 2.848106718530993980e-02 -5.534910116401422497e-01 9.283091740675994963e-01 1.442188815516424194e-01 -3.426995645546175862e-01
-3.188640192378759675e-02 1.134980282243015608e-02 -7.505083258629188236e-01 9.889983052562402177e-01 8.976075651033524339e-02 1.175812858875806971e-01
-1.669835525020400835e-02 -1.115085582404754111e-01 -7.519635492412571898e-01 9.311322692681348601e-01 3.622588076540979030e-01 -4.196728969810833987e-02
7.175660016038026834e-02 -9.047666823713194917e-02 -5.539678701075698708e-01 4.173123510651437496e-01 6.344253353080437918e-01 -6.506572796547799298e-01
-1.163867175150129843e-02 -1.138639990860086104e-01 -6.909645080725682620e-01 9.351201129322231909e-01 2.508483880223008056e-01 -2.502507954357774400e-01
-3.275168190602143620e-02 -5.742709064996705248e-02 -7.156851623323501332e-01 9.126717486464549500e-01 2.711582092415408263e-01 -3.057834279086147911e-01
-1.099781700570123290e-02 3.473488189374238089e-02 -6.051718406597279554e-01 8.566353446043646347e-01 2.781658353980962506e-01 -4.345108219502027413e-01
-3.928852389174102011e-02 8.920550932157536236e-03 -7.911611417049654316e-01 9.696477131941930727e-01 5.927624817963417225e-02 -2.372122229123500570e-01
-1.642422886573483704e-02 -6.632832834142490808e-02 -6.872131369150548119e-01 9.694249242479108242e-01 -1.028922200173125884e-01 -2.227745661130132449e-01
-3.902867866340449521e-02 4.208842695843240805e-02 -8.182584783310353771e-01 9.793057924087281707e-01 2.575478510155234171e-02 2.007407681540697986e-01
-2.872043283091626348e-02 -6.844600414475218199e-03 -6.700629029311250262e-01 8.148604910493547626e-01 3.103469861911680727e-01 -4.895785210656849462e-01
-3.519749177706375104e-02 2.865224620438088649e-02 -7.188978749113739131e-01 9.897226239987704233e-01 -1.369514830454926502e-01 4.115117053776717881e-02
1.110504180604884178e-02 -7.668245706831834652e-02 -5.940419634809552818e-01 7.667858089231455176e-01 3.938101155058363334e-01 -5.069054311795812007e-01
-1.145861009094513265e-02 -6.118264574883397477e-02 -6.679813907876043233e-01 9.694249242479108242e-01 -1.028922200173125884e-01 -2.227745661130132449e-01
-2.918092610318127889e-02 6.599891990937796493e-02 -9.917185949500070263e-01 9.999920189860024289e-01 -3.865483754530937149e-03 -1.009950316563943806e-03
7.987132035832524013e-02 -2.062085044238436415e-01 -5.894682124402174095e-01 5.239114302568210757e-01 5.693165819417145279e-01 -6.335577659317698229e-01
4.266454766714113112e-02 1.469563066858717119e-02 -4.900723429302587530e-01 8.065555056269368972e-01 -5.637459207956508830e-03 -5.911314874006922127e-01
-4.057936991382361802e-02 6.269254306116762987e-02 -8.054942787012315808e-01 9.785346992141273903e-01 -8.197011312671419192e-02 -1.890786687807766431e-01
2.883383540277859383e-02 -6.150898418627509523e-02 -5.554358384645730062e-01 7.667858089231455176e-01 3.938101155058363334e-01 -5.069054311795812007e-01
-1.660371418117641620e-02 -1.035421268045684240e-01 -6.994429058408786481e-01 9.546210614596668531e-01 1.849731540165322208e-01 -2.334171401392691469e-01
-2.370394108759789863e-03 -1.033564938391564603e-01 -6.461107956104629180e-01 8.285127083093380973e-01 4.205631173189855465e-01 -3.697206465980265588e-01
2.007268789562511105e-02 6.206446390101216966e-03 -5.510067687756384780e-01 9.284927621065136583e-01 1.546854728636256060e-01 -3.375997559252280067e-01
-3.210252605843710166e-02 7.992383885941148347e-02 -6.951569456117310253e-01 9.756926910982876011e-01 -5.956617595490812378e-02 2.108924920889564958e-01
6.794532300515897585e-04 5.856088118243103421e-03 -6.049294347125364624e-01 8.166877529193420360e-01 3.773111329138203462e-01 -4.366433592886136972e-01
-8.422408090577943734e-03 2.156289477553731682e-01 -5.631872859616670057e-01 7.392682737712246155e-01 -2.687530593953914027e-01 -6.174578629031546306e-01
-3.291193205168264913e-02 1.352077848871779120e-01 -6.363616038303674394e-01 9.912465502918799132e-01 -4.335037604717022208e-02 1.247037346313920186e-01
-1.049286969394838155e-02 -8.691353588609340708e-02 -6.612735419521011959e-01 9.546210614596668531e-01 1.849731540165322208e-01 -2.334171401392691469e-01
2.166255538242683673e-02 -6.863442145527271637e-03 -5.517683075188531960e-01 8.910657845387438547e-01 9.960644155480749551e-02 -4.428095803222212301e-01
-7.787375566061459017e-03 -7.707232583506809509e-02 -6.446667422563877592e-01 9.694249242479108242e-01 -1.028922200173125884e-01 -2.227745661130132449e-01
1.047720750914468354e-02 1.596230827375364316e-03 -5.723736495483937592e-01 8.910657845387438547e-01 9.960644155480749551e-02 -4.428095803222212301e-01
-2.087318870067616031e-02 -8.259739258857012531e-03 -9.233033528188927530e-01 9.986651743339191034e-01 5.164475293849364601e-02 -8.301003102171028306e-04
-2.797194026199603667e-02 1.917977841959076502e-01 -5.977902210912321435e-01 9.910291932550499006e-01 -1.246172990974802192e-01 4.828733666184216455e-02
-2.854305465739614966e-02 1.820186068731176054e-01 -6.113064692828097391e-01 9.910291932550499006e-01 -1.246172990974802192e-01 4.828733666184216455e-02
-2.479456711598362895e-02 5.875147858804576073e-02 -9.539392241701686315e-01 9.673990324524245343e-01 -1.918885362984471266e-01 -1.652812803899827709e-01
2.309419631847505275e-02 -9.536955144157456543e-02 -5.904240366750673763e-01 7.667858089231455176e-01 3.938101155058363334e-01 -5.069054311795812007e-01
-4.162656412997237793e-02 3.245493795028048245e-02 -7.978050769331140879e-01 9.785346992141273903e-01 -8.197011312671419192e-02 -1.890786687807766431e-01
-3.185708215642781005e-02 -6.947036787325566731e-02 -7.281170378416341737e-01 9.503756291176927995e-01 3.065459491934576230e-01 5.306359026895788450e-02
-6.503947515805594791e-03 2.196226066799336074e-01 -8.018983612624454027e-01 8.516269385802881509e-01 -3.989576894133272100e-01 3.399475246892451619e-01
-1.062015494862611487e-02 -1.274519283456163055e-01 -7.418848386865550815e-01 9.529802710078358885e-01 3.024442706043372064e-01 -1.886971776265155068e-02
1.626272383780633796e-02 -8.509819519498039442e-02 -5.927781486828556101e-01 7.667858089231455176e-01 3.938101155058363334e-01 -5.069054311795812007e-01
-1.983218204244407284e-02 -6.853103648407370130e-02 -8.669713531470777390e-01 9.680370616178012311e-01 1.121019410672774025e-01 2.243599833823365086e-01
-2.560900787823798541e-02 1.369850753930232368e-01 -6.937933415675457960e-01 9.912465502918799132e-01 -4.335037604717022208e-02 1.247037346313920186e-01
8.853321781405187885e-02 -1.225512453744882352e-01 -5.528865461141679871e-01 7.331623601389581912e-01 2.729605604491347481e-02 -6.795056136632467991e-01
-2.227878148170316097e-02 -9.806813211471557268e-02 -8.100421068456559182e-01 9.733361517169516475e-01 1.999250916401604794e-01 -1.124575186170699570e-01
-2.563745311042676250e-02 1.567753966340725280e-01 -6.866875872066805497e-01 9.912465502918799132e-01 -4.335037604717022208e-02 1.247037346313920186e-01
8.836385834594290278e-02 3.091563959515591237e-02 -4.234883402442582434e-01 4.706530600389335350e-01 6.246046258448686439e-01 -6.231811602168184638e-01
-1.499667140414329136e-03 -4.341975471391149727e-02 -6.328481870316230440e-01 9.694249242479108242e-01 -1.028922200173125884e-01 -2.227745661130132449e-01
-3.680973879675307481e-02 2.973362287860175160e-02 -6.875551869525577953e-01 9.756926910982876011e-01 -5.956617595490812378e-02 2.108924920889564958e-01
-3.940367357790979658e-02 8.764067522924505471e-02 -8.102253335656176558e-01 9.785346992141273903e-01 -8.197011312671419192e-02 -1.890786687807766431e-01
-9.828750521876309775e-04 -4.884974235416884858e-02 -6.280913845274443963e-01 9.694249242479108242e-01 -1.028922200173125884e-01 -2.227745661130132449e-01
-2.885446758223345759e-02 1.159546749049184117e-01 -6.862949849237982569e-01 9.728451068192311979e-01 -1.982331925311149323e-01 1.194822142278955807e-01
-2.920996299973356233e-02 1.544187631941593419e-01 -6.591096067396247093e-01 9.912465502918799132e-01 -4.335037604717022208e-02 1.247037346313920186e-01
-1.729222588756142501e-02 -8.704362041954422091e-02 -8.713713877855655543e-01 9.894867004679346323e-01 -1.446231844909576514e-01 -4.517795635020689258e-04
-2.460186852911479607e-02 1.896782660959379224e-02 -8.533197914434618170e-01 8.890645933625743735e-01 -1.710239887836739192e-01 4.246350716669098913e-01
-4.032557287570052822e-03 -4.421576557736818514e-02 -6.435026506696837068e-01 9.694249242479108242e-01 -1.028922200173125884e-01 -2.227745661130132449e-01
-8.898638586474430165e-03 2.284592299074522104e-01 -5.702264655584849962e-01 8.618103338911656808e-01 -4.900973877773090459e-01 -1.307191603868972374e-01
-2.673045835353290533e-04 -6.782956453594990442e-02 -6.159052852112983922e-01 9.909192088689411371e-01 -5.133798859963083910e-02 -1.242720098054896499e-01
-2.671830833242055600e-02 -5.555730567026596206e-02 -7.558902975693806425e-01 9.696477131941930727e-01 5.927624817963417225e-02 -2.372122229123500570e-01
-1.916162317469446638e-02 3.358897241384357218e-02 -8.588213691596386923e-01 8.890645933625743735e-01 -1.710239887836739192e-01 4.246350716669098913e-01
-1.968814316705289058e-02 -1.017700116971997359e-01 -7.594707035975256648e-01 9.503756291176927995e-01 3.065459491934576230e-01 5.306359026895788450e-02
5.598847071428764838e-02 -1.794969425531234286e-01 -6.004439033060332553e-01 6.805569838948993810e-01 5.907815155659043027e-01 -4.333813477037637973e-01
-3.510053477361085861e-02 4.665146242481126720e-02 -7.707374146376013702e-01 9.776181520233968580e-01 -7.729095723651838168e-02 -1.956753861982162834e-01
-3.229954137024283745e-02 -4.256080361201018680e-02 -7.998973412031722408e-01 9.872760858964958475e-01 1.441829735517609623e-01 6.706116875410958467e-02
7.189632562395388560e-02 -6.302459252667326484e-02 -5.247162435953943715e-01 4.603791958300410547e-01 6.713889952271822059e-01 -5.807648518417066752e-01
-1.885135162164437370e-02 -8.888007615135651296e-02 -8.617950125598694555e-01 9.829809460596644621e-01 -2.425026417028480069e-02 1.820999296301850645e-01
-2.461931325800707435e-02 -8.909768601677295341e-02 -8.143522404845198182e-01 9.733361517169516475e-01 1.999250916401604794e-01 -1.124575186170699570e-01
6.454112584004131903e-02 -1.874383951787890745e-01 -5.960812104615146323e-01 7.911962963329818299e-01 4.082821002420118361e-01 -4.553176334065531794e-01
-2.966102752233202439e-02 6.180931124144609795e-02 -7.417077898503686706e-01 9.897226239987704233e-01 -1.369514830454926502e-01 4.115117053776717881e-02
-3.245813913973871756e-02 -3.664188810289450982e-02 -8.077972144952895173e-01 9.797642531764079177e-01 1.352489671078456468e-01 1.475456712138192295e-01
-2.642868553242259597e-02 1.631443056300412309e-01 -8.274294385301459442e-01 9.481236265271456576e-01 -2.741864486278012825e-01 -1.608831259327342111e-01
-1.758303936546071547e-02 -6.647243377290948385e-02 -6.893241573813854162e-01 8.148604910493547626e-01 3.103469861911680727e-01 -4.895785210656849462e-01
7.396251843353776091e-03 -1.846226369818192159e-01 -7.114973221410856308e-01 9.011272787406692242e-01 3.048777598937643663e-01 -3.082518110759392416e-01
-6.827213318444773534e-03 5.097543538554947379e-02 -8.840175522598514579e-01 9.556012698777404113e-01 -2.539779353806772000e-01 -1.494035519919726385e-01
-3.359165489423860534e-02 4.919144269487731036e-03 -7.312560013344621135e-01 9.889983052562402177e-01 8.976075651033524339e-02 1.175812858875806971e-01
2.808020794019406435e-02 -1.394471671829075055e-01 -6.131470420270768162e-01 6.084176633704666548e-01 2.504538039382038783e-01 -7.530609795970742981e-01
1.047060124180159216e-02 -6.872532481999045484e-02 -5.888198471142410684e-01 7.667858089231455176e-01 3.938101155058363334e-01 -5.069054311795812007e-01
-3.694804188556762709e-02 1.106461245031744728e-01 -8.280136036437678593e-01 8.008830599481311374e-01 -3.392207457927292474e-02 5.978591950822171874e-01
-1.908148421320748911e-02 2.397981786313244795e-02 -9.165061079941356770e-01 9.556012698777404113e-01 -2.539779353806772000e-01 -1.494035519919726385e-01
1.442295966037102214e-03 8.994815433882240308e-02 -8.892194602229771538e-01 9.093526303121467480e-01 -9.555226522190479743e-02 -4.049043817438174875e-01
2.938934050777848583e-02 -4.562103227082478507e-02 -5.449379037776734824e-01 8.910657845387438547e-01 9.960644155480749551e-02 -4.428095803222212301e-01
-3.873938123296458841e-02 1.549868016095440164e-02 -6.721788220414480763e-01 8.566353446043646347e-01 2.781658353980962506e-01 -4.345108219502027413e-01
4.873620071972155181e-03 -1.746999335120137387e-01 -7.090577604725599725e-01 9.011272787406692242e-01 3.048777598937643663e-01 -3.082518110759392416e-01
-1.956842833410323348e-02 -3.348138070750854289e-02 -9.227572770939223012e-01 9.986651743339191034e-01 5.164475293849364601e-02 -8.301003102171028306e-04
5.984687414487200458e-02 -5.407736639315237348e-02 -5.239246110090486352e-01 4.603791958300410547e-01 6.713889952271822059e-01 -5.807648518417066752e-01
-1.738666083638764834e-02 7.682503182275425557e-02 -9.315634676251262070e-01 9.673990324524245343e-01 -1.918885362984471266e-01 -1.652812803899827709e-01
-2.258753866663602838e-02 1.449970575106353243e-01 -8.397348016695136419e-01 7.782469581231237221e-01 -1.223717273724226479e-01 6.159195016493588248e-01
-3.317537100619780827e-02 -9.866414143778567611e-03 -8.275784593721263738e-01 9.797642531764079177e-01 1.352489671078456468e-01 1.475456712138192295e-01
-2.611920445313538688e-02 -6.658893041404563562e-02 -8.236378372551704796e-01 9.975054819028207342e-01 2.789431987444450367e-02 6.484381614744393063e-02
-2.011926269998423264e-02 2.035269721670360799e-01 -7.866792710868950600e-01 8.516269385802881509e-01 -3.989576894133272100e-01 3.399475246892451619e-01
8.901656148244736777e-02 -8.636952274855398681e-02 -5.381325665764672417e-01 4.603791958300410547e-01 6.713889952271822059e-01 -5.807648518417066752e-01
8.155527000365463131e-02 -1.199615480967176628e-01 -5.603114739765950869e-01 7.331623601389581912e-01 2.729605604491347481e-02 -6.795056136632467991e-01
-3.237772270934655833e-02 -6.666955354365686204e-02 -7.349724766144980492e-01 9.503756291176927995e-01 3.065459491934576230e-01 5.306359026895788450e-02
9.708861394241320719e-02 -7.290173602320126900e-02 -5.104948691344503020e-01 5.712719569384789864e-01 6.639472537664502516e-01 -4.825167307272044681e-01
-3.395546691431935993e-02 1.175475364946908102e-01 -6.421190352862965467e-01 9.728451068192311979e-01 -1.982331925311149323e-01 1.194822142278955807e-01
-3.503729764266981517e-02 -3.362621891328458623e-03 -6.783695214749791980e-01 8.148604910493547626e-01 3.103469861911680727e-01 -4.895785210656849462e-01
7.547195907243246793e-02 -2.074326571793584095e-01 -5.950157224344196916e-01 7.911962963329818299e-01 4.082821002420118361e-01 -4.553176334065531794e-01
2.146542519767562912e-02 1.074664211826982345e-02 -5.450960748472435391e-01 9.284927621065136583e-01 1.546854728636256060e-01 -3.375997559252280067e-01
-2.293500803415294761e-02 1.472819582064633370e-01 -7.798068004061809999e-01 9.481236265271456576e-01 -2.741864486278012825e-01 -1.608831259327342111e-01
-3.960363801662877825e-02 5.539472440610693910e-02 -7.972808162875029137e-01 9.785346992141273903e-01 -8.197011312671419192e-02 -1.890786687807766431e-01
3.023009848952377954e-02 -9.620010956998606422e-02 -5.861823997622734872e-01 4.173123510651437496e-01 6.344253353080437918e-01 -6.506572796547799298e-01
-2.343910974151726390e-02 1.409985977304216258e-02 -9.367220563570440861e-01 9.857736789766281538e-01 1.009511576788942461e-01 -1.343842163357530928e-01
-3.407121218732514500e-02 3.487824449975329005e-02 -7.252657300051168487e-01 9.897226239987704233e-01 -1.369514830454926502e-01 4.115117053776717881e-02
-2.654571344119672355e-02 1.879396373327452407e-01 -6.289140923128710980e-01 9.504515803569283383e-01 -2.990852079243202510e-01 8.479287586751302341e-02
-2.169906414781067397e-02 -1.148173499526873309e-01 -8.498770430365145678e-01 9.829809460596644621e-01 -2.425026417028480069e-02 1.820999296301850645e-01
-3.078498333579581664e-02 4.632206596506777130e-02 -6.367642121666127197e-01 8.566353446043646347e-01 2.781658353980962506e-01 -4.345108219502027413e-01
5.130686198641979355e-03 5.462003671680462115e-03 -5.969444856055060589e-01 8.166877529193420360e-01 3.773111329138203462e-01 -4.366433592886136972e-01
5.350600906779012615e-03 -1.506429190863627365e-01 -6.746855377804654719e-01 8.792144774102971239e-01 3.931606739244452586e-01 -2.690847212151110668e-01
-3.091962226007226311e-02 -2.272443328184085235e-03 -7.482409610449037851e-01 9.889983052562402177e-01 8.976075651033524339e-02 1.175812858875806971e-01
-3.423047174276221127e-02 1.216374461580509436e-01 -8.296644576691167838e-01 7.782469581231237221e-01 -1.223717273724226479e-01 6.159195016493588248e-01
1.047892875063180691e-02 -4.303728040156450801e-02 -5.824101340458185394e-01 8.910657845387438547e-01 9.960644155480749551e-02 -4.428095803222212301e-01
-3.746739245156294890e-02 1.214068476138835395e-01 -8.213518182316354999e-01 9.481236265271456576e-01 -2.741864486278012825e-01 -1.608831259327342111e-01
-1.423564865865688603e-02 -6.664551605433624570e-02 -6.775428213714581593e-01 9.694249242479108242e-01 -1.028922200173125884e-01 -2.227745661130132449e-01
-3.795477811551189323e-02 8.376748850614294806e-02 -8.010477777337869920e-01 9.785346992141273903e-01 -8.197011312671419192e-02 -1.890786687807766431e-01
2.280941579905646378e-03 -1.064056094244984207e-01 -6.391559630992279528e-01 8.285127083093380973e-01 4.205631173189855465e-01 -3.697206465980265588e-01
-3.067899098096171090e-02 1.830612865730650296e-01 -7.747107492068923129e-01 9.557758998817912355e-01 2.588378392436592734e-01 1.396259366336568275e-01
-3.381068254641889786e-02 -3.084621187996870392e-02 -8.028369130579564583e-01 9.872760858964958475e-01 1.441829735517609623e-01 6.706116875410958467e-02
