5.651096542667646133e-02 -1.012175725619849920e-01 -7.644930169647027318e-01 -5.726125872034328879e-01 5.942261545028767467e-01 -5.648097930108102460e-01
-1.544186758342931398e-01 -5.319763362663577216e-02 -6.103375991651026622e-01 1.258208777379608290e-01 6.712785800382633505e-01 -7.304479274438817615e-01
6.990201277711681482e-02 -8.957375246339317754e-02 -7.712228492708677052e-01 -7.654505515118786851e-01 3.166070185303814233e-01 -5.602191080349399055e-01
-1.093520721697465448e-01 -6.198913423331012251e-02 -6.126393349527938792e-01 -2.905146236972623308e-01 5.429697708043447202e-01 -7.878991568790485456e-01
-1.549898182971886917e-01 -1.131077574110802841e-01 -6.395094195077930532e-01 -4.326643570918288217e-01 1.302359046800962150e-01 -8.920987407425655658e-01
-4.907391877235069144e-02 -1.766878349287561711e-01 -7.223404304138766330e-01 -6.055737023309194500e-01 3.679706453225061180e-01 -7.056047726781341511e-01
-1.603778433815333526e-01 7.843893267385487755e-02 -5.398211641888065460e-01 5.972225837287167133e-02 2.876626549441612113e-01 -9.558679034287741461e-01
1.031971139338631188e-01 5.055468066538633398e-02 -7.350202525307781842e-01 -7.870784874306104850e-01 1.642160497958302101e-01 -5.945927544238963636e-01
6.834650000499184475e-02 1.106216060336036727e-01 -6.685767200772054775e-01 -8.185788991531662839e-01 1.967437014938683837e-01 -5.396484983613705211e-01
1.157933773212049128e-01 3.568797000702248617e-02 -8.264314963458773144e-01 -9.694677569304728237e-01 -3.916410992943192282e-02 -2.420711481478801386e-01
-2.116923288516044457e-02 3.635224263697089259e-02 -6.181775409691651069e-01 -2.439237010205050071e-01 4.898886119475686085e-01 -8.369649789355251279e-01
-1.019088222029055080e-01 -9.281386036909158865e-02 -6.376998351430972489e-01 1.258208777379608290e-01 6.712785800382633505e-01 -7.304479274438817615e-01
-2.423439192891532201e-01 -1.465177033935043116e-01 -5.917813184831626216e-01 -4.448305187147970075e-01 4.083930324232726838e-01 -7.970827690322056513e-01
9.675270978030783842e-02 4.935115954671321498e-02 -7.268220120487856040e-01 -7.870784874306104850e-01 1.642160497958302101e-01 -5.945927544238963636e-01
-1.997553955579681462e-01 -8.161748664335492787e-04 -5.741853333438249329e-01 7.858835514681425383e-02 6.321081025446887436e-01 -7.708846976900446402e-01
-1.894121405794292889e-01 8.260087931192668098e-02 -5.403827032648216289e-01 5.972225837287167133e-02 2.876626549441612113e-01 -9.558679034287741461e-01
-1.631855661861845441e-01 -7.323950013666519210e-02 -6.270275039499499936e-01 1.040579526777523842e-02 5.090877905942616799e-01 -8.606516954568196320e-01
-7.706565080248387219e-03 8.914160116882329302e-03 -6.364929225193451945e-01 -3.494804825377422208e-01 3.397424182298923734e-01 -8.731772337735859146e-01
-2.748186604137668396e-02 6.628631202876410222e-02 -6.009137289866377518e-01 -2.540332679433848773e-01 3.390590360346962817e-01 -9.058179004972396475e-01
1.476625384059449819e-01 1.408557306625032590e-01 -7.897010244361263309e-01 -9.933600477631731041e-01 9.200550647406922911e-02 6.907099453748136164e-02
1.416079177052328997e-01 3.325186889867665085e-02 -8.896147432149386081e-01 -9.714139568819272208e-01 -1.278934230230561186e-01 -1.999954917552967393e-01
3.020396168046358271e-02 1.846353934390937701e-01 -5.835769279879021720e-01 -8.188484958243326117e-01 1.978602554362868249e-01 -5.388306414866507188e-01
3.073633704914375056e-02 1.990265294937167972e-01 -5.841233269170751363e-01 -8.703759715272687547e-01 3.467110417077659545e-03 -4.923755145550184342e-01
9.966181331020830536e-02 -1.957615397380149669e-02 -7.650207731839887559e-01 -8.412832085088211009e-01 4.004098222379450789e-01 -3.632004093286250734e-01
4.705838730142881260e-02 7.070754854514575694e-02 -6.471736293554880559e-01 -8.427367236323782818e-01 2.760355658765779041e-01 -4.621679143044898352e-01
8.670407340871014168e-02 -7.184566285020108078e-02 -7.841611958505509961e-01 -7.654505515118786851e-01 3.166070185303814233e-01 -5.602191080349399055e-01
-6.910133502038806608e-02 -1.944835661146947781e-01 -7.223319328212077783e-01 -3.786167305772098479e-01 3.090793445805192219e-01 -8.724215323343991191e-01
-5.297752401372845393e-02 -1.426510402461227678e-01 -7.002638117765319636e-01 -4.059498679655367814e-01 4.690379777678111428e-01 -7.843520128808528780e-01
8.756164693766936569e-02 -2.308092731389283295e-02 -7.448576352591314009e-01 -7.216038193183315075e-01 4.022062227195526418e-01 -5.634874287425287731e-01
1.451625970450538539e-01 -6.254506305553971836e-03 -8.955782960058854547e-01 -9.766406136182508302e-01 2.148792116714187961e-01 -1.903229788462701638e-04
1.029362901017246423e-01 8.566406778369214936e-02 -7.249783984278108662e-01 -7.870784874306104850e-01 1.642160497958302101e-01 -5.945927544238963636e-01
3.801407837323290267e-02 -1.396431363976379514e-01 -7.803072374801075517e-01 -6.103552754219579990e-01 4.262960913368116778e-01 -6.676361885604634727e-01
1.474291500169617186e-01 1.506086797784584874e-01 -8.060488956636698843e-01 -9.933600477631731041e-01 9.200550647406922911e-02 6.907099453748136164e-02
-1.832541930520242834e-01 -5.832082210208523049e-03 -5.766160383718812454e-01 7.858835514681425383e-02 6.321081025446887436e-01 -7.708846976900446402e-01
1.823552769658497857e-02 1.366978490271251734e-01 -5.862371495136717847e-01 -3.498294152479801689e-01 3.529854687931210377e-01 -8.677676181145255185e-01
-2.280961467248046048e-01 -1.384316054456019573e-01 -5.974969619959661360e-01 -5.016037162717458253e-01 1.506180520939892076e-01 -8.518849184049370749e-01
7.341124914107681476e-02 1.281415832614679062e-01 -6.698719179782974820e-01 -8.185788991531662839e-01 1.967437014938683837e-01 -5.396484983613705211e-01
4.298793297387131646e-02 7.032276215980864942e-02 -6.399812074819676289e-01 -8.427367236323782818e-01 2.760355658765779041e-01 -4.621679143044898352e-01
-1.988730797833316299e-01 -1.418486889838545262e-01 -6.174556277761354961e-01 -5.796810433122659978e-01 1.753052597080406172e-01 -7.957624984523329337e-01
1.029497187619247273e-01 1.325938562256750441e-01 -7.055645717113785409e-01 -7.446654099049615505e-01 2.708096908218911580e-01 -6.100291293438595552e-01
9.965871817234042696e-02 3.327059758555839242e-02 -7.351099419247463240e-01 -7.870784874306104850e-01 1.642160497958302101e-01 -5.945927544238963636e-01
-1.403990852126961453e-01 -1.749690985230658580e-01 -6.769020601764329514e-01 -4.681919250661104037e-01 4.455514822302295563e-01 -7.630728654495161356e-01
-1.937136157947801085e-01 -3.490446343531611317e-02 -6.015210295065170909e-01 7.858835514681425383e-02 6.321081025446887436e-01 -7.708846976900446402e-01
1.139886755519957245e-01 -4.189313853770111618e-02 -8.066522071730449772e-01 -9.694677569304728237e-01 -3.916410992943192282e-02 -2.420711481478801386e-01
-1.495266867713009873e-01 3.788987538575271791e-02 -5.571715308577214198e-01 -4.290412217390696115e-01 6.538734225646188891e-01 -6.231959381384623020e-01
6.455300054763721262e-02 6.113281418124939803e-02 -6.864138717611965035e-01 -8.696337532431881456e-01 3.254387618805159588e-01 -3.712502491390987647e-01
-1.719222993155385681e-01 1.338572474571135713e-02 -5.586522879610688053e-01 1.884404099928387033e-01 6.130708315784312301e-01 -7.672251086542083431e-01
-1.784129456594427676e-01 -7.755090370927823773e-02 -6.229584137991520665e-01 -4.326643570918288217e-01 1.302359046800962150e-01 -8.920987407425655658e-01
-1.645177119097309126e-01 -8.368018074932076500e-02 -6.305923493785655642e-01 -4.326643570918288217e-01 1.302359046800962150e-01 -8.920987407425655658e-01
-5.883102823865517250e-02 2.429121971450911785e-02 -6.100478429021715110e-01 -3.494804825377422208e-01 3.397424182298923734e-01 -8.731772337735859146e-01
1.945571506820195293e-02 -5.909897634729616156e-02 -6.873447127324100459e-01 -2.015153934309042161e-01 5.062511187339898688e-01 -8.385113898993689086e-01
-1.062518951734631040e-01 -1.173742706336568797e-01 -6.541773404754938070e-01 -3.696444175795850495e-01 5.951575401543267585e-01 -7.135478308773003375e-01
-1.451814647202727404e-01 -8.948651597875764696e-03 -5.699312473505042664e-01 1.884404099928387033e-01 6.130708315784312301e-01 -7.672251086542083431e-01
2.385656761875813020e-02 1.001913824775066825e-01 -6.030439560426031909e-01 -8.311638891735829704e-01 1.297774478991521319e-01 -5.406703277882249914e-01
7.984343778656081969e-03 1.397263862012383118e-01 -5.808725850927441980e-01 -3.498294152479801689e-01 3.529854687931210377e-01 -8.677676181145255185e-01
-1.417650347909496511e-01 2.707427688184263839e-02 -5.631365969104867863e-01 -4.295475615951322990e-01 1.064709876141006484e-01 -8.967456836384296581e-01
7.191086682965032451e-02 -9.469130881692587598e-02 -7.793909715329110366e-01 -7.731998000024922213e-01 4.640911426718508093e-01 -4.321822307425907672e-01
1.288019922323904998e-01 8.799337951869755370e-02 -8.006386757850630920e-01 -9.512944553933941894e-01 2.900511894673964974e-01 1.044469560414961334e-01
1.052743126458205308e-01 -2.781125976162911965e-03 -7.623589875736762611e-01 -9.095612427678860801e-01 2.732246915034379775e-01 -3.131239588523846984e-01
1.381884959929285672e-01 1.339420862665246514e-01 -7.480146373005337468e-01 -7.452974755042243160e-01 2.810838332488928559e-01 -6.045854378771777782e-01
-2.195121349829524671e-01 -2.815803635326543514e-03 -5.778390979208264389e-01 7.858835514681425383e-02 6.321081025446887436e-01 -7.708846976900446402e-01
-1.595405950857032296e-01 -9.285177613680996311e-02 -6.343451761908773801e-01 -4.326643570918288217e-01 1.302359046800962150e-01 -8.920987407425655658e-01
-4.607078032373858323e-02 -4.436397097548433477e-02 -6.427640395402153262e-01 -6.332958823079634092e-01 3.208565323626887400e-01 -7.042637368855287905e-01
-3.458468781183527546e-02 -4.616000677880910397e-02 -6.539109501367590394e-01 -6.332958823079634092e-01 3.208565323626887400e-01 -7.042637368855287905e-01
1.205238403236849609e-01 5.917541619127276303e-02 -7.555752128354511488e-01 -7.870784874306104850e-01 1.642160497958302101e-01 -5.945927544238963636e-01
-1.630569914126621112e-01 -1.794865669808695385e-01 -6.656377571935675475e-01 -4.681919250661104037e-01 4.455514822302295563e-01 -7.630728654495161356e-01
1.310345589620000861e-01 1.339107540252387485e-01 -7.392632581591415120e-01 -7.446654099049615505e-01 2.708096908218911580e-01 -6.100291293438595552e-01
-1.823059404783272663e-01 -1.721743578125773527e-02 -5.856568820983411028e-01 1.884404099928387033e-01 6.130708315784312301e-01 -7.672251086542083431e-01
-1.980048485910076636e-02 -1.584005515721279289e-01 -7.379271139550168668e-01 -6.055737023309194500e-01 3.679706453225061180e-01 -7.056047726781341511e-01
6.173199956432064844e-02 -8.834635647490877985e-02 -7.583652827283110520e-01 -7.216038193183315075e-01 4.022062227195526418e-01 -5.634874287425287731e-01
8.146122740490116532e-02 1.093253454754536530e-01 -6.889426995089927841e-01 -8.185788991531662839e-01 1.967437014938683837e-01 -5.396484983613705211e-01
5.559997368809507096e-02 1.409690122612427821e-01 -6.381778612602376777e-01 -8.185788991531662839e-01 1.967437014938683837e-01 -5.396484983613705211e-01
5.493524554203738954e-03 4.506436962263927343e-02 -6.208487479302320367e-01 -2.439237010205050071e-01 4.898886119475686085e-01 -8.369649789355251279e-01
-8.149234322000609154e-02 -1.712877086567476115e-01 -7.077345704117603553e-01 -2.850426042026447671e-01 4.992485705702078835e-01 -8.182307611994177332e-01
1.185510914484270290e-01 6.686730650577343837e-02 -8.361169698641341963e-01 -9.707742176057373440e-01 2.046678807096708186e-01 1.253334633598728598e-01
1.527367128108265137e-01 2.083059127624866946e-01 -7.651602922864997325e-01 -6.013993207029262322e-01 9.837802559486882870e-02 -7.928686026941125231e-01
-5.305522372427549233e-02 1.372732785360368003e-02 -6.164698302130846574e-01 -3.494804825377422208e-01 3.397424182298923734e-01 -8.731772337735859146e-01
1.485292953022218643e-01 9.027777448208838817e-03 -9.176942077369011352e-01 -9.766406136182508302e-01 2.148792116714187961e-01 -1.903229788462701638e-04
6.491060276002441620e-02 -1.029571321602957001e-01 -7.757431876447526964e-01 -7.731998000024922213e-01 4.640911426718508093e-01 -4.321822307425907672e-01
8.202805777230973150e-02 2.943318459636191584e-02 -7.220023478278370099e-01 -5.166843262754894361e-01 2.973397148363399745e-01 -8.028862939185644754e-01
-1.374112850602718372e-01 -6.269259375649751005e-03 -5.691809659165329993e-01 -4.295475615951322990e-01 1.064709876141006484e-01 -8.967456836384296581e-01
-8.440643982957631020e-02 -1.746425285132368055e-01 -7.086605329306778778e-01 -3.786167305772098479e-01 3.090793445805192219e-01 -8.724215323343991191e-01
1.330284820087247397e-02 -9.941386569007001905e-02 -7.166655121142709861e-01 -5.151116226346558191e-01 6.311741263981990313e-01 -5.798958858210346845e-01
1.531075338053893842e-01 1.847336869047147556e-01 -7.698399045530734952e-01 -9.933600477631731041e-01 9.200550647406922911e-02 6.907099453748136164e-02
-1.382079049022405526e-01 -1.024735343835167789e-01 -6.440178585294951130e-01 1.040579526777523842e-02 5.090877905942616799e-01 -8.606516954568196320e-01
-1.083138125112782096e-01 -5.034772643235515405e-02 -6.049996479966768259e-01 -2.905146236972623308e-01 5.429697708043447202e-01 -7.878991568790485456e-01
1.130847814155938463e-01 8.692587394691320135e-02 -7.380637418185644893e-01 -7.870784874306104850e-01 1.642160497958302101e-01 -5.945927544238963636e-01
-2.196503236318881336e-01 6.597680060579043382e-02 -5.539547198354485280e-01 6.261933213861521352e-01 2.132975808876060031e-01 -7.499240403126667953e-01
1.158586885577444492e-01 -4.601414599398048755e-02 -8.134746713027533049e-01 -9.694677569304728237e-01 -3.916410992943192282e-02 -2.420711481478801386e-01
-1.699655099855059553e-02 7.100154690321147655e-02 -6.020893249358379995e-01 -2.540332679433848773e-01 3.390590360346962817e-01 -9.058179004972396475e-01
-2.550549015057255661e-02 -2.282735866538440281e-02 -6.423586581274018936e-01 -3.877219824299371065e-01 5.395961591851542449e-01 -7.473336934283302257e-01
-1.550101052334624530e-01 4.765345301382425264e-02 -5.438843872135751267e-01 2.613547986913097171e-02 8.884474849302734234e-02 -9.957025395956470293e-01
1.244446676045376232e-01 1.288358981258602709e-01 -7.334718232556024509e-01 -7.446654099049615505e-01 2.708096908218911580e-01 -6.100291293438595552e-01
-1.190276920897209538e-02 -1.258572307873921381e-01 -7.224653972913063216e-01 -5.455818541125493359e-01 6.045467169585412304e-01 -5.803996101633448479e-01
-8.522417555631189856e-02 4.038184379627281217e-02 -5.886400577465842332e-01 -4.295475615951322990e-01 1.064709876141006484e-01 -8.967456836384296581e-01
3.391641507634065439e-02 -5.762924135979757140e-02 -7.035812273148872587e-01 -7.638902282358678297e-01 3.728560794246219556e-01 -5.267352876368298631e-01
-1.366295419161658309e-01 5.734002617490702169e-02 -5.456430059739262317e-01 -4.290412217390696115e-01 6.538734225646188891e-01 -6.231959381384623020e-01
-3.727209326404457013e-02 -7.162267610955780350e-02 -6.630949257419618270e-01 -6.332958823079634092e-01 3.208565323626887400e-01 -7.042637368855287905e-01
1.203100483891553635e-01 2.939734580153241170e-02 -8.371997884126876066e-01 -8.706229331020280959e-01 -9.409621240309958001e-02 -4.828681094959705322e-01
-1.648390451029447534e-01 -1.266436606878002247e-01 -6.367086658907905594e-01 -4.326643570918288217e-01 1.302359046800962150e-01 -8.920987407425655658e-01
-9.738632486770558427e-02 -1.149923535029506866e-01 -6.567833222350260014e-01 -3.696444175795850495e-01 5.951575401543267585e-01 -7.135478308773003375e-01
-7.899384814155935297e-02 -5.663191852789818681e-02 -6.208468199086890627e-01 -5.486063064922894750e-01 2.319756765461453984e-01 -8.032548823180885034e-01
-9.031453509074756358e-03 -4.035012415925196688e-02 -6.635574388639985388e-01 -3.877219824299371065e-01 5.395961591851542449e-01 -7.473336934283302257e-01
9.840793005377797623e-03 1.365069798046983918e-01 -5.829305602767227423e-01 -3.498294152479801689e-01 3.529854687931210377e-01 -8.677676181145255185e-01
1.318547146888383696e-02 1.799422581979265579e-01 -5.666105744889567974e-01 -3.498294152479801689e-01 3.529854687931210377e-01 -8.677676181145255185e-01
-1.701911778941816999e-02 1.364092440843709952e-01 -5.721420871849978163e-01 -3.498294152479801689e-01 3.529854687931210377e-01 -8.677676181145255185e-01
-3.474341153953652145e-02 -1.465685088066308595e-01 -7.179916877118626140e-01 -6.086555517840692708e-01 4.674774814644667154e-01 -6.410953311373194241e-01
1.035322020022146766e-01 6.854203251033628985e-02 -7.304960277798766555e-01 -7.870784874306104850e-01 1.642160497958302101e-01 -5.945927544238963636e-01
-2.363401160968727627e-02 1.378452445105882718e-01 -5.688912494470824699e-01 -3.498294152479801689e-01 3.529854687931210377e-01 -8.677676181145255185e-01
-2.275084749215209451e-02 8.429056465344249988e-03 -6.306603462769817536e-01 -3.494804825377422208e-01 3.397424182298923734e-01 -8.731772337735859146e-01
1.157956747728612484e-01 2.219453876746857804e-02 -8.242576275345236958e-01 -9.694677569304728237e-01 -3.916410992943192282e-02 -2.420711481478801386e-01
1.441878924192073752e-01 1.305337537183525187e-01 -8.259231145267493801e-01 -9.933600477631731041e-01 9.200550647406922911e-02 6.907099453748136164e-02
3.933387151607491139e-02 -3.262627924377248072e-03 -6.816106328424357264e-01 -8.811975296972729410e-01 2.470535754116935101e-01 -4.030576193693930498e-01
-9.982004574953141918e-02 -1.597755173947997265e-01 -6.912971394902923672e-01 -3.044783178097354992e-01 6.112142355468688226e-01 -7.305546606850241709e-01
-3.476015219361038716e-02 1.296017745526622245e-01 -5.677591189937766236e-01 -3.498294152479801689e-01 3.529854687931210377e-01 -8.677676181145255185e-01
4.024641303574148787e-02 2.490304913576686999e-02 -6.621096944226965153e-01 -8.427367236323782818e-01 2.760355658765779041e-01 -4.621679143044898352e-01
1.944698937807671059e-03 2.325211585799516756e-01 -5.611083992720468094e-01 -2.737465387064719202e-01 -5.689180302317251720e-02 -9.601177819908338629e-01
1.490894934052573728e-01 2.345703757532376088e-02 -9.243035007814143222e-01 -9.713851887667984686e-01 -2.305932967907494413e-01 -5.689944217358033213e-02
1.419458772346650355e-01 -9.209008534314952824e-03 -8.686865168854918107e-01 -8.706229331020280959e-01 -9.409621240309958001e-02 -4.828681094959705322e-01
9.966092633166347137e-02 -2.713204624500851407e-04 -7.443765521182357237e-01 -7.870784874306104850e-01 1.642160497958302101e-01 -5.945927544238963636e-01
1.503669612673875777e-01 1.589752149871460629e-01 -7.749426834378140283e-01 -9.933600477631731041e-01 9.200550647406922911e-02 6.907099453748136164e-02
4.303972245358271553e-02 1.656828660363682815e-01 -6.100425634156702026e-01 -8.188484958243326117e-01 1.978602554362868249e-01 -5.388306414866507188e-01
-5.949821244301429363e-02 -5.837735745591252946e-03 -6.196659118389203913e-01 -5.553933321494578523e-01 2.307446153569259750e-01 -7.989337701510096368e-01
3.589193779039227122e-02 4.765332431964401649e-02 -6.405816718627439510e-01 -8.427367236323782818e-01 2.760355658765779041e-01 -4.621679143044898352e-01
1.422556495722667735e-01 1.721977540037895327e-01 -7.493182504409596767e-01 -8.198526924017406348e-01 -3.229788051010140659e-02 -5.716628461568689090e-01
1.465984334375888265e-01 1.465915302370446593e-01 -8.126450187667833003e-01 -9.933600477631731041e-01 9.200550647406922911e-02 6.907099453748136164e-02
-3.233040761131971558e-02 6.026837948984022780e-02 -6.018065613598480024e-01 -2.540332679433848773e-01 3.390590360346962817e-01 -9.058179004972396475e-01
1.003682983005765028e-01 -4.507422078161207185e-02 -7.877013500436546023e-01 -7.654505515118786851e-01 3.166070185303814233e-01 -5.602191080349399055e-01
-4.274929492780262658e-02 -1.697138033602171581e-01 -7.241314996208235710e-01 -6.055737023309194500e-01 3.679706453225061180e-01 -7.056047726781341511e-01
-1.559618380480658484e-01 5.235443888838117038e-02 -5.434899080410734440e-01 2.613547986913097171e-02 8.884474849302734234e-02 -9.957025395956470293e-01
9.671284565534446487e-02 -3.721482570342098117e-02 -7.776357932214584823e-01 -8.412832085088211009e-01 4.004098222379450789e-01 -3.632004093286250734e-01
-1.762065468943098401e-01 -1.731379563905191266e-01 -6.529901291260934437e-01 -5.884072161755318220e-01 3.921946256471364189e-01 -7.070787251544649044e-01
-2.245016113106973812e-02 5.107272902159913121e-04 -6.338616165446245843e-01 -3.494804825377422208e-01 3.397424182298923734e-01 -8.731772337735859146e-01
-7.689095863737639702e-02 4.969537235209263437e-02 -5.915763015328756591e-01 -5.486063064922894750e-01 2.319756765461453984e-01 -8.032548823180885034e-01
-4.906913055596007905e-02 -3.186036428237019880e-02 -6.344316213301790519e-01 -5.553933321494578523e-01 2.307446153569259750e-01 -7.989337701510096368e-01
-9.313892295272220567e-02 -9.783180674873788452e-02 -6.446858235306669460e-01 -3.798905194609146774e-01 5.848753671051819536e-01 -7.166617041375206165e-01
1.174274708948529894e-01 3.296403495468055306e-02 -7.664710368630162085e-01 -9.095612427678860801e-01 2.732246915034379775e-01 -3.131239588523846984e-01
-1.441513678796919329e-01 -1.540761802966950922e-01 -6.624006152552998072e-01 -4.681919250661104037e-01 4.455514822302295563e-01 -7.630728654495161356e-01
4.616592745356543764e-02 1.666947122543448734e-01 -6.144218320189048788e-01 -8.188484958243326117e-01 1.978602554362868249e-01 -5.388306414866507188e-01
4.129928233521568126e-02 -1.845063316016944815e-02 -6.952170401946188294e-01 -8.811975296972729410e-01 2.470535754116935101e-01 -4.030576193693930498e-01
-2.082231001871314435e-01 -1.268995828333928655e-01 -6.073512479713399914e-01 -5.796810433122659978e-01 1.753052597080406172e-01 -7.957624984523329337e-01
8.477644065748857205e-02 1.025160610713939380e-01 -6.967056209501082398e-01 -5.166843262754894361e-01 2.973397148363399745e-01 -8.028862939185644754e-01
3.711468029830043008e-02 3.951656583794781186e-02 -6.476710535472932628e-01 -8.427367236323782818e-01 2.760355658765779041e-01 -4.621679143044898352e-01
-2.132612289173475839e-01 2.193382470596793102e-02 -5.641923862442139725e-01 3.627871564284302908e-01 3.119702872092159907e-01 -8.781002329057731037e-01
1.335648587217154459e-01 1.383160357956660924e-01 -7.403963740715923114e-01 -7.446654099049615505e-01 2.708096908218911580e-01 -6.100291293438595552e-01
2.649324267922887818e-02 7.453935035247764851e-02 -6.132545484805952407e-01 -8.311638891735829704e-01 1.297774478991521319e-01 -5.406703277882249914e-01
1.458837821661323197e-01 1.326439907037744448e-01 -7.702569239600666195e-01 -9.205725984288293251e-01 3.905714255103622801e-01 -2.293399154520490263e-04
-1.068433767536529355e-01 -8.749459595753446284e-02 -6.336614387490656641e-01 1.258208777379608290e-01 6.712785800382633505e-01 -7.304479274438817615e-01
5.033861636775872200e-02 -1.156959844278415972e-01 -7.734678724033551278e-01 -5.726125872034328879e-01 5.942261545028767467e-01 -5.648097930108102460e-01
1.292795988031219222e-02 1.646458177481461005e-01 -5.727289591391219181e-01 -3.498294152479801689e-01 3.529854687931210377e-01 -8.677676181145255185e-01
-1.398045126620251211e-01 -1.230414142144159277e-02 -5.712918882814946864e-01 1.884404099928387033e-01 6.130708315784312301e-01 -7.672251086542083431e-01
1.477927930411829238e-01 2.602863715171866918e-02 -9.413477546864701395e-01 -9.920144969855650974e-01 -7.755934925316258777e-02 9.945745378754891619e-02
-3.437314123843647484e-02 1.479315811228720801e-01 -5.622732357600082054e-01 -2.274367893144157160e-01 2.403838329525536943e-01 -9.436567806789653012e-01
-1.852790773268878435e-02 -1.562847454697532390e-01 -7.379158962092877694e-01 -6.055737023309194500e-01 3.679706453225061180e-01 -7.056047726781341511e-01
1.155501184095851924e-01 1.250190020685357506e-01 -7.243086367582491913e-01 -7.446654099049615505e-01 2.708096908218911580e-01 -6.100291293438595552e-01
1.285411129529876462e-01 2.118399265868161491e-02 -8.504400667112854695e-01 -8.706229331020280959e-01 -9.409621240309958001e-02 -4.828681094959705322e-01
1.167774645859439436e-01 -8.003912386601746976e-02 -8.656308975116736582e-01 -8.863344954000418330e-01 3.245332503614049013e-01 -3.302867415955645924e-01
-1.909162653731628634e-01 -1.442581113878957377e-01 -6.247304406507349084e-01 -5.884072161755318220e-01 3.921946256471364189e-01 -7.070787251544649044e-01
8.776590503159990148e-03 5.189038572447689235e-02 -6.178101859589394396e-01 -2.439237010205050071e-01 4.898886119475686085e-01 -8.369649789355251279e-01
-3.363603330790655710e-02 1.320074172044581606e-01 -5.672337398055919966e-01 -3.498294152479801689e-01 3.529854687931210377e-01 -8.677676181145255185e-01
5.396541212779767949e-02 8.288427958752100921e-02 -6.534840385524174344e-01 -8.311638891735829704e-01 1.297774478991521319e-01 -5.406703277882249914e-01
3.584030817517205869e-02 4.566936599578187012e-02 -6.416724721330059333e-01 -8.427367236323782818e-01 2.760355658765779041e-01 -4.621679143044898352e-01
1.108734126932539588e-01 1.479208360762290266e-02 -7.632892569511384728e-01 -9.095612427678860801e-01 2.732246915034379775e-01 -3.131239588523846984e-01
-6.887746350350899827e-02 -4.514386967124753985e-02 -6.244979835306192495e-01 -5.553933321494578523e-01 2.307446153569259750e-01 -7.989337701510096368e-01
1.408920172805399329e-01 1.633883599391533492e-02 -8.753219143562087634e-01 -9.714139568819272208e-01 -1.278934230230561186e-01 -1.999954917552967393e-01
2.971165815442702862e-02 -2.628842713209089688e-02 -6.752983569750011794e-01 -7.638902282358678297e-01 3.728560794246219556e-01 -5.267352876368298631e-01
-5.956857824678958580e-02 -7.126532369221677543e-02 -6.427146754275846474e-01 -6.436357121382191293e-01 2.946255502739476562e-01 -7.063489613400032452e-01
-1.061835984949748984e-01 5.528927000443235179e-02 -5.687553191919562101e-01 -4.290412217390696115e-01 6.538734225646188891e-01 -6.231959381384623020e-01
1.330893466042747664e-01 -3.112664439776131192e-02 -8.585435112403484448e-01 -8.990580390859133075e-01 4.159677264702951738e-01 -1.366217145629713137e-01
-1.765258991061599125e-03 -7.712895500759665846e-02 -6.931303752641614357e-01 -2.015153934309042161e-01 5.062511187339898688e-01 -8.385113898993689086e-01
-1.253027605823259782e-01 -6.523128655413251709e-02 -6.163812105860356771e-01 1.258208777379608290e-01 6.712785800382633505e-01 -7.304479274438817615e-01
-2.082319055537824870e-01 9.087264966254705867e-02 -5.397679105570941660e-01 3.198084823450809688e-01 1.598108443160079217e-01 -9.339073983319442496e-01
-2.293134300399497227e-01 9.417073460126566820e-02 -5.500461019911169203e-01 5.654782716922039931e-01 3.450099264292632029e-01 -7.491344838607232326e-01
5.601753270114324251e-02 1.503799247513910309e-01 -6.353802387983972233e-01 -8.185788991531662839e-01 1.967437014938683837e-01 -5.396484983613705211e-01
5.721650736657818426e-02 -1.433493025904740981e-01 -8.002286081708306353e-01 -6.103552754219579990e-01 4.262960913368116778e-01 -6.676361885604634727e-01
1.076065106545098446e-02 2.987618455948102755e-02 -6.312736714462160448e-01 -2.439237010205050071e-01 4.898886119475686085e-01 -8.369649789355251279e-01
-1.103166905234989059e-01 -9.570073201310748401e-02 -6.396744275210964892e-01 1.040579526777523842e-02 5.090877905942616799e-01 -8.606516954568196320e-01
1.179407475030748165e-01 5.360977375935786771e-02 -8.191950329147134058e-01 -9.707742176057373440e-01 2.046678807096708186e-01 1.253334633598728598e-01
9.397713909250611508e-02 -2.979890615457227165e-02 -7.631233893594916440e-01 -8.412832085088211009e-01 4.004098222379450789e-01 -3.632004093286250734e-01
1.415854654462927464e-01 1.398617983633279049e-01 -7.495009571874597931e-01 -7.446654099049615505e-01 2.708096908218911580e-01 -6.100291293438595552e-01
1.540751011303442830e-01 2.017679463710323196e-01 -7.896446373611056835e-01 -9.687754932942937991e-01 2.367287588846206381e-01 7.371253834555678564e-02
-3.554914493746966914e-02 1.128447914295890447e-01 -5.752281737096466285e-01 -3.253724207756139575e-01 4.547139609221775292e-01 -8.290765957021591914e-01
1.172850058325804884e-01 -7.619431411214076799e-02 -8.632150654747594576e-01 -8.863344954000418330e-01 3.245332503614049013e-01 -3.302867415955645924e-01
9.842108118563397401e-02 -3.150525120834852394e-02 -7.752980760300463015e-01 -8.412832085088211009e-01 4.004098222379450789e-01 -3.632004093286250734e-01
6.296680515426844593e-02 7.469995293168561756e-02 -6.737972048019731375e-01 -8.427367236323782818e-01 2.760355658765779041e-01 -4.621679143044898352e-01
-1.884642367744069069e-01 -1.734524796066528873e-01 -6.411537021055039309e-01 -7.368448237533099521e-01 1.078164031866940403e-01 -6.674094162594934598e-01
1.141455398343164118e-01 2.689844171410989485e-02 -8.049716809259126471e-01 -9.707742176057373440e-01 2.046678807096708186e-01 1.253334633598728598e-01
1.633409583148341324e-02 1.547792932410809764e-02 -6.413255096452139536e-01 -2.439237010205050071e-01 4.898886119475686085e-01 -8.369649789355251279e-01
-7.110849146285314060e-02 -4.155140860077206899e-02 -6.219094847368337176e-01 -5.553933321494578523e-01 2.307446153569259750e-01 -7.989337701510096368e-01
-1.913127086251275311e-01 -7.655366639448626942e-02 -6.137967093422107556e-01 -6.808465772911499458e-01 6.268525685406632630e-02 -7.297386496301714320e-01
4.276301943440415088e-02 1.239128941215798529e-01 -6.249240931365981355e-01 -8.185788991531662839e-01 1.967437014938683837e-01 -5.396484983613705211e-01
-2.199089271879244370e-02 1.350100817105994166e-01 -5.707069228577438258e-01 -3.498294152479801689e-01 3.529854687931210377e-01 -8.677676181145255185e-01
-1.403357752250528612e-01 1.221176908982884654e-02 -5.655858541352820623e-01 -4.295475615951322990e-01 1.064709876141006484e-01 -8.967456836384296581e-01
-1.372207924246971189e-01 -1.046472491890376583e-01 -6.452917071527703996e-01 1.040579526777523842e-02 5.090877905942616799e-01 -8.606516954568196320e-01
-2.094587162530197125e-02 2.616464549296515854e-02 -6.242055959727855763e-01 -2.439237010205050071e-01 4.898886119475686085e-01 -8.369649789355251279e-01
5.276709876532716809e-02 9.152529883726182036e-02 -6.495677810634215010e-01 -8.311638891735829704e-01 1.297774478991521319e-01 -5.406703277882249914e-01
1.592833783798178471e-01 2.199390173566505291e-01 -7.795508826723916984e-01 -9.687754932942937991e-01 2.367287588846206381e-01 7.371253834555678564e-02
-1.088291582527913248e-01 -9.289467784379250304e-02 -6.379966211782632790e-01 1.040579526777523842e-02 5.090877905942616799e-01 -8.606516954568196320e-01
2.252789795679367019e-02 -6.242747782391686040e-02 -6.904616861188554999e-01 -7.638902282358678297e-01 3.728560794246219556e-01 -5.267352876368298631e-01
1.068972466447269329e-02 1.494266665131712725e-02 -6.399938209303440706e-01 -2.439237010205050071e-01 4.898886119475686085e-01 -8.369649789355251279e-01
-1.849990166581140238e-01 -7.297132497214306457e-02 -6.190956309065124286e-01 -4.326643570918288217e-01 1.302359046800962150e-01 -8.920987407425655658e-01
1.126935584072606272e-01 5.750354444483107494e-03 -7.816835024102617435e-01 -9.707742176057373440e-01 2.046678807096708186e-01 1.253334633598728598e-01
1.485609947722306701e-01 1.395740633840359679e-01 -7.750724366652498309e-01 -9.933600477631731041e-01 9.200550647406922911e-02 6.907099453748136164e-02
-7.731146704068911357e-02 -1.402513206477576935e-01 -6.862344978896636194e-01 -4.059498679655367814e-01 4.690379777678111428e-01 -7.843520128808528780e-01
-2.028180793891126432e-01 -1.178613150183870778e-01 -6.092974721421343665e-01 -5.796810433122659978e-01 1.753052597080406172e-01 -7.957624984523329337e-01
1.134359370277870371e-01 9.109847080569699260e-03 -7.814193926862196271e-01 -9.707742176057373440e-01 2.046678807096708186e-01 1.253334633598728598e-01
-8.384979092721413230e-02 -1.825824383615012869e-01 -7.117150411250037223e-01 -3.786167305772098479e-01 3.090793445805192219e-01 -8.724215323343991191e-01
2.803691493570103360e-02 1.529161644505288020e-01 -5.919311146951947711e-01 -8.188484958243326117e-01 1.978602554362868249e-01 -5.388306414866507188e-01
8.910636461958908183e-02 -2.198998393705769300e-02 -7.460571118219934128e-01 -7.216038193183315075e-01 4.022062227195526418e-01 -5.634874287425287731e-01
-1.193415796795972150e-01 -7.325458493371815594e-02 -6.227277647424119822e-01 1.258208777379608290e-01 6.712785800382633505e-01 -7.304479274438817615e-01
9.830984966328842889e-02 4.035815676204834723e-02 -7.313669491957798252e-01 -7.870784874306104850e-01 1.642160497958302101e-01 -5.945927544238963636e-01
1.193544278341825138e-01 6.687153611494497940e-02 -8.299016099328934137e-01 -9.707742176057373440e-01 2.046678807096708186e-01 1.253334633598728598e-01
-1.273358304867819868e-01 -1.050216585204301195e-01 -6.453936605092837064e-01 1.040579526777523842e-02 5.090877905942616799e-01 -8.606516954568196320e-01
-1.056026915426891699e-01 5.334316070670310633e-02 -5.711971550297538780e-01 -4.290412217390696115e-01 6.538734225646188891e-01 -6.231959381384623020e-01
3.743254102714274612e-02 1.486218899532494309e-01 -6.077863016193811863e-01 -8.188484958243326117e-01 1.978602554362868249e-01 -5.388306414866507188e-01
1.408063258757242565e-02 -1.275210850325687352e-02 -6.556216004804558128e-01 -3.877219824299371065e-01 5.395961591851542449e-01 -7.473336934283302257e-01
1.052415271374900624e-01 1.069582234699627959e-01 -7.199448822923054658e-01 -7.452974755042243160e-01 2.810838332488928559e-01 -6.045854378771777782e-01
6.027959881001008352e-02 -1.256940626981827291e-01 -7.917557514967549226e-01 -6.103552754219579990e-01 4.262960913368116778e-01 -6.676361885604634727e-01
1.477462840189616017e-02 2.457044937467492418e-02 -6.355490276950702677e-01 -2.439237010205050071e-01 4.898886119475686085e-01 -8.369649789355251279e-01
-8.973687891281884044e-02 -2.300905637026424023e-03 -5.978190508755639732e-01 -5.486063064922894750e-01 2.319756765461453984e-01 -8.032548823180885034e-01
-4.516021463486274284e-02 -8.631098715918010533e-02 -6.626666383373835956e-01 -4.501282559384159887e-01 5.449372528607612232e-01 -7.074093183231380255e-01
-4.393986922953573016e-02 -1.796470398638125299e-01 -7.282898600403993061e-01 -6.055737023309194500e-01 3.679706453225061180e-01 -7.056047726781341511e-01
1.364394010604319807e-01 -4.589505246976082614e-02 -8.877065762944483795e-01 -9.766406136182508302e-01 2.148792116714187961e-01 -1.903229788462701638e-04
-6.040898899272063860e-02 -2.201194950000876296e-02 -6.237041358184487461e-01 -5.553933321494578523e-01 2.307446153569259750e-01 -7.989337701510096368e-01
-1.512729130445680248e-01 -1.302255680255134385e-01 -6.438111024916916003e-01 -4.326643570918288217e-01 1.302359046800962150e-01 -8.920987407425655658e-01
-1.735546662149236863e-01 -7.051359668284638837e-02 -6.242872961876078097e-01 -4.326643570918288217e-01 1.302359046800962150e-01 -8.920987407425655658e-01
-1.856535967999139447e-01 5.107926088006453647e-02 -5.443830475051265605e-01 2.613547986913097171e-02 8.884474849302734234e-02 -9.957025395956470293e-01
1.063632828148952242e-01 -7.625183408680469288e-02 -8.200601708848952454e-01 -8.990580390859133075e-01 4.159677264702951738e-01 -1.366217145629713137e-01
-6.702758836716465884e-02 -2.761312367586653271e-02 -6.207208031956096272e-01 -5.553933321494578523e-01 2.307446153569259750e-01 -7.989337701510096368e-01
7.536925180125811363e-02 5.512016341703616928e-02 -7.082043047943336056e-01 -5.166843262754894361e-01 2.973397148363399745e-01 -8.028862939185644754e-01
-1.242994142723171658e-01 -9.862258694882163057e-02 -6.415718060342578966e-01 1.040579526777523842e-02 5.090877905942616799e-01 -8.606516954568196320e-01
1.205204255308280764e-02 2.183261262560852456e-01 -5.658852719887641491e-01 -6.962699760934268900e-01 -2.542476744751698825e-01 -6.712423112519255719e-01
1.122891122827869709e-01 -7.506418016458003828e-02 -8.486979861372380141e-01 -8.863344954000418330e-01 3.245332503614049013e-01 -3.302867415955645924e-01
7.753277206058172000e-02 -6.647387079528403742e-02 -7.654654743131642514e-01 -8.412832085088211009e-01 4.004098222379450789e-01 -3.632004093286250734e-01
-1.243815092806921652e-01 -4.252571042688232245e-02 -5.953561943295279102e-01 1.258208777379608290e-01 6.712785800382633505e-01 -7.304479274438817615e-01
-1.335119333105237206e-02 -1.123236011985306315e-01 -7.070071766146590608e-01 -5.455818541125493359e-01 6.045467169585412304e-01 -5.803996101633448479e-01
1.544859340907280276e-01 1.997578074329171838e-01 -7.777896311508137872e-01 -9.687754932942937991e-01 2.367287588846206381e-01 7.371253834555678564e-02
1.103369415831685629e-01 -7.385037598643674761e-02 -8.388977385600573378e-01 -8.990580390859133075e-01 4.159677264702951738e-01 -1.366217145629713137e-01
1.040630300752522774e-01 -4.571204519305535618e-02 -7.931100805143009858e-01 -7.654505515118786851e-01 3.166070185303814233e-01 -5.602191080349399055e-01
-8.613519118803225627e-02 -4.283912162742742336e-02 -6.119861464397269302e-01 -5.486063064922894750e-01 2.319756765461453984e-01 -8.032548823180885034e-01
-1.199256539947671507e-01 -4.288355188033968202e-02 -5.955742909063410639e-01 -2.905146236972623308e-01 5.429697708043447202e-01 -7.878991568790485456e-01
1.360771890948653529e-01 1.095114142968411225e-01 -8.018365886628503469e-01 -9.205725984288293251e-01 3.905714255103622801e-01 -2.293399154520490263e-04
-1.839452603448633872e-01 4.560826558722812923e-02 -5.448263736896185039e-01 2.613547986913097171e-02 8.884474849302734234e-02 -9.957025395956470293e-01
-1.815263529837080614e-01 4.684604167439501005e-02 -5.446524369937574273e-01 2.613547986913097171e-02 8.884474849302734234e-02 -9.957025395956470293e-01
-4.134562459542449192e-02 -7.032670300083861126e-02 -6.588414452638079455e-01 -6.332958823079634092e-01 3.208565323626887400e-01 -7.042637368855287905e-01
4.633989719178860378e-02 3.942436240541766224e-02 -6.645477778824917525e-01 -8.427367236323782818e-01 2.760355658765779041e-01 -4.621679143044898352e-01
-9.400530268880648299e-02 -1.888718058743960593e-01 -7.095358960657179859e-01 -3.786167305772098479e-01 3.090793445805192219e-01 -8.724215323343991191e-01
1.331105935160554754e-01 9.952666448708549773e-02 -7.934244350195902573e-01 -9.512944553933941894e-01 2.900511894673964974e-01 1.044469560414961334e-01
-1.677622824411675317e-01 -5.008659786344729636e-02 -6.097770289194900384e-01 1.258208777379608290e-01 6.712785800382633505e-01 -7.304479274438817615e-01
5.990000785099026948e-02 -5.758464496095212076e-02 -7.347515083483175946e-01 -6.885241960431914832e-01 3.758841044673218446e-01 -6.201980098902902805e-01
-1.330363242684378666e-01 -4.901446241638899443e-02 -6.028101365416818069e-01 1.258208777379608290e-01 6.712785800382633505e-01 -7.304479274438817615e-01
3.266761579507856256e-02 1.134832908265252654e-01 -6.133985748166410623e-01 -8.311638891735829704e-01 1.297774478991521319e-01 -5.406703277882249914e-01
1.188221566031133491e-01 5.845886682835813031e-02 -8.202865560295179437e-01 -9.707742176057373440e-01 2.046678807096708186e-01 1.253334633598728598e-01
2.790156802651371989e-02 -4.811955608134056012e-02 -6.881267342398073028e-01 -7.638902282358678297e-01 3.728560794246219556e-01 -5.267352876368298631e-01
9.252840904098973140e-02 6.163858164804773832e-02 -7.178366214326719064e-01 -7.870784874306104850e-01 1.642160497958302101e-01 -5.945927544238963636e-01
-3.479111501177344079e-02 -1.158436234313729302e-01 -6.920143693767624171e-01 -4.501282559384159887e-01 5.449372528607612232e-01 -7.074093183231380255e-01
1.445520211158115576e-01 3.951798658613243226e-02 -9.522004344717994728e-01 -9.673145222257132358e-01 -1.385539647703801225e-01 2.123803520518056376e-01
1.388885603841800709e-01 3.876799762749276457e-02 -8.799337996423473029e-01 -9.714139568819272208e-01 -1.278934230230561186e-01 -1.999954917552967393e-01
1.337087780001350867e-01 4.479191398424399451e-02 -8.676977713390490177e-01 -9.021207923627158065e-01 -1.330108360228356157e-01 -4.104706974771432648e-01
1.265015137873793938e-01 7.956272964238131351e-02 -7.578574036243096446e-01 -7.870784874306104850e-01 1.642160497958302101e-01 -5.945927544238963636e-01
-1.598051118545582294e-01 -1.197307229793853345e-01 -6.381408961336448860e-01 -4.326643570918288217e-01 1.302359046800962150e-01 -8.920987407425655658e-01
1.144925270318212229e-01 -6.659351964641675552e-03 -8.143704654985211011e-01 -9.694677569304728237e-01 -3.916410992943192282e-02 -2.420711481478801386e-01
3.796011095349102055e-02 1.426434038995600395e-01 -6.107833557844563055e-01 -8.188484958243326117e-01 1.978602554362868249e-01 -5.388306414866507188e-01
1.559932175108451613e-01 2.061000425801083891e-01 -7.783481550738085009e-01 -9.687754932942937991e-01 2.367287588846206381e-01 7.371253834555678564e-02
5.075664282263324389e-02 8.463270604640645012e-02 -6.481315726409752065e-01 -8.311638891735829704e-01 1.297774478991521319e-01 -5.406703277882249914e-01
-1.677167129751386265e-01 -1.678045889717352523e-01 -6.559577292953046035e-01 -4.681919250661104037e-01 4.455514822302295563e-01 -7.630728654495161356e-01
1.263401343846441705e-01 4.876917525651263546e-02 -8.527919868147342264e-01 -9.021207923627158065e-01 -1.330108360228356157e-01 -4.104706974771432648e-01
-3.514956792215549047e-02 -1.297434914353151059e-01 -7.046611030650153928e-01 -5.455818541125493359e-01 6.045467169585412304e-01 -5.803996101633448479e-01
-4.771794124186628377e-02 -1.150971923995677548e-01 -6.832139653384756706e-01 -4.501282559384159887e-01 5.449372528607612232e-01 -7.074093183231380255e-01
-1.723644789382031139e-01 -4.704035941660631923e-03 -5.732159786054574768e-01 1.884404099928387033e-01 6.130708315784312301e-01 -7.672251086542083431e-01
1.164093835990665654e-01 8.903804698591699651e-02 -7.418812625132541472e-01 -7.870784874306104850e-01 1.642160497958302101e-01 -5.945927544238963636e-01
1.130461241521397431e-01 8.655344756170817513e-03 -7.836965041152506029e-01 -9.707742176057373440e-01 2.046678807096708186e-01 1.253334633598728598e-01
-1.129872766842260623e-01 -5.200885073504937089e-02 -6.044211864008293134e-01 -2.905146236972623308e-01 5.429697708043447202e-01 -7.878991568790485456e-01
-2.516931940917405131e-02 -1.215504826570138058e-01 -7.055087706386433677e-01 -5.455818541125493359e-01 6.045467169585412304e-01 -5.803996101633448479e-01
-1.795822085286735426e-01 4.033289426591114835e-02 -5.451825629843488619e-01 2.613547986913097171e-02 8.884474849302734234e-02 -9.957025395956470293e-01
1.108284248091833540e-01 -2.595948078582745178e-02 -7.965736261696226839e-01 -9.694677569304728237e-01 -3.916410992943192282e-02 -2.420711481478801386e-01
5.595316334898993438e-02 -1.343139947642249532e-01 -7.933044701816509559e-01 -6.103552754219579990e-01 4.262960913368116778e-01 -6.676361885604634727e-01
-1.071238161722000704e-01 -1.713737651961083908e-01 -6.952191918804819792e-01 -4.681919250661104037e-01 4.455514822302295563e-01 -7.630728654495161356e-01
8.405100087272787679e-02 -5.881150400183936255e-03 -7.348837473170365397e-01 -5.618456132880275122e-01 1.935077295798196817e-01 -8.042911571202705501e-01
-1.440662062711438596e-01 5.479023067466322339e-02 -5.431985226955381441e-01 -4.290412217390696115e-01 6.538734225646188891e-01 -6.231959381384623020e-01
-1.011108738018525743e-01 -2.674861406750695531e-02 -5.971112162448792837e-01 -5.486063064922894750e-01 2.319756765461453984e-01 -8.032548823180885034e-01
1.720410815612163219e-02 -9.282335925650696262e-02 -7.131168491469309645e-01 -6.051163105692271005e-01 6.030336438647166952e-01 -5.197929155445742966e-01
1.031967586342090598e-01 4.774196159853234811e-02 -7.357966056938387567e-01 -7.870784874306104850e-01 1.642160497958302101e-01 -5.945927544238963636e-01
1.272307173210162901e-01 -5.244866971244727810e-02 -8.665726813729370814e-01 -8.863344954000418330e-01 3.245332503614049013e-01 -3.302867415955645924e-01
-1.119662595835864138e-01 -2.789066979324745024e-02 -5.900270340321149831e-01 -5.486063064922894750e-01 2.319756765461453984e-01 -8.032548823180885034e-01
-1.625541542631666059e-01 -6.796795728503343681e-02 -6.239016767880889436e-01 1.040579526777523842e-02 5.090877905942616799e-01 -8.606516954568196320e-01
2.963468396304586722e-02 -1.383337135902667492e-01 -7.718106797665126306e-01 -6.103552754219579990e-01 4.262960913368116778e-01 -6.676361885604634727e-01
-5.408221870471771608e-02 4.664345481183343467e-03 -6.195850796046618036e-01 -3.494804825377422208e-01 3.397424182298923734e-01 -8.731772337735859146e-01
1.278606399019723838e-01 9.013684137361029081e-02 -8.158966124255084829e-01 -9.205725984288293251e-01 3.905714255103622801e-01 -2.293399154520490263e-04
3.321718636972144367e-02 1.327128084687994036e-01 -6.072221876456717071e-01 -8.188484958243326117e-01 1.978602554362868249e-01 -5.388306414866507188e-01
8.006631318086548932e-02 3.854658259270369453e-02 -7.173648569749230264e-01 -5.166843262754894361e-01 2.973397148363399745e-01 -8.028862939185644754e-01
5.441988013069619379e-02 2.962102617152262765e-02 -6.903008825783568669e-01 -8.696337532431881456e-01 3.254387618805159588e-01 -3.712502491390987647e-01
1.429321956207052213e-01 1.256733480650602530e-01 -7.937335896068097307e-01 -9.205725984288293251e-01 3.905714255103622801e-01 -2.293399154520490263e-04
1.253925134007329856e-01 8.430867417042947620e-02 -8.343231743857749683e-01 -9.205725984288293251e-01 3.905714255103622801e-01 -2.293399154520490263e-04
-7.620633575160175310e-02 -1.095428429204360898e-01 -6.632190112970475226e-01 -3.798905194609146774e-01 5.848753671051819536e-01 -7.166617041375206165e-01
-1.380888239341882817e-01 -1.741443559953744780e-01 -6.778379870741851887e-01 -4.681919250661104037e-01 4.455514822302295563e-01 -7.630728654495161356e-01
-5.348614907371504468e-02 2.991946481242298717e-03 -6.204743602142790415e-01 -3.494804825377422208e-01 3.397424182298923734e-01 -8.731772337735859146e-01
7.235284719626543237e-02 1.312595710973593344e-01 -6.671297071292264791e-01 -8.185788991531662839e-01 1.967437014938683837e-01 -5.396484983613705211e-01
-1.068500363070320897e-01 -1.462788846109502050e-01 -6.770753237279217851e-01 -3.044783178097354992e-01 6.112142355468688226e-01 -7.305546606850241709e-01
-1.274973741733128468e-02 -6.632083464449670986e-03 -6.405232933887492486e-01 -3.494804825377422208e-01 3.397424182298923734e-01 -8.731772337735859146e-01
3.813254088258351965e-02 -1.581143433890358496e-02 -6.866759580147271391e-01 -8.811975296972729410e-01 2.470535754116935101e-01 -4.030576193693930498e-01
9.390612485827949663e-02 -6.498383616026442988e-02 -7.901237053690738366e-01 -7.654505515118786851e-01 3.166070185303814233e-01 -5.602191080349399055e-01
1.319268462663251429e-01 3.234064917376415493e-02 -8.597467267707425975e-01 -9.021207923627158065e-01 -1.330108360228356157e-01 -4.104706974771432648e-01
3.240947627936692499e-02 -2.196179691064858996e-02 -6.779335818434553129e-01 -8.811975296972729410e-01 2.470535754116935101e-01 -4.030576193693930498e-01
9.165966362168809917e-03 -4.017153287472674528e-02 -6.728694404472137514e-01 -3.877219824299371065e-01 5.395961591851542449e-01 -7.473336934283302257e-01
-6.173555372151199455e-02 -1.464324591756635541e-01 -6.979922654727692688e-01 -4.059498679655367814e-01 4.690379777678111428e-01 -7.843520128808528780e-01
1.068090689172332686e-01 1.338188065275210392e-01 -7.097319073853141091e-01 -7.446654099049615505e-01 2.708096908218911580e-01 -6.100291293438595552e-01
7.188280164960511587e-02 1.414852662471300648e-01 -6.626886487596986841e-01 -8.185788991531662839e-01 1.967437014938683837e-01 -5.396484983613705211e-01
-8.838950586297433798e-02 6.961220610571908739e-03 -5.960644264329056918e-01 -5.486063064922894750e-01 2.319756765461453984e-01 -8.032548823180885034e-01
-2.345306645001172044e-02 -7.850674549526966139e-02 -6.786441414947534945e-01 -6.436357121382191293e-01 2.946255502739476562e-01 -7.063489613400032452e-01
-7.874269442449871592e-02 2.545948784764563363e-02 -5.973107973638223100e-01 -5.486063064922894750e-01 2.319756765461453984e-01 -8.032548823180885034e-01
-5.068667581234721602e-03 -9.786115226888382479e-02 -6.986563934133213083e-01 -5.151116226346558191e-01 6.311741263981990313e-01 -5.798958858210346845e-01
