4.026504404236587453e-02 -2.308086790819467715e-01 -9.188458619264908700e-01 8.711681755519266046e-01 2.212660226636687100e-01 -4.383005328768473929e-01
7.637111315146957735e-02 -8.004729966092979931e-02 -8.029182396558640633e-01 3.100226768053958581e-01 6.196806873468690968e-01 -7.210282834922142614e-01
1.849436855515591491e-02 -1.349417971025187318e-02 -8.238978816762178026e-01 8.329006042931200726e-01 1.222781701645451330e-01 -5.397449698416521002e-01
-3.549998192239547934e-02 6.787296999917377671e-02 -9.541789813891613514e-01 9.948747255903056530e-01 -8.256197660054614973e-02 -5.837636851864628357e-02
-2.887143886932690487e-02 -5.650398302254188571e-02 -9.390158595785307316e-01 8.587158087090741576e-01 3.018101562787857128e-01 -4.141470625757182056e-01
-3.565713672425951941e-02 6.867569231054487799e-02 -9.392656650377587679e-01 9.941455054745351738e-01 2.952571910609698945e-03 1.080092415670708683e-01
-4.507341083691916023e-02 1.330018489240531454e-01 -1.081760674874165273e+00 8.438805162012951167e-01 -4.834380523616946257e-02 5.343487165429735564e-01
-4.147471604036390841e-02 8.581449849923600270e-02 -9.991557694312983573e-01 9.566323391564018896e-01 -4.063700054216402152e-02 -2.884496522221631221e-01
-1.748919885706624877e-02 1.686497879005515454e-01 -1.119902836024193826e+00 5.091734014729702995e-01 -5.119225145317607417e-01 6.918654394807739472e-01
-5.724704140462099494e-02 1.297292096834330721e-02 -1.194621054622839962e+00 9.589578222842332078e-01 1.450761124725483964e-01 -2.436243351345127595e-01
8.469689749960004899e-02 -1.075045090899848371e-01 -8.148897919577332560e-01 5.112671711662453156e-01 2.413106184589363656e-01 -8.248485103985038203e-01
4.164906272281466916e-04 1.223658477305737333e-02 -8.549959666315932738e-01 7.436694149701627010e-01 3.956407635427182101e-01 -5.389101849670974165e-01
-3.181382364705876570e-02 -5.993949346331845646e-02 -9.567602794621909990e-01 9.882750334585057583e-01 -3.520478911531945473e-03 1.526435864057929803e-01
-1.815504536142114808e-02 -7.606700371475993983e-02 -9.332220614734786368e-01 7.402096219158118551e-01 3.259369223160358819e-01 -5.880942426978869042e-01
-3.315694106392895468e-02 -2.598353342257577955e-02 -9.763497537838752294e-01 9.890289528535313179e-01 1.475652605872400658e-01 6.798844406760178559e-03
-2.217520838044606882e-02 1.528486974813605126e-01 -8.321799204897000202e-01 8.115096282057725485e-01 1.903303652935741386e-01 -5.524730539823128339e-01
-3.693464165058669285e-02 -3.318485695257606836e-04 -9.835630832104172994e-01 9.890289528535313179e-01 1.475652605872400658e-01 6.798844406760178559e-03
-1.533435407936453027e-02 1.032781063360265622e-01 -8.391622210140449178e-01 8.116194924886528383e-01 1.889590320966110515e-01 -5.527823112234809821e-01
-4.444913232513193063e-02 -2.827204149076868733e-02 -1.167649775520789301e+00 9.885025412186984051e-01 1.037274987377215935e-01 -1.100151444565316411e-01
-2.902473992900872143e-02 2.090207541029061589e-01 -1.058177120403501315e+00 8.624711673689825497e-01 -4.878851380335295640e-01 1.345792611927579541e-01
-1.927992631643778501e-02 4.166297217410852571e-02 -8.652255439861081809e-01 7.892757319843802799e-01 2.989785576418332869e-01 -5.363353810545503642e-01
-5.451934802540239072e-02 1.094582629301517340e-01 -1.046375579248473464e+00 9.404626582740084340e-01 -2.323976187075957600e-01 -2.480349475602678655e-01
1.685903654989173162e-01 -1.710983557568157565e-01 -7.755224688796761301e-01 2.741324472468918416e-01 2.032240827350621226e-01 -9.399741345180315788e-01
-2.995743008920823125e-02 6.204191706111636395e-02 -1.107805118517946719e+00 8.593726069989422456e-01 4.007641519235501798e-02 5.097770132961779721e-01
-4.923185061603834595e-02 1.815595394715839236e-02 -1.168305660845639693e+00 9.362642211407656845e-01 -6.502908430936973905e-02 -3.452253270047839773e-01
9.461766692301110115e-02 -9.099714782856760387e-02 -8.039113332954963553e-01 5.112671711662453156e-01 2.413106184589363656e-01 -8.248485103985038203e-01
-4.025578647429555595e-02 -5.780862420652674999e-02 -1.157820427127555396e+00 9.885025412186984051e-01 1.037274987377215935e-01 -1.100151444565316411e-01
-1.327540003298625579e-02 -1.150053984396604695e-01 -9.662745928014837560e-01 8.992457998664241670e-01 4.077348532057761821e-01 -1.584590827433356719e-01
8.253785090535431523e-02 -9.363768538313810286e-02 -8.119468328041122840e-01 3.100226768053958581e-01 6.196806873468690968e-01 -7.210282834922142614e-01
7.462364539089219595e-02 -1.818489792671019734e-01 -8.484471292173731971e-01 7.146285290310948612e-01 4.241915788710580171e-01 -5.562082073376235503e-01
-3.563181663379031555e-02 -1.692047831851559159e-02 -9.310489163140197588e-01 9.882750334585057583e-01 -3.520478911531945473e-03 1.526435864057929803e-01
5.238193090885080727e-02 -1.183131641969396436e-01 -8.380817169749834594e-01 5.112671711662453156e-01 2.413106184589363656e-01 -8.248485103985038203e-01
-2.516151988299741848e-02 6.615319464092883628e-02 -1.117294469682948543e+00 9.368096608406074610e-01 -1.012923372289355056e-01 3.348544785043277572e-01
6.756031065892071329e-03 1.202719619733800677e-01 -8.009066533633053542e-01 8.115096282057725485e-01 1.903303652935741386e-01 -5.524730539823128339e-01
7.732618977948112204e-02 -1.811897090960329082e-01 -8.444720491184836142e-01 7.146285290310948612e-01 4.241915788710580171e-01 -5.562082073376235503e-01
-2.587224192079564528e-02 1.725798513715385840e-01 -8.308128684527835706e-01 8.115096282057725485e-01 1.903303652935741386e-01 -5.524730539823128339e-01
-3.816766916373560276e-02 7.892762239592197859e-03 -9.148125398706299372e-01 9.948747255903056530e-01 -8.256197660054614973e-02 -5.837636851864628357e-02
9.498152025922455832e-02 -7.357637307626721523e-02 -7.893548931330716112e-01 3.100226768053958581e-01 6.196806873468690968e-01 -7.210282834922142614e-01
-3.961713676975992665e-02 8.280653807853427528e-02 -8.941242580948343122e-01 9.898055008155686174e-01 -1.403647380965101221e-01 2.414147581113821120e-02
-4.292530077493255866e-03 4.193764717317353952e-02 -8.430168467924726849e-01 7.892757319843802799e-01 2.989785576418332869e-01 -5.363353810545503642e-01
6.665176686737939171e-02 -2.951466122272563761e-02 -7.614842777645395300e-01 3.579248815443455412e-01 6.625339035643142971e-01 -6.579807032119544541e-01
-3.138181896017763067e-02 -1.172048496809096896e-01 -1.075584107536657452e+00 9.963476241707215353e-01 3.701059937632823760e-02 7.695211071285547322e-02
-3.545175596650358696e-02 -1.137919370206074560e-02 -9.595020107453893221e-01 9.890289528535313179e-01 1.475652605872400658e-01 6.798844406760178559e-03
3.279289811654778619e-02 -1.373052407434133815e-01 -8.645576931410203780e-01 8.628837613294882969e-01 2.431988400188790089e-01 -4.430416895139175359e-01
8.675417006508159834e-02 2.929366304795217105e-02 -7.077812828656843136e-01 7.396265143248216267e-01 4.971257670146860506e-03 -6.729991871502455369e-01
3.432950531495534974e-02 -7.856844456809519706e-02 -8.255642441069449555e-01 6.858574382815535442e-01 4.057227048797910629e-01 -6.041429144655187100e-01
-5.048423887274025579e-02 8.523657193077056882e-02 -1.075024867304139375e+00 8.593726069989422456e-01 4.007641519235501798e-02 5.097770132961779721e-01
-3.402148875767768005e-02 1.609637555455007696e-01 -9.081432085968715873e-01 9.996829558971058738e-01 1.532617523858061451e-02 1.997738825226005183e-02
-3.259186903322357221e-02 9.903742706725007783e-02 -1.104545232895118190e+00 8.438805162012951167e-01 -4.834380523616946257e-02 5.343487165429735564e-01
9.523357380040978204e-02 -3.533729475396427816e-02 -7.504983913243574722e-01 4.786843808190110461e-01 6.661733413472578080e-01 -5.719041378047109436e-01
-2.777005596634096393e-02 1.424579566812394227e-01 -8.439776835289525270e-01 8.115096282057725485e-01 1.903303652935741386e-01 -5.524730539823128339e-01
-1.343069843050551104e-02 -1.155207902817911442e-01 -9.684820689696774787e-01 8.992457998664241670e-01 4.077348532057761821e-01 -1.584590827433356719e-01
-3.919506143913037421e-02 1.050780505170891138e-01 -1.093570504299198332e+00 8.438805162012951167e-01 -4.834380523616946257e-02 5.343487165429735564e-01
-4.009311716366838196e-02 2.073606066348204421e-02 -9.813667962495516983e-01 9.890289528535313179e-01 1.475652605872400658e-01 6.798844406760178559e-03
-3.871423962900785720e-02 2.675797323983379952e-02 -9.099814098525242922e-01 9.941455054745351738e-01 2.952571910609698945e-03 1.080092415670708683e-01
-1.763089886354511290e-02 2.343364906190910091e-01 -1.063832150137227206e+00 9.039757046798753137e-01 -3.350768259200836985e-01 2.656152218526727227e-01
6.708351208309933089e-02 2.832083854276778653e-02 -7.294065338865645121e-01 7.396265143248216267e-01 4.971257670146860506e-03 -6.729991871502455369e-01
-3.311694956234986775e-02 1.395946286416591409e-01 -9.370131201991104275e-01 9.996829558971058738e-01 1.532617523858061451e-02 1.997738825226005183e-02
-3.853414576995604912e-02 5.212937109867933627e-02 -9.836222359941100279e-01 9.948747255903056530e-01 -8.256197660054614973e-02 -5.837636851864628357e-02
-4.096740348831789946e-02 -4.077153889120434943e-02 -1.072646495621735196e+00 9.787602992235306942e-01 1.989966943431214774e-01 4.928074983576292284e-02
-4.469089164426400668e-02 -9.274928384889793639e-03 -1.148384327928337445e+00 9.847258554381176365e-01 1.737596387542248433e-01 1.107147558678193457e-02
1.157025483927065501e-01 -7.641930992516365873e-02 -7.812195624538491590e-01 4.786843808190110461e-01 6.661733413472578080e-01 -5.719041378047109436e-01
-5.482779207770948487e-02 6.180304689892156950e-02 -1.040057988941523792e+00 9.566323391564018896e-01 -4.063700054216402152e-02 -2.884496522221631221e-01
-2.537526261854714145e-03 1.014898148481665763e-01 -8.209846475533105759e-01 8.116194924886528383e-01 1.889590320966110515e-01 -5.527823112234809821e-01
8.706896910731176664e-02 4.688966176825386939e-02 -7.086676406194792888e-01 7.123753448036718172e-01 -1.292506407619433417e-01 -6.897939112361584080e-01
-3.488043685743597716e-02 7.409523450129774924e-02 -9.465627653442787448e-01 9.941455054745351738e-01 2.952571910609698945e-03 1.080092415670708683e-01
-2.738785848074424059e-02 -3.007779806783829682e-02 -9.193546190672572394e-01 7.402096219158118551e-01 3.259369223160358819e-01 -5.880942426978869042e-01
3.747876572508898607e-02 2.538322017793382540e-02 -7.817204583839660881e-01 8.778334869666105655e-01 1.847901200678875311e-01 -4.418834469465193204e-01
-3.069336964373417867e-02 -9.183248373956769128e-02 -1.034975467482182943e+00 9.431799807236742605e-01 2.442944588348480994e-01 -2.252370780859092869e-01
-3.877718684391062709e-02 2.141455398293353601e-02 -9.443241321816095990e-01 9.948747255903056530e-01 -8.256197660054614973e-02 -5.837636851864628357e-02
-2.617793402551179746e-02 9.158904423998659450e-02 -1.115348436449646874e+00 8.438805162012951167e-01 -4.834380523616946257e-02 5.343487165429735564e-01
-2.985598266151747587e-02 3.237479360279050394e-02 -1.116779364848752509e+00 9.479159006038229141e-01 -2.112402690985758225e-01 -2.383967157777228119e-01
-3.544739607269702802e-02 1.061470379716217965e-01 -9.293768305162732890e-01 9.898055008155686174e-01 -1.403647380965101221e-01 2.414147581113821120e-02
-7.453606547286202241e-03 2.366058797447411766e-01 -8.175198285844859081e-01 8.703600249033387470e-01 -4.506071057532710644e-01 -1.985614849232344992e-01
9.310681144677296350e-02 -9.306183534054066064e-02 -8.054518365634261157e-01 5.112671711662453156e-01 2.413106184589363656e-01 -8.248485103985038203e-01
-2.384550807975388889e-02 -1.022092777221095261e-01 -1.012611494190727379e+00 9.305854632249175307e-01 3.511925590580846634e-01 -1.033173852587236791e-01
-2.639097461965012742e-02 -7.671283694238914541e-02 -9.480102016518886510e-01 8.296155287447312121e-01 1.354334292391005945e-01 -5.416602816435199808e-01
-3.608094784812739680e-02 1.118120673295441014e-01 -8.704631416584400760e-01 9.898055008155686174e-01 -1.403647380965101221e-01 2.414147581113821120e-02
-2.375649439239759311e-02 2.214220806725715196e-01 -1.059276424630128943e+00 9.039757046798753137e-01 -3.350768259200836985e-01 2.656152218526727227e-01
9.543088793341794607e-02 -1.878479032261499149e-01 -8.262885994742815710e-01 7.146285290310948612e-01 4.241915788710580171e-01 -5.562082073376235503e-01
4.574952165197851417e-02 -4.496469940887650590e-02 -7.900324104693283722e-01 6.858574382815535442e-01 4.057227048797910629e-01 -6.041429144655187100e-01
-3.554290961481548772e-02 1.109304631468345931e-01 -8.976486935412802959e-01 9.898055008155686174e-01 -1.403647380965101221e-01 2.414147581113821120e-02
-3.828172097783655303e-02 7.247985706504365619e-03 -9.521194696343389108e-01 9.890289528535313179e-01 1.475652605872400658e-01 6.798844406760178559e-03
-3.337295728685012175e-02 1.530594727007490163e-01 -9.345322153618370598e-01 9.996829558971058738e-01 1.532617523858061451e-02 1.997738825226005183e-02
7.135834811947941447e-02 -3.104916899504124497e-03 -7.323315177487840222e-01 3.579248815443455412e-01 6.625339035643142971e-01 -6.579807032119544541e-01
-1.909446786438627822e-02 -9.327880318936361548e-02 -9.433922325369733519e-01 8.992457998664241670e-01 4.077348532057761821e-01 -1.584590827433356719e-01
5.643394910352455413e-02 -7.428842397923887675e-02 -8.065412721846635380e-01 3.100226768053958581e-01 6.196806873468690968e-01 -7.210282834922142614e-01
-4.374001419584386263e-02 1.175908395086716213e-01 -1.085260738082965526e+00 8.438805162012951167e-01 -4.834380523616946257e-02 5.343487165429735564e-01
7.573540062631267666e-02 8.813475558090290429e-03 -7.207271381868347593e-01 3.158748079673512899e-01 5.162279212413253271e-01 -7.960727598796790705e-01
-3.292598395735187727e-02 7.082871187864639428e-02 -1.103491564587478546e+00 8.593726069989422456e-01 4.007641519235501798e-02 5.097770132961779721e-01
-2.525849792175390018e-02 -9.447899577571812479e-02 -9.978732116580517619e-01 9.314575263324761378e-01 3.582693478140963617e-01 -6.348189549349234073e-02
-3.542295723346702147e-02 -1.217702208241183137e-01 -1.128563591346436468e+00 9.907532346658373124e-01 -9.245013969175068513e-02 -9.930256628182382306e-02
1.900262308377640222e-02 -1.709245425073915581e-01 -9.234428659732385469e-01 8.449521841244517217e-01 3.760638158351969906e-01 -3.803048947394573887e-01
-4.845358477711305539e-02 -1.095885167302413504e-02 -1.034247538939587763e+00 9.789208669105977645e-01 1.990420227881457282e-01 -4.578438043052467793e-02
5.747257431496955588e-02 -8.338254493650356508e-03 -7.561032069639561648e-01 8.778334869666105655e-01 1.847901200678875311e-01 -4.418834469465193204e-01
-5.076916596245232421e-02 1.009340178119617765e-01 -1.032110509405561372e+00 9.566323391564018896e-01 -4.063700054216402152e-02 -2.884496522221631221e-01
-2.248268677579325428e-02 1.965604613305520498e-01 -8.188743683142990504e-01 7.057798855456861586e-01 9.514222133384246660e-02 -7.020133267102416363e-01
1.777002000910703206e-01 -1.856730965422912216e-01 -7.782267340970803193e-01 3.460349807926211274e-01 2.136824916671482277e-01 -9.135642204151656065e-01
-2.578651779023457755e-02 1.028626927793094697e-01 -1.115376763007175365e+00 8.920995739841985905e-01 9.061130010468270921e-03 4.517479895031572545e-01
7.141402335636710952e-02 -1.925534045602624311e-01 -8.607346403492305287e-01 7.146285290310948612e-01 4.241915788710580171e-01 -5.562082073376235503e-01
-4.105540268011795280e-02 5.936604125590805997e-02 -1.088885997223589364e+00 8.593726069989422456e-01 4.007641519235501798e-02 5.097770132961779721e-01
7.479675786197499676e-02 -6.518620810607557436e-02 -7.908229504861998826e-01 3.100226768053958581e-01 6.196806873468690968e-01 -7.210282834922142614e-01
-3.049939251670873847e-02 1.785043921278780255e-01 -8.557300326321333195e-01 9.962030422643695093e-01 -6.981223546110433553e-02 -5.201682769199177103e-02
4.245070918159913470e-02 -8.274691618287124961e-02 -8.198232556420793626e-01 3.100226768053958581e-01 6.196806873468690968e-01 -7.210282834922142614e-01
-6.506261849067150951e-03 1.085338204026376902e-01 -8.244038501093324811e-01 8.116194924886528383e-01 1.889590320966110515e-01 -5.527823112234809821e-01
7.041237443795893280e-02 5.113649716425582720e-02 -7.266652676857011661e-01 7.123753448036718172e-01 -1.292506407619433417e-01 -6.897939112361584080e-01
1.005909578278390698e-01 -8.977251388820327305e-02 -7.998506304212420481e-01 5.112671711662453156e-01 2.413106184589363656e-01 -8.248485103985038203e-01
-3.209376313843269324e-02 1.652200088133688738e-01 -8.684356203673889718e-01 9.962030422643695093e-01 -6.981223546110433553e-02 -5.201682769199177103e-02
3.783121715174297961e-02 -1.285049464186545885e-02 -7.939126434288016343e-01 8.329006042931200726e-01 1.222781701645451330e-01 -5.397449698416521002e-01
-5.297649824829582521e-02 2.793128960066634803e-02 -1.029146364878386288e+00 9.566323391564018896e-01 -4.063700054216402152e-02 -2.884496522221631221e-01
-2.481038318491228870e-02 7.117852806960817125e-02 -1.117200194419368797e+00 8.593726069989422456e-01 4.007641519235501798e-02 5.097770132961779721e-01
-4.565066379032899774e-02 -2.624711667854539091e-02 -1.172330397872351382e+00 9.589578222842332078e-01 1.450761124725483964e-01 -2.436243351345127595e-01
-4.839143310806426346e-02 1.298163714686596110e-02 -1.165051745680341089e+00 9.362642211407656845e-01 -6.502908430936973905e-02 -3.452253270047839773e-01
-2.202866683700422865e-02 -6.837017890767883854e-02 -9.338318489405612599e-01 7.402096219158118551e-01 3.259369223160358819e-01 -5.880942426978869042e-01
-2.409235067935354760e-02 -9.896783362630570680e-02 -1.003816624770818233e+00 9.305854632249175307e-01 3.511925590580846634e-01 -1.033173852587236791e-01
1.118044269107957844e-01 -1.431057955146247673e-01 -7.953260386160555528e-01 5.888363844913112599e-01 5.330180285489690556e-02 -8.064927960692633846e-01
6.085669644659816996e-02 -4.266811647811724747e-04 -7.460718823078130724e-01 8.778334869666105655e-01 1.847901200678875311e-01 -4.418834469465193204e-01
-4.130742910227788028e-02 -2.248775087840591130e-02 -1.113699748205815521e+00 9.479159006038229141e-01 -2.112402690985758225e-01 -2.383967157777228119e-01
-6.451551934667045830e-03 -9.938361584031552010e-03 -8.807532566020542797e-01 7.436694149701627010e-01 3.956407635427182101e-01 -5.389101849670974165e-01
-3.908679293343335359e-02 8.517567043812160343e-02 -9.020937213064186277e-01 9.898055008155686174e-01 -1.403647380965101221e-01 2.414147581113821120e-02
1.247493080386976594e-01 -1.525409629666684974e-01 -7.897733419325205784e-01 4.383021078681997307e-01 2.002841693164013059e-01 -8.762291445504035714e-01
-3.364207840900530766e-02 -1.114392627597616398e-01 -1.120413621310545338e+00 9.907532346658373124e-01 -9.245013969175068513e-02 -9.930256628182382306e-02
9.400610376399200219e-02 -1.813550650276033183e-01 -8.231674375627703322e-01 7.146285290310948612e-01 4.241915788710580171e-01 -5.562082073376235503e-01
-1.466418161689873184e-02 2.117356448118055401e-01 -8.145925872623492880e-01 6.852591052836627394e-01 -2.623366941875753255e-01 -6.794110813848774910e-01
2.335549870432162417e-02 -8.112854369697122814e-02 -8.397418404999436037e-01 6.858574382815535442e-01 4.057227048797910629e-01 -6.041429144655187100e-01
-5.039429797333962180e-02 9.346913058987365436e-03 -1.067092388361456923e+00 9.917533935087883279e-01 8.768026118168374683e-02 9.347394429954447581e-02
-1.695845879278431306e-02 2.223971245455513002e-01 -8.269379560786150885e-01 8.703600249033387470e-01 -4.506071057532710644e-01 -1.985614849232344992e-01
-3.772795652042356535e-02 2.987697519847951240e-03 -9.402084079666340743e-01 9.890289528535313179e-01 1.475652605872400658e-01 6.798844406760178559e-03
-4.392847625019934144e-02 3.525589795896888479e-02 -1.158478689852561194e+00 8.662631244008652809e-01 -6.934818983036784845e-02 -4.947514809179476836e-01
-3.736889775764112159e-02 2.025353928134895464e-03 -1.119760059751862880e+00 9.479159006038229141e-01 -2.112402690985758225e-01 -2.383967157777228119e-01
5.459468017414118024e-02 -1.369480486138348052e-01 -8.421618473065041188e-01 5.112671711662453156e-01 2.413106184589363656e-01 -8.248485103985038203e-01
4.672953539889451030e-02 5.416498632226379381e-03 -7.716929668390640762e-01 8.778334869666105655e-01 1.847901200678875311e-01 -4.418834469465193204e-01
-2.249650176424186632e-02 1.555370559296250510e-01 -8.317257018282462333e-01 8.115096282057725485e-01 1.903303652935741386e-01 -5.524730539823128339e-01
8.485873660270480678e-02 -1.365579864390105147e-01 -8.174657225016748185e-01 6.556569530353573150e-01 2.924312455889549467e-02 -7.544924118918786560e-01
-4.856574425435447595e-02 3.406614002101581579e-02 -1.074236236701766156e+00 8.593726069989422456e-01 4.007641519235501798e-02 5.097770132961779721e-01
4.048635320619677763e-02 4.702478771022514104e-02 -7.673249468860821043e-01 8.777243498793065868e-01 1.740704512792679570e-01 -4.464296625677784403e-01
8.084471523650489655e-02 -1.644165184090117526e-01 -8.227814983492374168e-01 5.965283239544892924e-01 6.015615880160596340e-01 -5.312980468095513942e-01
1.266823397864771383e-01 -1.750465243006776028e-01 -7.953726163966031715e-01 4.214006862727971980e-01 5.612489130713994578e-01 -7.123349768086558731e-01
-2.053290834729637471e-02 2.063834616144427092e-01 -8.184452244263012988e-01 6.852591052836627394e-01 -2.623366941875753255e-01 -6.794110813848774910e-01
-4.920835335991765452e-02 -6.626906093599787759e-03 -1.038345695961899740e+00 9.803544613348502690e-01 1.940455640528679360e-01 3.537582807878689867e-02
-3.077138513489295277e-02 -1.089133361019154062e-01 -1.087475635531853779e+00 9.963476241707215353e-01 3.701059937632823760e-02 7.695211071285547322e-02
-3.071941290370864067e-02 1.572523956642272180e-01 -1.106726361564402517e+00 8.920995739841985905e-01 9.061130010468270921e-03 4.517479895031572545e-01
-5.292098528496292503e-02 1.161276724622020348e-02 -1.035508516591191253e+00 9.803544613348502690e-01 1.940455640528679360e-01 3.537582807878689867e-02
-7.428534637556963478e-03 2.134543668510781485e-03 -8.732381243774741675e-01 7.436694149701627010e-01 3.956407635427182101e-01 -5.389101849670974165e-01
1.166278475967101880e-01 -1.251367716771478455e-01 -7.906167752696680040e-01 5.888363844913112599e-01 5.330180285489690556e-02 -8.064927960692633846e-01
1.496878684622456324e-01 -1.407466566225589744e-01 -7.758287702912375350e-01 3.266944865756934435e-01 1.702115790978989684e-01 -9.296766807778087394e-01
2.675437564194555265e-02 -1.402200327414434289e-01 -8.779185509534513931e-01 8.628837613294882969e-01 2.431988400188790089e-01 -4.430416895139175359e-01
3.031286218128441401e-02 -4.058316311286384176e-02 -8.117972794920718105e-01 8.329006042931200726e-01 1.222781701645451330e-01 -5.397449698416521002e-01
-2.833687619272710206e-02 3.632745549002143470e-02 -8.815280967068415130e-01 7.892757319843802799e-01 2.989785576418332869e-01 -5.363353810545503642e-01
4.320448890896422950e-02 3.131598276932426317e-02 -7.681059542916381933e-01 8.777243498793065868e-01 1.740704512792679570e-01 -4.464296625677784403e-01
4.917118400393972327e-02 -1.725535460961978920e-02 -7.763235398735318649e-01 8.778334869666105655e-01 1.847901200678875311e-01 -4.418834469465193204e-01
-3.298161951083228294e-02 1.291056487926260377e-01 -9.357382389686016433e-01 9.996829558971058738e-01 1.532617523858061451e-02 1.997738825226005183e-02
-4.401369737148085742e-02 3.401345489252478871e-02 -1.000863860004548300e+00 9.547657550579087271e-01 -3.637184632822664659e-02 -2.951261455096401698e-01
-4.613872333638487089e-02 6.575231054139390845e-03 -1.076629474744468240e+00 9.368096608406074610e-01 -1.012923372289355056e-01 3.348544785043277572e-01
-3.379235571392064791e-02 1.219909703182107952e-01 -9.051131372921459306e-01 9.898055008155686174e-01 -1.403647380965101221e-01 2.414147581113821120e-02
7.471711100460541599e-02 -1.757633172107420927e-01 -8.425088206146175152e-01 5.965283239544892924e-01 6.015615880160596340e-01 -5.312980468095513942e-01
1.224294215829545562e-01 -1.463687346942252610e-01 -7.895229639461514015e-01 4.383021078681997307e-01 2.002841693164013059e-01 -8.762291445504035714e-01
7.378545871696690073e-02 2.252321137888155592e-02 -7.220839159345889824e-01 7.396265143248216267e-01 4.971257670146860506e-03 -6.729991871502455369e-01
-3.646529640982396764e-02 -2.690140802860317010e-02 -9.960714601965947601e-01 9.407910967808071900e-01 1.131606902080477400e-01 -3.195415002931611959e-01
-4.563650639802986630e-02 -3.757604096805854110e-02 -1.178774951319742081e+00 8.524959093168223978e-01 2.069498313451344218e-02 -5.223240778206057477e-01
-3.874542870977962239e-02 -5.480864904287965911e-02 -1.017308046062361582e+00 9.789208669105977645e-01 1.990420227881457282e-01 -4.578438043052467793e-02
-3.356796080209987349e-02 -8.440233941560582043e-02 -1.088257992784189776e+00 9.780407541977222952e-01 1.744589657266063243e-01 1.140190879017794062e-01
-4.378960827149217666e-02 1.496466464967474985e-01 -1.043346832943342850e+00 9.404626582740084340e-01 -2.323976187075957600e-01 -2.480349475602678655e-01
9.079397196164807823e-03 -6.948899502066761824e-02 -8.579876592549183778e-01 9.452875353946712522e-01 -6.377987622594195882e-02 -3.199431243456744567e-01
-3.017412110668115863e-02 -3.526406380447549838e-02 -9.262382982101091677e-01 8.587158087090741576e-01 3.018101562787857128e-01 -4.141470625757182056e-01
-3.248484703310040855e-02 1.118935382788941307e-01 -1.103551126351290046e+00 8.438805162012951167e-01 -4.834380523616946257e-02 5.343487165429735564e-01
7.762779147989835871e-02 -1.786919129123388517e-01 -8.421796031071506761e-01 7.146285290310948612e-01 4.241915788710580171e-01 -5.562082073376235503e-01
-3.250481630055839649e-02 -1.160725278025530743e-01 -1.104753481081860667e+00 9.907532346658373124e-01 -9.245013969175068513e-02 -9.930256628182382306e-02
-1.553880430637197101e-02 -7.691503928204425355e-02 -9.292429702948653558e-01 9.452875353946712522e-01 -6.377987622594195882e-02 -3.199431243456744567e-01
-3.565973496314556873e-02 -5.247732140187061356e-02 -1.001734190455814133e+00 9.346490696090019590e-01 9.717304417687058771e-02 -3.420358404676724362e-01
-3.327017992856042689e-02 1.529835337390983707e-01 -9.396170101417118392e-01 9.996829558971058738e-01 1.532617523858061451e-02 1.997738825226005183e-02
-3.780187839555945034e-02 -6.041738798832704121e-02 -1.082403649159620729e+00 9.955566029419082863e-01 8.349633150764637635e-02 -4.353634072281255263e-02
7.610246298612352578e-02 -2.472221483858251523e-02 -7.515177278835020180e-01 3.579248815443455412e-01 6.625339035643142971e-01 -6.579807032119544541e-01
-3.993741037857442139e-02 -4.586930516257743673e-02 -1.072518204711643719e+00 9.787602992235306942e-01 1.989966943431214774e-01 4.928074983576292284e-02
-5.091405743715696902e-02 2.559288600426862150e-03 -1.041464936840659883e+00 9.803544613348502690e-01 1.940455640528679360e-01 3.537582807878689867e-02
9.012255314905204262e-02 3.312005195606414903e-02 -7.040511633463040209e-01 7.396265143248216267e-01 4.971257670146860506e-03 -6.729991871502455369e-01
-2.424979870150860070e-02 1.421547604929202513e-01 -8.389113455370473815e-01 8.115096282057725485e-01 1.903303652935741386e-01 -5.524730539823128339e-01
-2.065109542087626218e-02 1.903530126954365853e-01 -1.099379545156885296e+00 7.476225121743463875e-01 -4.005718369182954541e-01 5.297195321658639822e-01
9.851106840158694450e-03 -9.756879361113318270e-04 -8.516764490075996452e-01 7.436694149701627010e-01 3.956407635427182101e-01 -5.389101849670974165e-01
-3.423751057802777026e-02 -1.296207771969066502e-01 -1.109427427872781147e+00 9.907532346658373124e-01 -9.245013969175068513e-02 -9.930256628182382306e-02
4.819494271857129725e-02 3.686370309283350938e-02 -7.561310846667665952e-01 8.777243498793065868e-01 1.740704512792679570e-01 -4.464296625677784403e-01
1.865809692339433223e-02 -1.100969556737363686e-01 -8.716617710845518952e-01 7.598798187120224812e-01 4.429705376347062296e-01 -4.757728070222206895e-01
-9.012257394566259086e-03 1.154842425449305460e-01 -8.257073827613659045e-01 8.116194924886528383e-01 1.889590320966110515e-01 -5.527823112234809821e-01
-5.525459577137421113e-02 4.141788381344714554e-02 -1.045608051120617166e+00 9.917533935087883279e-01 8.768026118168374683e-02 9.347394429954447581e-02
-1.010008605339662033e-03 -6.754407629028851001e-02 -8.881850146109768751e-01 9.452875353946712522e-01 -6.377987622594195882e-02 -3.199431243456744567e-01
-4.648732340813620245e-02 1.507411875395985902e-02 -1.010713233439993308e+00 9.407910967808071900e-01 1.131606902080477400e-01 -3.195415002931611959e-01
-3.504045120659619178e-02 -8.603056312716346465e-02 -1.068379711937905485e+00 9.955566029419082863e-01 8.349633150764637635e-02 -4.353634072281255263e-02
-3.321300260261312448e-02 1.584340333201493811e-01 -8.807632779490854880e-01 9.962030422643695093e-01 -6.981223546110433553e-02 -5.201682769199177103e-02
-2.485396085066140723e-02 1.335788024952428432e-01 -8.427532498691694407e-01 8.115096282057725485e-01 1.903303652935741386e-01 -5.524730539823128339e-01
-4.394188867520882474e-02 -3.880353412593257056e-02 -1.173021706403339692e+00 9.885025412186984051e-01 1.037274987377215935e-01 -1.100151444565316411e-01
-3.366006671804919193e-02 -3.618907422636077204e-02 -9.341403562964734064e-01 8.587158087090741576e-01 3.018101562787857128e-01 -4.141470625757182056e-01
-8.356600823520844018e-03 -2.496607501464163242e-02 -8.925677230717131705e-01 7.402096219158118551e-01 3.259369223160358819e-01 -5.880942426978869042e-01
-2.343908516288548821e-02 -9.719181772801969987e-02 -9.864875283770513370e-01 9.314575263324761378e-01 3.582693478140963617e-01 -6.348189549349234073e-02
-5.155324176246137147e-02 4.855125413138358659e-02 -1.027331144553398801e+00 9.566323391564018896e-01 -4.063700054216402152e-02 -2.884496522221631221e-01
-6.852681291542339105e-03 -1.390834310388301964e-01 -9.856945001942090112e-01 9.481136309216058322e-01 2.005116632520367870e-01 -2.467298436763397107e-01
-3.429269292886945319e-02 1.079949436502987553e-01 -9.528992075230767744e-01 9.941455054745351738e-01 2.952571910609698945e-03 1.080092415670708683e-01
-3.323719009632029181e-02 1.461075726837146038e-01 -8.646830563236933553e-01 9.962030422643695093e-01 -6.981223546110433553e-02 -5.201682769199177103e-02
-4.370898938439017611e-02 5.233420619480082941e-02 -1.002135976370141401e+00 9.547657550579087271e-01 -3.637184632822664659e-02 -2.951261455096401698e-01
-1.238079187280450785e-02 -1.092595224534943232e-01 -9.464128942617696660e-01 8.992457998664241670e-01 4.077348532057761821e-01 -1.584590827433356719e-01
-3.200824387654021413e-03 -1.338523207610065324e-01 -9.486165512205003703e-01 9.267937440647783243e-01 3.504672941715342716e-01 -1.350038209773104791e-01
-5.145127374656341401e-02 3.749415408631311813e-02 -1.069641360067018931e+00 8.593726069989422456e-01 4.007641519235501798e-02 5.097770132961779721e-01
-3.873569505188294987e-02 -1.106782029381302331e-02 -1.113593042085162077e+00 9.479159006038229141e-01 -2.112402690985758225e-01 -2.383967157777228119e-01
1.093608561826378001e-01 2.725674072503848216e-02 -6.952511783862387329e-01 3.318501819453580359e-01 5.176412576195307258e-01 -7.886209388247964469e-01
-2.348443295259446117e-02 1.997391051307517151e-01 -1.088282972622422795e+00 7.476225121743463875e-01 -4.005718369182954541e-01 5.297195321658639822e-01
-4.610816207265923394e-02 -2.153367311668387754e-02 -1.171324396104686416e+00 9.589578222842332078e-01 1.450761124725483964e-01 -2.436243351345127595e-01
8.865204186077990656e-02 -1.633697720934864511e-02 -7.338749262092307823e-01 4.786843808190110461e-01 6.661733413472578080e-01 -5.719041378047109436e-01
-2.913173854307712918e-02 9.453267372481463648e-02 -1.110417266503942013e+00 8.438805162012951167e-01 -4.834380523616946257e-02 5.343487165429735564e-01
1.702000160396350409e-02 -1.599297342315776638e-02 -8.300497751805372415e-01 9.739062494446013574e-01 -5.975605289629062206e-03 -2.268720111300033815e-01
-5.094706035287187990e-02 7.329219702833067451e-02 -1.028806289234039495e+00 9.566323391564018896e-01 -4.063700054216402152e-02 -2.884496522221631221e-01
7.937454884692358992e-02 -1.792915744026907510e-01 -8.403926620295487648e-01 7.146285290310948612e-01 4.241915788710580171e-01 -5.562082073376235503e-01
2.437744892995685059e-02 3.699537686912562906e-02 -8.029072635111434986e-01 8.777243498793065868e-01 1.740704512792679570e-01 -4.464296625677784403e-01
-3.307582673796414380e-02 1.261788757649036641e-01 -9.287786908116101303e-01 9.996829558971058738e-01 1.532617523858061451e-02 1.997738825226005183e-02
-4.422512221651439535e-02 3.288965424921205111e-02 -1.081461086485758116e+00 8.593726069989422456e-01 4.007641519235501798e-02 5.097770132961779721e-01
7.818854597884197788e-02 2.889747608267720716e-02 -7.171978354476375994e-01 7.396265143248216267e-01 4.971257670146860506e-03 -6.729991871502455369e-01
6.253163491606407443e-02 -1.924056652360519037e-01 -8.720342549994030135e-01 7.146285290310948612e-01 4.241915788710580171e-01 -5.562082073376235503e-01
1.076865645729046528e-01 -1.062211464253658977e-01 -7.964524321455210831e-01 6.556569530353573150e-01 2.924312455889549467e-02 -7.544924118918786560e-01
-2.872666295210902360e-02 1.953859467609261880e-01 -8.616001726334099331e-01 9.697798637158880908e-01 -2.439617829459438114e-01 -3.108760690342072478e-03
-4.299221295463254849e-02 1.474331662271743393e-01 -1.038249454225019797e+00 9.404626582740084340e-01 -2.323976187075957600e-01 -2.480349475602678655e-01
5.946495150202427138e-02 2.243289279842837838e-02 -7.395999620933483287e-01 8.777243498793065868e-01 1.740704512792679570e-01 -4.464296625677784403e-01
-3.531688036442047485e-02 2.946680969950215070e-02 -1.135916325049754150e+00 9.479159006038229141e-01 -2.112402690985758225e-01 -2.383967157777228119e-01
-4.284998718547125551e-02 1.528522950061519670e-01 -1.083476142266703190e+00 8.438805162012951167e-01 -4.834380523616946257e-02 5.343487165429735564e-01
-3.174977086672645804e-02 1.757148869141725855e-01 -8.759329009749063921e-01 9.962030422643695093e-01 -6.981223546110433553e-02 -5.201682769199177103e-02
-5.405690173633664192e-02 4.601471275611908329e-02 -1.062627427994633278e+00 9.917533935087883279e-01 8.768026118168374683e-02 9.347394429954447581e-02
3.005741377586739968e-02 -1.912070849826590091e-01 -9.182307160451799177e-01 8.450508678756896153e-01 3.346988226452218829e-01 -4.169720959757934331e-01
-3.390810649285855988e-02 1.138323186037268064e-01 -9.478038270192526982e-01 9.898055008155686174e-01 -1.403647380965101221e-01 2.414147581113821120e-02
1.201463979137259303e-01 2.672746421457451380e-02 -6.909066949606785801e-01 3.664106292266647302e-01 6.141493627730941762e-01 -6.989733979166319333e-01
-2.312977665533005878e-02 -2.948441758210381888e-02 -9.136662829053306956e-01 7.402096219158118551e-01 3.259369223160358819e-01 -5.880942426978869042e-01
6.894158869953402775e-03 -1.744856463773611921e-01 -9.616398119957898505e-01 9.481136309216058322e-01 2.005116632520367870e-01 -2.467298436763397107e-01
2.826694591703226081e-02 -3.305449174049863298e-02 -8.132488034106284402e-01 8.329006042931200726e-01 1.222781701645451330e-01 -5.397449698416521002e-01
-3.675536322247951321e-02 5.716991510223735917e-02 -9.288427738530785627e-01 9.941455054745351738e-01 2.952571910609698945e-03 1.080092415670708683e-01
-2.518075067791277627e-02 -9.827930716496265096e-02 -1.011279491208679548e+00 9.305854632249175307e-01 3.511925590580846634e-01 -1.033173852587236791e-01
5.554562634922731446e-02 -6.097874143535002983e-03 -7.589943297405686851e-01 8.778334869666105655e-01 1.847901200678875311e-01 -4.418834469465193204e-01
-4.612616878688706457e-02 1.709441015051025858e-01 -1.062249642243440428e+00 9.485812831593044558e-01 3.156085260725120523e-01 2.418279368030298859e-02
-1.737146333730639480e-02 2.272444548244525186e-01 -8.397486182986559911e-01 8.703600249033387470e-01 -4.506071057532710644e-01 -1.985614849232344992e-01
1.027310215218154021e-01 -1.207082531537989195e-01 -8.013203201006309229e-01 6.556569530353573150e-01 2.924312455889549467e-02 -7.544924118918786560e-01
-1.029467548750225220e-03 -1.441779888865467041e-01 -9.614833568453430290e-01 9.221599056457766563e-01 3.633455352053809873e-01 -1.326692521486703691e-01
6.207193045968443373e-02 1.511560553234328821e-02 -7.373275203197021677e-01 8.777243498793065868e-01 1.740704512792679570e-01 -4.464296625677784403e-01
-5.530939788565155529e-02 7.763505340468151994e-02 -1.043885641147221932e+00 9.566323391564018896e-01 -4.063700054216402152e-02 -2.884496522221631221e-01
-4.441355822723359187e-02 -3.027008704551078719e-02 -1.031820533475558577e+00 9.789208669105977645e-01 1.990420227881457282e-01 -4.578438043052467793e-02
-3.579464963181386294e-02 9.961312100881619669e-02 -9.823589446354791255e-01 9.547657550579087271e-01 -3.637184632822664659e-02 -2.951261455096401698e-01
-3.292539005940641611e-02 2.072783562454856010e-01 -1.045914145882516744e+00 9.039757046798753137e-01 -3.350768259200836985e-01 2.656152218526727227e-01
1.006505654624122448e-01 -5.662633531947297572e-02 -7.702890759651914721e-01 3.579248815443455412e-01 6.625339035643142971e-01 -6.579807032119544541e-01
-3.154646632118120186e-02 -1.076767037260960291e-01 -1.055732613218534288e+00 9.431799807236742605e-01 2.442944588348480994e-01 -2.252370780859092869e-01
-4.741572427772366982e-02 4.842776927683605653e-02 -1.169082470362955650e+00 9.362642211407656845e-01 -6.502908430936973905e-02 -3.452253270047839773e-01
-4.017116201681875109e-02 -4.048690656820327916e-02 -1.089609923229170496e+00 9.787602992235306942e-01 1.989966943431214774e-01 4.928074983576292284e-02
-3.479571952640979349e-02 -1.578760373281718962e-02 -9.592535653503807547e-01 9.890289528535313179e-01 1.475652605872400658e-01 6.798844406760178559e-03
1.596590367876985980e-02 -2.003009885639558951e-02 -8.344684264006057006e-01 9.739062494446013574e-01 -5.975605289629062206e-03 -2.268720111300033815e-01
-4.374250267924677943e-02 -3.385437709677072832e-02 -1.033054885950144053e+00 9.789208669105977645e-01 1.990420227881457282e-01 -4.578438043052467793e-02
6.813958817951748168e-03 7.212339325978635307e-02 -8.172927838059169670e-01 8.116194924886528383e-01 1.889590320966110515e-01 -5.527823112234809821e-01
-4.220901888165622118e-02 7.187021373956708516e-03 -1.087438395211103304e+00 9.368096608406074610e-01 -1.012923372289355056e-01 3.348544785043277572e-01
-2.070041527699979789e-02 8.942486359385519445e-02 -8.502932810438375011e-01 7.877002561432073779e-01 1.447625631422738701e-01 -5.988089067343642657e-01
-3.068581830404956690e-02 8.377900691912511244e-02 -1.108286089124177476e+00 8.593726069989422456e-01 4.007641519235501798e-02 5.097770132961779721e-01
-3.559568982162980566e-02 -6.761301117410604966e-02 -1.125192802409038961e+00 9.885025412186984051e-01 1.037274987377215935e-01 -1.100151444565316411e-01
2.570818286806210093e-02 -5.450229223418337487e-02 -8.220562835239618726e-01 8.329006042931200726e-01 1.222781701645451330e-01 -5.397449698416521002e-01
-3.410047328560861235e-02 1.210702067675278326e-01 -8.602700333419248668e-01 7.877002561432073779e-01 1.447625631422738701e-01 -5.988089067343642657e-01
1.129798430404764104e-01 3.806199896938232408e-02 -6.847044626161838954e-01 3.664106292266647302e-01 6.141493627730941762e-01 -6.989733979166319333e-01
-4.782784474182893292e-02 2.548100789997773813e-02 -1.074805248840118077e+00 8.593726069989422456e-01 4.007641519235501798e-02 5.097770132961779721e-01
-3.628773990660386084e-02 -6.602502086203916945e-03 -9.415668190355006573e-01 9.890289528535313179e-01 1.475652605872400658e-01 6.798844406760178559e-03
-3.720419850920957811e-02 5.416615523800894644e-02 -9.638373466469059014e-01 9.948747255903056530e-01 -8.256197660054614973e-02 -5.837636851864628357e-02
-3.489640889755724062e-02 1.189432895996212075e-01 -8.775667265551945206e-01 9.898055008155686174e-01 -1.403647380965101221e-01 2.414147581113821120e-02
2.325555005689285484e-02 -4.311106834013168909e-02 -8.232603731832383032e-01 8.329006042931200726e-01 1.222781701645451330e-01 -5.397449698416521002e-01
1.293463275692121814e-02 -2.049587453144087208e-03 -8.479545242156698581e-01 9.739062494446013574e-01 -5.975605289629062206e-03 -2.268720111300033815e-01
1.007626655007302398e-02 5.399400842767100583e-02 -8.183736844324884796e-01 7.877002561432073779e-01 1.447625631422738701e-01 -5.988089067343642657e-01
-3.579459843986885353e-02 9.536638651647408316e-02 -9.387300557517261890e-01 9.941455054745351738e-01 2.952571910609698945e-03 1.080092415670708683e-01
-5.538261562506573837e-02 -3.803268180447586400e-03 -1.193343667577871692e+00 8.524959093168223978e-01 2.069498313451344218e-02 -5.223240778206057477e-01
2.837630142931499982e-02 -1.147554621456024770e-02 -8.081913848189257177e-01 8.329006042931200726e-01 1.222781701645451330e-01 -5.397449698416521002e-01
-3.765236347509723358e-02 1.408465308447596209e-01 -1.001836572608547193e+00 9.485812831593044558e-01 3.156085260725120523e-01 2.418279368030298859e-02
-3.225836682556247614e-02 -3.311521664824252503e-02 -9.532634720428798669e-01 9.882750334585057583e-01 -3.520478911531945473e-03 1.526435864057929803e-01
-5.050971087468902887e-02 1.364594572796646588e-01 -1.056471330997348357e+00 9.404626582740084340e-01 -2.323976187075957600e-01 -2.480349475602678655e-01
6.643107002174268583e-02 2.350375476862312518e-02 -7.301591505642232027e-01 7.396265143248216267e-01 4.971257670146860506e-03 -6.729991871502455369e-01
-3.580206021182520681e-02 3.713326196646582478e-02 -8.920647309148898030e-01 7.892757319843802799e-01 2.989785576418332869e-01 -5.363353810545503642e-01
1.629132026056218790e-02 -2.159965080979863936e-02 -8.330301517363564168e-01 9.739062494446013574e-01 -5.975605289629062206e-03 -2.268720111300033815e-01
1.781045598352616333e-01 -1.715165871509182205e-01 -7.730043549862799512e-01 2.171888605860487209e-01 3.847555871942678896e-01 -8.971020772242855879e-01
1.557809732721708307e-01 -1.804234168505547686e-01 -7.823398619478941773e-01 2.165706196978852416e-01 4.085043888589977579e-01 -8.866912263954181972e-01
-4.428050964491018343e-02 -1.882555762415854747e-02 -1.157228082244651235e+00 9.885025412186984051e-01 1.037274987377215935e-01 -1.100151444565316411e-01
-1.116602889785504003e-02 2.147770595616227962e-01 -1.090426007471654524e+00 5.091734014729702995e-01 -5.119225145317607417e-01 6.918654394807739472e-01
-2.788025315763517295e-02 2.109776199702023958e-01 -1.058417735156131023e+00 9.039757046798753137e-01 -3.350768259200836985e-01 2.656152218526727227e-01
-3.046030180239542653e-02 -4.372295154861496891e-02 -9.836057584328730119e-01 9.890289528535313179e-01 1.475652605872400658e-01 6.798844406760178559e-03
-5.577130493134502265e-02 4.526669543315490346e-02 -1.043736050788179215e+00 9.917533935087883279e-01 8.768026118168374683e-02 9.347394429954447581e-02
4.191875728671016176e-03 -5.424413826484112550e-02 -8.754671041112560559e-01 9.452875353946712522e-01 -6.377987622594195882e-02 -3.199431243456744567e-01
-3.416395951774976736e-02 1.350421556477447438e-01 -8.675811380446297738e-01 9.962030422643695093e-01 -6.981223546110433553e-02 -5.201682769199177103e-02
8.800111598346484210e-02 -6.030760065249237550e-02 -7.808767964917775473e-01 3.579248815443455412e-01 6.625339035643142971e-01 -6.579807032119544541e-01
-3.799521135026858593e-02 1.968445448030326991e-02 -9.285504875943463299e-01 9.948747255903056530e-01 -8.256197660054614973e-02 -5.837636851864628357e-02
1.965886926361304007e-02 3.740502902762663060e-04 -8.191528522000475210e-01 9.739062494446013574e-01 -5.975605289629062206e-03 -2.268720111300033815e-01
-3.989898783034322161e-02 1.334865860069945898e-01 -1.013453695337781069e+00 9.404626582740084340e-01 -2.323976187075957600e-01 -2.480349475602678655e-01
-4.720515120672838516e-02 -1.668246599261122634e-02 -1.038702192927443591e+00 9.803544613348502690e-01 1.940455640528679360e-01 3.537582807878689867e-02
4.666918236476536724e-02 -1.569141470136035665e-01 -8.526583913456318164e-01 5.965283239544892924e-01 6.015615880160596340e-01 -5.312980468095513942e-01
1.063539924848378240e-02 2.818328071514549990e-02 -8.291871154677148414e-01 7.436694149701627010e-01 3.956407635427182101e-01 -5.389101849670974165e-01
-4.866743376760885448e-02 5.661452705977847860e-02 -1.075837464920150310e+00 8.593726069989422456e-01 4.007641519235501798e-02 5.097770132961779721e-01
-3.023498707494509663e-02 -5.055397461797635217e-02 -9.375070415213545560e-01 8.587158087090741576e-01 3.018101562787857128e-01 -4.141470625757182056e-01
8.704183790716514546e-02 -1.228402233136611094e-01 -8.150369163582188436e-01 6.556569530353573150e-01 2.924312455889549467e-02 -7.544924118918786560e-01
-3.540277652138650033e-02 7.612170053892138022e-02 -9.418104095726833602e-01 9.941455054745351738e-01 2.952571910609698945e-03 1.080092415670708683e-01
2.924746347887685963e-02 -1.797246117447256208e-01 -9.093830609988537983e-01 8.449521841244517217e-01 3.760638158351969906e-01 -3.803048947394573887e-01
-4.252821362513143494e-02 1.126496528149507764e-01 -1.006430210648764145e+00 9.566323391564018896e-01 -4.063700054216402152e-02 -2.884496522221631221e-01
-3.995239269039801977e-02 7.991264521376013896e-02 -8.972045320679984393e-01 9.898055008155686174e-01 -1.403647380965101221e-01 2.414147581113821120e-02
-2.889102247992579933e-02 -6.113151312954773903e-02 -9.424287833163026429e-01 8.587158087090741576e-01 3.018101562787857128e-01 -4.141470625757182056e-01
6.428417477860647045e-02 -9.475373016697789808e-02 -8.207545939953296843e-01 3.100226768053958581e-01 6.196806873468690968e-01 -7.210282834922142614e-01
-3.495055746338103508e-02 9.558214551472500597e-02 -9.465047292424930703e-01 9.941455054745351738e-01 2.952571910609698945e-03 1.080092415670708683e-01
2.932942880678632291e-02 -1.618794783408272764e-01 -8.915548241326342049e-01 8.449521841244517217e-01 3.760638158351969906e-01 -3.803048947394573887e-01
-4.708401681065424449e-02 4.293743839321378930e-02 -1.167148669534922911e+00 9.362642211407656845e-01 -6.502908430936973905e-02 -3.452253270047839773e-01
-3.490990544116676780e-02 -8.249208664152891946e-02 -1.079669818280581950e+00 9.780407541977222952e-01 1.744589657266063243e-01 1.140190879017794062e-01
-3.983550898499228776e-02 7.971855745212075295e-02 -9.011086972636813686e-01 9.941455054745351738e-01 2.952571910609698945e-03 1.080092415670708683e-01
-1.166423701290232075e-02 1.777672696609070291e-01 -8.105448708367593014e-01 7.057798855456861586e-01 9.514222133384246660e-02 -7.020133267102416363e-01
8.095221989796719253e-02 -1.521458473847839832e-01 -8.214646660977918957e-01 6.556569530353573150e-01 2.924312455889549467e-02 -7.544924118918786560e-01
-4.122494245159075144e-02 -4.557966951108668313e-02 -1.030200936210078577e+00 9.789208669105977645e-01 1.990420227881457282e-01 -4.578438043052467793e-02
-4.002673386025806107e-02 2.994161987419369231e-02 -9.776793101242814421e-01 9.948747255903056530e-01 -8.256197660054614973e-02 -5.837636851864628357e-02
-5.582094636371859320e-02 1.097727949162125571e-01 -1.051605491930478253e+00 9.404626582740084340e-01 -2.323976187075957600e-01 -2.480349475602678655e-01
-3.485175440160356158e-02 -1.485780417426046246e-02 -9.712829626013042006e-01 9.890289528535313179e-01 1.475652605872400658e-01 6.798844406760178559e-03
3.601994496661129613e-02 -4.318333084683988188e-02 -8.035795300069412672e-01 8.329006042931200726e-01 1.222781701645451330e-01 -5.397449698416521002e-01
-1.138630107308882811e-02 -4.937851084889735565e-02 -9.099110785031752080e-01 7.402096219158118551e-01 3.259369223160358819e-01 -5.880942426978869042e-01
-3.545199911690660038e-02 2.019584635233211412e-01 -1.044026375926681016e+00 9.039757046798753137e-01 -3.350768259200836985e-01 2.656152218526727227e-01
-3.739683192538707790e-02 -6.012482001277538041e-02 -1.072580245689023659e+00 9.955566029419082863e-01 8.349633150764637635e-02 -4.353634072281255263e-02
2.944416005969235917e-02 -1.946107480963569780e-01 -9.220798017300902982e-01 8.711681755519266046e-01 2.212660226636687100e-01 -4.383005328768473929e-01
