-6.081310228604586143e-02 -4.017651705077868174e-02 -5.668506465772110703e-01 -7.804657011673152844e-01 1.202891819724609679e-01 -6.135175645422119572e-01
7.926164936523787119e-02 9.193765080480864604e-03 -7.720132245933412074e-01 -9.906570949972969276e-01 1.301126934393693479e-01 -4.085593148454009366e-02
6.404188040726407904e-02 5.769378906910959531e-02 -8.405442008069817783e-01 -9.151391912983922738e-01 7.129108220162652665e-02 3.967843773994205181e-01
-4.776674341705697963e-02 4.332306224881014856e-02 -5.663887338433788443e-01 -6.270644429896921057e-01 2.520372300646498975e-01 -7.370667669888297802e-01
3.219697360042162587e-02 1.990895162661168727e-01 -5.916988842276335037e-01 -9.646468697500439893e-01 -1.384498753725357800e-01 -2.242499692101904418e-01
6.711933378323069188e-02 -6.156688098634802847e-02 -7.954950004334411240e-01 -9.299607640939617781e-01 1.833382872465386393e-01 -3.186848751906507515e-01
8.162514127188075230e-02 -4.230118921032798712e-02 -8.337332150361933536e-01 -9.517869736178024009e-01 2.798822734203137430e-01 1.255685863444415129e-01
6.792030020039592497e-02 1.037035923547661581e-01 -8.509117480481449558e-01 -9.300464373982733068e-01 2.572109322415426225e-01 2.624045743088645466e-01
-6.651398958069230927e-02 -2.393536882260884069e-02 -5.564141378211335809e-01 -7.804657011673152844e-01 1.202891819724609679e-01 -6.135175645422119572e-01
7.867886491269099336e-02 7.516163947536452783e-02 -8.099241036051324505e-01 -9.151391912983922738e-01 7.129108220162652665e-02 3.967843773994205181e-01
7.613631615496518901e-02 -5.678073651834686375e-02 -8.242550634961685052e-01 -9.205368560091273800e-01 3.083063292670366606e-01 -2.399147850023355955e-01
8.613566089279788007e-02 1.434991906860391964e-01 -8.253585792832444090e-01 -9.300464373982733068e-01 2.572109322415426225e-01 2.624045743088645466e-01
-1.151072155082977222e-01 -1.178813870790815233e-01 -5.856165089710592131e-01 -6.807074237146225615e-01 3.234270954462253184e-02 -7.318410704784976684e-01
-1.237132708558100203e-01 -8.732750436811458072e-02 -5.683806853728390340e-01 -3.069642601515969460e-01 4.705693701043894284e-01 -8.272468863097283132e-01
8.757918512616656714e-02 9.209771176487349664e-02 -7.748599658438146687e-01 -9.379192200483144060e-01 2.816510243006933173e-02 -3.457083505920353073e-01
-4.170500607207996979e-02 -1.246691291859540474e-01 -6.439696313418337148e-01 -6.384733436980820631e-01 5.082926503397799944e-01 -5.779190003776940587e-01
4.262735589972209416e-02 6.617112196281214886e-02 -6.415326814067423555e-01 -9.696993310909935992e-01 1.362904963232436373e-01 -2.027513449860292583e-01
1.220267106637314787e-03 -7.678352793669991627e-02 -6.730436231177022721e-01 -6.570296143313328896e-01 4.494341306852812634e-01 -6.052446183707755889e-01
8.143630761173291377e-02 1.692776260470468808e-02 -8.993374313640517537e-01 -9.588966289445428615e-01 -2.708512725797732612e-01 8.459812728842899809e-02
7.733923275637565042e-02 -8.421233463183698184e-03 -8.099776755779091175e-01 -9.818566513367270598e-01 -1.844868450022854045e-01 4.384199182212848017e-02
4.836197104676598357e-02 -1.231685242613720921e-01 -8.002994636749253266e-01 -9.321878000950620802e-01 2.565308054215678091e-01 -2.553778596975285753e-01
-2.130201165779816580e-02 -1.516871319329397005e-01 -6.921040218197250793e-01 -8.260791738148582919e-01 3.513494949923973154e-01 -4.406208471667547033e-01
-1.117292211928542882e-02 -6.311919671988275304e-02 -6.472147003654609154e-01 -8.458510048317096075e-01 2.003066669918770748e-01 -4.943817520740351190e-01
-4.204248691199414384e-02 -9.546494118102609450e-02 -6.184942800233618199e-01 -6.475668493978913309e-01 4.965579579514200481e-01 -5.780029151795037512e-01
-4.650743574727769086e-02 -1.461126248103162065e-02 -5.800417191475532031e-01 -7.855045028210503322e-01 1.182923388650397589e-01 -6.074451404149129319e-01
8.970712550285052378e-02 2.103688750250181094e-01 -8.113850564099805984e-01 -9.410631087418631635e-01 -3.429997478145847128e-02 3.364873505721899249e-01
1.650337931591242674e-02 -9.732739947922601498e-02 -7.013654478084127009e-01 -7.440122691604613703e-01 5.288743926274661611e-01 -4.083351811461147784e-01
5.299909852258503917e-02 1.490455643179803558e-01 -6.655566700942777691e-01 -9.570541429808845368e-01 5.812882653857073811e-02 -2.840218423438127249e-01
9.123219620488096093e-02 1.867039726872568306e-01 -8.097837612302900556e-01 -9.359721156663390884e-01 -4.559140384284852965e-02 3.491097572264569848e-01
-1.613033547048624561e-01 4.039927996967726705e-03 -4.927987712229944806e-01 5.104970501019757273e-02 3.243064756281591743e-01 -9.445735744154682978e-01
3.107007867297097506e-02 -9.122601178840146485e-02 -7.258142406526192358e-01 -8.083201758869664744e-01 4.908174612662466463e-01 -3.251410662623538950e-01
7.793497986679324974e-02 -1.943820593943636904e-02 -8.028198769829678616e-01 -9.299607640939617781e-01 1.833382872465386393e-01 -3.186848751906507515e-01
-3.502664515543982282e-02 -1.809318919959899963e-01 -6.892727659092403592e-01 -5.737496640718071639e-01 4.210816348888739569e-01 -7.024966759613896494e-01
-3.988348605577331923e-02 1.661577243517598987e-02 -5.822279254284974392e-01 -6.270644429896921057e-01 2.520372300646498975e-01 -7.370667669888297802e-01
-1.336169664248102185e-01 -1.116032722503954716e-01 -5.681225794543681706e-01 -6.807074237146225615e-01 3.234270954462253184e-02 -7.318410704784976684e-01
-1.359814693209458192e-01 2.513126857554470392e-02 -4.868211109815061555e-01 -2.687806112710204309e-01 5.161456993650974379e-02 -9.618175082493799488e-01
-3.312675668282583086e-02 -1.418458293390638947e-01 -6.674410858248167600e-01 -6.744509004026301158e-01 3.755885948484292691e-01 -6.356486375080686591e-01
5.174050448558265014e-02 1.233046782162084409e-01 -6.665838617472410466e-01 -9.570541429808845368e-01 5.812882653857073811e-02 -2.840218423438127249e-01
3.978568970119780029e-02 -3.314876995734618997e-02 -7.083906322093883601e-01 -9.852847352225223565e-01 1.045936006882762781e-01 -1.351819856066097947e-01
-2.589676689960223894e-03 1.315575237811046350e-01 -5.617223893482882202e-01 -6.278034018238798364e-01 2.653065642804224300e-01 -7.317617888412064620e-01
5.312566735526618247e-03 -1.039257739022389493e-01 -6.895212795376114423e-01 -7.440122691604613703e-01 5.288743926274661611e-01 -4.083351811461147784e-01
9.537698261739860350e-02 1.833720067937356368e-01 -7.991066162129734085e-01 -9.359721156663390884e-01 -4.559140384284852965e-02 3.491097572264569848e-01
8.404431773152856722e-02 -4.019598221013159257e-03 -8.755697595433920011e-01 -9.479643974413678453e-01 -2.346218987843883830e-01 -2.152116767148866683e-01
3.971115489108673763e-02 1.754652080774887768e-01 -6.152352079887277725e-01 -9.572422606535954115e-01 5.922840939797543308e-02 -2.831594072938072304e-01
-6.769821409060408635e-02 -1.931602488734196210e-01 -6.669036844602308500e-01 -6.500069500479780382e-01 2.176445167645178480e-01 -7.280946567663197921e-01
8.266160984722759064e-02 3.481904698382282809e-02 -7.728459194890496819e-01 -9.906570949972969276e-01 1.301126934393693479e-01 -4.085593148454009366e-02
8.591497729957950358e-02 -2.361655709194629502e-03 -8.902390465668680308e-01 -9.517869736178024009e-01 2.798822734203137430e-01 1.255685863444415129e-01
-1.139636896546459693e-01 -1.741095777963298785e-01 -6.027026817578117202e-01 -7.240514344397246393e-01 3.444737695267936495e-01 -5.975678558906752924e-01
7.813033324223404852e-02 2.041481708566511566e-02 -9.256455141302150080e-01 -9.588966289445428615e-01 -2.708512725797732612e-01 8.459812728842899809e-02
-8.280929785672049015e-02 -1.503788328097893923e-01 -6.207892952006994758e-01 -6.604161204663129281e-01 4.686253430436991274e-01 -5.867204067402123080e-01
-5.900994205078229082e-02 -1.436151271018718811e-01 -6.410233313843507474e-01 -6.744509004026301158e-01 3.755885948484292691e-01 -6.356486375080686591e-01
7.939884413192811741e-02 -2.984419998686353714e-02 -9.086527779353649192e-01 -9.575664671944760231e-01 7.553411071159571444e-02 2.781385608356007899e-01
-1.659536454152266832e-02 4.890085053906859103e-02 -5.866279015257789275e-01 -5.386699158555532385e-01 4.168398774072807345e-01 -7.321743223818045765e-01
3.297630527490049562e-02 -1.335675807652314528e-01 -7.770906132045745096e-01 -8.291609586454500302e-01 3.093057213752522516e-01 -4.656415739414742627e-01
4.317123963975773304e-02 5.992128536557288915e-02 -6.483350877275281254e-01 -9.696993310909935992e-01 1.362904963232436373e-01 -2.027513449860292583e-01
2.174685637758087819e-02 7.829811196828895259e-02 -6.019747431246659231e-01 -5.456499114291214481e-01 2.634443043019791264e-01 -7.955270408278014571e-01
5.848276688885197666e-02 -8.474439995530123892e-02 -7.890724894498407638e-01 -9.227495220364856365e-01 3.332927498689205459e-01 -1.935181192194949662e-01
-1.044061995010438617e-04 2.460092025823784334e-01 -5.550720502031498693e-01 -8.123392838577286890e-01 -3.761517968250751021e-01 -4.456621070348926739e-01
7.459065146989675432e-02 1.324743012113788754e-01 -7.285590535715609217e-01 -9.176038893239210070e-01 1.389494237716111247e-01 -3.724193334551130774e-01
1.459759924983451349e-02 -1.571900008563642190e-03 -6.347972769853087449e-01 -6.270644429896921057e-01 2.520372300646498975e-01 -7.370667669888297802e-01
-2.549844143065212523e-02 -1.044403845367645467e-01 -6.461309305501921063e-01 -7.057382426288284494e-01 4.475632402367153428e-01 -5.492000353969265225e-01
3.579897014477277650e-02 1.653712264540444232e-01 -6.041211216700568265e-01 -9.572422606535954115e-01 5.922840939797543308e-02 -2.831594072938072304e-01
-1.186735225494453816e-01 -5.685641030525484529e-02 -5.436821333260175582e-01 -1.844908459308249038e-01 6.524417324180550315e-01 -7.350393959285828061e-01
-2.284365291231301928e-02 2.703772267957869901e-02 -5.931609295580845265e-01 -6.270644429896921057e-01 2.520372300646498975e-01 -7.370667669888297802e-01
-1.054788222826106847e-01 -9.757185729205250513e-02 -5.809742688489435425e-01 -3.069642601515969460e-01 4.705693701043894284e-01 -8.272468863097283132e-01
3.371689061522202546e-02 -9.498056083017766826e-02 -7.375585237911745917e-01 -7.889531189243228493e-01 4.761498651890860301e-01 -3.883738946170286477e-01
-1.213235493733468614e-03 4.111972652203414735e-02 -6.023746609910626271e-01 -5.386699158555532385e-01 4.168398774072807345e-01 -7.321743223818045765e-01
-1.328989217628836483e-01 -1.942206692093488563e-01 -5.898343387665639925e-01 -8.144863807118100096e-01 2.770666054038116721e-01 -5.097509507641795334e-01
-5.237778797069641418e-02 -5.108717419441033414e-02 -5.797205430245557789e-01 -7.804657011673152844e-01 1.202891819724609679e-01 -6.135175645422119572e-01
5.543518794254562176e-02 -1.025311545674192498e-01 -8.036185361170306019e-01 -9.205368560091273800e-01 3.083063292670366606e-01 -2.399147850023355955e-01
8.188453179843488416e-02 1.626887428322419393e-01 -8.381230055970495529e-01 -9.410631087418631635e-01 -3.429997478145847128e-02 3.364873505721899249e-01
4.849100616095645272e-02 -1.395093948888078729e-02 -7.219566071799256024e-01 -7.876990567608564975e-01 8.033383690097452290e-02 -6.108000250710743373e-01
3.663866758760121051e-02 1.791037840190171648e-01 -6.040873468320856476e-01 -9.572422606535954115e-01 5.922840939797543308e-02 -2.831594072938072304e-01
-9.388554695989842491e-02 3.885881411793887241e-02 -5.104228770597857290e-01 -6.779059977551352700e-01 5.616704632816893472e-01 -4.743097604778415133e-01
-1.328150533093047370e-01 -2.106467791456838323e-02 -5.133059225576319662e-01 -1.269782593778138180e-01 6.021681509684613243e-01 -7.882068507724385720e-01
-1.522072657081971134e-02 5.118899167672371492e-02 -5.863365605912779221e-01 -5.386699158555532385e-01 4.168398774072807345e-01 -7.321743223818045765e-01
4.817868767280605174e-02 5.039787416945069182e-02 -6.823196015890663491e-01 -9.767937684765017892e-01 1.850382167232919872e-01 -1.078646940260745701e-01
5.082822745769440681e-02 6.300379216052302833e-02 -6.846881000888593860e-01 -9.767937684765017892e-01 1.850382167232919872e-01 -1.078646940260745701e-01
-4.259246605503261979e-02 -6.717135890086968486e-02 -5.953396982404368654e-01 -7.855045028210503322e-01 1.182923388650397589e-01 -6.074451404149129319e-01
7.173022782519672576e-03 -2.502012845940041960e-02 -6.410679539551131789e-01 -6.570296143313328896e-01 4.494341306852812634e-01 -6.052446183707755889e-01
2.099410154562037292e-02 -1.650503685114641447e-02 -6.497485520062689091e-01 -6.570296143313328896e-01 4.494341306852812634e-01 -6.052446183707755889e-01
-6.280570883121032455e-02 -1.900156273783732974e-01 -6.703314706317979876e-01 -6.500069500479780382e-01 2.176445167645178480e-01 -7.280946567663197921e-01
6.694311948440306859e-02 3.462161330169134799e-02 -9.566826629143586613e-01 -9.013883490254556152e-01 -2.119330096541842956e-01 3.776022294161983650e-01
-6.525039212565489355e-03 1.208697212781181113e-02 -6.121564518004585231e-01 -6.270644429896921057e-01 2.520372300646498975e-01 -7.370667669888297802e-01
7.899407759427437559e-02 -4.133507194760945719e-02 -9.069257181205985230e-01 -9.575664671944760231e-01 7.553411071159571444e-02 2.781385608356007899e-01
6.163911397924500685e-02 -1.994188554143893830e-02 -7.397005943522633187e-01 -7.876990567608564975e-01 8.033383690097452290e-02 -6.108000250710743373e-01
5.584176852968361637e-02 1.352909827083804417e-01 -6.779505295484216099e-01 -9.570541429808845368e-01 5.812882653857073811e-02 -2.840218423438127249e-01
-1.343266735826756930e-01 -8.308694198938473829e-02 -5.620302062472837257e-01 -3.069642601515969460e-01 4.705693701043894284e-01 -8.272468863097283132e-01
1.365296127178865400e-02 1.270952396224963310e-01 -5.772753422620575670e-01 -6.278034018238798364e-01 2.653065642804224300e-01 -7.317617888412064620e-01
7.981937628863146339e-02 1.070039815254754806e-01 -7.518594998959992060e-01 -9.181684907048156541e-01 1.492432748369327267e-01 -3.670055416377100421e-01
3.382121434779843810e-02 -1.205103605449136667e-01 -7.697853243560505154e-01 -7.888976333528773255e-01 4.848589994701197892e-01 -3.775609549768932371e-01
9.303663751513566171e-02 1.843763732061055871e-01 -8.052499772553021185e-01 -9.359721156663390884e-01 -4.559140384284852965e-02 3.491097572264569848e-01
7.483663091791184496e-02 -5.706436864096085804e-02 -8.777628387534814891e-01 -9.809550960626125526e-01 1.834424400018428991e-01 -6.384332944765097606e-02
8.704423374208059005e-02 1.760802488280903688e-01 -8.223991822554888032e-01 -9.359721156663390884e-01 -4.559140384284852965e-02 3.491097572264569848e-01
4.488917601560424298e-02 1.739463225383774680e-01 -6.330576136425437594e-01 -9.572422606535954115e-01 5.922840939797543308e-02 -2.831594072938072304e-01
6.866559697793089834e-02 -7.348666389934219167e-02 -8.170586366669460032e-01 -9.205368560091273800e-01 3.083063292670366606e-01 -2.399147850023355955e-01
8.380731240884679856e-02 1.607506093581506923e-01 -7.407181086849652374e-01 -9.176038893239210070e-01 1.389494237716111247e-01 -3.724193334551130774e-01
7.870857771887729282e-02 -3.563362567799110980e-02 -8.707016971400572958e-01 -9.517869736178024009e-01 2.798822734203137430e-01 1.255685863444415129e-01
5.081503764982289034e-02 5.516698550117155736e-02 -6.980124322059828579e-01 -9.767937684765017892e-01 1.850382167232919872e-01 -1.078646940260745701e-01
2.376574924973828135e-02 1.380960698387425911e-01 -5.819630019320273240e-01 -6.278034018238798364e-01 2.653065642804224300e-01 -7.317617888412064620e-01
-4.209589196320159127e-02 -1.225586116535471032e-01 -6.417104161190144707e-01 -6.475668493978913309e-01 4.965579579514200481e-01 -5.780029151795037512e-01
-3.536420152620879664e-02 -1.704890850283231618e-01 -6.827375789934798656e-01 -5.737496640718071639e-01 4.210816348888739569e-01 -7.024966759613896494e-01
-8.132699565335721470e-02 -1.397274156265988221e-01 -6.139159003925909186e-01 -3.069642601515969460e-01 4.705693701043894284e-01 -8.272468863097283132e-01
-1.994783675472128551e-02 -2.571059148281881236e-03 -6.057491768090748074e-01 -6.270644429896921057e-01 2.520372300646498975e-01 -7.370667669888297802e-01
2.822659849407085832e-03 -3.327765341635774421e-02 -6.424771300875564695e-01 -6.570296143313328896e-01 4.494341306852812634e-01 -6.052446183707755889e-01
8.096657642746628303e-02 2.713855511718593974e-02 -7.960193421418148008e-01 -9.151391912983922738e-01 7.129108220162652665e-02 3.967843773994205181e-01
7.050099622656924581e-02 -2.891269927594335154e-02 -7.802798072859472578e-01 -9.585806970429437968e-01 2.635075688268625482e-01 -1.081055430013674462e-01
-2.272075930806770339e-02 1.814659554758077040e-02 -5.963057698463858358e-01 -6.270644429896921057e-01 2.520372300646498975e-01 -7.370667669888297802e-01
9.256878722023469119e-02 1.086295745273332530e-01 -7.830947191740028623e-01 -9.181684907048156541e-01 1.492432748369327267e-01 -3.670055416377100421e-01
-1.525382751162933370e-01 -3.223611811017258050e-02 -5.170131023702084772e-01 -2.349611982857753856e-01 6.054409414649829513e-01 -7.604173207509857813e-01
7.888538297011341016e-02 2.770729162963857586e-02 -8.923548198388993047e-01 -9.517528651950363239e-01 -2.746350237755580959e-01 -1.369017432644227539e-01
7.959155554204570826e-02 2.122929676053031747e-02 -8.842688562869333024e-01 -9.517528651950363239e-01 -2.746350237755580959e-01 -1.369017432644227539e-01
7.676910149937776762e-02 -2.200709074297161130e-02 -9.229074265990075965e-01 -9.988533025440711199e-01 -3.959213643285641737e-02 2.691733139604966796e-02
6.649879813275400009e-02 6.461035940770763764e-02 -8.802724849257325124e-01 -9.517528651950363239e-01 -2.746350237755580959e-01 -1.369017432644227539e-01
2.942255232167271042e-02 6.697621656053773243e-02 -6.109888071389620867e-01 -5.456499114291214481e-01 2.634443043019791264e-01 -7.955270408278014571e-01
9.130955939382730258e-02 1.007474191577246853e-01 -7.831496920968036290e-01 -9.181684907048156541e-01 1.492432748369327267e-01 -3.670055416377100421e-01
-1.683328328805548113e-01 -2.088174656910084942e-02 -5.030924441666312363e-01 -2.349611982857753856e-01 6.054409414649829513e-01 -7.604173207509857813e-01
5.593150504523411448e-02 -9.743983794009941635e-02 -7.987724689531880973e-01 -9.227495220364856365e-01 3.332927498689205459e-01 -1.935181192194949662e-01
3.408519810181970255e-02 -4.411467112610991531e-02 -6.853178609115075925e-01 -9.272533888266151214e-01 2.405473967966315629e-01 -2.869461670835182221e-01
-6.042061288125294416e-02 -3.381174384393074300e-02 -5.661020309376210147e-01 -7.804657011673152844e-01 1.202891819724609679e-01 -6.135175645422119572e-01
-7.301403795811452213e-02 -8.291714980376495639e-03 -5.450781508173414558e-01 -7.804657011673152844e-01 1.202891819724609679e-01 -6.135175645422119572e-01
-6.801721783950982758e-02 -1.150965411276143185e-01 -6.064811217619994199e-01 -6.384733436980820631e-01 5.082926503397799944e-01 -5.779190003776940587e-01
-1.289858186269381146e-01 2.072253419089968227e-02 -4.890126391881804424e-01 -2.687806112710204309e-01 5.161456993650974379e-02 -9.618175082493799488e-01
-1.755202856000186440e-01 2.001100434067100073e-02 -4.882791834737200687e-01 3.513604792936861343e-01 2.687921529570982404e-01 -8.968258426802826477e-01
-1.428023734620532670e-01 -7.955838941195268743e-02 -5.568779768741450864e-01 -3.069642601515969460e-01 4.705693701043894284e-01 -8.272468863097283132e-01
-1.739544897441936550e-02 7.459504054773814785e-02 -5.763534363327892374e-01 -5.456499114291214481e-01 2.634443043019791264e-01 -7.955270408278014571e-01
5.159681053137323697e-02 1.347713296173945474e-01 -6.637528615754237915e-01 -9.570541429808845368e-01 5.812882653857073811e-02 -2.840218423438127249e-01
6.712251114061543178e-02 9.960206229196515160e-02 -7.187488870186787837e-01 -9.379192200483144060e-01 2.816510243006933173e-02 -3.457083505920353073e-01
-3.446517776466189592e-03 1.449364447506125073e-02 -6.139525717135757565e-01 -6.270644429896921057e-01 2.520372300646498975e-01 -7.370667669888297802e-01
7.961182136905479989e-02 1.011644587620044583e-01 -7.525055464450395304e-01 -9.379192200483144060e-01 2.816510243006933173e-02 -3.457083505920353073e-01
5.488028630816023379e-02 -9.699354169249568836e-02 -7.929913106031430958e-01 -9.227495220364856365e-01 3.332927498689205459e-01 -1.935181192194949662e-01
-1.445182954569008138e-01 -1.017737891335249306e-01 -5.574242466681844643e-01 -8.604479684678792983e-01 -6.279466113809871464e-02 -5.056541546274994081e-01
-4.698295743964012866e-02 -3.049747341273662329e-02 -5.825464799320151377e-01 -7.804657011673152844e-01 1.202891819724609679e-01 -6.135175645422119572e-01
7.795777100652567793e-02 1.332164469531562333e-02 -9.253366098316065935e-01 -9.575664671944760231e-01 7.553411071159571444e-02 2.781385608356007899e-01
8.290402518455823599e-02 6.780174797078247946e-03 -8.823208175571922718e-01 -9.479643974413678453e-01 -2.346218987843883830e-01 -2.152116767148866683e-01
6.506832795326088215e-02 -9.444949873472256729e-02 -8.301947839073418045e-01 -9.205368560091273800e-01 3.083063292670366606e-01 -2.399147850023355955e-01
-1.472412221425583034e-01 -2.768621972947997445e-02 -5.150272285560860697e-01 -2.349611982857753856e-01 6.054409414649829513e-01 -7.604173207509857813e-01
2.141311013700876800e-02 1.037607509975545517e-01 -5.933136977072837048e-01 -5.456499114291214481e-01 2.634443043019791264e-01 -7.955270408278014571e-01
-8.621430137497421153e-02 -3.101741013743394837e-02 -5.327415886706940995e-01 -7.804657011673152844e-01 1.202891819724609679e-01 -6.135175645422119572e-01
8.891131190729367750e-02 1.128617465993286550e-01 -7.973033331608526675e-01 -9.150123875402325080e-01 1.576556218201111692e-01 3.713449010777415404e-01
-1.003785223323586662e-01 1.014136523837544553e-02 -5.175957823724492979e-01 -6.755932985993705620e-01 9.083126468456397332e-03 -7.372185508390169950e-01
-4.897431795494699286e-02 9.128017070645509830e-04 -5.738547892800519579e-01 -7.804657011673152844e-01 1.202891819724609679e-01 -6.135175645422119572e-01
7.490338808796384584e-02 3.648140037100647270e-02 -9.107829191895705501e-01 -9.588966289445428615e-01 -2.708512725797732612e-01 8.459812728842899809e-02
-1.015253546895038689e-01 -1.561181442582400825e-01 -6.043064888478414387e-01 -6.604161204663129281e-01 4.686253430436991274e-01 -5.867204067402123080e-01
7.476327855284944923e-02 1.673766468795750278e-02 -9.403510291787344766e-01 -9.988533025440711199e-01 -3.959213643285641737e-02 2.691733139604966796e-02
-1.097278601655596181e-01 -1.743643656608798997e-01 -6.079819586175820856e-01 -7.240514344397246393e-01 3.444737695267936495e-01 -5.975678558906752924e-01
5.132270740667146253e-02 5.343730162481030027e-02 -7.055769674070313524e-01 -9.767937684765017892e-01 1.850382167232919872e-01 -1.078646940260745701e-01
-3.543154278893349135e-02 6.006419585155903934e-02 -5.687945170102547410e-01 -5.456499114291214481e-01 2.634443043019791264e-01 -7.955270408278014571e-01
4.679759701927246884e-02 4.486833982661341674e-02 -6.792985429108191475e-01 -9.767937684765017892e-01 1.850382167232919872e-01 -1.078646940260745701e-01
5.310010629462910692e-02 -5.128296962478055832e-02 -7.397591828065964714e-01 -8.825639257713955299e-01 2.503683652001601478e-01 -3.979907016928689312e-01
8.506940546604073450e-02 -8.717477974457909715e-03 -8.824817104608049245e-01 -9.517869736178024009e-01 2.798822734203137430e-01 1.255685863444415129e-01
5.213934039908837970e-02 -1.268195625086780132e-01 -8.167899796439995752e-01 -9.241402671883004460e-01 1.742189985651005080e-01 -3.400183922968141315e-01
5.812812407723083608e-02 -7.060798111056881821e-02 -7.722009055266546573e-01 -9.585806970429437968e-01 2.635075688268625482e-01 -1.081055430013674462e-01
5.406488673733554282e-03 -1.341300366241384989e-01 -7.281773474910578914e-01 -8.260791738148582919e-01 3.513494949923973154e-01 -4.406208471667547033e-01
-1.887323978286122722e-02 -9.454520195754546885e-02 -6.465805630596037634e-01 -7.057382426288284494e-01 4.475632402367153428e-01 -5.492000353969265225e-01
2.531345800805190338e-02 8.453302353300992666e-02 -6.023563315668405416e-01 -5.456499114291214481e-01 2.634443043019791264e-01 -7.955270408278014571e-01
3.332178569737324902e-02 1.575189485894732955e-01 -5.973892679392099891e-01 -9.572422606535954115e-01 5.922840939797543308e-02 -2.831594072938072304e-01
8.088555207351577625e-02 1.531448569716657437e-01 -7.363568857568965065e-01 -9.176038893239210070e-01 1.389494237716111247e-01 -3.724193334551130774e-01
-8.273895715487057656e-02 -1.539196675798809033e-01 -6.236966067968632288e-01 -6.604161204663129281e-01 4.686253430436991274e-01 -5.867204067402123080e-01
8.170882503295101573e-02 -3.577261977674063651e-03 -9.078333645956475628e-01 -9.575664671944760231e-01 7.553411071159571444e-02 2.781385608356007899e-01
-7.061800522116844225e-02 -3.382025576833627006e-02 -5.531314306970812611e-01 -7.804657011673152844e-01 1.202891819724609679e-01 -6.135175645422119572e-01
4.346560278256806492e-02 1.501949842298094806e-01 -6.331968841359048028e-01 -9.570541429808845368e-01 5.812882653857073811e-02 -2.840218423438127249e-01
-8.754822687655461344e-02 -1.590609065326229962e-02 -5.296744989957656857e-01 -6.755932985993705620e-01 9.083126468456397332e-03 -7.372185508390169950e-01
3.252032416048763336e-02 1.034075040843355359e-03 -6.492370135350001847e-01 -6.570296143313328896e-01 4.494341306852812634e-01 -6.052446183707755889e-01
8.453367251209377431e-02 1.062706313353380533e-01 -7.639518672548308853e-01 -9.181684907048156541e-01 1.492432748369327267e-01 -3.670055416377100421e-01
-1.634667096316000101e-01 -1.610407597583370654e-01 -5.308955288733219202e-01 -7.201673901803041788e-01 6.408734220935083381e-02 -6.908340920144512287e-01
6.331160753363347660e-02 -8.118186650789611936e-02 -8.059620904906076300e-01 -9.227495220364856365e-01 3.332927498689205459e-01 -1.935181192194949662e-01
-3.915995289482780695e-02 4.006078731240755864e-02 -5.748265407314014919e-01 -6.270644429896921057e-01 2.520372300646498975e-01 -7.370667669888297802e-01
-4.885415371872410539e-02 -1.756939303491517057e-01 -6.748397611793680584e-01 -5.737496640718071639e-01 4.210816348888739569e-01 -7.024966759613896494e-01
7.344469381962831500e-02 1.060611511206827930e-02 -8.171302578054786547e-01 -9.818566513367270598e-01 -1.844868450022854045e-01 4.384199182212848017e-02
8.668555247380906048e-02 1.099163207356077393e-01 -7.678528812425292616e-01 -9.181684907048156541e-01 1.492432748369327267e-01 -3.670055416377100421e-01
8.256896650628918477e-02 -2.665360589538082192e-02 -8.443957340661539801e-01 -9.479643974413678453e-01 -2.346218987843883830e-01 -2.152116767148866683e-01
8.382049683518437433e-02 1.485088444437495103e-01 -8.346427440477983684e-01 -9.359721156663390884e-01 -4.559140384284852965e-02 3.491097572264569848e-01
-1.300218835853991783e-01 -1.580069345061149710e-01 -5.737392341958715836e-01 -6.604161204663129281e-01 4.686253430436991274e-01 -5.867204067402123080e-01
-4.796757041915752917e-02 -1.475925706657670033e-01 -6.550899389426318997e-01 -6.744509004026301158e-01 3.755885948484292691e-01 -6.356486375080686591e-01
-1.326619697953362598e-01 -1.660984853637945680e-01 -5.749276007746328965e-01 -8.144863807118100096e-01 2.770666054038116721e-01 -5.097509507641795334e-01
7.638248850033839410e-02 -2.561159693950893629e-03 -8.434109110105907359e-01 -9.479643974413678453e-01 -2.346218987843883830e-01 -2.152116767148866683e-01
6.197142998750214404e-02 -9.987640010353192321e-02 -8.252861215401712247e-01 -9.205368560091273800e-01 3.083063292670366606e-01 -2.399147850023355955e-01
4.852778820774603791e-02 9.455773352246682473e-02 -6.560423667788027879e-01 -9.595041879960897191e-01 -9.927328156363039724e-03 -2.815193801031120047e-01
7.665709748166840698e-02 -5.779051747557985286e-02 -8.368656143623733890e-01 -9.517869736178024009e-01 2.798822734203137430e-01 1.255685863444415129e-01
4.476418846109113392e-02 -9.647501470678332414e-02 -7.618325139684951619e-01 -7.889531189243228493e-01 4.761498651890860301e-01 -3.883738946170286477e-01
6.596713208602612843e-02 3.168904975927572254e-02 -7.357607354153663515e-01 -7.596285236911518579e-01 1.894473298302724040e-01 -6.221528873315474994e-01
7.306967127436028026e-03 -1.825983664680096152e-02 -6.361933951682312571e-01 -6.570296143313328896e-01 4.494341306852812634e-01 -6.052446183707755889e-01
6.772998890638980141e-02 -4.182119948173068646e-02 -7.859173443842943918e-01 -9.299607640939617781e-01 1.833382872465386393e-01 -3.186848751906507515e-01
-2.522833163909705273e-02 -1.633266960853950733e-01 -6.929165921708969611e-01 -8.268151162274148813e-01 2.507523950482442587e-01 -5.034878349626887850e-01
-9.158486151173331202e-02 2.775013213506036247e-02 -5.254374131308110485e-01 -6.755932985993705620e-01 9.083126468456397332e-03 -7.372185508390169950e-01
-8.528680962058637904e-02 -8.973622276827793176e-02 -5.812470650412329132e-01 -1.844908459308249038e-01 6.524417324180550315e-01 -7.350393959285828061e-01
6.980805212545947158e-02 7.975235135270564504e-03 -7.465636842037010057e-01 -7.876990567608564975e-01 8.033383690097452290e-02 -6.108000250710743373e-01
7.526127819787953310e-02 -1.048693545036305172e-02 -7.775767653219163300e-01 -9.585806970429437968e-01 2.635075688268625482e-01 -1.081055430013674462e-01
-1.033288843917336275e-01 -1.352175059294461468e-01 -5.973380354508641688e-01 -6.807074237146225615e-01 3.234270954462253184e-02 -7.318410704784976684e-01
8.285039276136001163e-02 1.584245625784072853e-01 -7.392282012587167994e-01 -9.176038893239210070e-01 1.389494237716111247e-01 -3.724193334551130774e-01
7.338873218298442788e-03 -2.749055675541765484e-02 -6.430824509113673981e-01 -6.570296143313328896e-01 4.494341306852812634e-01 -6.052446183707755889e-01
9.046172162294766061e-02 1.045608400428159751e-01 -7.899588707150017042e-01 -9.150123875402325080e-01 1.576556218201111692e-01 3.713449010777415404e-01
8.341811684050477738e-02 -8.540432953604243024e-03 -8.678828951285992854e-01 -9.479643974413678453e-01 -2.346218987843883830e-01 -2.152116767148866683e-01
8.733467308420948816e-02 1.813362448759564260e-01 -7.549616306712353397e-01 -9.338601441493656896e-01 -1.699237031325903924e-01 -3.146921770286531528e-01
-9.075198335548131934e-02 -1.760573002544723320e-01 -6.319502531701025605e-01 -7.240514344397246393e-01 3.444737695267936495e-01 -5.975678558906752924e-01
6.253608951279698847e-02 5.811132778158319828e-02 -7.235258844985267279e-01 -7.596285236911518579e-01 1.894473298302724040e-01 -6.221528873315474994e-01
7.688874071531871801e-02 4.858982109948677131e-02 -7.494010231494516727e-01 -9.379192200483144060e-01 2.816510243006933173e-02 -3.457083505920353073e-01
9.157851828480761958e-02 1.488937795414368992e-01 -8.113551538177125044e-01 -9.300464373982733068e-01 2.572109322415426225e-01 2.624045743088645466e-01
5.991906837247973350e-02 -4.625113999663929554e-02 -7.534815535183487789e-01 -9.017930858985682141e-01 2.740422693022255274e-01 -3.341707121535701375e-01
8.826321324170266491e-02 1.959354915714965895e-01 -8.168945569797366746e-01 -9.410631087418631635e-01 -3.429997478145847128e-02 3.364873505721899249e-01
8.090398266439616237e-02 1.537069517235616356e-01 -8.417831544172915681e-01 -9.359721156663390884e-01 -4.559140384284852965e-02 3.491097572264569848e-01
3.889839187508426725e-03 -9.953757174454447298e-02 -6.812453957580404396e-01 -7.440122691604613703e-01 5.288743926274661611e-01 -4.083351811461147784e-01
-1.253063401724086035e-01 -1.302318370846220763e-01 -5.766758070606040620e-01 -6.807074237146225615e-01 3.234270954462253184e-02 -7.318410704784976684e-01
3.352500340168500237e-02 1.984869493226728010e-01 -5.970395960980442451e-01 -9.646468697500439893e-01 -1.384498753725357800e-01 -2.242499692101904418e-01
4.484438418972885865e-02 2.812122896458951055e-02 -6.903398703768920397e-01 -9.767937684765017892e-01 1.850382167232919872e-01 -1.078646940260745701e-01
-4.182578604868035510e-02 -1.753381551376175240e-01 -6.803667811850092617e-01 -5.737496640718071639e-01 4.210816348888739569e-01 -7.024966759613896494e-01
1.384543039011231109e-02 1.442358219387243901e-01 -5.712260017466631590e-01 -6.278034018238798364e-01 2.653065642804224300e-01 -7.317617888412064620e-01
6.237739573369341373e-02 1.116719430930867840e-01 -7.057857146869279674e-01 -9.767937684765017892e-01 1.850382167232919872e-01 -1.078646940260745701e-01
1.653235537162605837e-02 1.840789824670732711e-01 -5.590857239657233135e-01 -6.278034018238798364e-01 2.653065642804224300e-01 -7.317617888412064620e-01
8.504806404536030540e-02 1.208487420218158082e-01 -7.593105561878277232e-01 -9.181684907048156541e-01 1.492432748369327267e-01 -3.670055416377100421e-01
-1.764480203067872108e-03 -1.335309914373872808e-01 -7.139021893052368561e-01 -7.691636456495299923e-01 4.982364333541502988e-01 -4.001846357491251061e-01
3.949545774319403874e-02 1.196654988502541400e-01 -6.260671486848664591e-01 -9.570541429808845368e-01 5.812882653857073811e-02 -2.840218423438127249e-01
5.263387319592553737e-02 1.392988314190716226e-01 -6.663207864460571894e-01 -9.570541429808845368e-01 5.812882653857073811e-02 -2.840218423438127249e-01
-2.868437824001395312e-02 -1.622442096271800582e-01 -6.866816833490622107e-01 -8.260791738148582919e-01 3.513494949923973154e-01 -4.406208471667547033e-01
3.029501847724807087e-02 1.109359454784374782e-01 -5.970296598672243382e-01 -5.456499114291214481e-01 2.634443043019791264e-01 -7.955270408278014571e-01
-1.409658394175044016e-01 -1.640540800536856025e-01 -5.605483727559001927e-01 -8.144863807118100096e-01 2.770666054038116721e-01 -5.097509507641795334e-01
-4.920199889667612597e-02 3.108459543045389434e-02 -5.676586068377825756e-01 -7.855045028210503322e-01 1.182923388650397589e-01 -6.074451404149129319e-01
-1.300780525617173944e-01 -8.253210977188135677e-02 -5.632911209494374516e-01 -3.069642601515969460e-01 4.705693701043894284e-01 -8.272468863097283132e-01
3.356788271649532862e-02 1.216953103681096271e-01 -6.056778689345106992e-01 -9.570541429808845368e-01 5.812882653857073811e-02 -2.840218423438127249e-01
7.170348703550083469e-02 1.713130190790416660e-02 -8.286672413299962514e-01 -9.818566513367270598e-01 -1.844868450022854045e-01 4.384199182212848017e-02
-1.098111963663374845e-02 -9.588842879501861816e-02 -6.599092199572059725e-01 -8.524161056443919637e-01 1.728220325223906451e-01 -4.934767754544067131e-01
-1.106155730452845591e-02 8.343937456348182735e-02 -5.777333113205632698e-01 -6.085522896314360386e-01 3.709298380613464952e-01 -7.014806954008928619e-01
8.366359523698488343e-02 1.032168752881291729e-01 -8.061392093669592640e-01 -9.150123875402325080e-01 1.576556218201111692e-01 3.713449010777415404e-01
4.258703659996385810e-02 -1.524847165194412671e-02 -7.145133928207768603e-01 -7.876990567608564975e-01 8.033383690097452290e-02 -6.108000250710743373e-01
-5.654974248389063596e-02 -1.025667383450671044e-01 -6.083421445713818043e-01 -6.475668493978913309e-01 4.965579579514200481e-01 -5.780029151795037512e-01
5.369956972816997826e-02 9.686876835821564558e-02 -6.738526686325186921e-01 -9.696993310909935992e-01 1.362904963232436373e-01 -2.027513449860292583e-01
-1.888757275945480638e-02 -6.050386810199352011e-02 -6.329558554042999940e-01 -8.458510048317096075e-01 2.003066669918770748e-01 -4.943817520740351190e-01
-1.503650453285758359e-01 1.219732245347974857e-02 -4.894068773565452002e-01 5.104970501019757273e-02 3.243064756281591743e-01 -9.445735744154682978e-01
-2.015962160962826016e-02 1.209595334710957537e-01 -5.504909272545718268e-01 -6.278034018238798364e-01 2.653065642804224300e-01 -7.317617888412064620e-01
-1.620387932305926079e-02 -5.252593026880523347e-02 -6.343150695140079565e-01 -8.458510048317096075e-01 2.003066669918770748e-01 -4.943817520740351190e-01
-1.854733364596893030e-01 -1.821089127326630253e-01 -5.120798042628927904e-01 -7.145716152049301773e-01 1.247981522823119610e-01 -6.883406336475700327e-01
1.287503984815662264e-02 -6.349145499786645885e-02 -6.750365529488469019e-01 -5.012773703184958407e-01 4.389156694793160396e-01 -7.457037166945712503e-01
-6.921550974848425519e-02 -6.336683196430115128e-02 -5.683200851766642137e-01 -5.767712558657397404e-01 4.647838061776005114e-01 -6.717967936229826131e-01
3.952747844210859063e-02 1.324413069109482144e-01 -6.235603091326078484e-01 -9.570541429808845368e-01 5.812882653857073811e-02 -2.840218423438127249e-01
-6.533421795288968381e-02 -2.795802951735016501e-02 -5.587036466081910513e-01 -7.804657011673152844e-01 1.202891819724609679e-01 -6.135175645422119572e-01
6.165201840540541350e-02 6.597165630618760657e-02 -8.532400162139522903e-01 -9.479643974413678453e-01 -2.346218987843883830e-01 -2.152116767148866683e-01
9.354629363542619341e-03 -5.938313837506762477e-02 -6.689530257218986309e-01 -6.570296143313328896e-01 4.494341306852812634e-01 -6.052446183707755889e-01
3.808054700900802975e-02 1.014643767502015070e-01 -6.206785237433170010e-01 -9.595041879960897191e-01 -9.927328156363039724e-03 -2.815193801031120047e-01
-1.393788699804600351e-01 -7.415764359882170975e-02 -5.538422684174838517e-01 -1.844908459308249038e-01 6.524417324180550315e-01 -7.350393959285828061e-01
-1.876992979487212554e-01 6.751453807237919880e-02 -4.757164288254964180e-01 2.747857207588124129e-01 3.906068338265129558e-01 -8.785892720919639132e-01
5.732113991196574609e-02 8.603556258755661046e-02 -7.039759561902663165e-01 -9.767937684765017892e-01 1.850382167232919872e-01 -1.078646940260745701e-01
8.255629294974035914e-02 -1.647633105892253383e-02 -8.554350861238523285e-01 -9.479643974413678453e-01 -2.346218987843883830e-01 -2.152116767148866683e-01
2.280737338821043399e-03 5.581532904831243425e-02 -5.965787528663942796e-01 -5.386699158555532385e-01 4.168398774072807345e-01 -7.321743223818045765e-01
-1.144426229823358454e-01 -1.528872585811959228e-01 -5.877817028422922530e-01 -6.807074237146225615e-01 3.234270954462253184e-02 -7.318410704784976684e-01
2.640035818558117073e-02 -2.758093019552798272e-03 -6.454093559924792833e-01 -6.570296143313328896e-01 4.494341306852812634e-01 -6.052446183707755889e-01
4.986966957767568348e-02 -1.015800360526668139e-01 -7.790078091256351644e-01 -7.888976333528773255e-01 4.848589994701197892e-01 -3.775609549768932371e-01
7.181187322248436256e-02 -1.331570415573853604e-02 -7.585662229569918313e-01 -9.017930858985682141e-01 2.740422693022255274e-01 -3.341707121535701375e-01
3.909247033429216756e-02 9.517196972617165962e-02 -6.239055764555931916e-01 -9.595041879960897191e-01 -9.927328156363039724e-03 -2.815193801031120047e-01
5.515162067833766224e-02 -9.006004991940193272e-02 -7.823436829434428086e-01 -9.227495220364856365e-01 3.332927498689205459e-01 -1.935181192194949662e-01
4.031019221455914986e-02 6.183712667333485409e-03 -6.817810092956410051e-01 -9.852847352225223565e-01 1.045936006882762781e-01 -1.351819856066097947e-01
4.777721017468098547e-02 5.404647679905943275e-02 -6.743131502771848584e-01 -9.696993310909935992e-01 1.362904963232436373e-01 -2.027513449860292583e-01
6.485124568326798566e-02 1.049833108938297288e-01 -7.121484478321693512e-01 -9.379192200483144060e-01 2.816510243006933173e-02 -3.457083505920353073e-01
4.618827291652865402e-02 1.483968610387002883e-03 -7.169569246830553855e-01 -7.876990567608564975e-01 8.033383690097452290e-02 -6.108000250710743373e-01
7.297150632624997690e-02 1.762808708148033005e-02 -8.127503194847280898e-01 -9.151391912983922738e-01 7.129108220162652665e-02 3.967843773994205181e-01
-8.611806226178335411e-02 -1.150462597813465132e-01 -5.980985157727326529e-01 -3.069642601515969460e-01 4.705693701043894284e-01 -8.272468863097283132e-01
-2.593381973363231841e-02 -6.618637779340461047e-02 -6.232026019989381771e-01 -8.458510048317096075e-01 2.003066669918770748e-01 -4.943817520740351190e-01
-1.286962001402584543e-01 -1.118656021054950239e-01 -5.727111257030390590e-01 -6.807074237146225615e-01 3.234270954462253184e-02 -7.318410704784976684e-01
-7.561534815449820479e-02 -2.825195057243082980e-02 -5.456824807443064751e-01 -7.804657011673152844e-01 1.202891819724609679e-01 -6.135175645422119572e-01
5.107630203815635012e-02 9.809829176014614460e-02 -6.648533338106935586e-01 -9.595041879960897191e-01 -9.927328156363039724e-03 -2.815193801031120047e-01
-2.589710331110724531e-02 -8.177659998078834480e-02 -6.292016762435639343e-01 -8.524161056443919637e-01 1.728220325223906451e-01 -4.934767754544067131e-01
-5.627472516406296227e-02 2.851122885789995204e-02 -5.591567428374880633e-01 -7.804657011673152844e-01 1.202891819724609679e-01 -6.135175645422119572e-01
8.861972320989515428e-02 2.300233240769284371e-01 -7.867269669094827389e-01 -8.081068921421732387e-01 -1.886909953530129663e-02 -5.887335627896929102e-01
3.985492959019412695e-02 -8.100279964256751342e-02 -7.322214325557950820e-01 -8.083201758869664744e-01 4.908174612662466463e-01 -3.251410662623538950e-01
7.419790397906776691e-02 -6.017447770880268026e-02 -8.211786880192197824e-01 -9.205368560091273800e-01 3.083063292670366606e-01 -2.399147850023355955e-01
-1.459557921082824949e-01 -8.668550814880859878e-02 -5.555446597108359974e-01 -6.807074237146225615e-01 3.234270954462253184e-02 -7.318410704784976684e-01
-9.191143825526815192e-02 -7.771296690225341919e-02 -5.689121381277297829e-01 -1.844908459308249038e-01 6.524417324180550315e-01 -7.350393959285828061e-01
5.095804831181701550e-02 4.162687020319960629e-02 -7.144090355883843113e-01 -7.596285236911518579e-01 1.894473298302724040e-01 -6.221528873315474994e-01
3.552343140538784944e-02 -1.838660629747078737e-02 -6.683975710751424160e-01 -9.272533888266151214e-01 2.405473967966315629e-01 -2.869461670835182221e-01
9.549202702529008269e-02 1.409832304686528259e-01 -7.930271849727158484e-01 -9.150123875402325080e-01 1.576556218201111692e-01 3.713449010777415404e-01
-1.698829103090499643e-02 1.378143494944745751e-01 -5.474343797253886645e-01 -5.166920554316132286e-01 1.680393648974848053e-01 -8.395189644663810791e-01
8.346859910540516125e-02 1.703198500082762912e-01 -8.329149224846642552e-01 -9.410631087418631635e-01 -3.429997478145847128e-02 3.364873505721899249e-01
7.352912942607917057e-02 -6.573645153668995766e-02 -8.825907165824538048e-01 -9.809550960626125526e-01 1.834424400018428991e-01 -6.384332944765097606e-02
5.452855152061791139e-02 9.001753163641788846e-02 -6.824228783294502554e-01 -9.696993310909935992e-01 1.362904963232436373e-01 -2.027513449860292583e-01
5.772557729320109722e-03 -1.106985572550132912e-02 -6.305371048599575090e-01 -6.270644429896921057e-01 2.520372300646498975e-01 -7.370667669888297802e-01
6.520641604167612404e-02 -3.609176108777712583e-02 -7.594186217525801252e-01 -9.017930858985682141e-01 2.740422693022255274e-01 -3.341707121535701375e-01
-1.435644024083997661e-01 4.769672156374780286e-02 -4.834911117722889284e-01 -2.687806112710204309e-01 5.161456993650974379e-02 -9.618175082493799488e-01
-2.492420757041871257e-02 -1.010766472314280767e-01 -6.441276051652853329e-01 -7.057382426288284494e-01 4.475632402367153428e-01 -5.492000353969265225e-01
-1.527104498134403132e-01 -1.378023251602962795e-01 -5.419340387819372440e-01 -7.995527789591680978e-01 6.016583205286128722e-02 -5.975746198694006361e-01
7.747403340438498154e-02 5.097772801658198571e-02 -7.507943988625074283e-01 -9.379192200483144060e-01 2.816510243006933173e-02 -3.457083505920353073e-01
9.527240822005368648e-02 1.784214004009024301e-01 -8.000334989727704293e-01 -9.359721156663390884e-01 -4.559140384284852965e-02 3.491097572264569848e-01
-1.472931998361689254e-01 -6.321183266995253347e-02 -5.431727834959284573e-01 -1.269782593778138180e-01 6.021681509684613243e-01 -7.882068507724385720e-01
7.012234559704046133e-02 1.310224514321981781e-01 -7.180912802655018412e-01 -9.176038893239210070e-01 1.389494237716111247e-01 -3.724193334551130774e-01
4.320093206824786314e-02 1.467395446707874251e-01 -6.330122379252747233e-01 -9.570541429808845368e-01 5.812882653857073811e-02 -2.840218423438127249e-01
-6.272679731547252217e-03 1.124058067640199832e-01 -5.665708778496274522e-01 -6.085522896314360386e-01 3.709298380613464952e-01 -7.014806954008928619e-01
-1.823921899572024385e-02 5.094171814403286591e-02 -5.842565947348890010e-01 -5.386699158555532385e-01 4.168398774072807345e-01 -7.321743223818045765e-01
-4.713611484096502657e-02 -1.845503164986544709e-01 -6.815515164792259606e-01 -5.737496640718071639e-01 4.210816348888739569e-01 -7.024966759613896494e-01
-1.123238923523088295e-01 -1.080540196219722249e-01 -5.843969383109248739e-01 -3.069642601515969460e-01 4.705693701043894284e-01 -8.272468863097283132e-01
-1.023074866144645656e-01 -1.519025627412381452e-01 -6.000590469019324580e-01 -6.604161204663129281e-01 4.686253430436991274e-01 -5.867204067402123080e-01
4.395493234745553174e-02 -5.896993554050893038e-02 -7.243150342250727070e-01 -8.825639257713955299e-01 2.503683652001601478e-01 -3.979907016928689312e-01
5.192886960915314709e-02 -8.447526238555744249e-02 -7.632655325533500568e-01 -9.017930858985682141e-01 2.740422693022255274e-01 -3.341707121535701375e-01
7.726469533103719201e-02 8.963250194386243944e-03 -8.598606671348523189e-01 -9.479643974413678453e-01 -2.346218987843883830e-01 -2.152116767148866683e-01
-7.776619547987480285e-03 -1.440514779067679496e-01 -7.113728821293443527e-01 -8.260791738148582919e-01 3.513494949923973154e-01 -4.406208471667547033e-01
4.641768161346800092e-02 4.512479116102982579e-02 -6.754181972396622324e-01 -9.767937684765017892e-01 1.850382167232919872e-01 -1.078646940260745701e-01
-1.481132348536123022e-01 -1.563340342449417997e-01 -5.499509316246912194e-01 -7.995527789591680978e-01 6.016583205286128722e-02 -5.975746198694006361e-01
3.393100443437768038e-02 1.317970027425785229e-01 -6.048290343955270432e-01 -9.572422606535954115e-01 5.922840939797543308e-02 -2.831594072938072304e-01
8.246810201044713073e-02 -3.276008223024853144e-02 -8.372942187258990421e-01 -9.479643974413678453e-01 -2.346218987843883830e-01 -2.152116767148866683e-01
-3.329279321709505829e-02 -1.476528228020104194e-01 -6.706961184055767466e-01 -6.744509004026301158e-01 3.755885948484292691e-01 -6.356486375080686591e-01
-4.185645318089953326e-02 -1.359679927662972021e-01 -6.537399181284397898e-01 -6.384733436980820631e-01 5.082926503397799944e-01 -5.779190003776940587e-01
-1.207197904221113532e-01 -8.044406317483293600e-02 -5.641055983732333745e-01 -1.844908459308249038e-01 6.524417324180550315e-01 -7.350393959285828061e-01
7.893866023596020354e-03 7.400306618027310823e-02 -5.938953476041526347e-01 -5.456499114291214481e-01 2.634443043019791264e-01 -7.955270408278014571e-01
3.693553889243970934e-02 -7.825656457117309561e-02 -7.208180667161750987e-01 -8.083201758869664744e-01 4.908174612662466463e-01 -3.251410662623538950e-01
7.625402633322682366e-02 -4.688274106045114964e-02 -8.137033970395991522e-01 -9.299607640939617781e-01 1.833382872465386393e-01 -3.186848751906507515e-01
-1.618951882433246892e-01 3.186879497808085132e-02 -4.832760944432821226e-01 5.104970501019757273e-02 3.243064756281591743e-01 -9.445735744154682978e-01
-1.435936999487432419e-01 -1.568924813275177771e-02 -5.066023394616451236e-01 -2.349611982857753856e-01 6.054409414649829513e-01 -7.604173207509857813e-01
-8.210017000226310646e-02 -5.387687893215939439e-02 -5.506923169599751144e-01 -5.767712558657397404e-01 4.647838061776005114e-01 -6.717967936229826131e-01
-4.371318356837782318e-03 -6.633722405569145164e-02 -6.592165480968116276e-01 -6.570296143313328896e-01 4.494341306852812634e-01 -6.052446183707755889e-01
2.473760751656026158e-02 1.065236676302372953e-01 -5.946790027124121414e-01 -5.456499114291214481e-01 2.634443043019791264e-01 -7.955270408278014571e-01
4.551019446681864311e-02 1.615104003084512352e-01 -6.377582344410698267e-01 -9.572422606535954115e-01 5.922840939797543308e-02 -2.831594072938072304e-01
-3.735930421659661160e-02 -1.242586480744783117e-01 -6.484775512231194528e-01 -6.475668493978913309e-01 4.965579579514200481e-01 -5.780029151795037512e-01
3.328971817195141431e-02 9.818433452861453914e-02 -6.042342477331427153e-01 -9.595041879960897191e-01 -9.927328156363039724e-03 -2.815193801031120047e-01
