5.317758996151018130e-02 -3.742777234392874464e-02 -6.269837267884059706e-01 -8.972341844410544054e-01 -2.245646391667888708e-01 3.801861926823303373e-01
3.915069805351377441e-02 8.204923945667230711e-02 -6.245497293121216043e-01 -9.929257625329105386e-01 -1.161517773902631251e-01 -2.464132113993313875e-02
-9.934423165649018325e-03 -4.990472952015394606e-03 -7.746998142677190557e-01 -9.103649633816455200e-01 -3.351969426970384247e-01 2.426492181188589781e-01
4.792407433734913180e-02 -2.256130009517478552e-01 -6.710907157530284772e-01 -9.791138090247017978e-01 -1.828332295533837137e-01 8.892783112287916403e-02
4.257649199878720675e-02 -1.781022628377192940e-01 -6.662112523382157647e-01 -9.747761956801570538e-01 1.505393965181540394e-01 1.647703202378107690e-01
5.311870939350103044e-02 -1.363436853393420467e-01 -6.311880483626401972e-01 -9.677828894729485487e-01 1.151912656437988070e-01 2.238911591885007490e-01
-9.564827762124960067e-03 1.100740822054202400e-01 -7.100794011741239364e-01 -7.155033433549897737e-01 -4.157276835722027997e-01 5.614494267158190999e-01
-3.851452957298866220e-02 -6.657025745458670929e-03 -8.123093936286124306e-01 -6.855460265225987726e-01 -1.326946178194069459e-01 7.158343271461895529e-01
5.652635016657204386e-02 -1.425954450221801062e-01 -5.651743131253383901e-01 -9.284191455669136284e-01 -3.633664594355408561e-01 7.747713405954859134e-02
9.581968821287020766e-03 1.057036576453504288e-02 -7.266176353908370134e-01 -6.604754903431081514e-01 -2.923322516987446607e-01 6.916024734432147936e-01
2.340527609828236058e-02 2.137579134505863121e-01 -5.881816608747211239e-01 -8.671235429351117352e-01 -4.774535134224990318e-01 -1.418975116348797916e-01
6.987378944492338151e-02 -2.536995915134438243e-02 -5.494190420467605085e-01 -9.236631012413926145e-01 -2.967357230328023787e-01 2.424755370781405406e-01
-7.068058413025643527e-02 4.383351623283496257e-02 -8.161965367250295644e-01 -2.051887066758348588e-01 -1.926957606927387212e-01 9.595654946191766177e-01
3.983406725075400168e-02 4.687359885063896447e-02 -6.271549998812613325e-01 -9.986119845153730301e-01 3.834755211292141530e-02 3.610498067047585719e-02
-1.133580935129922113e-01 7.934824476349749620e-04 -8.661289680187129747e-01 -5.743353307190516288e-01 -6.028911077631193827e-01 5.537700245300358759e-01
1.725284903763043762e-02 9.330616344991898847e-02 -6.874299727181122366e-01 -7.157577725874075814e-01 -2.710294748136885534e-01 6.436100020687444134e-01
6.348078245984831169e-02 -8.893345472492729387e-02 -5.780504065913768530e-01 -9.032065525605030842e-01 3.818532813660293623e-01 -1.959744751792119599e-01
5.453783116573818895e-02 -1.484907028622090286e-01 -6.188042092617326295e-01 -9.677828894729485487e-01 1.151912656437988070e-01 2.238911591885007490e-01
5.508567025946489726e-02 -1.729459601934174307e-01 -6.083444368099490962e-01 -9.711150995416336640e-01 6.934594435800008061e-02 2.283125126736162414e-01
-2.726448479578368403e-02 -5.992132389288160055e-02 -8.149958936613854732e-01 -8.010168303587630323e-01 -2.363903876077901312e-01 5.499923837005740168e-01
-1.177916866511706795e-01 2.092026270848219571e-01 -7.813680375963524272e-01 -6.449909905286382861e-01 -6.536951284864489509e-01 3.958147308147733634e-01
5.292385329949206296e-02 -1.731315805256444518e-01 -6.174832310468959529e-01 -9.711150995416336640e-01 6.934594435800008061e-02 2.283125126736162414e-01
-1.644248214853014783e-02 1.457860570650394705e-01 -6.947795741998469277e-01 -7.417210297465184343e-01 -3.534162030091499429e-01 5.700411401665318456e-01
-2.601287447328712310e-02 -7.684566604246890467e-04 -7.992451397249459299e-01 -6.855460265225987726e-01 -1.326946178194069459e-01 7.158343271461895529e-01
4.297935774511718598e-02 -2.044877379818008378e-01 -6.821000952784898042e-01 -9.791138090247017978e-01 -1.828332295533837137e-01 8.892783112287916403e-02
-1.317901052396343309e-01 -4.168954670710980914e-02 -8.965954340727554372e-01 -3.196151755534691330e-01 -2.276270680217673537e-01 9.198000094910517843e-01
-7.976640881094844426e-02 7.204683546923543180e-02 -8.124737284158080053e-01 -2.051887066758348588e-01 -1.926957606927387212e-01 9.595654946191766177e-01
6.208024581659108559e-02 1.635792334216421354e-02 -4.611740080139606346e-01 -8.945738439298062117e-01 -2.399762538182442506e-01 -3.770265711591326285e-01
7.702900164688877838e-02 -1.846291212699209261e-01 -5.332729293622440192e-01 -9.213412910965737002e-01 -1.462635546830077793e-01 3.601905022234612175e-01
-1.112949260302333737e-01 1.403398739713829779e-01 -8.126142158968067131e-01 -3.854818196093586780e-01 -5.537320158710366813e-02 9.210524280933478636e-01
-2.548603461739205531e-02 2.841534318556828212e-02 -7.893108488016514768e-01 -9.453078631607159110e-01 -2.278868827846171341e-01 2.333679765975428810e-01
5.303297506745772993e-02 -3.507228458209150912e-02 -6.247072491777234671e-01 -9.209279448213968378e-01 -2.992083761819047671e-01 2.497319924831941096e-01
3.297480345043275057e-02 -2.680957185165941392e-02 -7.054343870832211483e-01 -9.975791806665214034e-01 6.947667631030904345e-02 2.961376299007919058e-03
3.333804537738286472e-02 1.336612002040804825e-01 -6.332947210313807362e-01 -9.946653765494807287e-01 -2.300177740002013610e-02 1.005569834975163779e-01
4.385873979783524307e-02 -1.149018409593316054e-01 -6.787447526907486317e-01 -9.583931654012246559e-01 4.093425773663985495e-02 2.825011983262569748e-01
7.441538922117092725e-02 -2.610198191213933261e-02 -5.330145384062832115e-01 -9.236631012413926145e-01 -2.967357230328023787e-01 2.424755370781405406e-01
-7.290820967752656423e-02 1.031092749095980504e-01 -8.050286631526483161e-01 -2.570143658561110378e-01 -1.190761618294534779e-01 9.590435253040119346e-01
5.450336275961748661e-02 1.473505092328848166e-02 -4.421633260273985511e-01 -8.945738439298062117e-01 -2.399762538182442506e-01 -3.770265711591326285e-01
4.602587501837263756e-02 -5.974982410361601853e-02 -6.570466455456569488e-01 -8.972341844410544054e-01 -2.245646391667888708e-01 3.801861926823303373e-01
-1.387989107367765540e-01 1.711387161950490288e-01 -8.099464344704641050e-01 -2.251100584917599956e-01 -3.100537992913299790e-01 9.236839844399425958e-01
2.970484403945731350e-02 -1.520070906364610896e-01 -7.138724303244878833e-01 -9.131472501035929890e-01 -1.734888774277132950e-01 3.688681458693849891e-01
4.145089239780563178e-02 -3.760064711585953817e-03 -6.672370107747227497e-01 -9.762505011330309124e-01 4.950079787879027582e-02 2.109137976683111981e-01
-1.209967706570211354e-02 -9.471644777110131697e-02 -8.002920853758890285e-01 -8.851813500441766402e-01 7.802053215596664593e-02 4.586575782608072194e-01
-5.452934401065142461e-03 -1.221287225699066309e-01 -7.845488148933777994e-01 -9.075266248296589566e-01 -1.136727206060951095e-01 4.043191039455052982e-01
-5.159071613462661715e-02 1.119270565421821712e-01 -7.663420476166173945e-01 -7.674576789921736530e-01 -3.857470818096750964e-01 5.120623983766681153e-01
5.289348412625553830e-02 -1.063065135063110955e-01 -5.576052399166977480e-01 -9.695443338865096239e-01 1.534837824255896876e-01 -1.908573109967187376e-01
-1.846788585825421269e-01 -3.993417388878343563e-03 -9.049067535043331389e-01 -1.060726077330012562e-01 -4.490379518478344600e-01 8.871941837551815535e-01
-9.983669493623158198e-02 -3.021980045795479020e-02 -8.743006374345778653e-01 -5.098425201343701474e-01 -6.952694483900721811e-02 8.574535606109451313e-01
5.140528901310547488e-02 -7.824764182079750607e-02 -6.559873848879392844e-01 -8.896580102147394475e-01 -2.517927555774670534e-01 3.809317958630608625e-01
-1.016814354616807775e-01 1.820193042554137941e-01 -7.937042595742247464e-01 -6.671561304337160214e-01 -5.583652697704866164e-01 4.930830793475293738e-01
2.398875345429122338e-03 1.506898088326066310e-01 -6.672234991982325392e-01 -7.417210297465184343e-01 -3.534162030091499429e-01 5.700411401665318456e-01
5.563608120610708668e-02 1.699423631499739906e-02 -5.471185966932576861e-01 -9.210853471226442268e-01 -3.837033958583553894e-01 6.613234702265242959e-02
2.833881933324187974e-02 -5.989627623740408774e-02 -7.324857076604225359e-01 -8.576376779113911164e-01 8.659512764687997410e-02 5.069111335279367081e-01
5.751849426713005753e-02 -1.263200510177951708e-01 -5.126465549356192808e-01 -8.145546873103303165e-01 -4.714392683802243744e-01 3.380024816623227735e-01
5.009174099529592819e-03 -3.219518432372141942e-02 -7.562155540128346898e-01 -9.103649633816455200e-01 -3.351969426970384247e-01 2.426492181188589781e-01
7.492933431229457757e-03 -6.363967237207605876e-03 -7.357705933603082560e-01 -6.604754903431081514e-01 -2.923322516987446607e-01 6.916024734432147936e-01
-4.656725013081412790e-02 -1.129277991912603918e-01 -8.505889834486510814e-01 -8.108041946220403418e-01 -2.467327472445788317e-01 5.307725590311231922e-01
6.624559631150674088e-02 -6.189029067198200534e-02 -5.380996786328022807e-01 -9.032065525605030842e-01 3.818532813660293623e-01 -1.959744751792119599e-01
4.647489996432253856e-02 -3.732210002447000630e-02 -6.427395654858514273e-01 -8.972341844410544054e-01 -2.245646391667888708e-01 3.801861926823303373e-01
4.652166692686674626e-02 -1.532961371988192378e-01 -6.597676027400775078e-01 -9.808334747631461958e-01 -3.000924523706600261e-02 1.925230894837146045e-01
4.669561130554441414e-02 3.615337208491229554e-02 -5.604783276713385387e-01 -9.210853471226442268e-01 -3.837033958583553894e-01 6.613234702265242959e-02
2.348217208820103930e-02 1.319193134805805301e-01 -6.517893669900718390e-01 -7.155033433549897737e-01 -4.157276835722027997e-01 5.614494267158190999e-01
-1.046259518616918238e-01 1.324677417861463979e-02 -8.435146050964857922e-01 -5.743353307190516288e-01 -6.028911077631193827e-01 5.537700245300358759e-01
5.896847864486331331e-02 -1.182819413370360916e-02 -5.743886032358700433e-01 -9.236631012413926145e-01 -2.967357230328023787e-01 2.424755370781405406e-01
6.391400529786361862e-02 6.608854796370733191e-03 -4.920809548523893961e-01 -9.210853471226442268e-01 -3.837033958583553894e-01 6.613234702265242959e-02
5.111177152747325286e-02 -1.306484761029471601e-04 -4.402087338191205124e-01 -8.158335300584491634e-01 1.286221670621867652e-01 -5.638013740428420295e-01
3.176309929611995098e-02 1.475274819067391441e-01 -6.310035758947606377e-01 -7.415754627037400848e-01 -3.523159615916693355e-01 5.709109355437774758e-01
-1.678673383691899404e-02 2.531751230444531653e-02 -7.585405186625646667e-01 -9.103649633816455200e-01 -3.351969426970384247e-01 2.426492181188589781e-01
-1.428896622271929595e-01 1.651268936414244382e-01 -8.129613808997755431e-01 -2.251100584917599956e-01 -3.100537992913299790e-01 9.236839844399425958e-01
-5.196876702612084759e-02 -6.843105067089368110e-02 -8.475614054698376032e-01 -7.829631504021086208e-01 -1.038327164014482690e-01 6.133412362764316672e-01
5.100531579010143118e-02 -1.538919254014201876e-01 -6.370179483915604512e-01 -9.808334747631461958e-01 -3.000924523706600261e-02 1.925230894837146045e-01
4.103242415687597539e-02 8.921287555991658236e-02 -5.673525908469195800e-01 -9.946653765494807287e-01 -2.300177740002013610e-02 1.005569834975163779e-01
-1.482662193097765146e-01 -2.721643040994104618e-02 -8.987388816078296649e-01 -3.196151755534691330e-01 -2.276270680217673537e-01 9.198000094910517843e-01
5.112626275065814546e-02 -9.354270447201283589e-02 -5.300919874864216119e-01 -9.032065525605030842e-01 3.818532813660293623e-01 -1.959744751792119599e-01
-3.654208377238955113e-02 6.997337121147892414e-02 -7.753923571832695982e-01 -7.674576789921736530e-01 -3.857470818096750964e-01 5.120623983766681153e-01
-6.868603726160324441e-02 -8.473338874205200988e-02 -8.616555074058509511e-01 -6.334243588223925636e-01 -2.050472636112630476e-01 7.461428826545049020e-01
4.816551242600095734e-02 3.351991916774499369e-02 -5.552851117628834210e-01 -9.210853471226442268e-01 -3.837033958583553894e-01 6.613234702265242959e-02
4.052835284333853455e-02 3.589301368827401556e-02 -6.084544209652247293e-01 -9.868331710832907167e-01 -1.449018146901636106e-01 7.185928297161119083e-02
3.445524623990046942e-02 1.356776633752106165e-01 -6.197356331967144305e-01 -9.881647228641881053e-01 -1.320632989927476852e-01 7.803694987564963048e-02
5.684227729236322746e-02 -5.838945548820099335e-02 -4.978130679224671007e-01 -8.946282530565814461e-01 3.467782768391201587e-01 -2.817536433578454735e-01
5.742683472980877196e-02 -1.220534483803717707e-01 -5.932977867816874307e-01 -9.695443338865096239e-01 1.534837824255896876e-01 -1.908573109967187376e-01
1.557087524417369306e-02 1.501285598155872036e-01 -6.504324394698346445e-01 -7.417210297465184343e-01 -3.534162030091499429e-01 5.700411401665318456e-01
-2.864747635589606767e-02 7.807685052638173306e-02 -7.536218460113743856e-01 -9.453078631607159110e-01 -2.278868827846171341e-01 2.333679765975428810e-01
7.525432656813479775e-03 -8.693437378447756159e-02 -7.630807687755510882e-01 -8.576376779113911164e-01 8.659512764687997410e-02 5.069111335279367081e-01
-5.490493168786812588e-03 1.658762046753229497e-02 -7.384683074487250476e-01 -6.604754903431081514e-01 -2.923322516987446607e-01 6.916024734432147936e-01
-9.992502198841171288e-03 4.444823631423661103e-02 -7.328373014094214932e-01 -6.654245600452308729e-01 -2.106962996099165375e-01 7.161125778949140042e-01
-8.195026622234857783e-02 1.332195874415157411e-01 -8.037133088589174523e-01 -2.570143658561110378e-01 -1.190761618294534779e-01 9.590435253040119346e-01
4.013389096498418129e-02 -1.627607240728644877e-01 -6.932671930189815424e-01 -9.026288908767743369e-01 -6.939809382888455225e-02 4.247881706538936819e-01
4.116658073848981220e-02 2.410541880216248226e-02 -6.234590158845761954e-01 -9.868331710832907167e-01 -1.449018146901636106e-01 7.185928297161119083e-02
3.984167001346018006e-02 5.534642942982481717e-02 -6.359438178319376522e-01 -9.986119845153730301e-01 3.834755211292141530e-02 3.610498067047585719e-02
3.670659204752991372e-02 2.951832836748598948e-02 -6.926570755689488434e-01 -7.157577725874075814e-01 -2.710294748136885534e-01 6.436100020687444134e-01
1.572025423064608157e-02 -1.252169646073750253e-01 -7.408203921693781169e-01 -8.970995146271787402e-01 9.298606696482100697e-02 4.319329255869414075e-01
5.682313471824101264e-02 -3.215433541248540611e-02 -4.571123776909954417e-01 -9.314261022872039053e-01 3.156377148368777474e-01 -1.811580772436633957e-01
-7.329319233221602559e-02 2.381684416843391286e-02 -8.207748647001733566e-01 -2.051887066758348588e-01 -1.926957606927387212e-01 9.595654946191766177e-01
3.649521055609215858e-02 1.049295730569848178e-01 -6.551904030312036831e-01 -7.155033433549897737e-01 -4.157276835722027997e-01 5.614494267158190999e-01
5.061133575271983820e-02 -1.097467644351105970e-01 -5.061760706168880741e-01 -8.145546873103303165e-01 -4.714392683802243744e-01 3.380024816623227735e-01
4.807259710928789287e-02 -1.544524594721394806e-01 -6.520464307744063825e-01 -9.808334747631461958e-01 -3.000924523706600261e-02 1.925230894837146045e-01
-2.497734730174673914e-02 5.352885063046480818e-02 -7.627266313043450374e-01 -9.453078631607159110e-01 -2.278868827846171341e-01 2.333679765975428810e-01
3.729082107825110876e-02 1.002283561143302998e-01 -6.352965941327225474e-01 -9.929257625329105386e-01 -1.161517773902631251e-01 -2.464132113993313875e-02
-1.156132996459801818e-02 1.888126988901163428e-01 -6.605284984369557133e-01 -6.261729139720332293e-01 -5.232955877207982054e-01 5.779872054636826517e-01
4.546264554115433953e-02 -4.180882483710037650e-03 -6.215001476719235196e-01 -9.868331710832907167e-01 -1.449018146901636106e-01 7.185928297161119083e-02
1.742926087827132223e-02 1.865853598277510683e-01 -6.255191986206550814e-01 -7.415754627037400848e-01 -3.523159615916693355e-01 5.709109355437774758e-01
-6.251670785670360164e-02 1.206028348219489732e-01 -7.793394006247358341e-01 -8.188619601631630385e-01 -2.725504838262163276e-01 5.051547524905983799e-01
4.321630899808146659e-02 -2.321843410271854508e-02 -6.544986613603598347e-01 -9.762505011330309124e-01 4.950079787879027582e-02 2.109137976683111981e-01
4.617512551814195038e-02 2.787211001285075720e-03 -6.046365611758259817e-01 -9.209279448213968378e-01 -2.992083761819047671e-01 2.497319924831941096e-01
4.006257400814404457e-02 7.997179280204991247e-02 -6.559888369749381498e-01 -9.986119845153730301e-01 3.834755211292141530e-02 3.610498067047585719e-02
7.268450318941015176e-02 -3.824357501072352117e-02 -5.233202772552978388e-01 -8.946282530565814461e-01 3.467782768391201587e-01 -2.817536433578454735e-01
4.923684725757870861e-02 -3.944262493471081300e-03 -6.014110559154571822e-01 -9.209279448213968378e-01 -2.992083761819047671e-01 2.497319924831941096e-01
2.491516638697075653e-02 4.070794216517694547e-02 -3.984879969540154332e-01 -6.727993581566066306e-01 2.838291339420421222e-01 -6.832144951549026235e-01
-1.023869450199695330e-01 4.576957136771851037e-02 -8.225876768835572728e-01 -2.051887066758348588e-01 -1.926957606927387212e-01 9.595654946191766177e-01
-7.969615669745695741e-02 -7.552619294103041225e-02 -8.684721207622451145e-01 -6.334243588223925636e-01 -2.050472636112630476e-01 7.461428826545049020e-01
6.972367084453244546e-02 -6.344213290291100815e-02 -5.726613143136282114e-01 -9.906077901092382731e-01 7.982798903269558433e-02 1.110121540277794472e-01
-8.146198881611300957e-02 5.891621468150096824e-02 -8.154731368413138393e-01 -2.051887066758348588e-01 -1.926957606927387212e-01 9.595654946191766177e-01
4.677596677863338909e-02 -1.030773956462645025e-01 -6.705613342770214702e-01 -9.583931654012246559e-01 4.093425773663985495e-02 2.825011983262569748e-01
-5.255177708705707079e-02 1.528042115770213427e-01 -7.453348468964715590e-01 -8.188241973869349044e-01 -2.827676883855813061e-01 4.995691825750629977e-01
4.540995770681961058e-02 -1.580020041717834778e-01 -6.661648672789570735e-01 -9.808334747631461958e-01 -3.000924523706600261e-02 1.925230894837146045e-01
5.037132525683529066e-02 -3.305044299224305202e-04 -5.928977727222669580e-01 -9.209279448213968378e-01 -2.992083761819047671e-01 2.497319924831941096e-01
6.309047749091266366e-02 -5.404999024083838310e-02 -5.123114932092137641e-01 -8.946282530565814461e-01 3.467782768391201587e-01 -2.817536433578454735e-01
-4.133441784907700145e-02 -1.189985934886760022e-01 -8.454173924119202654e-01 -8.108041946220403418e-01 -2.467327472445788317e-01 5.307725590311231922e-01
5.084607607469376206e-02 -1.153398367700163990e-01 -6.514744905587264157e-01 -9.682141536775042967e-01 1.011692587488669387e-01 2.287490627363504836e-01
-2.386073487042341887e-02 -5.979198599233536554e-02 -8.099830329478644453e-01 -8.010168303587630323e-01 -2.363903876077901312e-01 5.499923837005740168e-01
-9.127717775918394241e-03 4.254855748311053842e-02 -7.325926562245724805e-01 -6.654245600452308729e-01 -2.106962996099165375e-01 7.161125778949140042e-01
4.920401315074805770e-02 -2.303046948710883723e-01 -6.666443212940180718e-01 -9.791138090247017978e-01 -1.828332295533837137e-01 8.892783112287916403e-02
1.597202418506018726e-02 -1.300793529186486108e-01 -7.392693548051201269e-01 -9.026288908767743369e-01 -6.939809382888455225e-02 4.247881706538936819e-01
3.041842699622730739e-02 -6.354880788195980956e-02 -7.046468880732063012e-01 -9.975791806665214034e-01 6.947667631030904345e-02 2.961376299007919058e-03
-7.771883484885436233e-02 1.540494242594803720e-01 -7.858803622467572803e-01 -8.188241973869349044e-01 -2.827676883855813061e-01 4.995691825750629977e-01
8.156060351063436353e-02 -2.007806009308703843e-01 -5.299717633668736827e-01 -7.936760008460863602e-01 -4.362898612017966360e-01 4.239452354885947516e-01
4.822478799881604189e-02 -1.693842136393973186e-01 -6.407611918188195199e-01 -9.747761956801570538e-01 1.505393965181540394e-01 1.647703202378107690e-01
1.848982124908712596e-02 1.646515830059754881e-01 -6.376771968169528959e-01 -7.415754627037400848e-01 -3.523159615916693355e-01 5.709109355437774758e-01
5.779696803685797912e-02 -8.470942427236945876e-03 -5.747427198195079745e-01 -9.236631012413926145e-01 -2.967357230328023787e-01 2.424755370781405406e-01
6.067198867465544571e-02 -1.418869370997694890e-01 -5.267593144364596247e-01 -8.145546873103303165e-01 -4.714392683802243744e-01 3.380024816623227735e-01
4.031574036192400734e-02 -1.840533672201579152e-01 -6.840825448199101544e-01 -9.960061791207108772e-01 3.516828190918006719e-02 8.206633354134268421e-02
5.630834842803857099e-02 -9.808908875865580967e-02 -5.628337284303774890e-01 -9.032065525605030842e-01 3.818532813660293623e-01 -1.959744751792119599e-01
-8.268267479557779923e-03 9.124146085415711649e-02 -7.166814335592246454e-01 -7.157577725874075814e-01 -2.710294748136885534e-01 6.436100020687444134e-01
-3.961680265730480738e-02 2.157399911900135386e-02 -8.059166736310851009e-01 -6.009282043672190543e-01 -2.526068411542056746e-01 7.583370470958699094e-01
3.223307993757604933e-02 -3.050549646661335212e-02 -7.181331493696543333e-01 -7.968939890017570082e-01 -1.771422203996841915e-01 5.775643722086200027e-01
3.647096907700839857e-02 -8.782743614682826661e-02 -7.069834299247280684e-01 -9.016185716450174636e-01 1.284723893438861342e-01 4.130118599278614910e-01
-5.243262097201024929e-02 -1.308057902563674879e-01 -8.678595694572733832e-01 -8.108041946220403418e-01 -2.467327472445788317e-01 5.307725590311231922e-01
-3.423514913052371628e-02 9.327829366817880219e-02 -7.543787452300821927e-01 -7.674576789921736530e-01 -3.857470818096750964e-01 5.120623983766681153e-01
3.778437579053231521e-02 8.855296709379606446e-02 -6.001501832525534263e-01 -9.929257625329105386e-01 -1.161517773902631251e-01 -2.464132113993313875e-02
3.589258984401831609e-02 1.144956046393376115e-01 -6.462061739670837968e-01 -9.929257625329105386e-01 -1.161517773902631251e-01 -2.464132113993313875e-02
3.325927120863127889e-02 -7.667798637528745742e-02 -7.127551138268952702e-01 -8.288351915391809488e-01 -4.277932492946102117e-01 -3.605900180595253413e-01
4.520057601777670991e-02 -1.507321536457723321e-01 -6.660984120932934571e-01 -9.808334747631461958e-01 -3.000924523706600261e-02 1.925230894837146045e-01
-1.505538873601670012e-02 1.685924049560971402e-02 -7.637292060245064462e-01 -9.103649633816455200e-01 -3.351969426970384247e-01 2.426492181188589781e-01
7.725809581704318196e-02 -1.819962995006296491e-01 -5.316178057938656387e-01 -9.213412910965737002e-01 -1.462635546830077793e-01 3.601905022234612175e-01
-6.406922107743486666e-03 1.691297805061728055e-01 -6.672528669695940717e-01 -7.415754627037400848e-01 -3.523159615916693355e-01 5.709109355437774758e-01
-9.372081391112487003e-02 -5.165029010872721621e-02 -8.738167686225474240e-01 -6.334243588223925636e-01 -2.050472636112630476e-01 7.461428826545049020e-01
3.153957671160743286e-04 2.029151065831965861e-01 -6.348936547209665937e-01 -6.261729139720332293e-01 -5.232955877207982054e-01 5.779872054636826517e-01
-1.077607334956678098e-01 -4.341108683406803143e-02 -8.834714891089544553e-01 -6.334243588223925636e-01 -2.050472636112630476e-01 7.461428826545049020e-01
3.380816994770226291e-02 -1.270118294156820649e-01 -7.028664487246415460e-01 -8.970995146271787402e-01 9.298606696482100697e-02 4.319329255869414075e-01
5.964885598566585512e-02 -1.398744409913280917e-01 -5.264179791750811521e-01 -8.145546873103303165e-01 -4.714392683802243744e-01 3.380024816623227735e-01
5.553725807766693445e-02 -1.154431176938709551e-02 -4.492163571687315393e-01 -8.158335300584491634e-01 1.286221670621867652e-01 -5.638013740428420295e-01
-2.312743324286636870e-02 7.813354123203491985e-02 -7.351315448908201100e-01 -6.654245600452308729e-01 -2.106962996099165375e-01 7.161125778949140042e-01
5.178673894263081945e-02 -1.621224734385064425e-01 -6.263233549604346750e-01 -9.747761956801570538e-01 1.505393965181540394e-01 1.647703202378107690e-01
-1.435671313905198532e-01 1.915028195833686497e-01 -8.042728564040197980e-01 -2.251100584917599956e-01 -3.100537992913299790e-01 9.236839844399425958e-01
2.984639633312551749e-02 -7.174303855398682372e-02 -7.050986942827817128e-01 -9.975791806665214034e-01 6.947667631030904345e-02 2.961376299007919058e-03
3.598743612850305307e-02 6.151394169876852475e-02 -6.799832314513082343e-01 -7.157577725874075814e-01 -2.710294748136885534e-01 6.436100020687444134e-01
6.481517573512499131e-02 -1.986697356464218762e-03 -5.294013854194971058e-01 -9.210853471226442268e-01 -3.837033958583553894e-01 6.613234702265242959e-02
6.201035399091639477e-02 -1.561830531564724345e-01 -5.631843958833091524e-01 -9.284191455669136284e-01 -3.633664594355408561e-01 7.747713405954859134e-02
-6.508380168865590676e-02 -7.817193207395174703e-02 -8.575247581026670396e-01 -5.098425201343701474e-01 -6.952694483900721811e-02 8.574535606109451313e-01
-1.099934469834547568e-01 2.066873090517528655e-01 -7.728146844255915360e-01 -6.449909905286382861e-01 -6.536951284864489509e-01 3.958147308147733634e-01
-1.725187375225752107e-02 1.672949347599493319e-01 -6.824975780090226651e-01 -7.417210297465184343e-01 -3.534162030091499429e-01 5.700411401665318456e-01
1.500828319812822290e-02 2.273870884077200116e-01 -5.827274935934745326e-01 -8.671235429351117352e-01 -4.774535134224990318e-01 -1.418975116348797916e-01
3.204508908329489758e-02 -9.809436133979601569e-02 -7.134516199372749057e-01 -9.016185716450174636e-01 1.284723893438861342e-01 4.130118599278614910e-01
-8.929629925690156511e-02 9.450556367149547110e-02 -8.104887608691712098e-01 -2.570143658561110378e-01 -1.190761618294534779e-01 9.590435253040119346e-01
5.394084780516743977e-02 -1.560899600157124034e-01 -6.190912083564258372e-01 -9.747761956801570538e-01 1.505393965181540394e-01 1.647703202378107690e-01
3.311386086270483309e-02 -8.377696121884181668e-02 -7.023614558681502418e-01 -8.896580102147394475e-01 -2.517927555774670534e-01 3.809317958630608625e-01
-1.291387939459708312e-01 1.050371694439651837e-01 -8.222046693584842414e-01 -3.854818196093586780e-01 -5.537320158710366813e-02 9.210524280933478636e-01
-1.906366562687549166e-03 -1.129443344479564709e-01 -7.775189355007869896e-01 -8.851813500441766402e-01 7.802053215596664593e-02 4.586575782608072194e-01
5.716410034343807900e-02 -1.157795505686214504e-01 -5.869177628991186779e-01 -9.695443338865096239e-01 1.534837824255896876e-01 -1.908573109967187376e-01
-2.888235700844903053e-02 5.155343450802236938e-02 -7.777883946786975367e-01 -7.674576789921736530e-01 -3.857470818096750964e-01 5.120623983766681153e-01
3.892251297172098778e-02 1.484235370010623944e-02 -6.729551325476449408e-01 -9.868331710832907167e-01 -1.449018146901636106e-01 7.185928297161119083e-02
2.038176224941271736e-02 1.026592950419350295e-02 -7.164325903786468164e-01 -6.604754903431081514e-01 -2.923322516987446607e-01 6.916024734432147936e-01
5.094642846840230499e-02 2.732963439455054697e-02 -5.524691262760025312e-01 -9.210853471226442268e-01 -3.837033958583553894e-01 6.613234702265242959e-02
2.340649674759221616e-02 3.335071374442864084e-02 -7.050674955807857414e-01 -6.654245600452308729e-01 -2.106962996099165375e-01 7.161125778949140042e-01
-5.948307680410076098e-02 1.246733373039760895e-01 -7.722256548402589571e-01 -8.188619601631630385e-01 -2.725504838262163276e-01 5.051547524905983799e-01
-5.814181575213898945e-02 1.528045223656085416e-01 -7.544970834834723306e-01 -8.188241973869349044e-01 -2.827676883855813061e-01 4.995691825750629977e-01
5.474745476559481766e-02 -1.393477538807054994e-01 -5.712594442099246939e-01 -9.284191455669136284e-01 -3.633664594355408561e-01 7.747713405954859134e-02
1.704549842294783221e-02 -1.257271820781400151e-01 -7.379580981317110933e-01 -8.970995146271787402e-01 9.298606696482100697e-02 4.319329255869414075e-01
-9.577277253394837764e-02 1.826187583306311812e-01 -7.850308428409108474e-01 -6.671561304337160214e-01 -5.583652697704866164e-01 4.930830793475293738e-01
3.043407336908143454e-03 3.455778440378835109e-02 -7.236340937685394881e-01 -6.654245600452308729e-01 -2.106962996099165375e-01 7.161125778949140042e-01
6.986013934218039678e-02 -3.233977087597149358e-02 -5.580005271846654180e-01 -9.236631012413926145e-01 -2.967357230328023787e-01 2.424755370781405406e-01
4.571326994802304283e-02 -3.773273516072553346e-02 -4.409752861809004831e-01 -8.158335300584491634e-01 1.286221670621867652e-01 -5.638013740428420295e-01
-5.066539433404328163e-02 -1.227269493899378477e-01 -8.614044705375183408e-01 -8.108041946220403418e-01 -2.467327472445788317e-01 5.307725590311231922e-01
-8.339822057978897585e-02 1.660129880484754461e-01 -7.870920111273981279e-01 -6.671561304337160214e-01 -5.583652697704866164e-01 4.930830793475293738e-01
6.865106524474674787e-02 -7.168796607662569764e-02 -5.763031063880759142e-01 -9.906077901092382731e-01 7.982798903269558433e-02 1.110121540277794472e-01
6.817880100378539976e-02 -1.691629831312728149e-01 -5.501427014690382089e-01 -9.284191455669136284e-01 -3.633664594355408561e-01 7.747713405954859134e-02
1.879636097007107709e-02 1.338123180503906218e-01 -6.563592160173680190e-01 -7.155033433549897737e-01 -4.157276835722027997e-01 5.614494267158190999e-01
-1.427298024507938079e-01 -9.449754993770133338e-03 -8.924182694967086604e-01 -3.196151755534691330e-01 -2.276270680217673537e-01 9.198000094910517843e-01
-1.139136608598264461e-01 7.893127542840826238e-02 -8.190197001151717782e-01 -2.570143658561110378e-01 -1.190761618294534779e-01 9.590435253040119346e-01
-1.095492310023054305e-01 8.489288056051616516e-02 -8.171098741465873116e-01 -2.570143658561110378e-01 -1.190761618294534779e-01 9.590435253040119346e-01
5.691094614799101226e-02 2.693835646267486034e-02 -5.156961116019393998e-01 -9.295370687545457811e-01 1.695970774709678608e-01 3.274105513335108242e-01
-1.313302104861293340e-01 3.957166763754854655e-02 -8.424105137133921506e-01 -5.015283127333431956e-01 -6.253318304821300355e-01 5.978540401408312110e-01
6.649499648747386749e-02 -1.518868057939913863e-01 -5.266740265210223537e-01 -8.145546873103303165e-01 -4.714392683802243744e-01 3.380024816623227735e-01
3.473299235549243136e-02 -1.743864766694497737e-03 -7.012300481279205577e-01 -9.975791806665214034e-01 6.947667631030904345e-02 2.961376299007919058e-03
4.897571636827644653e-02 -1.125509075411502691e-01 -6.606245286746037504e-01 -9.682141536775042967e-01 1.011692587488669387e-01 2.287490627363504836e-01
-1.818335517108233407e-02 -3.236127408200826366e-02 -7.976032807513776524e-01 -6.855460265225987726e-01 -1.326946178194069459e-01 7.158343271461895529e-01
-1.319876891749035275e-01 2.308439053642357963e-01 -7.874524223060958006e-01 -8.669466306595952076e-01 -4.285857607469272801e-01 2.543969049987698239e-01
-7.444221400029421565e-02 1.208725557862488642e-01 -7.985252653712837656e-01 -8.188619601631630385e-01 -2.725504838262163276e-01 5.051547524905983799e-01
6.577879964676265623e-02 -1.631680547643334367e-01 -5.507861340712781884e-01 -9.284191455669136284e-01 -3.633664594355408561e-01 7.747713405954859134e-02
6.320622484019974840e-02 -1.973335198279550229e-01 -5.788715891595388463e-01 -9.661523486139711459e-01 -6.902263410794849674e-02 2.485669230780876982e-01
-2.454733456237445308e-02 -1.333936193535717463e-01 -8.264651819125911070e-01 -8.108041946220403418e-01 -2.467327472445788317e-01 5.307725590311231922e-01
-7.484382590689021841e-02 6.397834175181653371e-02 -8.130413875469343354e-01 -2.051887066758348588e-01 -1.926957606927387212e-01 9.595654946191766177e-01
4.747840238083839148e-02 -9.866290587814061910e-05 -6.032881298686482152e-01 -9.209279448213968378e-01 -2.992083761819047671e-01 2.497319924831941096e-01
1.331748737116261738e-02 1.051544907418415775e-01 -6.845612299256450539e-01 -7.155033433549897737e-01 -4.157276835722027997e-01 5.614494267158190999e-01
-5.418320732887581259e-02 1.451287126470230393e-01 -7.523533695962075774e-01 -8.188241973869349044e-01 -2.827676883855813061e-01 4.995691825750629977e-01
-6.670594390250549066e-02 2.022698651434323355e-02 -8.200871798697876303e-01 -2.051887066758348588e-01 -1.926957606927387212e-01 9.595654946191766177e-01
5.872770432369150279e-02 -1.040792483678214531e-01 -6.230945769305764603e-01 -9.682141536775042967e-01 1.011692587488669387e-01 2.287490627363504836e-01
4.337570362159059306e-02 3.129817743017876408e-02 -5.808003916266338829e-01 -9.209279448213968378e-01 -2.992083761819047671e-01 2.497319924831941096e-01
6.899430979211432224e-02 -6.038606142114875258e-02 -5.478369729906198415e-01 -9.032065525605030842e-01 3.818532813660293623e-01 -1.959744751792119599e-01
4.409620807164347372e-02 1.363884892954529172e-02 -6.043323504586535222e-01 -9.868331710832907167e-01 -1.449018146901636106e-01 7.185928297161119083e-02
-1.182822493727510860e-01 -4.278440318246493068e-02 -8.921726283401200108e-01 -3.196151755534691330e-01 -2.276270680217673537e-01 9.198000094910517843e-01
6.579807850043606354e-02 5.564312899191169517e-03 -4.793933894379181493e-01 -9.295370687545457811e-01 1.695970774709678608e-01 3.274105513335108242e-01
6.865876319257369076e-02 3.992915519791991334e-04 -4.685962878340606541e-01 -9.295370687545457811e-01 1.695970774709678608e-01 3.274105513335108242e-01
7.910363079443119561e-02 -1.735847553554929479e-01 -5.159877451704266704e-01 -8.989206837736586353e-01 -3.552934868693161108e-01 2.563359952721053769e-01
7.033532720131355220e-02 -1.752207574919749655e-01 -5.465743848319964959e-01 -9.213412910965737002e-01 -1.462635546830077793e-01 3.601905022234612175e-01
-1.269328004007607424e-01 2.309523990388073073e-02 -8.559278064573700995e-01 -5.743353307190516288e-01 -6.028911077631193827e-01 5.537700245300358759e-01
4.558319752414054932e-02 -1.380459897787603973e-01 -6.628849178300264544e-01 -9.677828894729485487e-01 1.151912656437988070e-01 2.238911591885007490e-01
5.676874433230011396e-02 -1.167943622628597605e-01 -6.254686171143051254e-01 -9.677828894729485487e-01 1.151912656437988070e-01 2.238911591885007490e-01
1.062885186842858938e-02 2.260403368989525319e-01 -5.972481388051780193e-01 -6.256334131887741901e-01 -7.270899945079808413e-01 2.827065124615082969e-01
2.873816172838885089e-02 1.414582700459716680e-01 -6.386781524643908581e-01 -7.415754627037400848e-01 -3.523159615916693355e-01 5.709109355437774758e-01
-2.447522203624886636e-02 6.022529495280243284e-02 -7.541534979494829427e-01 -9.453078631607159110e-01 -2.278868827846171341e-01 2.333679765975428810e-01
-2.353688794417286775e-02 4.441576259285080763e-02 -7.657907863721536978e-01 -9.453078631607159110e-01 -2.278868827846171341e-01 2.333679765975428810e-01
-7.983886790069252837e-02 1.460167078115029160e-01 -7.937070662022561729e-01 -8.188619601631630385e-01 -2.725504838262163276e-01 5.051547524905983799e-01
-1.294098120235230576e-01 2.242949818630106396e-01 -7.897004585005815702e-01 -8.669466306595952076e-01 -4.285857607469272801e-01 2.543969049987698239e-01
6.548919287184105931e-02 -7.160637460785998498e-02 -6.045764852292783154e-01 -9.906077901092382731e-01 7.982798903269558433e-02 1.110121540277794472e-01
6.740702660215773523e-02 -6.755432087074905723e-02 -5.544887515622063390e-01 -9.032065525605030842e-01 3.818532813660293623e-01 -1.959744751792119599e-01
1.458330746228421460e-02 -1.173689587756032854e-01 -7.455756684321789285e-01 -9.016185716450174636e-01 1.284723893438861342e-01 4.130118599278614910e-01
-3.220592283793209665e-02 -5.151773927070418813e-02 -8.185807585981297319e-01 -8.010168303587630323e-01 -2.363903876077901312e-01 5.499923837005740168e-01
-1.052318656619792153e-01 4.129010045207274354e-02 -8.240955683728139469e-01 -2.051887066758348588e-01 -1.926957606927387212e-01 9.595654946191766177e-01
3.583978138649872303e-02 1.328775436987960634e-01 -6.069422609674938185e-01 -9.881647228641881053e-01 -1.320632989927476852e-01 7.803694987564963048e-02
-2.731569461427041639e-03 -4.013548618811822039e-02 -7.762722470596262747e-01 -8.618186904176168284e-01 -1.735930045756906293e-01 4.765857882997019401e-01
6.091295644259196729e-02 -1.161350269566196330e-01 -6.078942389363582999e-01 -9.677828894729485487e-01 1.151912656437988070e-01 2.238911591885007490e-01
4.501777847438629548e-02 -2.442992619548733609e-05 -6.192280968902211802e-01 -9.868331710832907167e-01 -1.449018146901636106e-01 7.185928297161119083e-02
5.789764742353729898e-02 -1.015332867258146067e-02 -5.764180651730912430e-01 -9.236631012413926145e-01 -2.967357230328023787e-01 2.424755370781405406e-01
-3.066006433996311398e-02 9.154490563073071352e-02 -7.486225403428327096e-01 -9.453078631607159110e-01 -2.278868827846171341e-01 2.333679765975428810e-01
-2.686796155221849586e-02 -9.977058049046032273e-02 -8.208243523424062493e-01 -7.829631504021086208e-01 -1.038327164014482690e-01 6.133412362764316672e-01
7.085902538745057766e-02 -4.815428698637901767e-02 -5.735234446113960383e-01 -9.906077901092382731e-01 7.982798903269558433e-02 1.110121540277794472e-01
1.867810246976380623e-02 1.131417722405312770e-01 -6.718155190557683065e-01 -7.155033433549897737e-01 -4.157276835722027997e-01 5.614494267158190999e-01
-1.616330194354226660e-02 3.563094344843424372e-03 -7.846441924791518474e-01 -8.618186904176168284e-01 -1.735930045756906293e-01 4.765857882997019401e-01
-1.071421539883905122e-01 1.984966430465193443e-01 -7.816954559074185127e-01 -6.449909905286382861e-01 -6.536951284864489509e-01 3.958147308147733634e-01
-2.518472725535158413e-02 9.966915059857482662e-02 -7.307069623069658570e-01 -6.654245600452308729e-01 -2.106962996099165375e-01 7.161125778949140042e-01
3.763296325396366104e-02 9.402258234990351626e-02 -6.198311136115318698e-01 -9.929257625329105386e-01 -1.161517773902631251e-01 -2.464132113993313875e-02
-1.764944040245672030e-01 1.691837342092250161e-04 -9.018213947738225045e-01 -1.060726077330012562e-01 -4.490379518478344600e-01 8.871941837551815535e-01
7.283509360571384372e-02 -4.664143931394466869e-02 -5.569780401961638150e-01 -9.906077901092382731e-01 7.982798903269558433e-02 1.110121540277794472e-01
4.204752491683514531e-02 4.091785645566992091e-02 -5.774594243811620453e-01 -9.868331710832907167e-01 -1.449018146901636106e-01 7.185928297161119083e-02
-1.366121853047201351e-01 1.383956835734626578e-01 -8.204956260559510550e-01 -2.085560374376188852e-01 -3.159861847820892855e-01 9.255577293044329190e-01
6.466978338721042496e-03 -6.481617315292545478e-02 -7.686499869754055414e-01 -8.576376779113911164e-01 8.659512764687997410e-02 5.069111335279367081e-01
5.424725643633800110e-02 -9.656557600016840714e-02 -6.453818189515130310e-01 -9.682141536775042967e-01 1.011692587488669387e-01 2.287490627363504836e-01
6.508191505411899114e-02 -7.687377939711589891e-02 -6.044230447981611132e-01 -9.906077901092382731e-01 7.982798903269558433e-02 1.110121540277794472e-01
-1.627469644785002612e-01 2.937735455401904727e-02 -8.731138814332290998e-01 -2.229094044580871570e-01 -6.362063676218931985e-01 7.386154988906592500e-01
3.659161508329567686e-02 1.076773750966843329e-01 -6.422344181209190817e-01 -9.929257625329105386e-01 -1.161517773902631251e-01 -2.464132113993313875e-02
5.193438388731891342e-02 -3.931285406616190012e-03 -4.422661266475630404e-01 -8.158335300584491634e-01 1.286221670621867652e-01 -5.638013740428420295e-01
2.785108347187461794e-02 1.888701958962236138e-01 -5.678745316870518201e-01 -9.753845335503756875e-01 -2.009424384995623647e-01 -9.081381018636795754e-02
5.264833767560594957e-02 -1.678105771707710248e-01 -6.202712840433658448e-01 -9.711150995416336640e-01 6.934594435800008061e-02 2.283125126736162414e-01
6.199849937299358599e-02 -1.069258452284619770e-01 -6.079400086086239607e-01 -9.677828894729485487e-01 1.151912656437988070e-01 2.238911591885007490e-01
-1.266507318752493338e-01 8.925221284123041610e-02 -8.221123411611719334e-01 -3.854818196093586780e-01 -5.537320158710366813e-02 9.210524280933478636e-01
9.727533024569013503e-03 -7.219187518058488295e-02 -7.618735045096579617e-01 -8.576376779113911164e-01 8.659512764687997410e-02 5.069111335279367081e-01
-7.615323649295431541e-02 4.945959145955225976e-03 -8.308532868832263496e-01 -4.133549433640247295e-01 -5.189485962168471911e-01 7.482179129645903926e-01
-2.870410390619381261e-02 -1.617923547886531907e-02 -8.046792030302222232e-01 -6.855460265225987726e-01 -1.326946178194069459e-01 7.158343271461895529e-01
-1.076242692566721460e-03 -5.555432128436138539e-02 -7.779651018322919498e-01 -8.321381186838776589e-01 -1.465998816370087665e-01 5.348407483889683345e-01
3.359220059846296930e-02 -1.709925034081711259e-01 -7.131784940070562406e-01 -9.131472501035929890e-01 -1.734888774277132950e-01 3.688681458693849891e-01
1.625235899373286830e-03 -5.460638811108788071e-02 -7.735021468099729791e-01 -8.321381186838776589e-01 -1.465998816370087665e-01 5.348407483889683345e-01
2.812479113003055545e-02 4.441580868498737344e-02 -6.959274325183945065e-01 -7.157577725874075814e-01 -2.710294748136885534e-01 6.436100020687444134e-01
8.750703105211178612e-02 -1.819989962786938698e-01 -4.930659939775632883e-01 -9.185382797937521326e-01 -3.618423140897462642e-01 1.592405987420049129e-01
4.079144281925396048e-02 2.946220874059356926e-02 -6.178089450270648486e-01 -9.868331710832907167e-01 -1.449018146901636106e-01 7.185928297161119083e-02
3.511486821435424316e-02 -8.196807418580683013e-02 -6.964924869510126237e-01 -8.896580102147394475e-01 -2.517927555774670534e-01 3.809317958630608625e-01
-7.300054510717146616e-02 3.602903320827544401e-03 -8.300430902498395769e-01 -4.133549433640247295e-01 -5.189485962168471911e-01 7.482179129645903926e-01
3.340345807576013820e-02 6.484643875947831981e-02 -6.814535278174647104e-01 -7.157577725874075814e-01 -2.710294748136885534e-01 6.436100020687444134e-01
5.433282000487445890e-02 -3.979786431187237045e-02 -6.255756581809422956e-01 -9.209279448213968378e-01 -2.992083761819047671e-01 2.497319924831941096e-01
4.254515245016864122e-02 4.624684519650371778e-02 -5.664831157351898350e-01 -9.295370687545457811e-01 1.695970774709678608e-01 3.274105513335108242e-01
3.965083277512047866e-02 -7.488478211207189039e-02 -6.812168420756411491e-01 -8.896580102147394475e-01 -2.517927555774670534e-01 3.809317958630608625e-01
3.735368140339575399e-02 9.389072539294270048e-02 -6.026710646318533815e-01 -9.946653765494807287e-01 -2.300177740002013610e-02 1.005569834975163779e-01
-3.417414554772625623e-02 -1.208718543993018563e-01 -8.353502103112848687e-01 -8.108041946220403418e-01 -2.467327472445788317e-01 5.307725590311231922e-01
5.082026147738567118e-02 -2.606607686626408529e-02 -4.457036607076505508e-01 -8.158335300584491634e-01 1.286221670621867652e-01 -5.638013740428420295e-01
4.596336355998446171e-02 -5.225368471496575490e-02 -4.446498972214922296e-01 -8.158335300584491634e-01 1.286221670621867652e-01 -5.638013740428420295e-01
3.833594998093319689e-02 1.482148532591792169e-02 -6.810523978899482023e-01 -9.868331710832907167e-01 -1.449018146901636106e-01 7.185928297161119083e-02
4.559140692174739468e-02 -2.849886199377605137e-02 -6.422658157120862965e-01 -9.762505011330309124e-01 4.950079787879027582e-02 2.109137976683111981e-01
1.052248359670979530e-02 -5.688124534402870525e-02 -7.584042278853770913e-01 -8.618186904176168284e-01 -1.735930045756906293e-01 4.765857882997019401e-01
4.886416072495387147e-02 -1.656768065040215565e-01 -6.403658871261680430e-01 -9.747761956801570538e-01 1.505393965181540394e-01 1.647703202378107690e-01
-1.125337908845698426e-01 -2.101313246342559685e-02 -8.813683149388550353e-01 -6.334243588223925636e-01 -2.050472636112630476e-01 7.461428826545049020e-01
3.755907238220539124e-02 -1.038685006709236941e-01 -7.000583144864158669e-01 -8.970995146271787402e-01 9.298606696482100697e-02 4.319329255869414075e-01
6.000959277100748057e-02 -9.020760767742662389e-02 -5.645350659642605073e-01 -9.032065525605030842e-01 3.818532813660293623e-01 -1.959744751792119599e-01
1.834712605050122262e-03 -5.248109085413320968e-02 -7.725117559427476799e-01 -8.618186904176168284e-01 -1.735930045756906293e-01 4.765857882997019401e-01
5.676152778533930660e-02 -1.634204978677697429e-01 -6.041094592508313710e-01 -9.711150995416336640e-01 6.934594435800008061e-02 2.283125126736162414e-01
-2.422413099453116572e-02 -1.301247789559574763e-01 -8.247185404469604686e-01 -7.814134075251593092e-01 -1.582262713581889246e-01 6.036203555149579625e-01
3.181329145676235759e-02 4.963994510889326722e-02 -6.896255296325805029e-01 -7.157577725874075814e-01 -2.710294748136885534e-01 6.436100020687444134e-01
6.849984026481098498e-02 -5.717318858002351512e-02 -5.880900152491259636e-01 -9.906077901092382731e-01 7.982798903269558433e-02 1.110121540277794472e-01
-4.172304431503050942e-02 -1.013849247585472541e-01 -8.400609590666610060e-01 -7.829631504021086208e-01 -1.038327164014482690e-01 6.133412362764316672e-01
-5.182718746664290860e-02 -1.204252315085058700e-01 -8.621092499436165957e-01 -8.108041946220403418e-01 -2.467327472445788317e-01 5.307725590311231922e-01
3.183613942274880759e-02 9.378301792969830075e-02 -6.693813740013199176e-01 -7.155033433549897737e-01 -4.157276835722027997e-01 5.614494267158190999e-01
4.719633310650526298e-02 -1.354011133138517120e-01 -6.572728233100711970e-01 -9.677828894729485487e-01 1.151912656437988070e-01 2.238911591885007490e-01
-5.592026307737048459e-03 1.175615650870288492e-01 -6.994723787890568811e-01 -7.155033433549897737e-01 -4.157276835722027997e-01 5.614494267158190999e-01
3.930518068756740785e-02 3.650727279236908041e-02 -6.307730389795358494e-01 -9.986119845153730301e-01 3.834755211292141530e-02 3.610498067047585719e-02
5.908121300389558572e-02 -1.719518072720425395e-01 -5.916515653935675578e-01 -9.711150995416336640e-01 6.934594435800008061e-02 2.283125126736162414e-01
4.202332709751025602e-02 -1.641077410518266000e-01 -6.822695985163389487e-01 -9.747761956801570538e-01 1.505393965181540394e-01 1.647703202378107690e-01
-2.805255069477443491e-02 -1.297093599147971510e-01 -8.301070742022842452e-01 -8.108041946220403418e-01 -2.467327472445788317e-01 5.307725590311231922e-01
-7.734759901735772936e-02 1.128177120367600955e-02 -8.271187263077575125e-01 -4.133549433640247295e-01 -5.189485962168471911e-01 7.482179129645903926e-01
5.674342700328251915e-02 -1.257357049147996286e-01 -5.927873141793349454e-01 -9.695443338865096239e-01 1.534837824255896876e-01 -1.908573109967187376e-01
1.134978672618465120e-02 1.801419999524506155e-01 -6.373923069562319466e-01 -7.415754627037400848e-01 -3.523159615916693355e-01 5.709109355437774758e-01
-1.931688135895253955e-01 -4.786448111289774709e-03 -9.064063594056139817e-01 -2.416085824093976986e-01 -5.974987296224518740e-01 7.646048397739039215e-01
-8.186002514484529147e-02 9.520323890126405897e-02 -8.084092871944236203e-01 -2.570143658561110378e-01 -1.190761618294534779e-01 9.590435253040119346e-01
5.429156528926364772e-02 2.179438013862237261e-02 -5.379942029143857107e-01 -9.210853471226442268e-01 -3.837033958583553894e-01 6.613234702265242959e-02
3.761809416573739379e-02 9.899584969217704866e-02 -5.988878450152981259e-01 -9.946653765494807287e-01 -2.300177740002013610e-02 1.005569834975163779e-01
-1.617199386426615773e-02 1.774272783277812959e-01 -6.748165628344153788e-01 -7.415754627037400848e-01 -3.523159615916693355e-01 5.709109355437774758e-01
3.109908673374783133e-02 1.805653228179729120e-01 -5.862697690650392479e-01 -9.881647228641881053e-01 -1.320632989927476852e-01 7.803694987564963048e-02
-6.850661031128933709e-02 8.393212272897855597e-02 -8.076792375895518461e-01 -2.051887066758348588e-01 -1.926957606927387212e-01 9.595654946191766177e-01
4.269583627378258778e-02 2.058304810736998752e-02 -6.095607115555818911e-01 -9.868331710832907167e-01 -1.449018146901636106e-01 7.185928297161119083e-02
3.052796443200913104e-02 1.731034757356953169e-01 -6.061295797797545681e-01 -9.881647228641881053e-01 -1.320632989927476852e-01 7.803694987564963048e-02
1.762671929435439752e-02 -9.697528156617646333e-02 -7.442752285609577356e-01 -8.576376779113911164e-01 8.659512764687997410e-02 5.069111335279367081e-01
9.189416352454356229e-02 -2.016464732312104602e-01 -5.076671196540498698e-01 -9.500734594935059674e-01 -2.965134623230142319e-01 9.716063105630774743e-02
3.738760406649088708e-02 3.200461051848452199e-02 -6.790281241917415223e-01 -9.986119845153730301e-01 3.834755211292141530e-02 3.610498067047585719e-02
