3.016060767528862610e-02 -1.231128049166123478e-01 -8.919783567059033080e-01 7.938374984672070811e-01 -2.983263668265897506e-01 5.299277355294528258e-01
-9.141078455849585560e-02 -6.057621608746977665e-02 -6.382583024541377270e-01 9.319495492008392779e-01 3.426456455230670328e-01 -1.185917338958866474e-01
-3.108437148323807062e-02 1.334651638390268180e-01 -6.976675557883036394e-01 9.397470776117021751e-01 -2.287513147175803396e-01 2.540635080747403185e-01
1.639460392233325625e-01 -5.136884951980269336e-03 -9.732743775569362432e-01 8.800175662719861291e-01 -3.937049686725598852e-01 2.656416396110914402e-01
-6.094588190933148547e-02 1.954917890367497899e-02 -6.717393927153652022e-01 7.222912537124543952e-01 -4.290100150316611960e-01 5.424442384365644187e-01
1.153896312163484213e-02 -1.310314274046590552e-02 -8.198548307286767090e-01 6.142373124646217653e-01 -2.660852179233386683e-01 7.429072491091521790e-01
1.352275901440935790e-01 -2.275913865553698054e-02 -9.404684090096528948e-01 6.841531516399963486e-01 -3.205822724365535170e-01 6.551041685873135734e-01
6.874425996454693044e-02 -7.215602753725510604e-03 -8.817256848407536429e-01 5.956252289160333113e-01 -2.099044472436493725e-01 7.753519908441977027e-01
7.105863128008967078e-02 9.212866579322347149e-02 -8.278110795381637965e-01 7.452529187864009863e-01 -4.613122620766992310e-01 4.814447880058818630e-01
4.245686022396660125e-02 4.187856711741849702e-02 -8.314817608458292542e-01 7.506400723944215425e-01 -4.575542517312892188e-01 4.766377958558442041e-01
1.749736447950134555e-01 3.148263699020064504e-02 -9.549052770717421090e-01 6.825449723027980919e-01 -5.551361774598392307e-01 4.753484882267430822e-01
4.697511372396937640e-02 6.200683472201071189e-02 -8.192750236992693003e-01 7.506400723944215425e-01 -4.575542517312892188e-01 4.766377958558442041e-01
5.340498181726336530e-02 1.222737377749212456e-01 -7.745834071950461475e-01 5.629313768569728094e-01 -3.884113138135074084e-01 7.295511745255283120e-01
-4.667598529662438100e-02 9.867204655024926219e-02 -6.713229530385053101e-01 9.397470776117021751e-01 -2.287513147175803396e-01 2.540635080747403185e-01
6.993066424044036555e-02 1.244228064911373360e-01 -7.904608886093978937e-01 6.370684674565014749e-01 -6.231521756876872153e-01 4.536795495813387147e-01
-9.684416538109939798e-02 -3.842796260843470840e-02 -6.167365503949244765e-01 9.283885533938746049e-01 3.701485146039985019e-01 -3.293586288048534760e-02
-3.548596662406235808e-02 7.047548534097189399e-02 -7.447678433336664128e-01 4.904671174796737532e-01 -3.860452218357542375e-01 7.812880988271632132e-01
1.597349902780619557e-01 2.146211164279790765e-02 -9.405398299699598841e-01 7.666113783821086880e-01 -4.824475971929301776e-01 4.237349531226461963e-01
-3.437932504180429144e-02 1.396898594870142271e-02 -7.720912216498251324e-01 9.053051702172898452e-01 -1.278342767678995462e-01 4.050690638163716994e-01
-7.226673628723864762e-02 -1.099125094102219868e-01 -7.315727404519951627e-01 9.450421602234655438e-01 3.204759716834956751e-02 3.253740415520279261e-01
-4.112759794050197676e-02 5.814686427953982828e-02 -7.308180137996010961e-01 9.545305211162069536e-01 -1.179938220283549138e-01 2.737680445573646981e-01
1.667726497531531737e-01 5.079237389183090257e-02 -9.171428678463044992e-01 8.351124046200295581e-01 -4.772432275693423431e-01 2.735437321324488691e-01
8.708506996876858031e-02 1.270499856887394863e-01 -8.109409797731723657e-01 6.370684674565014749e-01 -6.231521756876872153e-01 4.536795495813387147e-01
1.160418069938640856e-01 -4.888558509571644395e-02 -9.332171371261747117e-01 6.841531516399963486e-01 -3.205822724365535170e-01 6.551041685873135734e-01
4.496764317623030277e-02 7.797226211202899770e-02 -8.007873227722541731e-01 7.506400723944215425e-01 -4.575542517312892188e-01 4.766377958558442041e-01
-8.255803050806173604e-02 -4.140263281071219353e-02 -6.863793346012518892e-01 9.182733827025012507e-01 -2.960541506487211483e-01 2.629181136851735379e-01
-3.577293080490201449e-02 1.239308830785559173e-01 -6.889095854730863389e-01 9.397470776117021751e-01 -2.287513147175803396e-01 2.540635080747403185e-01
-1.064735213494072408e-01 1.935741441641054827e-02 -5.353503108583530512e-01 9.207177752265650605e-01 -3.816112520602826796e-01 8.155752989655493113e-02
-3.224532319744496250e-02 1.393148550380161332e-01 -6.881432530691089511e-01 9.399510764586137546e-01 -2.274256674774100540e-01 2.544986043905697604e-01
4.755688976884089869e-02 8.484585770837345386e-02 -7.982666442811426899e-01 7.506400723944215425e-01 -4.575542517312892188e-01 4.766377958558442041e-01
-8.109087103244523587e-02 -1.016320831610417891e-01 -6.757817888840224052e-01 9.319495492008392779e-01 3.426456455230670328e-01 -1.185917338958866474e-01
-1.054098944184017062e-01 -1.396508705948068356e-02 -5.590130589932262861e-01 9.532514429140483969e-01 2.369733905624612502e-01 -1.874974633098164256e-01
8.087246530320689464e-02 6.186131798270773363e-02 -8.641286096331681765e-01 5.303634869796022278e-01 -3.102482963083177392e-01 7.889617014257558347e-01
1.327182409171100974e-01 1.023022393469854713e-01 -8.626830517918330221e-01 7.198577169879438742e-02 -3.167808508658438993e-01 9.457631528018212164e-01
7.100303950508966844e-02 -1.489690308960896388e-02 -8.855403718692894666e-01 5.956252289160333113e-01 -2.099044472436493725e-01 7.753519908441977027e-01
1.033954908117546562e-02 -5.649243061151604933e-02 -8.463627133410458470e-01 6.657453332228646659e-01 -2.221576718914485271e-01 7.123405927726904618e-01
-8.871530638587078743e-02 -1.778535523713001554e-01 -6.759594797435460878e-01 9.496514246003074922e-01 2.346206991239079831e-01 2.076422387117194124e-01
-6.091506687663510167e-02 -1.134209765949048682e-01 -7.641978637970883170e-01 9.450421602234655438e-01 3.204759716834956751e-02 3.253740415520279261e-01
-8.149154039250926240e-02 -2.045852441090857121e-01 -7.010983976740505774e-01 9.716091507287830664e-01 2.302709682069275718e-02 2.354684926526333377e-01
-1.072035319837733036e-01 1.412175114892245086e-02 -5.516069857403479437e-01 9.207177752265650605e-01 -3.816112520602826796e-01 8.155752989655493113e-02
-8.625845247188508591e-02 -1.404582793106789324e-02 -6.426505307310874660e-01 9.182733827025012507e-01 -2.960541506487211483e-01 2.629181136851735379e-01
1.188531074681021538e-01 2.783029487080945687e-03 -8.962824854519655382e-01 6.418670515857930470e-01 -6.057784938869149594e-01 4.701479601494208960e-01
-5.051994223239913984e-02 -5.515577140431136144e-02 -7.549463509703597808e-01 7.536065946328499576e-01 -4.817187528439640376e-01 4.472405881450555176e-01
4.710833968610189659e-02 9.345520766350978725e-03 -8.599768491430765938e-01 6.049921736740325739e-01 -2.168207013098240876e-01 7.661417971085280332e-01
-6.901806290170797720e-02 -1.363323608198436232e-01 -7.505832762349315956e-01 9.032176599676503548e-01 1.645870895824318603e-03 4.291796242036148290e-01
-3.670269908550582993e-02 2.304808209227575400e-02 -7.609442144104725525e-01 9.651917603332041962e-01 -1.235378565779851612e-02 2.612513153360412899e-01
1.218869867394702933e-01 7.755072115151233347e-02 -8.695265065083078726e-01 1.308405253039031380e-01 -2.461752303396858022e-01 9.603533271173695374e-01
-3.925844808378915751e-02 1.640527192465379702e-02 -7.518161301419621356e-01 9.651917603332041962e-01 -1.235378565779851612e-02 2.612513153360412899e-01
-2.601526870891100393e-02 5.337038780875130034e-02 -7.591651022899963408e-01 4.904671174796737532e-01 -3.860452218357542375e-01 7.812880988271632132e-01
-9.177277725060910274e-02 -5.068406211596747368e-02 -6.115251592971555628e-01 9.283885533938746049e-01 3.701485146039985019e-01 -3.293586288048534760e-02
-4.948137836070567184e-04 -2.564885841662118901e-02 -8.143987454633342393e-01 6.142373124646217653e-01 -2.660852179233386683e-01 7.429072491091521790e-01
-7.985178812745262478e-02 -2.181695899728389176e-01 -5.696025309050594121e-01 9.479140533172130123e-01 -6.422813543519557966e-02 -3.119834837651660475e-01
1.956703796496022663e-01 1.639796760812446685e-01 -8.270938578681260589e-01 -4.027808572458717595e-01 -5.806120568101279522e-01 7.075713536619420152e-01
-8.240444175948224981e-02 -1.324177337864123338e-01 -6.579648212031569132e-01 9.414335744795022665e-01 -3.361167077887450838e-01 -2.698858254897521305e-02
-8.924262440603057678e-02 -1.515704224397907696e-01 -6.579706042563051582e-01 9.414335744795022665e-01 -3.361167077887450838e-01 -2.698858254897521305e-02
1.137324805049751975e-01 8.197433395856423832e-02 -8.672815788133145798e-01 1.308405253039031380e-01 -2.461752303396858022e-01 9.603533271173695374e-01
7.823111372322762158e-02 7.006151028367360589e-02 -8.591284022492824413e-01 5.303634869796022278e-01 -3.102482963083177392e-01 7.889617014257558347e-01
1.616741961675151884e-01 2.696861887304589575e-02 -9.377787080146995358e-01 7.666113783821086880e-01 -4.824475971929301776e-01 4.237349531226461963e-01
-3.649932515837651242e-02 -8.349425355299014417e-02 -7.981136683403325938e-01 7.784021631367796790e-01 -1.547026476823073517e-02 6.275752889749428576e-01
1.670193438163070643e-01 9.911250433158212692e-02 -8.682285034404488844e-01 1.811192646754744839e-01 -2.949699366970490733e-01 9.381836432214931687e-01
-2.177618826809494222e-03 -6.362073790007136131e-02 -8.350906798380379747e-01 7.090478985226197350e-01 -6.107518543672340455e-02 7.025104264881244509e-01
7.909235336944027417e-02 1.491295680542505941e-01 -7.942217782948236549e-01 6.388986069600742779e-01 -9.535061468695496534e-02 7.633589131616242973e-01
-5.742768766560497895e-02 -1.397826780854748707e-01 -7.749622360738245286e-01 9.032176599676503548e-01 1.645870895824318603e-03 4.291796242036148290e-01
-8.656659616363350518e-02 -7.119492685416285715e-02 -6.854510856310446210e-01 9.837840334185761204e-01 1.179399552272721377e-02 1.789689281978507351e-01
-2.655056792995545006e-02 1.857683800452687994e-01 -6.676640343319826254e-01 9.399510764586137546e-01 -2.274256674774100540e-01 2.544986043905697604e-01
-8.067376349736631036e-02 -1.363333415078340216e-01 -5.973700424783204843e-01 9.501664432368650548e-01 -2.939662289945733087e-01 -1.037669810552243610e-01
4.024001306304877262e-02 -2.117115166779082527e-02 -8.631895213597835514e-01 6.049921736740325739e-01 -2.168207013098240876e-01 7.661417971085280332e-01
-8.739593880050790242e-02 -1.864826574848323648e-01 -5.898340643511410519e-01 9.683897406860384471e-01 -1.089205323628055500e-01 -2.244050528928211441e-01
1.339619497963159267e-01 1.351285606956109664e-01 -8.517826264225067945e-01 7.198577169879438742e-02 -3.167808508658438993e-01 9.457631528018212164e-01
-9.037264333386885173e-02 -1.751218679254731014e-01 -6.081938709816776534e-01 9.683897406860384471e-01 -1.089205323628055500e-01 -2.244050528928211441e-01
-4.694308296477570260e-03 -1.383212306271426259e-02 -8.066942240281944621e-01 6.142373124646217653e-01 -2.660852179233386683e-01 7.429072491091521790e-01
-1.001977931804834548e-01 -3.074267828493544921e-02 -5.618428510096572515e-01 9.354194909652803203e-01 3.356103940401958807e-01 1.111577227836189757e-01
3.841789121971592169e-02 1.320740654211543554e-02 -8.475434816092014545e-01 8.145587153758013788e-01 -3.196743162630021340e-01 4.840479632506536900e-01
8.950998598506022808e-02 -1.962954639985805411e-02 -8.976262984538834200e-01 2.529906568496421149e-01 -4.280092150050121558e-01 8.676426910990372443e-01
1.441309607861693542e-01 1.189846436078540182e-01 -8.579639921032974348e-01 7.198577169879438742e-02 -3.167808508658438993e-01 9.457631528018212164e-01
-8.693763469849148662e-02 -1.425974502568608526e-01 -6.893161248357657644e-01 9.414335744795022665e-01 -3.361167077887450838e-01 -2.698858254897521305e-02
1.444072559360686306e-02 2.024538986322036993e-01 -6.900943185327372831e-01 4.692966698034612416e-01 -6.139859374634121236e-01 6.346510098538848954e-01
-8.797841404148099356e-03 1.314936844154875606e-01 -7.218816983958247224e-01 4.980552396657499936e-01 -5.248114185802109644e-01 6.902999008904164846e-01
4.046363836878318077e-02 2.996105660883821575e-02 -8.397830651905162647e-01 7.506400723944215425e-01 -4.575542517312892188e-01 4.766377958558442041e-01
-2.946527661570216491e-02 -1.171059810405068909e-02 -7.882071015508477219e-01 4.519011766993085710e-01 -3.837855876183642878e-01 8.052912201397744996e-01
1.845121403138690053e-01 1.915074673046050086e-02 -9.808750891401367689e-01 6.425025877323149448e-01 -5.579404608800914156e-01 5.252550493523978625e-01
1.364198121712317802e-01 2.301397878032210471e-03 -9.208859124687237552e-01 6.418670515857930470e-01 -6.057784938869149594e-01 4.701479601494208960e-01
-6.419734615285066677e-03 -2.536896968084331391e-02 -8.093997611245454804e-01 6.142373124646217653e-01 -2.660852179233386683e-01 7.429072491091521790e-01
-7.534334480247023569e-02 -2.218212578990257366e-01 -7.578899015468756328e-01 9.011680464857584338e-01 -2.088953045337936243e-01 3.798143016485493462e-01
-5.995754252646378485e-03 -1.809720171856746621e-02 -8.071457981884546662e-01 6.142373124646217653e-01 -2.660852179233386683e-01 7.429072491091521790e-01
-2.970619596855121614e-02 8.461934341832706707e-02 -7.414075190436575369e-01 4.904671174796737532e-01 -3.860452218357542375e-01 7.812880988271632132e-01
-1.059140380194709546e-01 1.791802099582041549e-02 -5.484014046519498642e-01 9.207177752265650605e-01 -3.816112520602826796e-01 8.155752989655493113e-02
1.627751354193975319e-01 1.784676113559305333e-01 -8.254008154411293097e-01 2.185007642469378730e-01 -7.736220168199917646e-01 5.947826419078421356e-01
-7.835656588819003843e-03 -8.900579620767875080e-03 -8.023306320078725795e-01 6.142373124646217653e-01 -2.660852179233386683e-01 7.429072491091521790e-01
-3.583053296254223863e-02 -1.362122049212648456e-01 -8.033484525753391559e-01 7.565117029006933613e-01 -6.161498969000989839e-02 6.510711454363438122e-01
-9.592250018699732816e-02 -2.811703867498489828e-02 -5.281705443915247766e-01 9.574159042103435047e-01 2.327416304662935920e-01 -1.708394562534706063e-01
1.658262657711801202e-01 1.065624882597092891e-03 -9.703105103311902013e-01 8.800175662719861291e-01 -3.937049686725598852e-01 2.656416396110914402e-01
1.383295671462916876e-01 1.171844446887739671e-01 -8.581253969399803561e-01 7.198577169879438742e-02 -3.167808508658438993e-01 9.457631528018212164e-01
-8.561961326976122444e-02 -9.114378511003984329e-02 -6.810670613882583435e-01 9.319495492008392779e-01 3.426456455230670328e-01 -1.185917338958866474e-01
-8.912209369142216897e-02 -7.610833617863427270e-02 -6.651494591004283308e-01 9.319495492008392779e-01 3.426456455230670328e-01 -1.185917338958866474e-01
2.845102110004331733e-02 6.520626969619533475e-02 -7.937095823501476577e-01 5.825766499570795842e-01 -4.851547558631423840e-01 6.520960893826619476e-01
-6.978447069523772972e-02 -1.178726394351247986e-01 -7.403173112741173734e-01 9.078295909983453704e-01 -1.862959305896937923e-01 3.756850542056429099e-01
8.095742641072104645e-04 1.768449998598302930e-01 -7.008490964223711428e-01 5.832520223052428676e-01 -4.733331676499747953e-01 6.601308892025014030e-01
-8.786792911967857000e-02 -5.805763694488839249e-02 -5.843238516981469344e-01 9.283885533938746049e-01 3.701485146039985019e-01 -3.293586288048534760e-02
1.497031004702723822e-01 1.385892263283784731e-01 -8.524738571545426025e-01 1.811192646754744839e-01 -2.949699366970490733e-01 9.381836432214931687e-01
8.171928485934072672e-02 -4.512163231584858519e-02 -9.028299208030855505e-01 5.386855211426103685e-01 -2.234973399170651354e-01 8.123218871613089309e-01
-5.933044196588670854e-02 5.707532852901395226e-02 -6.638319591174091094e-01 9.440136517856442255e-01 -2.649932489091576526e-01 1.965115855996825978e-01
-9.354810678812294777e-02 -4.440812722546339658e-02 -5.910358720181078107e-01 9.283885533938746049e-01 3.701485146039985019e-01 -3.293586288048534760e-02
5.910614648019502787e-02 5.899708543123946894e-03 -8.704262237428119775e-01 6.049921736740325739e-01 -2.168207013098240876e-01 7.661417971085280332e-01
1.404852211801805792e-02 1.307757715365036322e-02 -8.125526570165328977e-01 6.142373124646217653e-01 -2.660852179233386683e-01 7.429072491091521790e-01
6.909895230649702735e-02 1.154482735326838733e-01 -8.016199595800653777e-01 6.370684674565014749e-01 -6.231521756876872153e-01 4.536795495813387147e-01
2.501996334777150527e-02 1.846309018471130325e-01 -7.151598587896609294e-01 4.692966698034612416e-01 -6.139859374634121236e-01 6.346510098538848954e-01
-6.625568493112229951e-02 -5.781325117096772909e-02 -7.312937534407484286e-01 7.536065946328499576e-01 -4.817187528439640376e-01 4.472405881450555176e-01
-1.097269980066025302e-01 -2.012167328231379178e-03 -5.706172733079324377e-01 9.283885533938746049e-01 3.701485146039985019e-01 -3.293586288048534760e-02
-1.010198142228285467e-01 -2.646135254644452206e-02 -5.999524644991599542e-01 9.283885533938746049e-01 3.701485146039985019e-01 -3.293586288048534760e-02
-8.562341581397873991e-02 -5.218433985180419982e-02 -6.878136495716324905e-01 9.182733827025012507e-01 -2.960541506487211483e-01 2.629181136851735379e-01
8.291288036472301004e-02 1.208322966981937169e-01 -8.136225994017040053e-01 6.370684674565014749e-01 -6.231521756876872153e-01 4.536795495813387147e-01
-5.336401788864168771e-02 8.453505456109076943e-02 -6.593133433044282565e-01 9.397470776117021751e-01 -2.287513147175803396e-01 2.540635080747403185e-01
1.561583113366099840e-01 -1.050764342460023745e-02 -9.619497444802848074e-01 7.805570376943441468e-01 -2.883747355753305541e-01 5.545905902444504543e-01
-7.862920177712579006e-02 -2.012767927501729337e-01 -7.132327532677489312e-01 9.716091507287830664e-01 2.302709682069275718e-02 2.354684926526333377e-01
-9.950809798294769914e-02 3.202119888676079745e-02 -5.547298391487583968e-01 9.207177752265650605e-01 -3.816112520602826796e-01 8.155752989655493113e-02
1.969607026121010795e-01 1.734707958001593942e-01 -8.185712178556664442e-01 -4.027808572458717595e-01 -5.806120568101279522e-01 7.075713536619420152e-01
-5.152678660363298885e-02 -5.180705291407512736e-02 -7.496429301370439724e-01 7.536065946328499576e-01 -4.817187528439640376e-01 4.472405881450555176e-01
-9.406199462416094115e-02 -1.773405052117869030e-01 -6.230378985203598452e-01 9.683897406860384471e-01 -1.089205323628055500e-01 -2.244050528928211441e-01
3.953601668359241271e-04 4.589888357916781236e-02 -7.830094679430158466e-01 5.825766499570795842e-01 -4.851547558631423840e-01 6.520960893826619476e-01
9.960660611886298921e-02 1.315337201114728238e-01 -8.223654025610028784e-01 6.370684674565014749e-01 -6.231521756876872153e-01 4.536795495813387147e-01
1.447193639435731261e-01 8.844721160400655091e-02 -8.682372093670579494e-01 7.198577169879438742e-02 -3.167808508658438993e-01 9.457631528018212164e-01
-6.538590009778516565e-02 -2.062359502282389012e-01 -7.729436617016467448e-01 9.011680464857584338e-01 -2.088953045337936243e-01 3.798143016485493462e-01
-5.980429484527058359e-02 3.144860104426956682e-02 -6.751982419562998494e-01 9.651917603332041962e-01 -1.235378565779851612e-02 2.612513153360412899e-01
3.356293963718306322e-02 -1.296143189923358585e-01 -9.000415682485091162e-01 6.067919337192863027e-01 -4.977014442951102624e-01 6.197554529972044701e-01
4.310390699177308466e-02 -5.518287277793845758e-02 -8.750145421982854499e-01 5.956252289160333113e-01 -2.099044472436493725e-01 7.753519908441977027e-01
-9.527214981055219523e-02 -3.525466257019437000e-02 -6.350509218928345190e-01 9.182733827025012507e-01 -2.960541506487211483e-01 2.629181136851735379e-01
-4.913627166668893542e-02 1.158812809081436190e-01 -6.467279926746223317e-01 9.397470776117021751e-01 -2.287513147175803396e-01 2.540635080747403185e-01
-4.873774242986624039e-02 6.714976003120029513e-02 -7.004039409017723816e-01 9.545305211162069536e-01 -1.179938220283549138e-01 2.737680445573646981e-01
4.616694505547783156e-02 9.661222039814899853e-02 -7.861710266117463153e-01 5.825766499570795842e-01 -4.851547558631423840e-01 6.520960893826619476e-01
-3.192924734559957067e-02 1.324905158417965800e-01 -6.954200169104352014e-01 9.397470776117021751e-01 -2.287513147175803396e-01 2.540635080747403185e-01
5.636888165268212625e-02 -3.659485140696422389e-02 -8.801725159508099194e-01 5.956252289160333113e-01 -2.099044472436493725e-01 7.753519908441977027e-01
-4.248282892881192346e-02 1.026058385456008054e-01 -6.833682064154933400e-01 9.440136517856442255e-01 -2.649932489091576526e-01 1.965115855996825978e-01
-5.037687938064280835e-02 3.883261929876316576e-02 -7.068935274384406942e-01 9.545305211162069536e-01 -1.179938220283549138e-01 2.737680445573646981e-01
1.432106524026031114e-01 -1.823476018334393989e-02 -9.477445250100621221e-01 7.805570376943441468e-01 -2.883747355753305541e-01 5.545905902444504543e-01
8.298246306310792797e-02 1.058354809035684657e-01 -8.331349476510755414e-01 7.452529187864009863e-01 -4.613122620766992310e-01 4.814447880058818630e-01
2.682958958850770528e-03 -8.596205754808780575e-02 -8.421013058855543187e-01 7.353335988943975332e-01 -7.225259017264763772e-02 6.738427572886397376e-01
-4.807434443593597978e-02 1.307934436044893567e-01 -6.372961456742600728e-01 9.399510764586137546e-01 -2.274256674774100540e-01 2.544986043905697604e-01
-7.966792197097601058e-02 -6.448575516603602398e-02 -7.130782404818595266e-01 8.766668048789574286e-01 -1.473461165249716764e-01 4.579786405153948303e-01
-9.855979663649738765e-02 -2.649856094770255965e-02 -5.400273845790476424e-01 9.532514429140483969e-01 2.369733905624612502e-01 -1.874974633098164256e-01
-5.055755537221715001e-02 4.866697966745030940e-02 -7.020249734125271202e-01 9.545305211162069536e-01 -1.179938220283549138e-01 2.737680445573646981e-01
2.912617484154005065e-02 5.172696506206540118e-02 -8.043412632738389245e-01 5.825766499570795842e-01 -4.851547558631423840e-01 6.520960893826619476e-01
-2.849815082753939886e-03 1.562723227334028575e-01 -7.123670912908109942e-01 5.832520223052428676e-01 -4.733331676499747953e-01 6.601308892025014030e-01
-9.977889573304175863e-02 -2.980678312755415116e-02 -6.025712402394111100e-01 9.283885533938746049e-01 3.701485146039985019e-01 -3.293586288048534760e-02
-8.118245703742967001e-02 -2.798129282628233211e-02 -6.760708363862131254e-01 9.182733827025012507e-01 -2.960541506487211483e-01 2.629181136851735379e-01
2.801225980313212099e-02 -1.673097878080723883e-02 -8.504790211136984412e-01 6.657453332228646659e-01 -2.221576718914485271e-01 7.123405927726904618e-01
-2.243355824865982812e-02 -1.351854965483309245e-01 -8.191540005187504248e-01 7.966332329525799283e-01 -2.342006273032705421e-01 5.572482017254744013e-01
-5.301162611697228522e-02 1.040267644475432740e-01 -6.430670308910584332e-01 9.397470776117021751e-01 -2.287513147175803396e-01 2.540635080747403185e-01
-7.663640490651338344e-02 -1.864410965827069389e-01 -7.229064155969235905e-01 9.716091507287830664e-01 2.302709682069275718e-02 2.354684926526333377e-01
7.778011119303783472e-02 1.025574160191870671e-01 -8.282229485026985083e-01 7.452529187864009863e-01 -4.613122620766992310e-01 4.814447880058818630e-01
-7.156562825402455752e-02 -9.180865553632977516e-02 -7.353922266669246088e-01 9.450421602234655438e-01 3.204759716834956751e-02 3.253740415520279261e-01
2.446460698751999618e-02 -1.198491257681074951e-01 -8.816083758355559574e-01 7.938374984672070811e-01 -2.983263668265897506e-01 5.299277355294528258e-01
1.579952548713008942e-01 3.166173145192392041e-02 -9.237226501113997568e-01 8.351124046200295581e-01 -4.772432275693423431e-01 2.735437321324488691e-01
1.160299245021632758e-01 -6.337547942957952318e-02 -9.402955134075660082e-01 6.841531516399963486e-01 -3.205822724365535170e-01 6.551041685873135734e-01
1.386001865617308981e-01 2.150227080007467706e-02 -8.991226245978282128e-01 6.418670515857930470e-01 -6.057784938869149594e-01 4.701479601494208960e-01
-1.371972514167016551e-02 2.204141171665049137e-01 -6.402102994213848541e-01 7.979094934159985941e-01 -6.023931837631005815e-01 -2.151493603011177605e-02
-5.441438455729507434e-02 -1.899439137375698305e-01 -7.900147653285376492e-01 9.011680464857584338e-01 -2.088953045337936243e-01 3.798143016485493462e-01
3.027583493016820781e-02 7.374604954720559435e-02 -7.889863200412013944e-01 5.825766499570795842e-01 -4.851547558631423840e-01 6.520960893826619476e-01
-8.585476724020178751e-02 -2.060849184243861432e-01 -6.829478407590480193e-01 9.716091507287830664e-01 2.302709682069275718e-02 2.354684926526333377e-01
2.323599530762117046e-02 2.333707105287127076e-02 -8.164742625384319163e-01 6.142373124646217653e-01 -2.660852179233386683e-01 7.429072491091521790e-01
-3.964351137773803463e-02 -3.597595035849525391e-02 -7.678782020678842635e-01 9.742922437393908286e-01 -8.037765199188420806e-02 2.104615329449414096e-01
-3.577180682611032225e-02 1.018162618792076701e-01 -7.166717337800727616e-01 9.440136517856442255e-01 -2.649932489091576526e-01 1.965115855996825978e-01
-4.832751435327365536e-02 -6.165807481732974576e-02 -7.656441939781736261e-01 7.536065946328499576e-01 -4.817187528439640376e-01 4.472405881450555176e-01
1.603018342302377774e-01 4.898505045394480756e-03 -9.597706811188462250e-01 7.805570376943441468e-01 -2.883747355753305541e-01 5.545905902444504543e-01
1.546975023815837513e-01 2.345737526023300087e-02 -9.279686966519923308e-01 8.351124046200295581e-01 -4.772432275693423431e-01 2.735437321324488691e-01
1.210507009381589505e-02 -1.015343313797437280e-01 -8.551760558244323462e-01 7.937732538069214305e-01 -1.898042699105151054e-01 5.778393900250385906e-01
-1.071668698760895738e-01 1.679148145562765412e-02 -5.395290859801084027e-01 9.207177752265650605e-01 -3.816112520602826796e-01 8.155752989655493113e-02
-7.569094159461658977e-02 -1.824746697808859452e-01 -7.303048617388957497e-01 9.496514246003074922e-01 2.346206991239079831e-01 2.076422387117194124e-01
9.650157636217646107e-02 -6.713325659510181731e-02 -9.217401373832084799e-01 6.841531516399963486e-01 -3.205822724365535170e-01 6.551041685873135734e-01
3.930585022982877041e-02 2.470527957717107842e-02 -8.414443340566528651e-01 8.145587153758013788e-01 -3.196743162630021340e-01 4.840479632506536900e-01
-7.284911898106523342e-02 -1.100783769773083925e-01 -6.028648317502856013e-01 9.414335744795022665e-01 -3.361167077887450838e-01 -2.698858254897521305e-02
-8.952131249045147676e-02 -3.425239256954831085e-02 -6.540078304742905635e-01 9.182733827025012507e-01 -2.960541506487211483e-01 2.629181136851735379e-01
1.484487939179730820e-01 2.109817806000218593e-02 -9.130890517952624519e-01 6.418670515857930470e-01 -6.057784938869149594e-01 4.701479601494208960e-01
-5.230988634709175106e-02 2.337287513520961563e-02 -7.032681757229196640e-01 9.651917603332041962e-01 -1.235378565779851612e-02 2.612513153360412899e-01
4.554407334368915788e-02 6.692128906680580580e-02 -8.123036383749336897e-01 7.506400723944215425e-01 -4.575542517312892188e-01 4.766377958558442041e-01
-2.579754861532978019e-02 -1.333342590805418337e-01 -8.147339140910896393e-01 7.565117029006933613e-01 -6.161498969000989839e-02 6.510711454363438122e-01
-2.689436898533697703e-02 2.003949634742966113e-01 -6.472633613276080888e-01 9.552392759720527149e-01 -2.900109265520638413e-01 5.840880174085075205e-02
1.971616799815374688e-01 1.763238628453682177e-01 -8.161156705055760963e-01 -4.027808572458717595e-01 -5.806120568101279522e-01 7.075713536619420152e-01
1.489161237070499855e-01 1.652160951710709702e-01 -8.375455209470404894e-01 2.185007642469378730e-01 -7.736220168199917646e-01 5.947826419078421356e-01
-5.504299031700517902e-02 -1.806079324807672443e-02 -7.093444777019927150e-01 7.222912537124543952e-01 -4.290100150316611960e-01 5.424442384365644187e-01
-5.984205197881101862e-02 -6.582062092358140215e-02 -7.497253643462626904e-01 8.548347224142786027e-01 -2.128756966596682954e-01 4.732246138215593367e-01
-9.912985803799860551e-02 3.645207544850327663e-02 -5.144779419261534814e-01 7.775657015180793552e-01 -5.197882892442633462e-01 3.538526729971373519e-01
-8.636583159779882835e-02 -4.834381184687062266e-02 -6.808961158793696011e-01 9.182733827025012507e-01 -2.960541506487211483e-01 2.629181136851735379e-01
-7.375075878250020311e-02 -1.945551901695606600e-01 -7.340199031456804413e-01 9.716091507287830664e-01 2.302709682069275718e-02 2.354684926526333377e-01
-5.738432724331866096e-03 1.501076784972349698e-01 -7.141288389556514904e-01 5.629313768569728094e-01 -3.884113138135074084e-01 7.295511745255283120e-01
-8.461229090949787257e-02 -8.115850654721015744e-02 -6.443007059670307068e-01 9.319495492008392779e-01 3.426456455230670328e-01 -1.185917338958866474e-01
1.720393470793964152e-01 6.829215154402758399e-03 -9.787063885736043689e-01 6.425025877323149448e-01 -5.579404608800914156e-01 5.252550493523978625e-01
-8.185150780611684385e-02 -1.268978757360280929e-01 -6.668540478397559923e-01 9.871055142121105686e-01 -9.472218827962886056e-02 -1.290364710442863105e-01
1.041623763127234592e-01 1.061736971072857055e-01 -8.592128175965705328e-01 7.198577169879438742e-02 -3.167808508658438993e-01 9.457631528018212164e-01
1.681236684828492089e-01 1.854781744296977175e-01 -8.182471645400886118e-01 2.185007642469378730e-01 -7.736220168199917646e-01 5.947826419078421356e-01
-7.796209954640874462e-02 -1.220261985936762217e-01 -6.324206300767569733e-01 9.414335744795022665e-01 -3.361167077887450838e-01 -2.698858254897521305e-02
1.757329560302023086e-01 2.488354420386509197e-02 -9.637023161150335415e-01 6.825449723027980919e-01 -5.551361774598392307e-01 4.753484882267430822e-01
-7.203007498919510032e-02 -7.933542949417746182e-02 -7.324762821538178814e-01 8.766668048789574286e-01 -1.473461165249716764e-01 4.579786405153948303e-01
2.296094115242054007e-02 -6.730356005637587458e-02 -8.615301884615355066e-01 6.657453332228646659e-01 -2.221576718914485271e-01 7.123405927726904618e-01
1.414720541867948433e-01 2.812729742369998037e-02 -8.945071808888173104e-01 6.418670515857930470e-01 -6.057784938869149594e-01 4.701479601494208960e-01
1.337050703583013422e-01 5.149012663488840291e-02 -8.778169522243555178e-01 1.308405253039031380e-01 -2.461752303396858022e-01 9.603533271173695374e-01
-1.010416325633831103e-01 3.702431587855221917e-02 -5.094363686661970148e-01 7.775657015180793552e-01 -5.197882892442633462e-01 3.538526729971373519e-01
-1.007102296781156314e-01 -1.259254821889233683e-02 -5.333848862553219883e-01 9.532514429140483969e-01 2.369733905624612502e-01 -1.874974633098164256e-01
-6.424341998193218439e-02 1.008457013132489817e-02 -6.748339578782465153e-01 7.222912537124543952e-01 -4.290100150316611960e-01 5.424442384365644187e-01
4.773460989201284976e-02 6.421602690001761149e-02 -8.183503865445851400e-01 7.506400723944215425e-01 -4.575542517312892188e-01 4.766377958558442041e-01
1.366274187893050940e-01 4.798619197358378746e-02 -8.791132912810569744e-01 1.308405253039031380e-01 -2.461752303396858022e-01 9.603533271173695374e-01
1.287626235331805757e-01 -2.954112114640772280e-02 -9.370356054474273666e-01 6.841531516399963486e-01 -3.205822724365535170e-01 6.551041685873135734e-01
-2.041165142663803334e-02 -1.066745951346597249e-01 -8.186391515462603241e-01 7.784021631367796790e-01 -1.547026476823073517e-02 6.275752889749428576e-01
-8.466702096593310689e-02 -1.412313984615879703e-01 -6.271239305120089869e-01 9.414335744795022665e-01 -3.361167077887450838e-01 -2.698858254897521305e-02
-7.819911784510377717e-02 -1.110411594304045457e-01 -6.505539166741325374e-01 9.871055142121105686e-01 -9.472218827962886056e-02 -1.290364710442863105e-01
7.862323651508153211e-02 -3.973127421684218702e-03 -8.867285664807965651e-01 2.529906568496421149e-01 -4.280092150050121558e-01 8.676426910990372443e-01
6.288222811303256776e-02 4.312582417525859940e-02 -8.594025121727001393e-01 5.303634869796022278e-01 -3.102482963083177392e-01 7.889617014257558347e-01
-8.316554785888674584e-02 -1.081998314983678988e-01 -6.906319443049512286e-01 9.871055142121105686e-01 -9.472218827962886056e-02 -1.290364710442863105e-01
-3.884662056434973199e-02 8.977750388513019986e-02 -7.181348711681722063e-01 9.440136517856442255e-01 -2.649932489091576526e-01 1.965115855996825978e-01
-7.401846066956023484e-02 -1.416486115637593801e-01 -7.400394452188197025e-01 9.032176599676503548e-01 1.645870895824318603e-03 4.291796242036148290e-01
2.952931433953349949e-02 1.153601938288320305e-01 -7.618006970593250715e-01 4.980552396657499936e-01 -5.248114185802109644e-01 6.902999008904164846e-01
1.555888779477464234e-02 1.581021050777950965e-01 -7.263059206218164254e-01 5.629313768569728094e-01 -3.884113138135074084e-01 7.295511745255283120e-01
3.218978959149830683e-03 -7.888354763098112676e-02 -8.419272487202797972e-01 7.353335988943975332e-01 -7.225259017264763772e-02 6.738427572886397376e-01
6.462141974544114049e-03 -6.144095266060672217e-02 -8.436213339411861023e-01 7.090478985226197350e-01 -6.107518543672340455e-02 7.025104264881244509e-01
6.056472812061366312e-03 1.879746146466204360e-01 -6.975046814450659438e-01 5.832520223052428676e-01 -4.733331676499747953e-01 6.601308892025014030e-01
-8.081325245185713713e-02 -2.181474251238449402e-01 -5.725283561467454652e-01 9.479140533172130123e-01 -6.422813543519557966e-02 -3.119834837651660475e-01
2.739833229896744896e-02 1.794111314667187485e-01 -7.219683664129373790e-01 4.692966698034612416e-01 -6.139859374634121236e-01 6.346510098538848954e-01
-8.594881845008441046e-02 -1.773063140119057746e-01 -5.880431764923684801e-01 9.683897406860384471e-01 -1.089205323628055500e-01 -2.244050528928211441e-01
-2.304016716220047556e-02 5.850671440262842499e-02 -7.584948439559504596e-01 4.904671174796737532e-01 -3.860452218357542375e-01 7.812880988271632132e-01
1.084621416430664037e-01 1.648593173846144844e-01 -8.168382372757051479e-01 6.388986069600742779e-01 -9.535061468695496534e-02 7.633589131616242973e-01
2.390825009893567110e-02 1.039107823991322344e-01 -7.655327489113705752e-01 4.904671174796737532e-01 -3.860452218357542375e-01 7.812880988271632132e-01
-7.474132634493207972e-02 -8.558306284362909855e-02 -7.267816648534035640e-01 9.450421602234655438e-01 3.204759716834956751e-02 3.253740415520279261e-01
-8.022934246477243792e-02 -1.040629440818799795e-01 -6.712072848551968729e-01 9.871055142121105686e-01 -9.472218827962886056e-02 -1.290364710442863105e-01
4.348663891318318986e-02 1.359877277317061151e-01 -7.596289863609367865e-01 5.629313768569728094e-01 -3.884113138135074084e-01 7.295511745255283120e-01
1.507983817821152150e-01 1.474537756298257007e-01 -8.498982430752087813e-01 1.811192646754744839e-01 -2.949699366970490733e-01 9.381836432214931687e-01
1.480253217711310909e-01 -3.567685423696143748e-02 -9.657952286633572081e-01 8.800175662719861291e-01 -3.937049686725598852e-01 2.656416396110914402e-01
-4.471787813151899271e-02 9.324572891094151314e-03 -7.319811162843244956e-01 9.651917603332041962e-01 -1.235378565779851612e-02 2.612513153360412899e-01
-7.002977726403017411e-02 -5.627419086113721880e-03 -6.795554855361265467e-01 7.222912537124543952e-01 -4.290100150316611960e-01 5.424442384365644187e-01
-3.759431769453946276e-02 5.799917087679794941e-02 -7.432009445722090879e-01 9.545305211162069536e-01 -1.179938220283549138e-01 2.737680445573646981e-01
-8.856165388163858565e-02 -6.034605677265441476e-02 -5.703844975706471310e-01 9.354194909652803203e-01 3.356103940401958807e-01 1.111577227836189757e-01
5.599292983915835076e-02 7.863667626982949466e-02 -8.174179090435952366e-01 7.452529187864009863e-01 -4.613122620766992310e-01 4.814447880058818630e-01
-2.098490725164621831e-02 1.279978577563810338e-01 -7.157464197322195298e-01 4.980552396657499936e-01 -5.248114185802109644e-01 6.902999008904164846e-01
-7.799968508056288885e-02 -2.062340674559533238e-02 -6.789018397225072832e-01 9.182733827025012507e-01 -2.960541506487211483e-01 2.629181136851735379e-01
-9.874046011614591445e-02 3.304933065572827205e-02 -5.585851689712969526e-01 9.207177752265650605e-01 -3.816112520602826796e-01 8.155752989655493113e-02
1.288468912132091117e-02 -7.553565487529753653e-02 -8.521160167109405048e-01 7.353335988943975332e-01 -7.225259017264763772e-02 6.738427572886397376e-01
8.840033611890824039e-02 9.007136109658689035e-03 -8.831762314177907802e-01 2.529906568496421149e-01 -4.280092150050121558e-01 8.676426910990372443e-01
2.077128724921379569e-03 -1.754613401774610462e-02 -8.136231006787579823e-01 6.142373124646217653e-01 -2.660852179233386683e-01 7.429072491091521790e-01
1.733476288459249448e-01 2.747867186428348818e-02 -9.572465422936033974e-01 6.825449723027980919e-01 -5.551361774598392307e-01 4.753484882267430822e-01
-3.457400441594854490e-02 1.744800085561855341e-01 -6.481182597954950886e-01 9.399510764586137546e-01 -2.274256674774100540e-01 2.544986043905697604e-01
-1.071576847992332208e-02 -1.206807692831551454e-01 -8.310158755439615019e-01 7.562378680248882379e-01 -7.544969853301609908e-02 6.499320194885374047e-01
-1.675467940143322149e-02 2.162926921315274920e-01 -6.373704335520526953e-01 7.979094934159985941e-01 -6.023931837631005815e-01 -2.151493603011177605e-02
-9.375566040263103029e-02 2.823602025535012355e-02 -5.912974321192042693e-01 8.938838171053646864e-01 -2.553189964628628239e-01 3.684887129375052917e-01
-7.285398713030455387e-02 -1.070889555992464853e-01 -6.125658458002316564e-01 9.871055142121105686e-01 -9.472218827962886056e-02 -1.290364710442863105e-01
1.618873834436619918e-01 1.640717983545430039e-02 -9.501892317146030109e-01 7.666113783821086880e-01 -4.824475971929301776e-01 4.237349531226461963e-01
-5.847986183799361304e-02 -1.655146459761462074e-01 -7.737690212144596735e-01 8.992875772241163412e-01 -5.069017373471707694e-02 4.344103586899408231e-01
-5.336907133830134931e-02 9.736042152331324251e-02 -6.477470678437711182e-01 9.397470776117021751e-01 -2.287513147175803396e-01 2.540635080747403185e-01
1.253455961494780724e-01 1.482411732650255054e-01 -8.355602074742282115e-01 6.370684674565014749e-01 -6.231521756876872153e-01 4.536795495813387147e-01
-9.511680021306803678e-02 -1.854681883766934047e-01 -6.398199616919261201e-01 9.682126754873374708e-01 2.457635661868976251e-01 -4.652402133038328891e-02
-9.132205415849171948e-02 -4.960054986041376873e-02 -5.866432664378650186e-01 9.283885533938746049e-01 3.701485146039985019e-01 -3.293586288048534760e-02
-8.394610886825659701e-02 -1.601021933471177827e-01 -5.877511980804371872e-01 9.683897406860384471e-01 -1.089205323628055500e-01 -2.244050528928211441e-01
-6.099429818617019272e-02 6.429442931792941907e-02 -6.493140167772428750e-01 9.397470776117021751e-01 -2.287513147175803396e-01 2.540635080747403185e-01
-2.987365132839989168e-02 1.875486174771701653e-01 -6.537998816691527049e-01 9.399510764586137546e-01 -2.274256674774100540e-01 2.544986043905697604e-01
5.300221412752338657e-02 -8.922014669784587848e-02 -8.959193972250439897e-01 5.386855211426103685e-01 -2.234973399170651354e-01 8.123218871613089309e-01
1.578258317213764861e-01 -1.802143176934529328e-02 -9.720954207852544604e-01 8.800175662719861291e-01 -3.937049686725598852e-01 2.656416396110914402e-01
-3.409155457851778537e-02 1.177413486031544804e-01 -7.032686593408212783e-01 9.440136517856442255e-01 -2.649932489091576526e-01 1.965115855996825978e-01
-1.234560312406075139e-02 1.412636736957355310e-01 -7.137391856786081679e-01 5.629313768569728094e-01 -3.884113138135074084e-01 7.295511745255283120e-01
-3.046352032909632399e-02 9.185671137634383865e-02 -7.363844255822242779e-01 4.980552396657499936e-01 -5.248114185802109644e-01 6.902999008904164846e-01
-8.570981293696706971e-02 4.417686909088464065e-02 -5.997700154233496228e-01 8.938838171053646864e-01 -2.553189964628628239e-01 3.684887129375052917e-01
-9.782971334253763585e-02 -3.402289683715746527e-02 -5.950107766282615174e-01 9.283885533938746049e-01 3.701485146039985019e-01 -3.293586288048534760e-02
-1.027114318643876506e-01 -1.444909089338384384e-02 -5.982676935483728364e-01 8.944646687800811291e-01 -2.450746090133137101e-01 3.739938399507549138e-01
-4.503663927144751361e-02 -1.597828456069201597e-01 -7.971787821287482645e-01 7.966332329525799283e-01 -2.342006273032705421e-01 5.572482017254744013e-01
9.730561784745098142e-02 1.606182952311014933e-01 -8.080304493185955783e-01 6.388986069600742779e-01 -9.535061468695496534e-02 7.633589131616242973e-01
-7.329586119554475088e-02 -8.504644783378199902e-02 -7.310328421211931271e-01 9.450421602234655438e-01 3.204759716834956751e-02 3.253740415520279261e-01
-7.986053804949061474e-02 -2.024387729051905227e-01 -7.080382807266110134e-01 9.716091507287830664e-01 2.302709682069275718e-02 2.354684926526333377e-01
7.226216045923110343e-02 -1.281072213355641809e-01 -9.367210201930387115e-01 6.067919337192863027e-01 -4.977014442951102624e-01 6.197554529972044701e-01
1.029512360853442610e-01 -2.071992014453509848e-02 -9.048557314771360494e-01 6.418670515857930470e-01 -6.057784938869149594e-01 4.701479601494208960e-01
8.959279264757909200e-02 7.773987292157159834e-02 -8.637466501551465115e-01 5.303634869796022278e-01 -3.102482963083177392e-01 7.889617014257558347e-01
6.589112812379342710e-02 3.415982442764484931e-03 -8.764869608614039853e-01 6.049921736740325739e-01 -2.168207013098240876e-01 7.661417971085280332e-01
-1.005828665608362732e-01 4.081135764446083315e-03 -5.104231996164840801e-01 9.574159042103435047e-01 2.327416304662935920e-01 -1.708394562534706063e-01
-4.619137221230792956e-02 -1.510012352739987379e-02 -7.295933912735674820e-01 9.742922437393908286e-01 -8.037765199188420806e-02 2.104615329449414096e-01
6.990474317008020522e-02 -2.574115090876217399e-02 -8.876324318078068210e-01 5.956252289160333113e-01 -2.099044472436493725e-01 7.753519908441977027e-01
-9.477387646545791522e-02 -1.880515647105732158e-01 -6.463300752374538938e-01 9.682126754873374708e-01 2.457635661868976251e-01 -4.652402133038328891e-02
1.341921344429889973e-01 1.570332226278351589e-02 -9.005764113889851430e-01 6.418670515857930470e-01 -6.057784938869149594e-01 4.701479601494208960e-01
-8.024969359254358059e-02 -8.817167814218257460e-02 -6.302804379438254889e-01 9.319495492008392779e-01 3.426456455230670328e-01 -1.185917338958866474e-01
-3.510386057750586319e-02 9.240618116406690286e-02 -7.325698205468678115e-01 9.440136517856442255e-01 -2.649932489091576526e-01 1.965115855996825978e-01
-8.789417488468080630e-02 -1.784718857978343232e-01 -5.958723607783811271e-01 9.683897406860384471e-01 -1.089205323628055500e-01 -2.244050528928211441e-01
-5.615785342420233361e-02 2.282641569388236830e-03 -6.917707024219255096e-01 7.222912537124543952e-01 -4.290100150316611960e-01 5.424442384365644187e-01
8.690583435848789340e-03 -1.227441700555501475e-01 -8.596085019446400022e-01 7.938374984672070811e-01 -2.983263668265897506e-01 5.299277355294528258e-01
-9.704045538649408442e-02 3.330127807406612489e-02 -5.765979582828141270e-01 9.207177752265650605e-01 -3.816112520602826796e-01 8.155752989655493113e-02
-9.818728071246957123e-02 3.999499575757650000e-02 -5.113448507511410002e-01 7.775657015180793552e-01 -5.197882892442633462e-01 3.538526729971373519e-01
1.599466158463898058e-01 8.828763748920044618e-02 -8.702664871677335823e-01 1.811192646754744839e-01 -2.949699366970490733e-01 9.381836432214931687e-01
8.760094369940818471e-02 1.574789001445545122e-01 -8.003001936797397020e-01 6.388986069600742779e-01 -9.535061468695496534e-02 7.633589131616242973e-01
-1.038643115834804870e-01 1.848037856731380921e-02 -5.689098431631032238e-01 9.207177752265650605e-01 -3.816112520602826796e-01 8.155752989655493113e-02
-8.738315407952298997e-02 -6.007675915681660178e-02 -6.816951877400594384e-01 9.837840334185761204e-01 1.179399552272721377e-02 1.789689281978507351e-01
1.655891115818320658e-01 9.159121367087172394e-02 -8.703171265299732839e-01 1.811192646754744839e-01 -2.949699366970490733e-01 9.381836432214931687e-01
-6.218942714212447043e-02 -6.244342416271400631e-02 -7.431325712597262045e-01 7.536065946328499576e-01 -4.817187528439640376e-01 4.472405881450555176e-01
4.949199840127636862e-02 6.415711850334825106e-02 -8.211745856259030640e-01 7.506400723944215425e-01 -4.575542517312892188e-01 4.766377958558442041e-01
1.771281574785862345e-01 1.779774236353458272e-01 -8.244697452658545922e-01 -1.067393532305440096e-01 -5.972406079121687084e-01 7.949279003360167906e-01
1.547834635537664316e-01 4.059133302013996636e-02 -8.983380485724933306e-01 8.351124046200295581e-01 -4.772432275693423431e-01 2.735437321324488691e-01
-1.077265946759613513e-01 -8.276624573647665614e-03 -5.636018337199605321e-01 9.532514429140483969e-01 2.369733905624612502e-01 -1.874974633098164256e-01
-9.340239986728673949e-02 -5.768408600204823385e-03 -6.148433286010698273e-01 8.944646687800811291e-01 -2.450746090133137101e-01 3.739938399507549138e-01
-7.239628938450819173e-02 -1.681733747688552716e-01 -7.452703937304396842e-01 8.992875772241163412e-01 -5.069017373471707694e-02 4.344103586899408231e-01
-9.413017027309743268e-02 -4.725802503329760290e-02 -6.211484262977475801e-01 9.319495492008392779e-01 3.426456455230670328e-01 -1.185917338958866474e-01
1.044436853235900936e-01 -5.265682606411897781e-02 -9.231753627431238396e-01 6.180761559291125806e-01 -2.400809824979896756e-01 7.485606103146832391e-01
-3.713067511758268158e-02 -2.906518658639108132e-02 -7.768716075900198303e-01 9.742922437393908286e-01 -8.037765199188420806e-02 2.104615329449414096e-01
-8.880328075798807341e-02 -1.886357103335784269e-01 -5.948622214101048078e-01 9.683897406860384471e-01 -1.089205323628055500e-01 -2.244050528928211441e-01
6.960558880727950315e-02 8.453248237915217400e-02 -8.328403756697957405e-01 7.452529187864009863e-01 -4.613122620766992310e-01 4.814447880058818630e-01
1.586518147896783804e-01 4.326783022965525333e-02 -9.054782887105571332e-01 8.351124046200295581e-01 -4.772432275693423431e-01 2.735437321324488691e-01
-7.758088429204942904e-02 -1.121448748520546962e-01 -6.450143348529416842e-01 9.871055142121105686e-01 -9.472218827962886056e-02 -1.290364710442863105e-01
3.421577727529045293e-02 -1.036331709852157945e-01 -8.870868544255972044e-01 7.938374984672070811e-01 -2.983263668265897506e-01 5.299277355294528258e-01
1.585616247193387396e-01 4.140733311355654367e-02 -9.084488952593583466e-01 8.351124046200295581e-01 -4.772432275693423431e-01 2.735437321324488691e-01
1.495259070854199346e-01 -3.052170151450110148e-03 -9.487383051271497392e-01 7.805570376943441468e-01 -2.883747355753305541e-01 5.545905902444504543e-01
-4.023493010504305967e-02 -3.260856540647866231e-03 -7.526460736131945772e-01 9.742922437393908286e-01 -8.037765199188420806e-02 2.104615329449414096e-01
-8.672977026535785838e-02 -1.588829219560374262e-01 -6.003555168827359179e-01 9.683897406860384471e-01 -1.089205323628055500e-01 -2.244050528928211441e-01
1.223704796442455639e-01 -8.934531173273139656e-03 -9.161824581199644602e-01 6.418670515857930470e-01 -6.057784938869149594e-01 4.701479601494208960e-01
1.476886808924876004e-01 1.555500160284711553e-01 -8.452727756240538959e-01 -1.067393532305440096e-01 -5.972406079121687084e-01 7.949279003360167906e-01
-8.522556313960780172e-02 -1.772512647918084161e-01 -6.926003558953113259e-01 9.496514246003074922e-01 2.346206991239079831e-01 2.076422387117194124e-01
1.704037613474903429e-02 -1.081124147271665253e-01 -8.641163640328927142e-01 7.937732538069214305e-01 -1.898042699105151054e-01 5.778393900250385906e-01
7.130347785388969906e-02 3.386170462004419596e-02 -8.687065134604984307e-01 5.303634869796022278e-01 -3.102482963083177392e-01 7.889617014257558347e-01
1.864856931956570263e-01 1.667946526410362396e-01 -8.300123007114021956e-01 -4.027808572458717595e-01 -5.806120568101279522e-01 7.075713536619420152e-01
-4.597512258545230490e-02 1.288828837652321035e-01 -6.467566147819462374e-01 9.399510764586137546e-01 -2.274256674774100540e-01 2.544986043905697604e-01
1.551555738121600247e-01 4.258231919767554996e-02 -8.960004670393417747e-01 8.351124046200295581e-01 -4.772432275693423431e-01 2.735437321324488691e-01
1.460987646264340356e-01 3.891040225506881695e-02 -8.869299066736815451e-01 6.418670515857930470e-01 -6.057784938869149594e-01 4.701479601494208960e-01
