2.137780306956413561e-03 -1.714870474317826687e-01 -6.428094701661333232e-01 -9.291077156659309777e-01 3.197573938623733958e-01 -1.857796053402493430e-01
7.793118190783886873e-03 1.238480931381369249e-01 -7.354274412154891971e-01 -9.276599340605620192e-01 -2.720528279178906494e-01 2.558013009361604362e-01
-2.298380381871475975e-02 -8.865370133446316692e-02 -5.211551834857616194e-01 -6.959617056505532640e-01 5.258812926962420642e-01 -4.889643854720937544e-01
1.416008692262101833e-02 -1.336630572002685258e-01 -7.098674779398400636e-01 -9.623563446339006289e-01 2.567183351327316787e-01 8.925224002542296586e-02
1.566221111336316835e-02 1.619283333049219009e-01 -6.756142627499396314e-01 -9.442503950736612639e-01 -2.059652205058163099e-01 2.568453218285764450e-01
-3.892429896158582786e-02 2.258320746214360075e-01 -8.053462621333938865e-01 -8.443434654538362061e-01 -5.228246676301575580e-01 1.172112591128602888e-01
-5.597976885392880880e-02 1.356304274305751845e-01 -8.625438925377240107e-01 -6.909239444088777216e-01 3.560261302781122378e-02 7.220502454733117581e-01
2.743573679665813059e-02 -5.600736611046512603e-02 -7.435184046668711355e-01 -9.023876171796938461e-01 -1.565745773523703477e-01 4.014735235201454810e-01
-2.947698072550674134e-02 -1.149878164564672040e-01 -5.332982218190762680e-01 -9.426015610269944389e-01 -1.965819247064800879e-01 -2.699219220963144927e-01
-3.063106450168793637e-03 -1.453412402371038158e-02 -4.918298256867527640e-01 -9.352773929478017667e-01 -2.181641816683395352e-01 -2.786764935866447024e-01
-2.344178472181666917e-02 7.094249509003515419e-02 -8.397400338548161036e-01 -5.621420131236597451e-01 -1.295591713771971631e-01 8.168297118698201187e-01
2.493614340605634222e-02 -4.633594059012591249e-02 -6.703107318348608956e-01 -9.639817122126658200e-01 2.217071325229963141e-01 -1.469190454228717080e-01
9.869339955879326623e-03 1.275691868823754516e-01 -7.244635466654562039e-01 -9.442503950736612639e-01 -2.059652205058163099e-01 2.568453218285764450e-01
7.598273783749433848e-04 -6.832221843034619324e-02 -8.523098976179999120e-01 -9.552352733338672630e-01 4.803621636319545252e-02 2.919213841024331790e-01
1.106563441892316653e-02 -1.927421836848026548e-03 -5.671616514783709428e-01 -9.855436281581587687e-01 -1.274757429307794843e-01 -1.115961108690555759e-01
1.566394753102870810e-02 -1.047545770443491925e-01 -7.659559036139378385e-01 -9.668383763608060510e-01 2.313696575102620612e-01 1.081278668040040192e-01
3.214993979039703666e-03 -9.856445056620383172e-02 -5.691039468629941478e-01 -6.959617056505532640e-01 5.258812926962420642e-01 -4.889643854720937544e-01
-2.732401890556208565e-02 -1.099739537841041281e-01 -5.343784892958947097e-01 -7.974757982397060463e-01 3.124878221764991748e-01 -5.161237373085372226e-01
1.530086761619141398e-03 -1.448273848979718392e-01 -6.000637528925060193e-01 -7.974757982397060463e-01 3.124878221764991748e-01 -5.161237373085372226e-01
2.748313640931986795e-03 -8.153820824092902764e-02 -8.436283877919160679e-01 -9.552352733338672630e-01 4.803621636319545252e-02 2.919213841024331790e-01
1.570611170862027881e-02 -5.643758398640874585e-02 -8.052184101542912975e-01 -9.069804447372180611e-01 5.574081598323095757e-03 4.211358480094201662e-01
-2.947631612486117589e-02 9.386602126803214596e-02 -8.402570456240548991e-01 -5.621420131236597451e-01 -1.295591713771971631e-01 8.168297118698201187e-01
-6.820426367546358892e-02 6.805012011544986361e-02 -8.870123448389419796e-01 -7.794188298802653403e-01 -5.142324391752373103e-01 3.578704879254001603e-01
1.362961873681352645e-02 -9.571046623040407875e-02 -8.019717227196394571e-01 -9.634299979518007317e-01 2.406321897946260280e-01 1.178931222813107138e-01
-4.428606540124285784e-02 7.238237405290147419e-02 -8.538566804585975278e-01 -5.621420131236597451e-01 -1.295591713771971631e-01 8.168297118698201187e-01
3.852047241740613141e-03 -9.523610869502890930e-02 -5.664310567931231111e-01 -6.959617056505532640e-01 5.258812926962420642e-01 -4.889643854720937544e-01
3.305555500203425506e-02 1.597163779010587481e-01 -6.136085629888875514e-01 -9.442390271155259862e-01 -2.048839581179187908e-01 2.577503120810137882e-01
2.017670186093674031e-02 1.190978312149154061e-01 -5.733993014770175645e-01 -9.540007620154694612e-01 1.505857005880672783e-01 -2.592421509945955771e-01
1.126871784960903691e-02 -6.687784883280356585e-02 -8.216527614871774743e-01 -9.394668535048464886e-01 7.521729963721411616e-02 3.342819004986493092e-01
1.571754351353486442e-02 -2.316374448358216043e-02 -5.839861030281067178e-01 -9.855436281581587687e-01 -1.274757429307794843e-01 -1.115961108690555759e-01
5.440562603118977852e-03 1.909050670199631192e-02 -8.243442201243336154e-01 -8.646173074394064573e-01 -1.259260316294165960e-01 4.863944348307225329e-01
-5.995376204290739017e-03 1.268562329623340867e-01 -8.083493056901224216e-01 -9.784083061057001762e-01 -1.147855225895932224e-01 1.718763228231520446e-01
-4.913441905200803539e-02 -1.516975495000850820e-02 -9.288640051772918405e-01 -6.591290683280461860e-01 -1.453696550366662121e-01 7.378458746103569998e-01
2.449386151360806105e-02 -3.999979377121413993e-02 -7.656457954480810901e-01 -9.909746294918174714e-01 -1.070527405111031637e-02 1.336214085056947609e-01
2.130125198556927571e-02 -4.208256629898748935e-02 -6.400425507419058579e-01 -9.639817122126658200e-01 2.217071325229963141e-01 -1.469190454228717080e-01
2.309720053967817197e-02 -8.897786025763212980e-02 -6.755532810333680915e-01 -9.958458428848372401e-01 -8.543755224691215733e-02 3.148780517985378530e-02
2.701305222060525896e-02 -8.506104237602005180e-02 -7.256130316329091334e-01 -9.537740544163398893e-01 2.919483101237175804e-01 7.128279833257399056e-02
1.618185881195196088e-02 -9.283258159571580737e-02 -5.931895035123654347e-01 -9.365528728142320514e-01 2.514324801250906183e-01 -2.442343635968428350e-01
8.000132063614041195e-03 1.070863419078979389e-01 -7.393093655460810654e-01 -9.018046627803556481e-01 -7.468880874322719743e-02 4.256406137061250483e-01
3.539886683378479920e-02 3.723523891344480974e-02 -6.924875331173201420e-01 -9.325491445347250385e-01 -1.273634623359483076e-01 3.378322682772505470e-01
1.261110894158145278e-02 1.319415088772072364e-01 -7.108776939549800167e-01 -9.442503950736612639e-01 -2.059652205058163099e-01 2.568453218285764450e-01
-8.240859131555928162e-04 -1.312683183208900872e-01 -5.882169059516659804e-01 -7.974757982397060463e-01 3.124878221764991748e-01 -5.161237373085372226e-01
2.160754394798578698e-02 2.146346154661892824e-01 -6.022428968988752240e-01 -8.696489037834774782e-01 -3.928811588172813618e-01 2.989233667590846522e-01
1.055391478776841405e-02 -9.613100874843889809e-02 -8.170793463275589641e-01 -9.394668535048464886e-01 7.521729963721411616e-02 3.342819004986493092e-01
3.339319344467833045e-02 -3.073413222645688531e-02 -7.193243323571271164e-01 -9.677606927704406337e-01 -2.270462447890885319e-02 2.508460515051982309e-01
1.927767441496359979e-02 -3.454842645302827475e-02 -6.034524927254333315e-01 -9.860259777572782935e-01 -1.301908721757143728e-01 -1.039380007020058450e-01
3.274451495920243510e-02 -2.889924941170034581e-02 -6.931974712658980353e-01 -9.063353885559699563e-01 2.396168932799266349e-01 -3.480515879951923686e-01
9.766781484193362908e-03 -3.613175021077751070e-02 -8.188920280079373670e-01 -9.718005581311662811e-01 -8.106585851316537583e-02 2.214317091102290247e-01
-1.844627487388781142e-02 1.145856434992404277e-01 -8.307104668065141695e-01 -5.971193069593390135e-01 -4.817997458662514471e-02 8.007042046256725998e-01
-6.158377301584327945e-02 1.237683644982768283e-01 -8.673214274050963235e-01 -6.909239444088777216e-01 3.560261302781122378e-02 7.220502454733117581e-01
5.483207327457568364e-03 -2.811048102398234355e-02 -8.347548359925462957e-01 -9.718005581311662811e-01 -8.106585851316537583e-02 2.214317091102290247e-01
3.962515933800899587e-02 3.978224918273625538e-02 -6.798610853015973898e-01 -9.325491445347250385e-01 -1.273634623359483076e-01 3.378322682772505470e-01
9.817637063454598065e-03 7.294732497481867806e-02 -7.446245832066638037e-01 -9.905350594035100542e-01 -5.619578020282817860e-02 -1.252291115511088293e-01
-5.767799495712106622e-02 1.518870688451191553e-01 -8.621441263077540551e-01 -5.740576666677634776e-01 -2.512887528138790794e-01 7.793020967822480438e-01
-6.941671887271756887e-03 -7.175650800810504104e-02 -8.690558182318319780e-01 -7.850553076237485328e-01 4.133722871770643958e-02 6.180448183535893758e-01
1.268503828900729644e-02 4.592972979113890686e-02 -5.819340745856835806e-01 -9.243348180756639776e-01 2.100011626024200773e-01 -3.185979532242182999e-01
9.211952925630080211e-03 -1.104598109928673216e-01 -5.904331103058029218e-01 -6.959617056505532640e-01 5.258812926962420642e-01 -4.889643854720937544e-01
2.365950606908862747e-02 1.891797340428008900e-01 -5.778489837510062399e-01 -8.984632737818339931e-01 -3.295289664569429205e-02 -4.378102925559053671e-01
7.801277055291450145e-04 -4.497890427330884788e-02 -5.094045743759372247e-01 -6.635518816107307538e-01 4.876303787143267954e-01 -5.673759901209964873e-01
2.996604952888697136e-03 2.861789976308680493e-04 -5.237692628787455895e-01 -9.352773929478017667e-01 -2.181641816683395352e-01 -2.786764935866447024e-01
-2.204728187889194030e-02 -1.531141876680503777e-01 -5.188583940829154528e-01 -9.487896359098102472e-01 -3.157546660352745227e-01 9.859901981359407708e-03
1.276243229076059159e-02 -1.588203407024502134e-02 -8.120948601781015075e-01 -9.069804447372180611e-01 5.574081598323095757e-03 4.211358480094201662e-01
1.698906411811747230e-02 6.698476020292533362e-02 -7.273012974498529459e-01 -9.018046627803556481e-01 -7.468880874322719743e-02 4.256406137061250483e-01
-1.173555353717319278e-03 -1.605149148668517101e-01 -6.063059714716605431e-01 -9.620769085110364438e-01 2.408240288739727508e-01 -1.281085837356528701e-01
2.425099405194434954e-02 -6.632078467766670815e-02 -6.959732388176527174e-01 -9.639817122126658200e-01 2.217071325229963141e-01 -1.469190454228717080e-01
2.054232790736712153e-02 1.248654511192658079e-01 -6.881106132068561809e-01 -9.276599340605620192e-01 -2.720528279178906494e-01 2.558013009361604362e-01
-4.787476855176895155e-03 1.713965202529895565e-02 -5.021528486045903072e-01 -9.420611200000731378e-01 3.350064115369111861e-01 -1.707484738935040325e-02
2.065794253362114932e-02 9.486170369642109301e-02 -5.892482604314339678e-01 -9.540007620154694612e-01 1.505857005880672783e-01 -2.592421509945955771e-01
-2.258367430501903930e-02 -6.001992784721888428e-03 -8.844075840977771996e-01 -8.268860375053416201e-01 -4.807926837898207628e-01 2.917154027350911116e-01
1.565032588725452992e-02 1.821521095648842223e-02 -8.063266449954546999e-01 -9.069804447372180611e-01 5.574081598323095757e-03 4.211358480094201662e-01
-2.397252225950712023e-02 7.100278402843199568e-03 -4.511580067072819000e-01 -7.291258605359354217e-01 -9.271841902181512940e-02 -6.780698889287349873e-01
-1.135475592510664516e-02 -5.475232703823664643e-02 -5.036124593071663602e-01 -6.635518816107307538e-01 4.876303787143267954e-01 -5.673759901209964873e-01
5.113443833081995384e-03 -5.982312784953096318e-02 -5.301397829308904797e-01 -6.959617056505532640e-01 5.258812926962420642e-01 -4.889643854720937544e-01
2.326327881342657097e-02 -7.803682596981752206e-02 -6.406139278195673858e-01 -9.958458428848372401e-01 -8.543755224691215733e-02 3.148780517985378530e-02
3.029354661176115321e-02 1.787886072287291628e-01 -6.085664828882786370e-01 -9.442390271155259862e-01 -2.048839581179187908e-01 2.577503120810137882e-01
2.758719222591669157e-02 5.756587179943721544e-02 -7.063861186522476521e-01 -9.325491445347250385e-01 -1.273634623359483076e-01 3.378322682772505470e-01
2.120564848539395128e-02 1.552520387543105951e-01 -6.605884549141110007e-01 -9.442503950736612639e-01 -2.059652205058163099e-01 2.568453218285764450e-01
1.671669444151151207e-02 5.624957366584046846e-03 -7.459413462821010699e-01 -9.799004332458950417e-01 -1.676301685052405122e-01 -1.081446602075755714e-01
5.544194661406633140e-03 2.337257372628601670e-01 -5.667519485004806068e-01 -8.276687614601724308e-01 -3.251723368325405983e-01 -4.574137871357276675e-01
-8.813847456950148814e-04 -1.570741187533775812e-02 -8.521148882575675376e-01 -7.337393068773833127e-01 -4.206669531058933598e-01 5.335409488574434089e-01
-5.812342639290719870e-02 -1.093784377661852041e-02 -9.360602567917409855e-01 -6.591290683280461860e-01 -1.453696550366662121e-01 7.378458746103569998e-01
2.339690331459290396e-02 -2.177299573069132327e-02 -7.723208850666806180e-01 -9.909746294918174714e-01 -1.070527405111031637e-02 1.336214085056947609e-01
-2.103212231612609784e-02 -8.058844311366175628e-02 -5.152588995900088120e-01 -6.959617056505532640e-01 5.258812926962420642e-01 -4.889643854720937544e-01
-1.457001215854513386e-02 -1.984641033298885082e-01 -5.342361641381859760e-01 -9.997150866851952644e-01 2.338507280472389496e-02 4.783703996910576919e-03
9.357421018374589491e-03 -7.524223461341481532e-03 -5.456826298628588701e-01 -9.855436281581587687e-01 -1.274757429307794843e-01 -1.115961108690555759e-01
2.923273675649723340e-03 -9.583898613107552644e-02 -8.407026574275400232e-01 -9.552352733338672630e-01 4.803621636319545252e-02 2.919213841024331790e-01
-3.774625654158658868e-03 9.810493222910113276e-02 -8.202685941557888993e-01 -8.646173074394064573e-01 -1.259260316294165960e-01 4.863944348307225329e-01
4.116934083040982295e-02 9.032159819138219081e-02 -6.500455191818819145e-01 -9.276599340605620192e-01 -2.720528279178906494e-01 2.558013009361604362e-01
-5.645782846448686026e-02 9.718126587842094988e-02 -8.611055053967917594e-01 -6.909239444088777216e-01 3.560261302781122378e-02 7.220502454733117581e-01
2.640453324730014650e-02 4.674508007374040403e-02 -7.109042804828883400e-01 -9.018046627803556481e-01 -7.468880874322719743e-02 4.256406137061250483e-01
-2.440681207797682287e-02 1.845484933744200584e-01 -8.271037660177950057e-01 -5.740576666677634776e-01 -2.512887528138790794e-01 7.793020967822480438e-01
2.219425735559989524e-02 -6.834275816382541502e-02 -6.553478328889497107e-01 -9.979299854134928704e-01 -5.734227395125205545e-02 2.911370520434789638e-02
6.538746717155141490e-03 -1.275990438883350120e-01 -5.973718370490138652e-01 -7.974757982397060463e-01 3.124878221764991748e-01 -5.161237373085372226e-01
5.803026425308536844e-03 -2.049666380677310773e-01 -6.848801024582770181e-01 -9.626680808722091198e-01 -9.792453882625866066e-03 -2.705074378215399089e-01
2.041336180664400646e-02 -2.962599025849255163e-02 -6.203921444438853516e-01 -9.860259777572782935e-01 -1.301908721757143728e-01 -1.039380007020058450e-01
1.413987217629500588e-02 2.236372423276618976e-02 -7.485387288595261035e-01 -9.799004332458950417e-01 -1.676301685052405122e-01 -1.081446602075755714e-01
8.192240836777277399e-04 1.040043062475628222e-01 -7.923440743490474114e-01 -9.527957047218913456e-01 -2.349027081048870591e-01 1.923566031840467372e-01
2.804995263188659813e-02 1.587944781123700744e-01 -6.326788312268751824e-01 -9.442390271155259862e-01 -2.048839581179187908e-01 2.577503120810137882e-01
-2.148681743477398598e-02 2.495387508475294114e-02 -4.562721534703099713e-01 -7.291258605359354217e-01 -9.271841902181512940e-02 -6.780698889287349873e-01
-1.411313049333121116e-03 -4.306243220062401511e-02 -5.051945537185305035e-01 -6.635518816107307538e-01 4.876303787143267954e-01 -5.673759901209964873e-01
2.690451144589196125e-02 9.917240643028292502e-02 -6.923636123106445828e-01 -9.276599340605620192e-01 -2.720528279178906494e-01 2.558013009361604362e-01
2.585693330330852968e-02 2.080997127880003794e-01 -5.852895291547187684e-01 -8.276687614601724308e-01 -3.251723368325405983e-01 -4.574137871357276675e-01
-5.861874872619513314e-04 -1.441083318301966953e-01 -5.963584925356164579e-01 -7.974757982397060463e-01 3.124878221764991748e-01 -5.161237373085372226e-01
3.214217680747394335e-03 -6.290953727109029059e-02 -8.451820689317415258e-01 -9.394668535048464886e-01 7.521729963721411616e-02 3.342819004986493092e-01
1.336178706837536263e-02 -1.451385244538877795e-01 -7.021603375853668894e-01 -9.924287356067086341e-01 9.755916008164680631e-02 7.461511258607798902e-02
1.591618083873674178e-02 -9.509634181171572331e-02 -7.843670107140892078e-01 -9.668383763608060510e-01 2.313696575102620612e-01 1.081278668040040192e-01
2.288585226814320375e-02 -6.476418657213148244e-02 -6.245937008653223987e-01 -9.979299854134928704e-01 -5.734227395125205545e-02 2.911370520434789638e-02
2.215002058707415608e-02 -6.456925583601928753e-02 -7.793727878649825414e-01 -9.798066925569721697e-01 1.230610542510067115e-02 1.995680460139678813e-01
7.906412348431266293e-03 1.070048366745736113e-01 -7.535750633724229708e-01 -9.527957047218913456e-01 -2.349027081048870591e-01 1.923566031840467372e-01
-9.754320562472097028e-03 1.234390461025039604e-01 -8.236957784677524375e-01 -5.971193069593390135e-01 -4.817997458662514471e-02 8.007042046256725998e-01
-2.494449401086148294e-02 -8.772775205515094543e-02 -5.173685995353437539e-01 -6.959617056505532640e-01 5.258812926962420642e-01 -4.889643854720937544e-01
2.691496596688965418e-02 -5.815611807517579585e-02 -7.491448119172645637e-01 -9.909746294918174714e-01 -1.070527405111031637e-02 1.336214085056947609e-01
4.011207755186891460e-03 8.269540449842908980e-02 -8.025553713013895418e-01 -9.527957047218913456e-01 -2.349027081048870591e-01 1.923566031840467372e-01
2.369319523700200766e-03 1.178280315872674983e-01 -7.677847157548581825e-01 -9.527957047218913456e-01 -2.349027081048870591e-01 1.923566031840467372e-01
-1.228328210743415971e-01 4.255689864707598580e-02 -9.654098987830098677e-01 -3.708221381847893738e-01 -4.274321440517148130e-01 8.244954239190265266e-01
-1.033113904897309861e-03 1.390253511827507782e-01 -7.719745616736380933e-01 -9.784083061057001762e-01 -1.147855225895932224e-01 1.718763228231520446e-01
-4.808146668993201756e-02 -2.610618759828888316e-02 -4.433397801735726729e-01 -5.279118337696223628e-01 2.519136113024852963e-01 -8.110786818839064161e-01
7.220182782741604507e-03 -6.566725755483811267e-02 -8.333031736143595714e-01 -9.394668535048464886e-01 7.521729963721411616e-02 3.342819004986493092e-01
1.438770141192833966e-02 -1.396742627795503622e-01 -6.956595352869210380e-01 -9.924287356067086341e-01 9.755916008164680631e-02 7.461511258607798902e-02
2.685653897153440078e-02 1.437145356199420743e-02 -7.173725385398904697e-01 -9.023876171796938461e-01 -1.565745773523703477e-01 4.014735235201454810e-01
-4.340084382592378914e-02 6.053137922060954773e-02 -8.551271837434024636e-01 -5.621420131236597451e-01 -1.295591713771971631e-01 8.168297118698201187e-01
1.036178396294284987e-02 -3.857652740103581501e-02 -5.190815951948071216e-01 -9.855436281581587687e-01 -1.274757429307794843e-01 -1.115961108690555759e-01
2.506852370586507006e-02 -7.764536813940223214e-02 -7.494156539242760040e-01 -9.537961565812422826e-01 2.456101777385543972e-01 1.730564424749513330e-01
-2.878405823328705412e-02 -8.166207472646784538e-02 -5.063562555581000435e-01 -6.635518816107307538e-01 4.876303787143267954e-01 -5.673759901209964873e-01
-5.142579024783065778e-02 1.727596626731298379e-01 -8.508081191874701243e-01 -5.740576666677634776e-01 -2.512887528138790794e-01 7.793020967822480438e-01
-4.762132611219542511e-02 1.998160105151212951e-02 -4.293248296226230276e-01 -5.279118337696223628e-01 2.519136113024852963e-01 -8.110786818839064161e-01
3.614422645953264263e-02 -1.560727225095348905e-02 -7.073417188236773567e-01 -9.677606927704406337e-01 -2.270462447890885319e-02 2.508460515051982309e-01
3.198361481555316022e-02 2.113175139414241559e-03 -6.563016277050545133e-01 -9.572713346029065873e-01 2.844278331705071480e-02 -2.877891589771044423e-01
-3.743913731130739473e-03 -6.159726793408555612e-02 -8.656734386367620493e-01 -7.850553076237485328e-01 4.133722871770643958e-02 6.180448183535893758e-01
3.508370605873386856e-03 -1.718373958705301519e-01 -6.502669761874260157e-01 -9.291077156659309777e-01 3.197573938623733958e-01 -1.857796053402493430e-01
-4.437717125498411697e-05 9.133490226587361038e-02 -8.120933983066510597e-01 -9.527957047218913456e-01 -2.349027081048870591e-01 1.923566031840467372e-01
2.258369556688065785e-02 1.221001970403873260e-01 -6.836485569461174805e-01 -9.276599340605620192e-01 -2.720528279178906494e-01 2.558013009361604362e-01
1.873145337176182479e-02 -8.090470780528467853e-02 -7.895608612110547320e-01 -9.668383763608060510e-01 2.313696575102620612e-01 1.081278668040040192e-01
1.253200007786955256e-02 1.640006557516724417e-01 -6.854601756099466536e-01 -9.442503950736612639e-01 -2.059652205058163099e-01 2.568453218285764450e-01
-2.157329739668990831e-02 2.769425821840676427e-02 -4.565538784342619283e-01 -7.291258605359354217e-01 -9.271841902181512940e-02 -6.780698889287349873e-01
-2.653586565812810980e-02 -1.352035761494433386e-01 -5.288459962019623761e-01 -9.426015610269944389e-01 -1.965819247064800879e-01 -2.699219220963144927e-01
2.164727603596922414e-02 2.525984368123027762e-02 -7.248348719472134105e-01 -9.023876171796938461e-01 -1.565745773523703477e-01 4.014735235201454810e-01
2.673262706710919159e-02 1.636532570679025966e-01 -5.886375533409964333e-01 -9.585134204169156735e-01 4.147605068879682555e-02 -2.820137587067793050e-01
-3.092274567307109600e-03 -7.390599057341817879e-02 -8.639960588723226698e-01 -9.552352733338672630e-01 4.803621636319545252e-02 2.919213841024331790e-01
3.853661702026105196e-02 9.798452418821369109e-03 -6.773392877450861160e-01 -9.572713346029065873e-01 2.844278331705071480e-02 -2.877891589771044423e-01
-1.776410909191390372e-02 -1.079001441814668449e-01 -5.478941561004846417e-01 -7.974757982397060463e-01 3.124878221764991748e-01 -5.161237373085372226e-01
-7.721932576733802137e-03 1.663660508983326736e-01 -7.909633162809474038e-01 -9.781215408098570263e-01 -1.249998716697844070e-01 1.662927643834463953e-01
-4.099284479882474297e-02 8.786780422203067931e-02 -8.491341084167393083e-01 -5.621420131236597451e-01 -1.295591713771971631e-01 8.168297118698201187e-01
2.583021593964910864e-02 -4.787275384548352747e-02 -7.439546193931581008e-01 -9.023876171796938461e-01 -1.565745773523703477e-01 4.014735235201454810e-01
-1.831320095903844064e-02 -1.728332953870935773e-01 -5.066146970042018083e-01 -9.776483165467527714e-01 -1.890281389008168500e-01 -9.204418426491460525e-02
2.359446887421300446e-02 -8.461433278282551318e-02 -6.333089186001100712e-01 -9.744466010470448358e-01 2.120738286129586758e-01 -7.401697727753230038e-02
1.156081744979688131e-02 -4.735787524864362719e-02 -5.286544907860561970e-01 -9.365528728142320514e-01 2.514324801250906183e-01 -2.442343635968428350e-01
-1.480022449803205208e-02 -2.054172720075886638e-01 -5.483562671416843948e-01 -9.997150866851952644e-01 2.338507280472389496e-02 4.783703996910576919e-03
1.898389161649389686e-02 3.759417973161049975e-02 -7.282321360292505208e-01 -9.018046627803556481e-01 -7.468880874322719743e-02 4.256406137061250483e-01
1.233728064245713345e-02 -9.486326147590784519e-02 -5.805374270179896046e-01 -9.365528728142320514e-01 2.514324801250906183e-01 -2.442343635968428350e-01
9.747899533935552863e-03 -1.317687419287784101e-01 -7.758598100817853949e-01 -9.971656917350603111e-01 5.426247557697005258e-02 5.211685879633830981e-02
-3.271483041071414355e-02 1.419024179014095610e-01 -8.405911214039395452e-01 -6.909239444088777216e-01 3.560261302781122378e-02 7.220502454733117581e-01
-4.200691139711445858e-03 -1.341965827927567023e-01 -5.847725498170539549e-01 -7.974757982397060463e-01 3.124878221764991748e-01 -5.161237373085372226e-01
6.795232384128577045e-03 -9.120673490504521697e-02 -5.662866124372767374e-01 -6.959617056505532640e-01 5.258812926962420642e-01 -4.889643854720937544e-01
1.578273523642306428e-02 -3.616097021302569492e-02 -5.697151601933028164e-01 -9.855436281581587687e-01 -1.274757429307794843e-01 -1.115961108690555759e-01
6.719895539761050127e-03 -1.394098671692552971e-01 -6.190684684433778173e-01 -9.496714783716392327e-01 2.852871840805101256e-01 -1.293650098242890012e-01
-3.837759101313360094e-02 2.951665948410529469e-02 -4.387334810432209076e-01 -7.291258605359354217e-01 -9.271841902181512940e-02 -6.780698889287349873e-01
-1.626768268142649715e-02 1.864216233984778148e-01 -8.010091627962492300e-01 -8.831102365045423452e-01 -4.226026324268715717e-01 2.037727293991264954e-01
2.371839214294608339e-02 1.846787415893819395e-01 -5.776310497141763367e-01 -8.984632737818339931e-01 -3.295289664569429205e-02 -4.378102925559053671e-01
2.072504919141110111e-02 -4.412944141693062733e-02 -7.876292750842258661e-01 -9.798066925569721697e-01 1.230610542510067115e-02 1.995680460139678813e-01
-3.833953465577934032e-03 -1.894024331369510705e-02 -8.587242423936747304e-01 -7.337393068773833127e-01 -4.206669531058933598e-01 5.335409488574434089e-01
2.522811102317379026e-02 -4.932500475390443756e-02 -7.609474937046476484e-01 -9.909746294918174714e-01 -1.070527405111031637e-02 1.336214085056947609e-01
2.330509819454050849e-02 -1.835980404562184351e-02 -7.381202554338848199e-01 -9.023876171796938461e-01 -1.565745773523703477e-01 4.014735235201454810e-01
3.096870227031625275e-02 3.484445900025651133e-02 -7.033224248246812138e-01 -9.018046627803556481e-01 -7.468880874322719743e-02 4.256406137061250483e-01
-4.257688454166525492e-03 5.585948394894679758e-02 -8.289298932071045289e-01 -5.621420131236597451e-01 -1.295591713771971631e-01 8.168297118698201187e-01
3.178686602755229768e-02 -6.204813869817162736e-02 -7.283558211060640053e-01 -9.677606927704406337e-01 -2.270462447890885319e-02 2.508460515051982309e-01
1.981955185852219987e-03 1.367680397356963451e-01 -7.561341757909796346e-01 -9.781215408098570263e-01 -1.249998716697844070e-01 1.662927643834463953e-01
2.074468790534301013e-02 2.107411143535160569e-01 -6.098704874259425202e-01 -8.696489037834774782e-01 -3.928811588172813618e-01 2.989233667590846522e-01
8.731758872444725025e-03 -4.859515910884361356e-02 -5.232141864867646541e-01 -6.959617056505532640e-01 5.258812926962420642e-01 -4.889643854720937544e-01
1.569609796638828797e-02 -8.024090270817246795e-02 -8.062031972502610166e-01 -9.394668535048464886e-01 7.521729963721411616e-02 3.342819004986493092e-01
1.104324056700296992e-02 5.535086414470629518e-02 -7.464225388996089672e-01 -9.905350594035100542e-01 -5.619578020282817860e-02 -1.252291115511088293e-01
1.157151583345144598e-02 -1.485265265236019872e-01 -7.247649818252355214e-01 -9.998800300711702116e-01 -4.606635137327994879e-03 1.478865705826781958e-02
-1.119310796746417853e-03 1.131717050580469466e-02 -5.185913747190046275e-01 -9.352773929478017667e-01 -2.181641816683395352e-01 -2.786764935866447024e-01
2.797665875849898037e-02 -5.199267566749521050e-03 -6.436960175357351321e-01 -9.572713346029065873e-01 2.844278331705071480e-02 -2.877891589771044423e-01
1.386539291224033257e-02 -7.631492500074874008e-02 -5.673022038565523895e-01 -9.365528728142320514e-01 2.514324801250906183e-01 -2.442343635968428350e-01
2.542768888619119372e-02 1.279464362472333694e-01 -5.894537445514006491e-01 -9.585134204169156735e-01 4.147605068879682555e-02 -2.820137587067793050e-01
-2.079839092398164460e-02 -1.203892308548270423e-02 -8.892968906171178078e-01 -8.268860375053416201e-01 -4.807926837898207628e-01 2.917154027350911116e-01
-7.113028136551202696e-02 -2.986555611425327690e-04 -9.466866691510180676e-01 -7.932153519779436834e-01 -2.864366762438078640e-01 5.373671332421691149e-01
-6.596279805243208949e-02 4.138262787200168435e-02 -9.158040867275942798e-01 -6.719741768736300358e-01 -4.950630317734998065e-01 5.507842592033999063e-01
-2.201288296739369391e-02 2.304920895260434421e-02 -4.554460356528798326e-01 -7.291258605359354217e-01 -9.271841902181512940e-02 -6.780698889287349873e-01
-9.732393884300212517e-02 3.157842035550176285e-02 -9.573166794412242275e-01 -4.890496171551922400e-01 -4.236844442843519798e-01 7.624447282471169540e-01
-7.343065355979203068e-02 4.488237509809239051e-02 -9.217694180355950895e-01 -6.719741768736300358e-01 -4.950630317734998065e-01 5.507842592033999063e-01
-6.430223968991731487e-02 4.518245931969945561e-02 -4.146419234142960097e-01 -5.369814493388759269e-01 8.684996057784853674e-02 -8.391114392102794195e-01
-1.193817444610949415e-02 -2.110804316277991033e-01 -5.914026500215306958e-01 -9.881654418526275574e-01 1.042308156668335650e-01 -1.125388670354733056e-01
-4.678442055252028664e-02 3.799323585877151244e-02 -8.804951239620336656e-01 -8.268860375053416201e-01 -4.807926837898207628e-01 2.917154027350911116e-01
1.494195480351669450e-02 1.244284834142185131e-01 -7.088850190626950765e-01 -9.276599340605620192e-01 -2.720528279178906494e-01 2.558013009361604362e-01
7.778743669651168140e-03 -5.143795147595344591e-02 -8.332205386654393253e-01 -9.718005581311662811e-01 -8.106585851316537583e-02 2.214317091102290247e-01
1.748017154789825722e-02 1.546557775164728865e-01 -6.747627140420552339e-01 -9.442503950736612639e-01 -2.059652205058163099e-01 2.568453218285764450e-01
1.141660549785143523e-02 -1.436992110371091147e-01 -7.337349693877540657e-01 -9.998800300711702116e-01 -4.606635137327994879e-03 1.478865705826781958e-02
2.219713832111522289e-02 -7.916248648105933539e-02 -6.773864259129496190e-01 -9.958458428848372401e-01 -8.543755224691215733e-02 3.148780517985378530e-02
-6.136924185010777383e-02 -1.621131313675132010e-02 -4.354110308827344178e-01 -2.434825303707472133e-01 2.773426926774075207e-01 -9.294069551185331068e-01
-6.837310879667139740e-02 -6.839030168752450664e-03 -9.461030300963342299e-01 -7.932153519779436834e-01 -2.864366762438078640e-01 5.373671332421691149e-01
1.143115618737147905e-02 6.788448272729945276e-02 -7.551152500719185978e-01 -9.905350594035100542e-01 -5.619578020282817860e-02 -1.252291115511088293e-01
-2.013040354804752907e-02 -1.884461399303783979e-01 -4.773884682005051228e-01 -9.623032077236393089e-01 -1.946440549750382831e-01 -1.899637551420492454e-01
3.237009534158721141e-02 5.173812050131657014e-02 -6.352169493051333937e-01 -9.243348180756639776e-01 2.100011626024200773e-01 -3.185979532242182999e-01
-1.837798379227157178e-02 1.959603024446079644e-01 -7.903725954397307074e-01 -8.831102365045423452e-01 -4.226026324268715717e-01 2.037727293991264954e-01
-3.641892199610832770e-02 1.663408749817172627e-01 -8.418233639199904639e-01 -5.740576666677634776e-01 -2.512887528138790794e-01 7.793020967822480438e-01
1.165568157046243704e-02 -1.562621796771907490e-01 -7.214840680928497063e-01 -9.998800300711702116e-01 -4.606635137327994879e-03 1.478865705826781958e-02
1.991193233748648692e-02 -1.111823032918527326e-01 -7.136438875923122316e-01 -9.537740544163398893e-01 2.919483101237175804e-01 7.128279833257399056e-02
2.480829931305872718e-02 8.645461952265313943e-02 -6.042967656400329846e-01 -9.237203179413844278e-01 5.528590846594258479e-02 -3.790570439226308430e-01
3.472336690643367169e-04 -7.507141751610810210e-02 -8.525494075714834530e-01 -9.552352733338672630e-01 4.803621636319545252e-02 2.919213841024331790e-01
1.733546149032440600e-02 1.343423141065957539e-02 -7.636528081281649394e-01 -9.799004332458950417e-01 -1.676301685052405122e-01 -1.081446602075755714e-01
3.120794659271260152e-02 1.213591443935471414e-01 -6.531609611395488013e-01 -9.276599340605620192e-01 -2.720528279178906494e-01 2.558013009361604362e-01
2.139226389211964716e-02 -7.016402960224614460e-02 -7.827481037970849265e-01 -9.798066925569721697e-01 1.230610542510067115e-02 1.995680460139678813e-01
-5.744911885917983879e-02 1.276033572575561159e-01 -8.635541053765133368e-01 -6.909239444088777216e-01 3.560261302781122378e-02 7.220502454733117581e-01
-1.536326571576218485e-02 -1.805631985341034362e-01 -5.220728167117221208e-01 -9.776483165467527714e-01 -1.890281389008168500e-01 -9.204418426491460525e-02
-2.637539458410978824e-03 1.614604114150124115e-01 -7.647447965439715389e-01 -9.781215408098570263e-01 -1.249998716697844070e-01 1.662927643834463953e-01
4.734818209468773936e-03 -1.131741567226813711e-01 -5.858509739839292685e-01 -7.974757982397060463e-01 3.124878221764991748e-01 -5.161237373085372226e-01
-3.389073941836706627e-02 1.019455550698219470e-01 -8.429886427517193637e-01 -5.971193069593390135e-01 -4.817997458662514471e-02 8.007042046256725998e-01
1.159240236467457691e-02 -1.340969315591699906e-01 -7.401311541515056547e-01 -9.924287356067086341e-01 9.755916008164680631e-02 7.461511258607798902e-02
-2.445931292962533199e-02 1.501116990433611076e-01 -8.330962650897651978e-01 -6.909239444088777216e-01 3.560261302781122378e-02 7.220502454733117581e-01
-1.450875385968352325e-02 -1.079657254340963685e-01 -5.529637937978927331e-01 -7.974757982397060463e-01 3.124878221764991748e-01 -5.161237373085372226e-01
2.089059981955321277e-02 -7.875729483692721355e-02 -7.748495801148572726e-01 -9.668383763608060510e-01 2.313696575102620612e-01 1.081278668040040192e-01
-2.996143771784103797e-03 1.540572009172789802e-01 -7.724189666765699513e-01 -9.781215408098570263e-01 -1.249998716697844070e-01 1.662927643834463953e-01
-2.697494368730422431e-03 -1.197312629989641386e-01 -8.670239851307033341e-01 -9.757240647413575330e-01 -9.007361130978946973e-02 1.996228795259097077e-01
2.731826885318621584e-02 -7.937553601102399770e-02 -7.345607021148925497e-01 -9.537961565812422826e-01 2.456101777385543972e-01 1.730564424749513330e-01
-8.271273357799976272e-03 -1.954836561647815829e-01 -6.091550973182211504e-01 -9.881654418526275574e-01 1.042308156668335650e-01 -1.125388670354733056e-01
-8.587590318449198068e-02 4.674319126942660246e-02 -9.334298061688455217e-01 -5.751318261312158286e-01 -5.690641874547633927e-01 5.876983351409316159e-01
-2.086638410255296089e-02 1.148740967677284834e-02 -8.581571927149191925e-01 -7.337393068773833127e-01 -4.206669531058933598e-01 5.335409488574434089e-01
-1.452509182893664368e-02 -3.867003258954914563e-02 -4.860828178346531803e-01 -6.635518816107307538e-01 4.876303787143267954e-01 -5.673759901209964873e-01
2.064970282253880685e-02 3.768497347520507329e-02 -6.104760820352910233e-01 -9.243348180756639776e-01 2.100011626024200773e-01 -3.185979532242182999e-01
-2.356207943924312070e-02 1.673462962603257664e-01 -8.320284203036695247e-01 -5.740576666677634776e-01 -2.512887528138790794e-01 7.793020967822480438e-01
1.747585794240471072e-02 -1.007910249347643422e-01 -7.584129875210035010e-01 -9.537961565812422826e-01 2.456101777385543972e-01 1.730564424749513330e-01
1.119327413562974140e-02 9.693356708655841147e-02 -7.343256029907427873e-01 -9.018046627803556481e-01 -7.468880874322719743e-02 4.256406137061250483e-01
2.108154641012613406e-02 -1.795768215041186264e-02 -7.489369495642739238e-01 -9.799004332458950417e-01 -1.676301685052405122e-01 -1.081446602075755714e-01
2.110684526057431468e-02 -1.090030315280791084e-01 -7.065812827792261608e-01 -9.537740544163398893e-01 2.919483101237175804e-01 7.128279833257399056e-02
4.390665915070666135e-03 2.085884106245723332e-02 -8.257527056452289571e-01 -8.646173074394064573e-01 -1.259260316294165960e-01 4.863944348307225329e-01
-1.909218591218191791e-02 -1.711476092480710698e-01 -5.018025383875222012e-01 -9.776483165467527714e-01 -1.890281389008168500e-01 -9.204418426491460525e-02
-1.006994876601416400e-02 -2.053898576123640296e-01 -6.025364291008561413e-01 -9.881654418526275574e-01 1.042308156668335650e-01 -1.125388670354733056e-01
2.152087317274975140e-02 -1.263030255098481630e-02 -7.611754273812492144e-01 -9.799004332458950417e-01 -1.676301685052405122e-01 -1.081446602075755714e-01
-3.664151676233818461e-02 2.011776328479031872e-01 -8.307540966361263157e-01 -5.740576666677634776e-01 -2.512887528138790794e-01 7.793020967822480438e-01
1.307937948316522520e-02 -5.735934646231310302e-02 -5.447738782836689664e-01 -9.365528728142320514e-01 2.514324801250906183e-01 -2.442343635968428350e-01
2.994968227465520660e-02 9.408395861851821806e-02 -6.157130024054890960e-01 -9.237203179413844278e-01 5.528590846594258479e-02 -3.790570439226308430e-01
1.545916807074131614e-02 4.521983431688982730e-02 -5.904504620720979480e-01 -9.243348180756639776e-01 2.100011626024200773e-01 -3.185979532242182999e-01
2.208932842775375438e-02 -8.239467570480708825e-02 -6.990536029636715831e-01 -7.063702280047706727e-01 -2.885346392055850306e-01 -6.463658893900507962e-01
2.420049693230122423e-02 6.499070216509889031e-02 -7.123723416286039667e-01 -9.018046627803556481e-01 -7.468880874322719743e-02 4.256406137061250483e-01
-4.980715194818677999e-02 -5.635154564822655171e-02 -4.524716271545706214e-01 -7.383913214962517513e-01 4.658968299096198362e-01 -4.875637396476337204e-01
-1.947832122715506195e-02 -3.388283628783279183e-02 -4.761756184982405271e-01 -6.635518816107307538e-01 4.876303787143267954e-01 -5.673759901209964873e-01
1.362053090820690947e-02 -1.263085787599542154e-01 -7.368390655889359708e-01 -9.623563446339006289e-01 2.567183351327316787e-01 8.925224002542296586e-02
-6.244758151175410638e-02 1.509566346079183607e-01 -8.660145710335840352e-01 -5.876043258930963020e-01 -2.426556488831172476e-01 7.719063364533506055e-01
1.404658468659238969e-02 5.857760616785451235e-02 -7.716263185345273445e-01 -9.905350594035100542e-01 -5.619578020282817860e-02 -1.252291115511088293e-01
2.449868470335040457e-03 -6.278673802510362223e-02 -8.476905603462557837e-01 -9.552352733338672630e-01 4.803621636319545252e-02 2.919213841024331790e-01
-2.186434455242773287e-02 -4.810589076977626194e-03 -8.804049777768359064e-01 -8.268860375053416201e-01 -4.807926837898207628e-01 2.917154027350911116e-01
-2.126971135745190766e-03 -1.043227325706576614e-01 -8.572827408745824496e-01 -9.757240647413575330e-01 -9.007361130978946973e-02 1.996228795259097077e-01
1.626223529148040220e-02 -2.357403039925212544e-03 -8.047365089482485523e-01 -9.069804447372180611e-01 5.574081598323095757e-03 4.211358480094201662e-01
1.129236658911112433e-02 -1.889160044943977435e-01 -6.999567964281290244e-01 -9.388043080550872999e-01 2.076214292948896367e-01 -2.748450714034286757e-01
1.385812805556564144e-02 -1.264123805606181539e-01 -7.339786225613426085e-01 -9.623563446339006289e-01 2.567183351327316787e-01 8.925224002542296586e-02
5.635499920887637390e-03 -1.233462960100499411e-01 -8.309358724659255957e-01 -9.595783870633640689e-01 -6.051651030691019943e-03 2.813764322054627676e-01
-4.313862881714788933e-02 8.597883876092178579e-02 -8.509104494662939056e-01 -5.621420131236597451e-01 -1.295591713771971631e-01 8.168297118698201187e-01
1.486124367234362663e-02 -7.955872120464844988e-02 -5.744603391373096501e-01 -9.365528728142320514e-01 2.514324801250906183e-01 -2.442343635968428350e-01
3.540356242519726582e-02 1.079695772934683579e-01 -6.521858483804637840e-01 -9.276599340605620192e-01 -2.720528279178906494e-01 2.558013009361604362e-01
2.182214727087800760e-02 -7.870572762959954227e-02 -6.885135202755692241e-01 -9.979299854134928704e-01 -5.734227395125205545e-02 2.911370520434789638e-02
3.251707871253108669e-03 1.261765436295788356e-01 -7.561640760774326342e-01 -9.784083061057001762e-01 -1.147855225895932224e-01 1.718763228231520446e-01
2.706633284176950677e-02 -4.801177792317871257e-02 -7.412304324030335456e-01 -9.023876171796938461e-01 -1.565745773523703477e-01 4.014735235201454810e-01
-1.138248014569835133e-02 4.502505531805907346e-02 -8.355516458952457759e-01 -5.621420131236597451e-01 -1.295591713771971631e-01 8.168297118698201187e-01
-2.671815863664058627e-02 5.882601035713403564e-02 -8.439166561062455552e-01 -5.621420131236597451e-01 -1.295591713771971631e-01 8.168297118698201187e-01
1.446600453557656159e-02 -6.612428826294033946e-02 -8.092487084196543501e-01 -9.718005581311662811e-01 -8.106585851316537583e-02 2.214317091102290247e-01
1.248164844708361983e-02 -1.239238558016803743e-01 -7.533928093669309822e-01 -9.668383763608060510e-01 2.313696575102620612e-01 1.081278668040040192e-01
2.543269341210439849e-02 -6.849287268697189235e-02 -7.014156161577260740e-01 -9.063353885559699563e-01 2.396168932799266349e-01 -3.480515879951923686e-01
-1.288518844447650302e-02 1.786227743769138454e-01 -8.025240801345739916e-01 -8.831102365045423452e-01 -4.226026324268715717e-01 2.037727293991264954e-01
3.049960120139488806e-02 6.882779734257196691e-02 -6.207367346824224086e-01 -9.237203179413844278e-01 5.528590846594258479e-02 -3.790570439226308430e-01
-4.333245766635013957e-02 1.538113628019781298e-01 -8.509562710091460591e-01 -5.740576666677634776e-01 -2.512887528138790794e-01 7.793020967822480438e-01
-1.060802447095991891e-01 4.009272193787865451e-02 -9.577480245640150880e-01 -5.316548140937753519e-01 -5.629800743172517219e-01 6.327689898949336866e-01
-1.497283062959695391e-02 -2.118394751393984643e-01 -5.530332425544924879e-01 -9.997150866851952644e-01 2.338507280472389496e-02 4.783703996910576919e-03
3.686649455375633645e-03 9.141406286410749815e-02 -7.935159170878863799e-01 -9.527957047218913456e-01 -2.349027081048870591e-01 1.923566031840467372e-01
-5.582238331350928423e-02 1.988052989365129419e-01 -8.459295644986360996e-01 -5.876043258930963020e-01 -2.426556488831172476e-01 7.719063364533506055e-01
2.164857892158925101e-02 2.172953037860571660e-02 -7.262087648021979813e-01 -9.023876171796938461e-01 -1.565745773523703477e-01 4.014735235201454810e-01
3.110706827052419146e-02 2.537990160859454614e-02 -6.489263804845958328e-01 -9.243348180756639776e-01 2.100011626024200773e-01 -3.185979532242182999e-01
5.994343528815454167e-03 8.679527390600452752e-02 -7.877256559368480682e-01 -9.527957047218913456e-01 -2.349027081048870591e-01 1.923566031840467372e-01
-1.440189013660377049e-02 -2.189127465474590140e-01 -5.770237054498673634e-01 -9.881654418526275574e-01 1.042308156668335650e-01 -1.125388670354733056e-01
-4.353663960272298461e-02 -8.298730570528155574e-04 -4.384473082551775258e-01 -5.279118337696223628e-01 2.519136113024852963e-01 -8.110786818839064161e-01
2.144608825108737515e-02 2.171902373473749426e-01 -5.837707040407896786e-01 -8.276687614601724308e-01 -3.251723368325405983e-01 -4.574137871357276675e-01
-1.892684892626283382e-03 -1.193751323577613432e-01 -8.629295148562583506e-01 -9.757240647413575330e-01 -9.007361130978946973e-02 1.996228795259097077e-01
1.123723024443861948e-02 -1.354925900489238610e-01 -6.435915985592977062e-01 -9.496714783716392327e-01 2.852871840805101256e-01 -1.293650098242890012e-01
2.134101198173589311e-03 -1.169360411520508902e-01 -8.427388294064137586e-01 -9.595783870633640689e-01 -6.051651030691019943e-03 2.813764322054627676e-01
1.673261885418620689e-03 -2.774503482126852369e-02 -4.973834720161832701e-01 -9.352773929478017667e-01 -2.181641816683395352e-01 -2.786764935866447024e-01
2.600410232060348242e-02 1.584985197262263057e-01 -6.404088270397030325e-01 -9.442390271155259862e-01 -2.048839581179187908e-01 2.577503120810137882e-01
-1.771718281552745952e-02 -1.968658320120912908e-01 -4.809860336566754158e-01 -9.623032077236393089e-01 -1.946440549750382831e-01 -1.899637551420492454e-01
1.681300719632466620e-02 3.080325973861566119e-02 -7.810445552623092036e-01 -9.905350594035100542e-01 -5.619578020282817860e-02 -1.252291115511088293e-01
-1.086346827162662336e-02 -1.668668940265610745e-01 -5.605158591174485005e-01 -9.426015610269944389e-01 -1.965819247064800879e-01 -2.699219220963144927e-01
-6.386512477936592824e-02 -1.663350893078280671e-02 -9.446695516805371229e-01 -7.932153519779436834e-01 -2.864366762438078640e-01 5.373671332421691149e-01
2.012067259347995879e-02 2.187683974810980814e-01 -5.972937295055193996e-01 -7.988127370629789503e-01 -6.013757749567610889e-01 1.566487794740594949e-02
-6.148640200191568376e-05 -2.298011602303045436e-02 -4.952916693031410023e-01 -9.352773929478017667e-01 -2.181641816683395352e-01 -2.786764935866447024e-01
1.756173787046279994e-02 4.680095809802334306e-02 -5.955083747948658468e-01 -9.243348180756639776e-01 2.100011626024200773e-01 -3.185979532242182999e-01
-2.207535707498581995e-02 1.640480767318850119e-01 -8.315022475989521933e-01 -6.909239444088777216e-01 3.560261302781122378e-02 7.220502454733117581e-01
3.853207799715588355e-02 8.946121828022977895e-02 -6.605245583583810864e-01 -9.276599340605620192e-01 -2.720528279178906494e-01 2.558013009361604362e-01
-1.979069642251101661e-03 1.501841069462492018e-01 -7.693479619503789113e-01 -9.781215408098570263e-01 -1.249998716697844070e-01 1.662927643834463953e-01
1.761692523755578610e-02 -9.089042570469971216e-02 -5.966930830189874913e-01 -9.365528728142320514e-01 2.514324801250906183e-01 -2.442343635968428350e-01
-2.971223397152947601e-02 -4.042670501155998242e-02 -4.676872382992086075e-01 -7.383913214962517513e-01 4.658968299096198362e-01 -4.875637396476337204e-01
3.658939892885410688e-02 1.846500016313421325e-02 -6.942880233542542134e-01 -9.018046627803556481e-01 -7.468880874322719743e-02 4.256406137061250483e-01
8.325836633742653495e-03 -1.670452964408652985e-02 -8.216388609172373680e-01 -9.069804447372180611e-01 5.574081598323095757e-03 4.211358480094201662e-01
2.453971323070201077e-02 7.576498100320789089e-03 -7.252300732325157595e-01 -9.023876171796938461e-01 -1.565745773523703477e-01 4.014735235201454810e-01
1.207984717955925755e-02 7.428005801637586891e-02 -7.728658404317254593e-01 -9.527957047218913456e-01 -2.349027081048870591e-01 1.923566031840467372e-01
-5.122280258960629218e-02 6.846306954752996721e-02 -8.592521909152122106e-01 -5.621420131236597451e-01 -1.295591713771971631e-01 8.168297118698201187e-01
2.077427185854484673e-02 -1.780981181780838876e-02 -7.463819372602142899e-01 -9.799004332458950417e-01 -1.676301685052405122e-01 -1.081446602075755714e-01
2.709112488573425792e-02 1.906635995967743691e-01 -6.108588414551476831e-01 -9.442390271155259862e-01 -2.048839581179187908e-01 2.577503120810137882e-01
-3.513058720121148282e-02 1.822336666844943595e-02 -4.406807407795279574e-01 -7.291258605359354217e-01 -9.271841902181512940e-02 -6.780698889287349873e-01
-1.528509366211446355e-02 -1.426789151085201546e-01 -5.626908897728256642e-01 -9.426015610269944389e-01 -1.965819247064800879e-01 -2.699219220963144927e-01
1.601068419059671968e-02 1.571187350882859435e-01 -5.597391118150529810e-01 -8.984632737818339931e-01 -3.295289664569429205e-02 -4.378102925559053671e-01
2.174532033345154269e-02 -6.000205159870949240e-02 -5.951392378400869321e-01 -9.855436281581587687e-01 -1.274757429307794843e-01 -1.115961108690555759e-01
8.654949466240664455e-03 1.519708022061671410e-02 -5.654333065475665165e-01 -9.855436281581587687e-01 -1.274757429307794843e-01 -1.115961108690555759e-01
-8.404950865866650522e-03 -1.770347841104834286e-01 -5.830539997148481701e-01 -9.620769085110364438e-01 2.408240288739727508e-01 -1.281085837356528701e-01
-6.464756214931678679e-02 5.798641859668483139e-02 -8.937268455269236078e-01 -7.794188298802653403e-01 -5.142324391752373103e-01 3.578704879254001603e-01
3.856863870624364227e-02 3.479835635280451728e-02 -6.643662251392011830e-01 -9.243348180756639776e-01 2.100011626024200773e-01 -3.185979532242182999e-01
-5.350073073330190859e-02 4.895833411216213987e-02 -8.814607366521264309e-01 -8.268860375053416201e-01 -4.807926837898207628e-01 2.917154027350911116e-01
1.471127201812501284e-02 -4.977253669285214982e-03 -5.971728393956277081e-01 -9.860259777572782935e-01 -1.301908721757143728e-01 -1.039380007020058450e-01
1.453717565609942983e-03 3.569562332781090613e-02 -4.824289386467280893e-01 -9.420611200000731378e-01 3.350064115369111861e-01 -1.707484738935040325e-02
4.296415214470979821e-02 6.521059054566614999e-02 -6.570727745698281552e-01 -9.243348180756639776e-01 2.100011626024200773e-01 -3.185979532242182999e-01
-2.277883442497617619e-03 -1.750366249596621571e-01 -6.253111630525678422e-01 -9.620769085110364438e-01 2.408240288739727508e-01 -1.281085837356528701e-01
-1.935556886702414006e-02 -1.646565984819875206e-01 -5.123353905175277445e-01 -9.776483165467527714e-01 -1.890281389008168500e-01 -9.204418426491460525e-02
-1.561828473992051339e-02 3.754086573891771833e-02 -4.640801836224084931e-01 -7.543168016895720474e-01 1.089463581884074772e-01 -6.474077955402590678e-01
