-6.694465183981745948e-02 -1.306560424261646661e-02 -9.033785046300828458e-01 5.743768514123407387e-01 -4.444626419506746973e-01 6.874184987850356920e-01
-1.266847385209571020e-01 5.899720387103975922e-02 -7.646118288835939136e-01 8.520591215212249825e-01 -4.503296971045596675e-01 2.668303156281043309e-01
1.080895108052667974e-01 -8.943613001539596485e-02 -1.078275231312365801e+00 4.553475739501641750e-01 -2.318076322390248134e-01 8.596067755278786748e-01
-1.135843359374849454e-01 -2.325199719278553054e-02 -8.488146558549903853e-01 8.270440640560108303e-01 -3.508876864633982962e-01 4.391764424443564407e-01
-5.104575056074424355e-02 -1.915219848589527069e-02 -9.267183431077318234e-01 9.117810704210452810e-01 -1.454961367952127549e-01 3.840392607527536306e-01
1.107892579869305255e-01 -6.291068014832967847e-02 -1.072552290848932222e+00 4.553475739501641750e-01 -2.318076322390248134e-01 8.596067755278786748e-01
-6.490933185515845860e-02 -1.622332740659515882e-01 -9.663769722463644296e-01 8.164926141823057870e-01 -1.376663911282161867e-01 5.607029300257646565e-01
-3.962132949309109947e-02 -3.502359038498022853e-02 -9.598550517138817462e-01 9.117810704210452810e-01 -1.454961367952127549e-01 3.840392607527536306e-01
7.115613483413467388e-02 3.191377532605256528e-02 -1.022688721084689334e+00 6.041598491673246807e-01 -4.832791387701200203e-01 6.335867349335262411e-01
4.969323308333605665e-02 7.569160999534950418e-02 -9.719619114522832781e-01 4.132576818726797496e-01 -4.798318536768031439e-01 7.739376464356169105e-01
-1.319230348676871389e-01 -1.556972834645728720e-01 -8.236720117769009697e-01 9.773137154826266881e-01 -2.075173066169361258e-01 -4.236117307152548889e-02
-1.118311589329907541e-01 -1.081096358443115191e-01 -8.199946157601606389e-01 8.952667595079240037e-01 -4.154142405948472727e-01 1.610230978188767759e-01
-9.852005785403536442e-02 -3.052284288832711814e-02 -8.829924271156806004e-01 8.270440640560108303e-01 -3.508876864633982962e-01 4.391764424443564407e-01
1.023403610166004861e-02 2.211208264330001838e-01 -8.687690730093091673e-01 2.926800018150754190e-01 -5.996186271279199120e-01 7.448462381852755110e-01
-4.215164067206677440e-02 -1.141743115172982465e-01 -9.816456144605443246e-01 6.235624924867709806e-01 -8.767806827381115220e-02 7.768412799970524363e-01
-4.323262381853420350e-02 6.454605199331453491e-02 -9.183973941632733728e-01 8.779781420876276998e-01 -1.762206030156144299e-01 4.450850268085535522e-01
1.273252055121058268e-01 -8.153333025904925535e-02 -1.087411351686713656e+00 5.282762129020296404e-01 -3.246890555097203812e-01 7.845388837489798428e-01
-1.219314725737351834e-01 -2.170364915132422245e-02 -8.161746321041418728e-01 9.518211933584912465e-01 2.867756100309147294e-01 1.086101531396325426e-01
-9.055250614679372090e-02 -1.185435049242671846e-01 -9.223248592120447675e-01 8.082115444934495629e-01 -2.321203360281056949e-01 5.412155291099030041e-01
-3.241308244257696397e-02 -8.714907294837280494e-02 -9.875913196984116293e-01 6.549090890881462679e-01 -3.172477450477181188e-02 7.550414715181915648e-01
-1.263343668712508805e-01 -1.409300360176586053e-01 -8.240301960556357663e-01 8.952667595079240037e-01 -4.154142405948472727e-01 1.610230978188767759e-01
-5.510282567140586951e-02 7.583498908499709812e-02 -8.891507868455671426e-01 8.666035445530636538e-01 -3.274226882934453409e-01 3.765536877508432467e-01
8.775155076695102807e-02 -3.622159751542577966e-02 -1.054832041436241541e+00 4.316873165439117366e-01 -1.978334129947325049e-01 8.800613623139992292e-01
1.256404660349610403e-01 -1.847412937722618664e-02 -1.056111970217811669e+00 5.886799395693826514e-02 -3.783288878580427506e-01 9.237974950710691191e-01
-4.272244912679955264e-02 -6.005241619166896277e-02 -9.662481672882928807e-01 6.162041534479562044e-01 -5.069416346108263083e-01 6.027459003357810152e-01
1.348336646078636403e-01 1.322767051855517906e-01 -9.950393275199885812e-01 4.872486591975220271e-01 -8.863604148826308149e-02 8.687533575529410301e-01
-6.044364199202173493e-02 8.158419823107489199e-02 -8.718603125248625130e-01 8.666035445530636538e-01 -3.274226882934453409e-01 3.765536877508432467e-01
1.303400369704479644e-01 7.318569930271527635e-02 -1.034100721525921696e+00 -5.911581007385208197e-02 -1.801186896856393216e-01 9.818668843714207783e-01
-3.908568808522588228e-02 -5.231757496171776656e-02 -9.676787196275401515e-01 9.117810704210452810e-01 -1.454961367952127549e-01 3.840392607527536306e-01
-5.607756511463963395e-02 6.870315967556697712e-02 -8.914134585250328424e-01 8.779781420876276998e-01 -1.762206030156144299e-01 4.450850268085535522e-01
-1.431137546520480641e-02 2.273167348163993018e-01 -8.401790442729762942e-01 7.278284381733594044e-01 -6.673779598164593096e-01 1.577099341745753780e-01
1.629788417047770832e-01 1.009263867188881086e-01 -1.023427176623727508e+00 -1.211758093418170423e-01 -2.464350110440350905e-01 9.615540590950057975e-01
1.165978218910037056e-01 1.122062437644797683e-01 -9.979225286609882950e-01 4.871433542882102619e-01 -6.370952632404063287e-01 5.973281995096739738e-01
8.555200200202200955e-03 -7.291862369836475677e-02 -1.017847829591750131e+00 5.697207245150290866e-01 -6.528754281209635246e-02 8.192410102110545544e-01
-1.149075981097802263e-01 -3.270054273834119285e-02 -8.487390249900057526e-01 9.353718021753192335e-01 -5.721400169809499198e-02 3.490073777228581142e-01
-4.811663345449299772e-02 9.473307392896175572e-02 -8.887965138442863733e-01 8.666035445530636538e-01 -3.274226882934453409e-01 3.765536877508432467e-01
4.693805335911625104e-02 -7.639904619251657036e-02 -1.043837215567670285e+00 4.417725853361468835e-01 -2.062173635598044397e-01 8.731044506883813838e-01
-9.448729248286548421e-02 -1.560696161906321155e-01 -9.248507886710330972e-01 8.029511307960421895e-01 -9.208413362790225654e-02 5.888887788770948983e-01
-1.067446239796545071e-01 -6.372717422989632174e-02 -8.757028491688833016e-01 9.353718021753192335e-01 -5.721400169809499198e-02 3.490073777228581142e-01
4.498460298759703740e-02 7.519143124689103841e-02 -9.697577599034150619e-01 4.132576818726797496e-01 -4.798318536768031439e-01 7.739376464356169105e-01
3.951173651000136622e-02 1.002739920407708513e-01 -9.544005117241060043e-01 3.105136124646014073e-01 -3.634625139269269112e-01 8.783372344629948314e-01
-8.326243360852599029e-02 1.816017357375158611e-02 -8.695544980596062734e-01 5.743768514123407387e-01 -4.444626419506746973e-01 6.874184987850356920e-01
-5.435602811803515871e-02 -1.170017070843623191e-01 -9.721683919402064333e-01 6.235624924867709806e-01 -8.767806827381115220e-02 7.768412799970524363e-01
-2.385125469386304223e-02 1.475659655900570799e-01 -8.997759968253272733e-01 8.563760160722203585e-01 -2.852069395683759501e-01 4.304382890941660933e-01
1.450053987460301896e-01 5.435697865098930437e-02 -1.036671792809655157e+00 -5.911581007385208197e-02 -1.801186896856393216e-01 9.818668843714207783e-01
4.654569188295356458e-02 -6.084616390710314952e-03 -1.021270727705276604e+00 6.853830365841659944e-01 -3.482274806453448113e-01 6.395214733580599775e-01
-8.640830025550346946e-03 1.561388458722723360e-01 -9.030485076630638819e-01 4.136949629432525311e-01 -4.675147751795706297e-01 7.812083029667418188e-01
1.837318333669650527e-01 2.917357437710096577e-02 -1.046884298873836494e+00 7.261538807670421258e-01 -5.230186345014224969e-01 4.462645509238123420e-01
-7.992480517394459638e-02 4.615273672654984088e-02 -8.542441855192453026e-01 5.743768514123407387e-01 -4.444626419506746973e-01 6.874184987850356920e-01
1.377502971538415444e-01 1.421419790916694514e-01 -9.956686274995638630e-01 4.872486591975220271e-01 -8.863604148826308149e-02 8.687533575529410301e-01
1.316604201052336831e-01 -3.239166545437548173e-02 -1.065059480068811570e+00 4.907244055820493833e-01 -6.189483240051263380e-01 6.132638339062471688e-01
1.847410652961228514e-02 -1.171841735932370454e-01 -1.031794169783275317e+00 6.615877481700049856e-01 -2.101008427543173129e-01 7.198328190248535208e-01
-1.286499742963947502e-03 -2.202363703316228064e-02 -9.902029195469465028e-01 4.500302150956252967e-01 -2.577588342363796303e-01 8.550047888018452724e-01
5.965852011949606022e-03 9.703868865007346522e-02 -9.438800169613390523e-01 3.105136124646014073e-01 -3.634625139269269112e-01 8.783372344629948314e-01
8.856984407188862873e-02 -6.308985095434803403e-02 -1.061273279925656343e+00 4.316873165439117366e-01 -1.978334129947325049e-01 8.800613623139992292e-01
1.211225917342471925e-01 4.900358941078939573e-02 -1.039091771501758910e+00 -5.911581007385208197e-02 -1.801186896856393216e-01 9.818668843714207783e-01
1.611348244311426314e-01 1.469805290164821476e-01 -1.002385711166778659e+00 3.809080401308911207e-02 -7.401660353987410401e-01 6.713444203177281189e-01
4.987304775189110861e-02 -1.136742558636517075e-01 -1.059053702577305911e+00 3.506780983685622299e-01 -3.416603604504098723e-01 8.719478593479687012e-01
1.940577009235822797e-02 1.031469768129621711e-01 -9.455531793594339485e-01 3.200290330420948459e-01 -5.090924414207610438e-01 7.990033192036132270e-01
9.514239502510193902e-02 8.263884043067938612e-02 -1.006869528721372475e+00 6.041598491673246807e-01 -4.832791387701200203e-01 6.335867349335262411e-01
2.819506303540100789e-02 -3.123132916407582102e-02 -1.015364610632258913e+00 6.949897575354404555e-01 -3.654215637713610354e-01 6.192384981989758064e-01
3.542479728894366853e-02 4.648258147944798330e-02 -9.824522676637111873e-01 4.132576818726797496e-01 -4.798318536768031439e-01 7.739376464356169105e-01
1.151969914929863170e-01 3.971274107582633411e-02 -1.041152898237785784e+00 -5.911581007385208197e-02 -1.801186896856393216e-01 9.818668843714207783e-01
9.220849570042904952e-02 -7.678544598379098696e-02 -1.067629632133912043e+00 3.682378243972660448e-01 -2.036276914938596749e-01 9.071585682448521926e-01
1.772086066977941465e-01 9.383664661888158065e-02 -1.023802190053161754e+00 -1.075572308702870371e-02 -2.345713519179686013e-01 9.720394000657852640e-01
-1.361644158543085514e-01 3.729651978835714365e-02 -7.709649936091448330e-01 8.520591215212249825e-01 -4.503296971045596675e-01 2.668303156281043309e-01
1.119960462833023973e-01 1.178773608664715200e-01 -9.881209384246929517e-01 4.871433542882102619e-01 -6.370952632404063287e-01 5.973281995096739738e-01
-8.116739423230312500e-02 5.020328735657625385e-02 -8.505869769486885668e-01 5.743768514123407387e-01 -4.444626419506746973e-01 6.874184987850356920e-01
1.600161920143949590e-01 1.779756559801626975e-02 -1.043447939351840326e+00 5.886799395693826514e-02 -3.783288878580427506e-01 9.237974950710691191e-01
-3.660128078134123469e-02 -3.104660517738348086e-02 -9.655185020055595535e-01 9.117810704210452810e-01 -1.454961367952127549e-01 3.840392607527536306e-01
-7.189780870211384678e-02 -1.112661858545227200e-01 -9.483024441111239655e-01 8.743992394933055579e-01 -2.232449452168120893e-02 4.846932915957061772e-01
1.516288614903801672e-02 -5.766591415870108567e-02 -1.016337641110375056e+00 6.949897575354404555e-01 -3.654215637713610354e-01 6.192384981989758064e-01
-7.674647827676899826e-03 -5.411197126130010138e-02 -9.991886509579701592e-01 2.688245808142500359e-01 -3.560787065823257103e-01 8.949532387050737059e-01
-3.981063829602714266e-02 2.760675778162400423e-02 -9.390513608440909099e-01 9.007861066000046879e-01 -7.316763122452382695e-02 4.280547720764216746e-01
-2.631628130336381016e-02 -1.468188241656411160e-02 -9.777317406388849053e-01 8.063866438130111725e-01 -1.715268442834561868e-01 5.659674216508817635e-01
-8.662960669746794240e-02 -1.488488386872665048e-01 -9.344356523138257486e-01 8.029511307960421895e-01 -9.208413362790225654e-02 5.888887788770948983e-01
2.377904296197584297e-02 9.333071052532349032e-02 -9.517118030365676606e-01 3.105136124646014073e-01 -3.634625139269269112e-01 8.783372344629948314e-01
-1.056701926511067896e-01 -1.010700628035442333e-01 -8.587868824821696112e-01 9.807938669638354146e-01 -1.874995568817264258e-01 5.373366445053151530e-02
5.972537708703493792e-02 -9.765564927742832746e-02 -1.058519002497557704e+00 4.682438466565190249e-01 -3.293115605588747830e-01 8.199399954573413085e-01
1.181464773632270870e-02 -9.650352757931032754e-02 -1.022384220479002126e+00 5.992993078221942049e-01 -8.086020757758279054e-02 7.964307669059184080e-01
-1.264343920444488956e-01 -1.415953671991903098e-02 -7.966321981953609077e-01 9.518211933584912465e-01 2.867756100309147294e-01 1.086101531396325426e-01
1.315591554138594022e-01 -3.901786993276891435e-02 -1.071666073963528643e+00 4.907244055820493833e-01 -6.189483240051263380e-01 6.132638339062471688e-01
1.022603301549806359e-01 1.304671953130536466e-01 -9.769548785690445047e-01 4.872486591975220271e-01 -8.863604148826308149e-02 8.687533575529410301e-01
1.658628264061768887e-01 -3.050491125757398645e-03 -1.062814581385050694e+00 4.907244055820493833e-01 -6.189483240051263380e-01 6.132638339062471688e-01
-9.320056823086125819e-02 -1.474725126991601742e-01 -9.252609168227502456e-01 8.029511307960421895e-01 -9.208413362790225654e-02 5.888887788770948983e-01
1.751377751926143922e-01 -2.612354274145666996e-02 -1.096229841357797996e+00 6.328907380889244871e-01 -5.106094699473301413e-01 5.820028203036157199e-01
-1.270209667401675235e-01 -1.416502708477914395e-02 -7.914771669812435961e-01 9.518211933584912465e-01 2.867756100309147294e-01 1.086101531396325426e-01
3.370085081733259578e-03 5.364261336617313913e-02 -9.609199704819038068e-01 3.105136124646014073e-01 -3.634625139269269112e-01 8.783372344629948314e-01
1.986449687527066799e-01 -3.605276476088060955e-02 -1.127660918752413810e+00 7.796175990455758154e-01 -4.444462955929245340e-01 4.412073090873932513e-01
-9.127025776598905737e-02 -3.593175290457691420e-03 -8.751291077331279089e-01 8.270440640560108303e-01 -3.508876864633982962e-01 4.391764424443564407e-01
1.125770952161601890e-01 -9.660805775173211818e-02 -1.083719403610033272e+00 5.282762129020296404e-01 -3.246890555097203812e-01 7.845388837489798428e-01
1.039126948363142539e-01 -3.327876836382588632e-02 -1.060790433108629527e+00 5.886799395693826514e-02 -3.783288878580427506e-01 9.237974950710691191e-01
-1.004312404437523454e-01 5.590014595177551782e-02 -8.185421057413410084e-01 7.890837606354491607e-01 -3.000721911735089176e-01 5.360069950903123548e-01
2.023184353012590919e-01 1.165048911068269771e-01 -1.014407454239554029e+00 -2.978770425376960351e-01 -5.217987905583737485e-01 7.993718094233834837e-01
-1.096444905667604691e-01 -7.203674013892716332e-02 -7.909532976628150802e-01 9.518211933584912465e-01 2.867756100309147294e-01 1.086101531396325426e-01
-8.083552619406482453e-02 -8.073579977949268960e-02 -9.305837865504466011e-01 7.674019337634397919e-01 -1.843357229120295149e-01 6.140965830507710832e-01
1.775772410267481283e-01 1.138024647292468355e-01 -1.018979984415466333e+00 -1.075572308702870371e-02 -2.345713519179686013e-01 9.720394000657852640e-01
7.167406102451615024e-02 -1.399888390791063919e-01 -1.082419133662091415e+00 4.412992026656209488e-01 -4.968785929706708848e-01 7.472393710011360213e-01
1.357343394210529519e-01 5.051035642982670132e-02 -1.037935624756920250e+00 -5.911581007385208197e-02 -1.801186896856393216e-01 9.818668843714207783e-01
1.970399685916315313e-01 7.917265017122233905e-02 -1.027121451426785681e+00 -1.075572308702870371e-02 -2.345713519179686013e-01 9.720394000657852640e-01
-4.957878714197997555e-02 1.097483428082935975e-01 -8.737380478774489090e-01 8.561218312922527218e-01 -2.865407244308507684e-01 4.300579300831955387e-01
-3.607905434405413864e-02 1.808694123257112152e-01 -8.533814985283937338e-01 8.563760160722203585e-01 -2.852069395683759501e-01 4.304382890941660933e-01
-1.872916948564283188e-02 -4.060722613309501391e-03 -9.759540168643511260e-01 2.688245808142500359e-01 -3.560787065823257103e-01 8.949532387050737059e-01
-1.147122788742490768e-01 -6.441511784050946154e-02 -7.783312682258815007e-01 9.308269111443245869e-01 2.631957452589094304e-01 2.535532708665436119e-01
-6.831279099617487693e-02 7.751910236038746238e-02 -8.579178541189609319e-01 8.561218312922527218e-01 -2.865407244308507684e-01 4.300579300831955387e-01
4.628207336151943241e-02 9.584352304920341903e-02 -9.586273519458885506e-01 3.105136124646014073e-01 -3.634625139269269112e-01 8.783372344629948314e-01
1.223164627181231173e-01 -4.148736009421054999e-02 -1.066762592107494578e+00 4.907244055820493833e-01 -6.189483240051263380e-01 6.132638339062471688e-01
1.908337580710209314e-01 1.514689083118597734e-01 -9.958639429122063680e-01 -2.978770425376960351e-01 -5.217987905583737485e-01 7.993718094233834837e-01
-4.042231444085586656e-02 1.296168032280073656e-01 -8.787279178111534472e-01 8.561218312922527218e-01 -2.865407244308507684e-01 4.300579300831955387e-01
7.284223136737945359e-02 -1.028061399695499173e-01 -1.065609194625547262e+00 3.682378243972660448e-01 -2.036276914938596749e-01 9.071585682448521926e-01
-1.324732238091849423e-01 2.583163671419572149e-02 -7.881116138249136815e-01 7.897066997531743127e-01 -2.895125756562805242e-01 5.408750289131641908e-01
-9.238875450768131714e-02 -2.046452424735861475e-01 -9.418327599518453441e-01 7.987890857997176353e-01 -2.536826594271848201e-01 5.455099492339274825e-01
-8.871915645662277472e-02 5.608407844371821743e-02 -8.356811026867245751e-01 7.890837606354491607e-01 -3.000721911735089176e-01 5.360069950903123548e-01
7.886155346806754049e-03 2.251217852958086740e-01 -8.646256309861292122e-01 2.926800018150754190e-01 -5.996186271279199120e-01 7.448462381852755110e-01
-2.755679145696233318e-03 1.687927946179109961e-01 -8.985922688922088897e-01 4.136949629432525311e-01 -4.675147751795706297e-01 7.812083029667418188e-01
-1.462328977006213115e-01 5.615738755520613412e-02 -7.033186102963225883e-01 9.694524619071686056e-01 2.306149480465932433e-01 8.353843330825047597e-02
-2.776039910499916719e-02 1.360575102242212453e-01 -8.997118944413255992e-01 8.666035445530636538e-01 -3.274226882934453409e-01 3.765536877508432467e-01
-1.290412608996444332e-01 -1.478577934760982315e-01 -8.268527529723026515e-01 8.952667595079240037e-01 -4.154142405948472727e-01 1.610230978188767759e-01
1.782562299167178010e-01 -4.862993401262629550e-02 -1.110828029276764717e+00 6.430512171048178294e-01 -3.087258601666533209e-01 7.008376955075777959e-01
-5.642582236735890072e-02 7.545542109711475542e-02 -8.864360758005945806e-01 8.666035445530636538e-01 -3.274226882934453409e-01 3.765536877508432467e-01
1.431300001911061937e-01 -1.735848294441334717e-03 -1.050371533050590500e+00 5.886799395693826514e-02 -3.783288878580427506e-01 9.237974950710691191e-01
-1.265451369303021434e-01 -2.031983362798082601e-02 -7.806635137314268391e-01 9.308269111443245869e-01 2.631957452589094304e-01 2.535532708665436119e-01
-1.000375579409966409e-01 -1.192629865913199111e-01 -9.084691554664340307e-01 8.082115444934495629e-01 -2.321203360281056949e-01 5.412155291099030041e-01
1.234840075813976173e-01 -7.759081466486260348e-02 -1.083235653189036807e+00 4.553475739501641750e-01 -2.318076322390248134e-01 8.596067755278786748e-01
-3.092993480782771365e-02 9.148754665720724988e-02 -9.311721796515251004e-01 8.666035445530636538e-01 -3.274226882934453409e-01 3.765536877508432467e-01
3.438315869002943337e-02 1.406474094276272679e-01 -9.310348770055295597e-01 3.901583807840986462e-01 -3.759906648024331499e-01 8.404804922693653868e-01
-1.334787147814831265e-01 -1.735955558884508254e-02 -7.346411806604326022e-01 9.904842345279716298e-01 1.370013123015360601e-01 -1.310044194656029976e-02
-1.061594303542019030e-01 6.913018746172848450e-02 -8.027027803983028953e-01 7.890837606354491607e-01 -3.000721911735089176e-01 5.360069950903123548e-01
1.194717289682906830e-01 -4.413684367443047873e-02 -1.067160321648264576e+00 4.907244055820493833e-01 -6.189483240051263380e-01 6.132638339062471688e-01
3.624137101042016612e-02 4.156057901031277174e-02 -9.859398728270128975e-01 4.132576818726797496e-01 -4.798318536768031439e-01 7.739376464356169105e-01
6.807542042246542136e-02 -3.666541544056576424e-02 -1.045147648375047256e+00 4.417725853361468835e-01 -2.062173635598044397e-01 8.731044506883813838e-01
-1.211869512607819110e-01 -6.033312139591276782e-03 -8.216464370149888508e-01 7.897066997531743127e-01 -2.895125756562805242e-01 5.408750289131641908e-01
1.957367813683120739e-01 7.648891399149901349e-02 -1.027783507249553807e+00 -1.075572308702870371e-02 -2.345713519179686013e-01 9.720394000657852640e-01
-1.448703777461240183e-01 5.393429855646558746e-02 -7.129934478331391157e-01 9.694524619071686056e-01 2.306149480465932433e-01 8.353843330825047597e-02
-8.798593140608204632e-02 -5.263625441567094249e-02 -9.129787506830335797e-01 7.370554810508592736e-01 -2.463888624984719999e-01 6.293184776324269869e-01
1.075876192292065520e-01 -9.277524003877636594e-02 -1.078909819233599299e+00 4.553475739501641750e-01 -2.318076322390248134e-01 8.596067755278786748e-01
8.579712893593305356e-02 9.389976698195422189e-02 -9.893688380898398860e-01 6.041598491673246807e-01 -4.832791387701200203e-01 6.335867349335262411e-01
1.951334007134183923e-01 -2.952436291183775999e-02 -1.117897428342763844e+00 6.430512171048178294e-01 -3.087258601666533209e-01 7.008376955075777959e-01
1.892980169435436871e-02 1.815451516189941529e-03 -9.936569479327687082e-01 4.500302150956252967e-01 -2.577588342363796303e-01 8.550047888018452724e-01
-7.422721690938709205e-02 -7.566505935978382058e-02 -9.373197151277600225e-01 7.674019337634397919e-01 -1.843357229120295149e-01 6.140965830507710832e-01
-8.368975199522904473e-02 -1.915850928064662118e-01 -9.484972300853866667e-01 7.987890857997176353e-01 -2.536826594271848201e-01 5.455099492339274825e-01
-4.276405734903317851e-02 1.520862109600151224e-01 -8.591530402211268180e-01 8.563760160722203585e-01 -2.852069395683759501e-01 4.304382890941660933e-01
9.639512685779368095e-02 5.322918060723348666e-02 -1.030496799496941840e+00 6.041598491673246807e-01 -4.832791387701200203e-01 6.335867349335262411e-01
-1.320424575028098513e-01 -3.331029901547767971e-03 -7.781170150487831672e-01 9.308269111443245869e-01 2.631957452589094304e-01 2.535532708665436119e-01
3.050929538231030372e-02 1.360256524521810395e-01 -9.313041482668096283e-01 3.901583807840986462e-01 -3.759906648024331499e-01 8.404804922693653868e-01
-1.261216003653935769e-01 -1.376601603359129955e-01 -7.781868148836337262e-01 9.773137154826266881e-01 -2.075173066169361258e-01 -4.236117307152548889e-02
-5.310410025021576608e-02 -4.521854996641781754e-02 -9.431586349895734189e-01 6.162041534479562044e-01 -5.069416346108263083e-01 6.027459003357810152e-01
2.434166498404184698e-02 1.460181937439920252e-01 -9.239708966452341299e-01 3.901583807840986462e-01 -3.759906648024331499e-01 8.404804922693653868e-01
-3.021916093357506286e-02 2.069281745677086781e-01 -8.386499172654734435e-01 8.987178006496799876e-01 -3.640709844398029582e-01 2.444557896316533196e-01
2.715397944080190362e-02 1.801595275735924997e-02 -9.931017535760030546e-01 4.500302150956252967e-01 -2.577588342363796303e-01 8.550047888018452724e-01
6.436246990050284444e-02 2.396661084008106651e-02 -1.022214226775397083e+00 6.106251074636169784e-01 -4.803783095651262269e-01 6.295821295386313521e-01
-1.266332482497898870e-01 -1.383499593431228858e-01 -7.866118710602481023e-01 9.773137154826266881e-01 -2.075173066169361258e-01 -4.236117307152548889e-02
6.797053357795935190e-03 1.830586912993016069e-01 -8.951135550198960900e-01 4.136949629432525311e-01 -4.675147751795706297e-01 7.812083029667418188e-01
2.295890101318862619e-01 -8.130829098795418902e-03 -1.131992842440620484e+00 5.058807109259879642e-01 -3.749161907026071217e-01 7.768671419631952846e-01
-1.324402928099026600e-01 -1.781609019931462146e-01 -8.033785995507127797e-01 9.811537384608089996e-01 1.587928221988470501e-01 1.101007771203454111e-01
-1.165757420657588805e-01 -1.657990742869088208e-01 -8.689918385182917593e-01 9.148946247530513887e-01 -4.058968881083132446e-02 4.016469877394990284e-01
-3.921562590918874908e-02 1.328508718832581981e-01 -8.789752798820609225e-01 8.561218312922527218e-01 -2.865407244308507684e-01 4.300579300831955387e-01
-1.250704560479588001e-01 -1.807330508044564799e-01 -8.511512896773744119e-01 9.148946247530513887e-01 -4.058968881083132446e-02 4.016469877394990284e-01
1.965054324198534375e-01 -3.205259930891368736e-02 -1.120270044179183744e+00 6.430512171048178294e-01 -3.087258601666533209e-01 7.008376955075777959e-01
-1.286937250431094693e-01 -1.451866911257816140e-01 -8.194152955782575409e-01 9.209882966077442834e-01 -3.803137738233447473e-01 8.451030086215283177e-02
-1.259413761747183724e-01 -1.247781488891150717e-02 -8.053932553337084244e-01 9.518211933584912465e-01 2.867756100309147294e-01 1.086101531396325426e-01
1.849651673636207028e-01 3.138224461018857686e-02 -1.046302613815315308e+00 7.261538807670421258e-01 -5.230186345014224969e-01 4.462645509238123420e-01
-1.297583382827432463e-01 -1.788440892869366805e-01 -7.536560702818205781e-01 9.651954766423684884e-01 -1.555722304124825817e-01 -2.102260045607972361e-01
1.873286570290559616e-01 -3.756804599785209392e-02 -1.114279533697490221e+00 6.430512171048178294e-01 -3.087258601666533209e-01 7.008376955075777959e-01
1.341380895914305038e-01 -1.053910523153144332e-02 -1.053403789235133781e+00 5.886799395693826514e-02 -3.783288878580427506e-01 9.237974950710691191e-01
7.345869030773832797e-02 6.709398676162180164e-02 -9.980500254555287887e-01 6.041598491673246807e-01 -4.832791387701200203e-01 6.335867349335262411e-01
-5.715672200300764977e-02 -4.114149614368114299e-02 -9.355865043733786468e-01 6.162041534479562044e-01 -5.069416346108263083e-01 6.027459003357810152e-01
-1.167137149370883892e-01 -1.197849004706694059e-01 -8.229686058465807141e-01 8.952667595079240037e-01 -4.154142405948472727e-01 1.610230978188767759e-01
-3.463562816837452429e-02 4.173669944030262285e-02 -9.443867027964881755e-01 8.779781420876276998e-01 -1.762206030156144299e-01 4.450850268085535522e-01
-6.841920544260456094e-02 9.836773617836639533e-03 -8.873384928382774817e-01 5.743768514123407387e-01 -4.444626419506746973e-01 6.874184987850356920e-01
4.944776036400646939e-03 1.028080344390885567e-02 -9.837439001226697677e-01 4.500302150956252967e-01 -2.577588342363796303e-01 8.550047888018452724e-01
1.158865312681357090e-01 -1.000088705214007279e-01 -1.087355301192186818e+00 5.282762129020296404e-01 -3.246890555097203812e-01 7.845388837489798428e-01
-1.297330896487976226e-01 4.267538839769059039e-02 -7.824239834847154240e-01 8.520591215212249825e-01 -4.503296971045596675e-01 2.668303156281043309e-01
-6.234042662375293559e-02 1.154304602100933580e-01 -8.445473846623529068e-01 8.561218312922527218e-01 -2.865407244308507684e-01 4.300579300831955387e-01
1.497165824719752236e-01 -3.966109115804582197e-02 -1.086844554716342781e+00 4.907244055820493833e-01 -6.189483240051263380e-01 6.132638339062471688e-01
1.522212148458730874e-01 1.299252172913875902e-01 -1.008076117653882831e+00 4.871433542882102619e-01 -6.370952632404063287e-01 5.973281995096739738e-01
7.116179446616954785e-02 -7.800489476136528155e-02 -1.057157697308821254e+00 4.682438466565190249e-01 -3.293115605588747830e-01 8.199399954573413085e-01
2.143126208355723705e-01 1.885956085285691308e-01 -9.581950349334068529e-01 -2.564176402882314965e-01 -6.568596975740262911e-01 7.090735726650470028e-01
-6.141109122101563039e-02 7.702433672835062861e-02 -8.735987291218594297e-01 8.666035445530636538e-01 -3.274226882934453409e-01 3.765536877508432467e-01
4.443413587506917645e-02 6.376162568787098472e-02 -9.765501675991645758e-01 4.132576818726797496e-01 -4.798318536768031439e-01 7.739376464356169105e-01
-1.325606590532824314e-01 -1.606365540382795054e-01 -8.141863144964277543e-01 9.773137154826266881e-01 -2.075173066169361258e-01 -4.236117307152548889e-02
-1.048337997859908749e-01 3.705812551992387904e-02 -8.224574934563707584e-01 7.897066997531743127e-01 -2.895125756562805242e-01 5.408750289131641908e-01
-9.304476561033715037e-03 -1.731712764293914450e-02 -9.845637976742248609e-01 4.500302150956252967e-01 -2.577588342363796303e-01 8.550047888018452724e-01
-9.296442624015070766e-02 -8.990855546373283103e-02 -9.093140096015459584e-01 8.743992394933055579e-01 -2.232449452168120893e-02 4.846932915957061772e-01
8.518867975095140155e-02 -1.414473515072319984e-02 -1.048487470431651580e+00 4.417725853361468835e-01 -2.062173635598044397e-01 8.731044506883813838e-01
1.498633202866376801e-01 -1.578189657217610523e-02 -1.062861435498378082e+00 4.907244055820493833e-01 -6.189483240051263380e-01 6.132638339062471688e-01
-3.765392833658010030e-02 2.292990528404847614e-03 -9.503883653606524096e-01 9.117810704210452810e-01 -1.454961367952127549e-01 3.840392607527536306e-01
1.378572422322835167e-01 -3.006222981465955096e-02 -1.067667055277557342e+00 4.907244055820493833e-01 -6.189483240051263380e-01 6.132638339062471688e-01
6.418131439654552184e-02 4.403011263999116048e-02 -1.006729846389928573e+00 6.106251074636169784e-01 -4.803783095651262269e-01 6.295821295386313521e-01
1.463510844018305612e-01 -5.971960464655326484e-02 -1.091194773187178946e+00 5.282762129020296404e-01 -3.246890555097203812e-01 7.845388837489798428e-01
1.390578192620282039e-01 -2.472052868085291080e-02 -1.063236524134831607e+00 4.907244055820493833e-01 -6.189483240051263380e-01 6.132638339062471688e-01
-1.070329650461241400e-01 -1.263639338621233010e-01 -9.010682323614256362e-01 8.082115444934495629e-01 -2.321203360281056949e-01 5.412155291099030041e-01
-1.076139904048612483e-01 -1.225598072117733556e-01 -8.982938221307474880e-01 9.807938669638354146e-01 -1.874995568817264258e-01 5.373366445053151530e-02
1.721057207921190043e-04 -1.871931175727760757e-02 -9.899744968491862585e-01 4.500302150956252967e-01 -2.577588342363796303e-01 8.550047888018452724e-01
-1.163593087562147937e-01 -1.246551195872538792e-01 -8.375034550741073947e-01 8.952667595079240037e-01 -4.154142405948472727e-01 1.610230978188767759e-01
1.310041847258950065e-01 -7.819576216947210501e-02 -1.088507339907963889e+00 5.282762129020296404e-01 -3.246890555097203812e-01 7.845388837489798428e-01
3.841075312238212500e-03 -4.891728029596824345e-02 -1.001009452986074244e+00 4.500302150956252967e-01 -2.577588342363796303e-01 8.550047888018452724e-01
6.922297210116544475e-02 4.497914733523175612e-02 -1.010879507562788771e+00 6.041598491673246807e-01 -4.832791387701200203e-01 6.335867349335262411e-01
-1.358078088190345922e-01 -4.785074756206148319e-03 -7.559632896417355363e-01 9.896477143429254220e-01 1.402473848406615708e-01 -3.046428304062327383e-02
-1.086445589990170379e-01 4.230176865406994752e-02 -8.140636167612594898e-01 7.890837606354491607e-01 -3.000721911735089176e-01 5.360069950903123548e-01
-4.775108466594206458e-02 1.637122406065500899e-02 -9.242622104939925975e-01 9.007861066000046879e-01 -7.316763122452382695e-02 4.280547720764216746e-01
-1.352233898586740479e-01 -9.107795297895701289e-03 -7.568785044522154948e-01 9.896477143429254220e-01 1.402473848406615708e-01 -3.046428304062327383e-02
-1.302250750157521453e-01 -1.830427237389668504e-01 -7.532637438499013571e-01 9.802687927932507428e-01 3.818540723671379200e-02 -1.939457876568329020e-01
1.441512167847922021e-01 1.480621189229423262e-01 -9.986546323599279074e-01 4.872486591975220271e-01 -8.863604148826308149e-02 8.687533575529410301e-01
-1.038027125772822551e-01 -8.631552615017727692e-02 -8.556924237066820815e-01 9.672442275121002631e-01 2.524259056154691816e-01 2.682846471064940716e-02
2.610740139648601993e-02 -1.270655295131664642e-01 -1.043348779770299162e+00 6.593129412500328135e-01 -3.216691713497384919e-01 6.795847185623019593e-01
1.708039102214853333e-02 -1.120955518042209276e-01 -1.029027987444992576e+00 6.615877481700049856e-01 -2.101008427543173129e-01 7.198328190248535208e-01
-6.001947566370157555e-02 -1.035489929673728132e-02 -9.074122247156199972e-01 5.743768514123407387e-01 -4.444626419506746973e-01 6.874184987850356920e-01
-9.894020005684951713e-02 5.851730254157163497e-02 -8.192719839832216522e-01 7.890837606354491607e-01 -3.000721911735089176e-01 5.360069950903123548e-01
1.231539245312311404e-01 1.560181978542983516e-01 -9.860663669512348406e-01 4.872486591975220271e-01 -8.863604148826308149e-02 8.687533575529410301e-01
3.747825518989513632e-02 -1.121974339245584290e-01 -1.047805100941807011e+00 6.615877481700049856e-01 -2.101008427543173129e-01 7.198328190248535208e-01
-4.978719794896141471e-02 -8.453853328731468497e-02 -9.702072499979711440e-01 7.370554810508592736e-01 -2.463888624984719999e-01 6.293184776324269869e-01
-3.795636003630878386e-02 -1.124568694274732106e-01 -9.848192841773700801e-01 6.235624924867709806e-01 -8.767806827381115220e-02 7.768412799970524363e-01
-1.076135532021767066e-01 -1.881731463873866916e-01 -8.916675097403290451e-01 9.148946247530513887e-01 -4.058968881083132446e-02 4.016469877394990284e-01
-1.088748865946045780e-01 -1.270389058500251966e-01 -8.909083172720213550e-01 9.807938669638354146e-01 -1.874995568817264258e-01 5.373366445053151530e-02
2.120578568677738973e-02 -4.094806467358913515e-02 -1.013254322772202620e+00 6.949897575354404555e-01 -3.654215637713610354e-01 6.192384981989758064e-01
-2.338931359341969718e-02 4.866784715740719858e-02 -9.535184665236433599e-01 3.105136124646014073e-01 -3.634625139269269112e-01 8.783372344629948314e-01
-6.568607960237322907e-02 -4.726369543152524055e-02 -9.320157992663342661e-01 6.162041534479562044e-01 -5.069416346108263083e-01 6.027459003357810152e-01
-1.291286841333050828e-01 5.915555508978106308e-02 -7.565404206449720670e-01 8.520591215212249825e-01 -4.503296971045596675e-01 2.668303156281043309e-01
-5.410913947903746996e-02 -1.335693280725522292e-01 -9.740516624352156816e-01 6.249755169513573350e-01 -7.386919508183412142e-02 7.771415220082796838e-01
-1.212342038797190880e-01 -5.403164323045532569e-02 -7.651667882024970613e-01 9.308269111443245869e-01 2.631957452589094304e-01 2.535532708665436119e-01
1.856083216977256201e-01 -2.567718979875684149e-02 -1.107224289568538245e+00 6.328907380889244871e-01 -5.106094699473301413e-01 5.820028203036157199e-01
-1.002942110557367289e-01 -8.068438684927474458e-02 -8.956660320355260829e-01 8.743992394933055579e-01 -2.232449452168120893e-02 4.846932915957061772e-01
-1.069340855306010890e-01 -8.002991519494168093e-02 -8.019378987602411302e-01 9.672442275121002631e-01 2.524259056154691816e-01 2.682846471064940716e-02
-1.351188005051192076e-01 -1.849565376932693350e-01 -7.800210366073486723e-01 9.773718405923282893e-01 -1.118223046546894806e-01 1.795551653361118494e-01
1.611555075546103055e-01 7.155146356425291787e-02 -1.031185402417499786e+00 -1.211758093418170423e-01 -2.464350110440350905e-01 9.615540590950057975e-01
-8.724870050550428968e-02 3.278329045099388772e-02 -8.536387727947197801e-01 8.270440640560108303e-01 -3.508876864633982962e-01 4.391764424443564407e-01
-3.760702194536381243e-02 -2.116286611793573302e-02 -9.593861560555010382e-01 9.117810704210452810e-01 -1.454961367952127549e-01 3.840392607527536306e-01
-1.389226396671512653e-01 2.343686987999783755e-02 -7.196003099754387788e-01 9.904842345279716298e-01 1.370013123015360601e-01 -1.310044194656029976e-02
-7.364819548851488096e-02 4.353647329391351073e-02 -8.651217074100649995e-01 9.007861066000046879e-01 -7.316763122452382695e-02 4.280547720764216746e-01
-1.818959768204539418e-02 1.823064167647505673e-01 -8.823318779970210635e-01 4.136949629432525311e-01 -4.675147751795706297e-01 7.812083029667418188e-01
-3.242311908463208631e-02 1.047930879405898213e-01 -9.161662586714257595e-01 8.666035445530636538e-01 -3.274226882934453409e-01 3.765536877508432467e-01
9.228879689503781403e-02 2.351117895790051301e-02 -1.039747921062942337e+00 3.556631826029771348e-01 -2.909336158295635077e-01 8.881786597982735953e-01
-4.894187095798781251e-02 -8.090873550991183050e-02 -9.697761664319569652e-01 7.370554810508592736e-01 -2.463888624984719999e-01 6.293184776324269869e-01
-1.267409634539435614e-01 -1.454880301011244881e-01 -7.711347110614193978e-01 9.644708093722824671e-01 -2.030798224629026261e-01 -1.689811929689525316e-01
-1.049275500581753479e-01 -6.812183284547054796e-02 -8.812932058164815174e-01 9.353718021753192335e-01 -5.721400169809499198e-02 3.490073777228581142e-01
-4.740330993317225239e-02 -8.167727044292608096e-02 -9.718790178994458628e-01 7.370554810508592736e-01 -2.463888624984719999e-01 6.293184776324269869e-01
9.108558176287941122e-02 -4.626525610867672500e-02 -1.058725213320704572e+00 4.316873165439117366e-01 -1.978334129947325049e-01 8.800613623139992292e-01
-6.428108357106696036e-02 9.708307588592131332e-02 -8.529086629099587036e-01 8.561218312922527218e-01 -2.865407244308507684e-01 4.300579300831955387e-01
-1.165111183590896854e-01 -1.144114619799274923e-01 -8.102323902606076711e-01 8.952667595079240037e-01 -4.154142405948472727e-01 1.610230978188767759e-01
1.237613850280917527e-01 1.886689269901379445e-02 -1.044461326177564819e+00 -5.911581007385208197e-02 -1.801186896856393216e-01 9.818668843714207783e-01
1.487815661537264245e-01 8.161452909358528351e-02 -1.030165730885167719e+00 -1.211758093418170423e-01 -2.464350110440350905e-01 9.615540590950057975e-01
1.548741368105525061e-02 -8.979748389869331160e-02 -1.024467055639773916e+00 5.992993078221942049e-01 -8.086020757758279054e-02 7.964307669059184080e-01
2.208319954840721466e-01 1.664904192318034937e-01 -9.693156353602117026e-01 -5.069697288378592903e-01 -4.051815656599383475e-01 7.607953686054013120e-01
-8.067663027574499546e-02 -1.009727559437352679e-01 -9.319911176199833225e-01 8.743992394933055579e-01 -2.232449452168120893e-02 4.846932915957061772e-01
-1.156294393864117781e-01 -4.443917498783946096e-02 -8.233142246618490034e-01 9.672442275121002631e-01 2.524259056154691816e-01 2.682846471064940716e-02
-1.070299118438812341e-01 -1.329131644403217238e-01 -9.038816720244406966e-01 8.082115444934495629e-01 -2.321203360281056949e-01 5.412155291099030041e-01
2.849284082679942251e-02 -1.180610360244470532e-02 -1.005038686669854187e+00 6.853830365841659944e-01 -3.482274806453448113e-01 6.395214733580599775e-01
2.113305480465439701e-01 1.877814347072832291e-01 -9.600276431250631681e-01 -2.564176402882314965e-01 -6.568596975740262911e-01 7.090735726650470028e-01
-4.315800128202656322e-02 -4.783476798330274504e-02 -9.563119412037137668e-01 9.117810704210452810e-01 -1.454961367952127549e-01 3.840392607527536306e-01
-8.656204549414044103e-02 -7.955024823210844753e-02 -9.203869767237901067e-01 8.743992394933055579e-01 -2.232449452168120893e-02 4.846932915957061772e-01
-6.986949126421015954e-02 -1.922235236123581437e-01 -9.690311035285265051e-01 7.987890857997176353e-01 -2.536826594271848201e-01 5.455099492339274825e-01
-6.478065848554372119e-02 -1.197101327486639749e-01 -9.615308871163891213e-01 8.743992394933055579e-01 -2.232449452168120893e-02 4.846932915957061772e-01
-6.191287160975852966e-02 -1.184491032308035291e-01 -9.655509095856468216e-01 7.674019337634397919e-01 -1.843357229120295149e-01 6.140965830507710832e-01
4.074551324842694278e-02 -4.435318650477650115e-02 -1.031955956288847176e+00 5.099974252289145582e-01 -2.208708415438425110e-01 8.313354904102149279e-01
1.326008007603443617e-01 1.587469656162110998e-01 -9.877940942028585747e-01 3.809080401308911207e-02 -7.401660353987410401e-01 6.713444203177281189e-01
1.229514191618126182e-02 4.873799647550752095e-02 -9.687034498238793478e-01 4.132576818726797496e-01 -4.798318536768031439e-01 7.739376464356169105e-01
-5.625704746062260009e-02 5.894634700444022907e-02 -8.949223832061238282e-01 8.779781420876276998e-01 -1.762206030156144299e-01 4.450850268085535522e-01
1.049970081481202272e-01 -8.871537528073872303e-02 -1.076442718964071954e+00 4.553475739501641750e-01 -2.318076322390248134e-01 8.596067755278786748e-01
-1.418970362617143766e-01 4.421396238500863857e-02 -7.272034118828256677e-01 9.904842345279716298e-01 1.370013123015360601e-01 -1.310044194656029976e-02
1.632727267504808233e-01 1.640377464651072703e-01 -9.837012055449080306e-01 3.809080401308911207e-02 -7.401660353987410401e-01 6.713444203177281189e-01
-3.658302694069328481e-02 1.352467346497118750e-01 -8.826197033134035586e-01 8.561218312922527218e-01 -2.865407244308507684e-01 4.300579300831955387e-01
-8.974956027667069236e-02 -2.018780445356292141e-01 -9.444104753848071576e-01 7.987890857997176353e-01 -2.536826594271848201e-01 5.455099492339274825e-01
-3.813667628015982719e-02 7.502207144240037595e-02 -9.243019740280264962e-01 8.779781420876276998e-01 -1.762206030156144299e-01 4.450850268085535522e-01
-9.186272520938168137e-03 1.422887837578836745e-01 -9.100752945754686518e-01 3.901583807840986462e-01 -3.759906648024331499e-01 8.404804922693653868e-01
1.573555762146273684e-01 7.762968578199024028e-02 -1.030106495834996361e+00 -1.211758093418170423e-01 -2.464350110440350905e-01 9.615540590950057975e-01
-4.728835222491063056e-02 2.769666357751722832e-03 -9.275608928219337690e-01 9.007861066000046879e-01 -7.316763122452382695e-02 4.280547720764216746e-01
8.796128724956563116e-02 -1.313420962112597790e-02 -1.049651677155670093e+00 4.417725853361468835e-01 -2.062173635598044397e-01 8.731044506883813838e-01
1.405869101788141950e-01 -1.227306763876585480e-02 -1.054524854410142209e+00 5.886799395693826514e-02 -3.783288878580427506e-01 9.237974950710691191e-01
-7.027654362029034374e-02 1.483453035769509779e-02 -8.825551938366604787e-01 5.743768514123407387e-01 -4.444626419506746973e-01 6.874184987850356920e-01
-1.063096678415513807e-01 -1.058342089067850073e-01 -8.637387490845082061e-01 9.807938669638354146e-01 -1.874995568817264258e-01 5.373366445053151530e-02
-3.131728371805413136e-02 1.801736198197165517e-01 -8.633162815569950244e-01 8.563760160722203585e-01 -2.852069395683759501e-01 4.304382890941660933e-01
-1.315219822928302140e-01 4.692509753603884420e-02 -7.695393436126225506e-01 8.520591215212249825e-01 -4.503296971045596675e-01 2.668303156281043309e-01
-4.977367005560565799e-02 1.051415401808409728e-01 -8.764195309163880232e-01 8.561218312922527218e-01 -2.865407244308507684e-01 4.300579300831955387e-01
-6.590179382095474880e-02 5.841797098496564339e-02 -8.761062801131248579e-01 8.779781420876276998e-01 -1.762206030156144299e-01 4.450850268085535522e-01
-1.784709203629495852e-02 2.053431490280754890e-01 -8.687269024685080332e-01 4.136949629432525311e-01 -4.675147751795706297e-01 7.812083029667418188e-01
9.439729769423554906e-02 2.776379529064576523e-02 -1.039199255615645301e+00 3.556631826029771348e-01 -2.909336158295635077e-01 8.881786597982735953e-01
-1.314372474089222087e-01 2.723852947357812901e-02 -7.888711318941026285e-01 7.897066997531743127e-01 -2.895125756562805242e-01 5.408750289131641908e-01
-9.056688196834761229e-02 -1.057211556420893372e-01 -9.168040517549781443e-01 8.082115444934495629e-01 -2.321203360281056949e-01 5.412155291099030041e-01
1.079198027851467345e-01 7.699706217977826672e-02 -1.023356853823564672e+00 6.041598491673246807e-01 -4.832791387701200203e-01 6.335867349335262411e-01
-1.298907276093375363e-01 -1.985042368008342883e-01 -8.169161387531227447e-01 9.773718405923282893e-01 -1.118223046546894806e-01 1.795551653361118494e-01
-8.395000648814417155e-02 -1.765842759033575959e-01 -9.424262642829743797e-01 8.029511307960421895e-01 -9.208413362790225654e-02 5.888887788770948983e-01
4.662647592060410739e-02 1.263956814528963968e-01 -9.430938713488048464e-01 3.901583807840986462e-01 -3.759906648024331499e-01 8.404804922693653868e-01
1.678867440870664418e-01 5.730152759098864138e-03 -1.055572055787177055e+00 4.907244055820493833e-01 -6.189483240051263380e-01 6.132638339062471688e-01
6.881544710291614964e-02 8.607455437010098909e-02 -9.791440569460342358e-01 6.106251074636169784e-01 -4.803783095651262269e-01 6.295821295386313521e-01
1.669811955299770403e-02 -4.055557493198859442e-02 -1.008052587170410908e+00 6.853830365841659944e-01 -3.482274806453448113e-01 6.395214733580599775e-01
-3.881539270515774187e-02 1.673387435950104418e-01 -8.569028071877113906e-01 8.563760160722203585e-01 -2.852069395683759501e-01 4.304382890941660933e-01
-1.007844733260132714e-01 -1.279495883582066340e-01 -9.110793379319396257e-01 8.082115444934495629e-01 -2.321203360281056949e-01 5.412155291099030041e-01
7.538597449856568843e-03 1.071940562175460743e-01 -9.382213233087409732e-01 3.200290330420948459e-01 -5.090924414207610438e-01 7.990033192036132270e-01
2.201210205720878776e-01 1.437305440916177013e-01 -9.842535938602742229e-01 -5.716909123759277289e-01 -4.871708883060636430e-01 6.601772688406197798e-01
6.976176380958575007e-02 9.540245895423089817e-02 -9.729320301769213142e-01 6.041598491673246807e-01 -4.832791387701200203e-01 6.335867349335262411e-01
1.647590195778618205e-01 -7.950976349483540595e-02 -1.112046577291872618e+00 6.430512171048178294e-01 -3.087258601666533209e-01 7.008376955075777959e-01
-6.391779943775037498e-02 8.713733920301983127e-02 -8.602585426598795548e-01 8.561218312922527218e-01 -2.865407244308507684e-01 4.300579300831955387e-01
-1.072483194298301350e-03 2.429837834522807077e-02 -9.763508395058738687e-01 4.500302150956252967e-01 -2.577588342363796303e-01 8.550047888018452724e-01
1.642111934047590580e-02 1.278110433442513627e-01 -9.286427805974631911e-01 3.200290330420948459e-01 -5.090924414207610438e-01 7.990033192036132270e-01
-1.347361149027425375e-01 -8.435186331514105129e-03 -7.363804118234797969e-01 9.904842345279716298e-01 1.370013123015360601e-01 -1.310044194656029976e-02
1.461588798904831232e-01 9.493260821398727400e-02 -1.027082976653634239e+00 -1.211758093418170423e-01 -2.464350110440350905e-01 9.615540590950057975e-01
-1.145744075057569533e-01 -1.397247106761544122e-01 -8.863044383072613552e-01 8.952667595079240037e-01 -4.154142405948472727e-01 1.610230978188767759e-01
1.482838577379190781e-01 1.548300816549000036e-01 -9.930023369715476056e-01 3.809080401308911207e-02 -7.401660353987410401e-01 6.713444203177281189e-01
1.396749452484098153e-01 1.507185964470905137e-01 -9.958730408583352789e-01 4.872486591975220271e-01 -8.863604148826308149e-02 8.687533575529410301e-01
7.669458711552622210e-02 -2.762766581845116365e-02 -1.047374152491843180e+00 4.417725853361468835e-01 -2.062173635598044397e-01 8.731044506883813838e-01
-9.775482806787571047e-04 -5.801802066448664931e-04 -9.839009631004501655e-01 4.500302150956252967e-01 -2.577588342363796303e-01 8.550047888018452724e-01
-9.164461911121010718e-02 -1.589041055400297955e-02 -8.842492123563439055e-01 8.270440640560108303e-01 -3.508876864633982962e-01 4.391764424443564407e-01
-1.024267467740624660e-01 -8.836882267706061556e-02 -8.859807668484419585e-01 9.672442275121002631e-01 2.524259056154691816e-01 2.682846471064940716e-02
-7.178848014014267698e-02 5.402929697354917626e-02 -8.662317463226789638e-01 8.779781420876276998e-01 -1.762206030156144299e-01 4.450850268085535522e-01
-1.401822905142968423e-01 3.226263584545435714e-02 -7.225408814409517433e-01 9.904842345279716298e-01 1.370013123015360601e-01 -1.310044194656029976e-02
-5.056239750513862735e-02 1.017061125147735307e-01 -8.771383716168030809e-01 8.561218312922527218e-01 -2.865407244308507684e-01 4.300579300831955387e-01
-1.043516538760264345e-01 -9.270905794218953222e-02 -8.536789121726101603e-01 9.807938669638354146e-01 -1.874995568817264258e-01 5.373366445053151530e-02
-1.059723536497717000e-01 -8.688252731981756238e-02 -8.037652437943676453e-01 9.807938669638354146e-01 -1.874995568817264258e-01 5.373366445053151530e-02
-4.347132796218627915e-02 1.624548496939723918e-01 -8.508756694549782784e-01 8.563760160722203585e-01 -2.852069395683759501e-01 4.304382890941660933e-01
5.373052341338123428e-02 1.186759528479811553e-02 -1.019195595207949223e+00 6.853830365841659944e-01 -3.482274806453448113e-01 6.395214733580599775e-01
1.008699636564443641e-01 -4.321831379162335840e-02 -1.062839706606004908e+00 4.316873165439117366e-01 -1.978334129947325049e-01 8.800613623139992292e-01
6.384013567595719918e-02 -1.108123006369935715e-01 -1.063752147603168163e+00 3.682378243972660448e-01 -2.036276914938596749e-01 9.071585682448521926e-01
