-9.577192848783984414e-02 -4.195216721085378436e-02 -9.394754618803425883e-01 8.596778773674392804e-01 3.790676470476613824e-01 -3.424349078682891179e-01
-3.260314530751130119e-02 -5.502980075396223664e-02 -8.237264185136496941e-01 8.668752061756656024e-01 3.544642566520631588e-01 -3.505459565791591015e-01
2.146941036784455817e-02 7.108096056878772384e-02 -6.903098286696587316e-01 4.511279594688668015e-01 3.191053885199674478e-01 -8.334598461851517870e-01
-1.040847370164135755e-01 1.437901882098329975e-01 -8.508597003795692615e-01 8.052323345822868239e-01 5.097378472552054340e-01 -3.029326895843185152e-01
-4.732268459779992442e-02 1.222446215129735225e-01 -7.479633670820914348e-01 9.066874486103293496e-01 2.273161302538882211e-01 -3.553100722733438244e-01
1.339033909132597566e-01 -1.351204725531585382e-01 -7.388712302032420798e-01 2.936059966835604662e-01 1.807804985315743518e-01 -9.386766909123335223e-01
6.542572732263726709e-02 -7.747123062005742411e-02 -7.273682187473238248e-01 4.171122637403825162e-01 6.024498861779749026e-01 -6.804935665247090482e-01
-1.237433719355373052e-01 1.799632202368740830e-01 -8.879323144918248589e-01 9.228001306286233163e-01 -2.954258682538227765e-01 -2.473125053010278573e-01
-1.194374773885280572e-01 1.000705847086983957e-01 -9.062366441759478475e-01 9.775152767573291879e-01 1.232934104669618641e-01 1.710632007226209339e-01
-1.170288107883690060e-01 7.267564033240032917e-02 -8.906056214771594925e-01 9.651914161509927981e-01 2.133867986392694871e-01 1.512336085495713522e-01
-6.885404679725029564e-02 -2.285713433586738022e-02 -8.529443273345382881e-01 6.922181982727266814e-01 2.995456602776946919e-01 -6.565869046736008130e-01
-1.811783978638908249e-02 1.577599938333001939e-01 -6.745093059972601113e-01 4.819136687370026428e-01 3.679074807185445661e-01 -7.952378898894193471e-01
7.587987063502212200e-03 1.381437153676005371e-02 -7.282664019720488380e-01 4.474905210130999955e-01 4.690503025614570221e-01 -7.614092508437430018e-01
1.321797021373171364e-02 1.092917855522244908e-01 -6.779364504385260171e-01 4.821531888746156680e-01 3.665963284874579897e-01 -7.956980799257685755e-01
2.435407941679201826e-02 -4.297108137757025409e-02 -7.578460035847580656e-01 7.409192928304907388e-01 1.441916042383456220e-01 -6.559324529086343336e-01
-9.035185120872389619e-03 2.298382772716409395e-01 -6.644444957542867680e-01 7.937622815911492546e-01 -2.517110980548953880e-01 -5.536993439035411413e-01
9.544128820906806754e-02 -1.255409288809631319e-01 -7.449459100363066133e-01 9.584206215407195528e-02 3.584300899816931230e-01 -9.286238041950949373e-01
1.900323936688561588e-01 -1.629375460733607506e-01 -7.444551956711169538e-01 -2.348763138011233757e-03 6.499815730020277460e-01 -7.599463389408038783e-01
2.735996982697130875e-02 -8.094638095488507212e-02 -7.641701110989307377e-01 6.486572512294558335e-01 4.168095372527146902e-01 -6.367994818485835928e-01
-1.128051414330481367e-01 7.892130409170557137e-02 -9.263740703905372076e-01 9.651914161509927981e-01 2.133867986392694871e-01 1.512336085495713522e-01
-1.406695603696457297e-01 -1.021242587089219757e-02 -1.001042129486191090e+00 7.431887872808862205e-01 3.498573907749235601e-01 -5.703246729540357718e-01
-9.540452019874849643e-02 9.291243913314681246e-02 -8.445879198385657372e-01 7.589647956320173527e-01 1.686838608358259550e-01 -6.289023724591676912e-01
6.220223556388637665e-02 -1.687415315298537166e-01 -8.049013680109337043e-01 5.435467686678393529e-01 5.535737733524905835e-01 -6.309619542627240563e-01
1.116768662820956659e-01 -3.102535498641267181e-02 -6.758154590213090174e-01 3.076630190174795554e-01 5.524766156327971522e-01 -7.746696430788936327e-01
-2.698289466623165350e-02 6.959887438945790150e-02 -7.171031184602507658e-01 4.511279594688668015e-01 3.191053885199674478e-01 -8.334598461851517870e-01
1.751059799951608931e-01 -4.299707820954550008e-02 -6.924723409093104243e-01 8.383016619008588910e-02 7.623078168329350257e-01 -6.417626474265598624e-01
8.025327063739991218e-03 4.258010463785416762e-03 -7.351502017167825809e-01 3.870062485791478379e-01 5.538263726140097987e-01 -7.372262288862917456e-01
1.564373946891988443e-01 2.493826112876508863e-02 -6.228110750278621488e-01 -1.214500367339855780e-01 5.849593737303176999e-01 -8.019179631747552772e-01
-5.629163198167512483e-02 -2.687380521098525765e-02 -8.411860194128841783e-01 7.034410326385238665e-01 3.160923924234074756e-01 -6.365974497690780609e-01
-9.723054812857620521e-02 -1.765056842685319011e-02 -9.143745127215202606e-01 9.941012188630111712e-01 9.469890391697474707e-02 -5.286666484656304954e-02
-6.636264251043200169e-02 -1.275872293992686424e-01 -9.389729965239644871e-01 8.728670700748224487e-01 1.221342475919839909e-01 -4.724259767880411021e-01
-6.479582011092482885e-02 2.260512769406786832e-02 -8.269180888166240972e-01 7.538845766739572518e-01 1.725662176972586614e-01 -6.339392286038074698e-01
3.274448983146518999e-02 -3.350625596403312978e-02 -7.462878541478875638e-01 7.409192928304907388e-01 1.441916042383456220e-01 -6.559324529086343336e-01
9.309064986411307030e-02 -9.117090216388469212e-03 -6.790194205833516294e-01 5.190570970249028804e-01 3.057593487900090445e-01 -7.981797733941835560e-01
-7.714818303649245528e-03 1.289714729548886163e-01 -6.815237528844276804e-01 4.819136687370026428e-01 3.679074807185445661e-01 -7.952378898894193471e-01
-1.172443098208465623e-01 1.866630228671029845e-01 -8.716855001451550011e-01 9.228001306286233163e-01 -2.954258682538227765e-01 -2.473125053010278573e-01
-1.224015521893368763e-01 1.029461703487874746e-01 -8.913714503303766801e-01 9.775152767573291879e-01 1.232934104669618641e-01 1.710632007226209339e-01
1.180359852567523966e-02 4.992577837195378426e-02 -7.036413054743984041e-01 4.511279594688668015e-01 3.191053885199674478e-01 -8.334598461851517870e-01
-2.034146217872127849e-02 1.939899485894543141e-01 -6.643561338972159280e-01 7.937622815911492546e-01 -2.517110980548953880e-01 -5.536993439035411413e-01
-9.741998037902954710e-02 -2.487186755494139034e-02 -9.308719397085557512e-01 9.941012188630111712e-01 9.469890391697474707e-02 -5.286666484656304954e-02
7.436286535288523514e-02 -1.514554153331554853e-01 -7.792536069384811137e-01 5.141945872112552163e-01 5.952650135635056960e-01 -6.174653756364693047e-01
-4.392760836852525885e-02 -1.049808046130632083e-01 -8.849289092568569659e-01 7.172510217673173649e-01 4.431231910616794667e-01 -5.377665007389855756e-01
1.867736089400337529e-02 -1.327440940843696016e-01 -8.172642976833807138e-01 7.172825199588755973e-01 5.418424012569258430e-01 -4.380783020894482016e-01
-7.438784616372252911e-02 -3.117054814601071238e-03 -8.493863216980442887e-01 7.034410326385238665e-01 3.160923924234074756e-01 -6.365974497690780609e-01
1.999839846581683359e-02 -1.122292846189785753e-01 -7.933247185230317688e-01 6.071919506593632665e-01 4.741086376408232828e-01 -6.376040579927638730e-01
6.523926217963323115e-02 1.782481289507950248e-02 -6.868105497204014531e-01 5.190570970249028804e-01 3.057593487900090445e-01 -7.981797733941835560e-01
1.256081775318626248e-01 -1.565349392641010931e-02 -6.597237181686445018e-01 -5.777303083931784045e-02 7.345123358708164352e-01 -6.761315740011231146e-01
-1.107285511126300109e-01 7.427227839405138587e-02 -9.330674664644922345e-01 9.651914161509927981e-01 2.133867986392694871e-01 1.512336085495713522e-01
4.067882098856894310e-05 -8.842790433469724376e-02 -7.968950537243053578e-01 6.486572512294558335e-01 4.168095372527146902e-01 -6.367994818485835928e-01
9.066561487690967536e-02 -3.069814742093668336e-02 -6.888634956646977336e-01 5.190570970249028804e-01 3.057593487900090445e-01 -7.981797733941835560e-01
8.111916228355821323e-02 1.636692036767815536e-02 -6.770423109863509259e-01 5.190570970249028804e-01 3.057593487900090445e-01 -7.981797733941835560e-01
2.713601280630382195e-01 -1.288295191268162554e-01 -7.329297096443191384e-01 -3.507945765567580532e-01 4.395265290674482683e-01 -8.268975724382594539e-01
9.239312585905427866e-02 2.776200419171158396e-02 -6.621591819459288208e-01 5.856481852048878167e-01 3.747404001267327089e-01 -7.187390595195711773e-01
-1.203964535204885000e-01 1.727727801414765951e-01 -9.289461043718586497e-01 9.557245060936730985e-01 -2.412204836539549035e-01 1.685329247291367516e-01
6.339383394024486473e-02 -1.461042017664502257e-01 -7.832292571689631888e-01 5.141945872112552163e-01 5.952650135635056960e-01 -6.174653756364693047e-01
-4.702199895001835800e-02 -9.731302818379443387e-02 -8.827377821566324556e-01 7.172510217673173649e-01 4.431231910616794667e-01 -5.377665007389855756e-01
2.111909506452359139e-03 -2.067135296563552688e-02 -7.559745311606269613e-01 3.780553737875654852e-01 4.858216370226710601e-01 -7.880681895311826279e-01
1.510755853212878974e-01 -6.597605397694308871e-02 -7.135423711459457641e-01 -1.172842378184271034e-01 6.835183876257084901e-01 -7.204491802597198236e-01
-1.213762959442062361e-01 9.201487037295189020e-02 -8.761716277470247283e-01 7.589647956320173527e-01 1.686838608358259550e-01 -6.289023724591676912e-01
-4.148067104487378892e-03 -1.001696309595209861e-01 -8.119914054664224556e-01 6.724747903881997946e-01 5.923253530535090849e-01 -4.437660784944955084e-01
-1.127824396796134471e-01 8.712170495101376200e-02 -9.349329941803438127e-01 9.775152767573291879e-01 1.232934104669618641e-01 1.710632007226209339e-01
1.873204823286535869e-01 9.783981624077949663e-03 -6.385425968991554901e-01 -1.214500367339855780e-01 5.849593737303176999e-01 -8.019179631747552772e-01
-1.157064993042551115e-01 2.112961798810998604e-01 -9.004037352887499512e-01 9.557245060936730985e-01 -2.412204836539549035e-01 1.685329247291367516e-01
-1.962951767656747476e-02 -3.536918035969855573e-02 -7.758965465797947880e-01 5.569417097604006939e-01 4.845295895766774108e-01 -6.745717224682770130e-01
-4.228040414521431339e-02 1.317287759751575686e-02 -7.840832307575950066e-01 8.905662855786885546e-01 1.319813672564710827e-01 -4.352845157913270424e-01
9.230927668743947601e-02 -1.628204494160546134e-01 -7.749181488944949514e-01 2.181366879958891725e-01 7.235709144794477687e-01 -6.548751919790209985e-01
-7.591876038849279529e-02 -8.166718389097057940e-02 -9.289275659334528257e-01 8.934029205721487621e-01 3.765927826098240394e-01 -2.449675439713288883e-01
1.019786648399949591e-01 -3.070636577300272022e-02 -6.815097562816501142e-01 5.190570970249028804e-01 3.057593487900090445e-01 -7.981797733941835560e-01
1.644493312045795103e-02 7.183359750363445262e-02 -6.927412735386324627e-01 4.511279594688668015e-01 3.191053885199674478e-01 -8.334598461851517870e-01
2.390659622243387211e-02 -1.284954845045026828e-01 -8.034473250514947429e-01 7.172825199588755973e-01 5.418424012569258430e-01 -4.380783020894482016e-01
3.726891329908407768e-02 1.000389341497405216e-01 -6.676257839196130250e-01 4.821531888746156680e-01 3.665963284874579897e-01 -7.956980799257685755e-01
-1.162056246070871379e-01 1.882027194760703959e-01 -8.696490780775587570e-01 9.228001306286233163e-01 -2.954258682538227765e-01 -2.473125053010278573e-01
-1.165268581614936211e-01 3.705301275383120208e-02 -9.642014169360377807e-01 8.028699709381784677e-01 -6.873695903050362549e-04 -5.961537866094407390e-01
1.368014042887336426e-02 -1.742488278871487384e-02 -7.484236143740050640e-01 3.780553737875654852e-01 4.858216370226710601e-01 -7.880681895311826279e-01
-3.200099834822119071e-02 1.635923507119415310e-01 -6.948110972232096616e-01 8.918092401078231424e-01 1.446127416462224535e-01 -4.286763746835953182e-01
8.719965643238052067e-02 -1.695321352481751198e-01 -7.840607931304917066e-01 5.435467686678393529e-01 5.535737733524905835e-01 -6.309619542627240563e-01
-3.212375696389966478e-02 9.134550851543721348e-04 -7.670204776850713113e-01 8.905662855786885546e-01 1.319813672564710827e-01 -4.352845157913270424e-01
-1.034603281901696620e-01 3.770780683558476454e-02 -9.323566285833810863e-01 9.941012188630111712e-01 9.469890391697474707e-02 -5.286666484656304954e-02
1.168667134688536335e-01 3.361458256364822927e-02 -6.393640554140413990e-01 5.858224636700394283e-01 3.643211307564195311e-01 -7.239351868392149836e-01
1.536842117392215878e-01 -4.547593076819832214e-02 -6.945177670848401430e-01 -1.172842378184271034e-01 6.835183876257084901e-01 -7.204491802597198236e-01
7.150601652609594322e-04 -7.797888804346339575e-02 -7.919730999163716589e-01 3.780553737875654852e-01 4.858216370226710601e-01 -7.880681895311826279e-01
-1.471181942915723018e-01 2.656343421274476313e-02 -9.947297242013501961e-01 7.232200626986833303e-01 1.414777833754866931e-01 -6.759709888162886982e-01
-7.545510237094296691e-02 -2.190509331757084857e-02 -8.601731671889263353e-01 8.276135108510199734e-01 4.034912436376577594e-01 -3.901931482799064210e-01
-1.190388865522163525e-01 7.936534610933734801e-02 -8.783432940571892500e-01 9.142808434503256754e-01 2.950770553056074053e-01 -2.775249011024644719e-01
-1.339836433076650735e-01 -2.446284744795164043e-02 -1.001071440364768472e+00 7.431887872808862205e-01 3.498573907749235601e-01 -5.703246729540357718e-01
2.132695992310737823e-02 -1.124587144314983037e-02 -7.398145008292379421e-01 3.870062485791478379e-01 5.538263726140097987e-01 -7.372262288862917456e-01
-1.021138920430515323e-01 1.276197284984943552e-02 -8.934011464624972421e-01 9.142808434503256754e-01 2.950770553056074053e-01 -2.775249011024644719e-01
7.323912103076184871e-03 -1.475661104338119867e-01 -8.505312800997049116e-01 7.216826870341628286e-01 4.017610938977647095e-01 -5.637039317453996778e-01
1.582405710020044765e-01 -8.458717332327905791e-03 -6.536495260595400758e-01 8.383016619008588910e-02 7.623078168329350257e-01 -6.417626474265598624e-01
-9.885940148971833485e-02 -9.291127458372235720e-03 -9.300292777230354524e-01 9.941012188630111712e-01 9.469890391697474707e-02 -5.286666484656304954e-02
-1.055780301147293959e-01 2.696367414060541964e-02 -8.991874777305302047e-01 9.651914161509927981e-01 2.133867986392694871e-01 1.512336085495713522e-01
-9.399573342472264392e-02 5.590871739901415172e-02 -8.528129024557307147e-01 7.589647956320173527e-01 1.686838608358259550e-01 -6.289023724591676912e-01
-8.768322287309909813e-02 -4.042820579980321155e-02 -9.149222275236563728e-01 8.643117256201835463e-01 4.018098663197122722e-01 -3.025129291180718716e-01
-1.140430892092631626e-01 2.075233584856925606e-01 -8.846593526389555651e-01 9.228001306286233163e-01 -2.954258682538227765e-01 -2.473125053010278573e-01
1.351571574391909891e-01 4.186249614807716762e-02 -6.261880755172301027e-01 4.055402239562842515e-01 1.735580225770694540e-01 -8.974490178013589947e-01
-3.027239032156990584e-02 1.854999856103131395e-01 -6.853576755634050999e-01 9.199698023163914717e-01 -3.197082537328924112e-02 -3.906832849648040340e-01
3.205199130153223164e-02 -1.048398329878742208e-01 -7.763514147047078096e-01 6.071919506593632665e-01 4.741086376408232828e-01 -6.376040579927638730e-01
1.006807985301663017e-01 -1.312532647298120803e-01 -7.466099935666619114e-01 9.584206215407195528e-02 3.584300899816931230e-01 -9.286238041950949373e-01
1.103064027877793604e-02 -9.070472600697562782e-02 -7.871907160499737044e-01 6.486572512294558335e-01 4.168095372527146902e-01 -6.367994818485835928e-01
7.706178994425757177e-03 -5.459500219021932998e-02 -7.742037901874025962e-01 3.780553737875654852e-01 4.858216370226710601e-01 -7.880681895311826279e-01
-3.435310061513053778e-03 6.785076112761932515e-04 -7.438554824152636691e-01 3.870062485791478379e-01 5.538263726140097987e-01 -7.372262288862917456e-01
1.048872855296191925e-01 -6.335642478553339674e-02 -7.035378844232512696e-01 -1.172842378184271034e-01 6.835183876257084901e-01 -7.204491802597198236e-01
-1.730033720885668092e-02 -7.776979041899020895e-02 -8.044289202277387085e-01 5.569417097604006939e-01 4.845295895766774108e-01 -6.745717224682770130e-01
7.990324313342761497e-02 3.655650839820855785e-02 -6.677950888618139347e-01 5.858224636700394283e-01 3.643211307564195311e-01 -7.239351868392149836e-01
-8.920015576829138596e-04 1.799489891340547432e-01 -6.564881288201031007e-01 3.466523416580761796e-01 2.549400443162848084e-01 -9.026836255449542934e-01
-1.206064295610546483e-01 8.338036778456119069e-02 -8.828769200360957470e-01 9.651914161509927981e-01 2.133867986392694871e-01 1.512336085495713522e-01
3.642986541059580613e-02 -1.388449865053219823e-01 -7.986852975776532748e-01 5.141945872112552163e-01 5.952650135635056960e-01 -6.174653756364693047e-01
4.343048617711960796e-02 -1.039435541293672917e-02 -7.249836686000444841e-01 7.918299378695260460e-01 2.051834103976776791e-01 -5.752435289432820120e-01
-2.990108013938173187e-02 -1.224896037347838473e-01 -8.802011159574110177e-01 7.290356516199071324e-01 3.395193800951170626e-01 -5.943345936481946312e-01
-9.854488164672155215e-02 1.273113976629775268e-01 -8.469428982800087935e-01 7.964265732732626057e-01 -2.278043413594104186e-02 -6.043060195007052826e-01
-4.910108782569368169e-02 1.885561552832980270e-02 -7.963148981278054261e-01 8.905662855786885546e-01 1.319813672564710827e-01 -4.352845157913270424e-01
-1.058213059422340868e-01 3.319210895244753545e-02 -8.838926415196953768e-01 9.142808434503256754e-01 2.950770553056074053e-01 -2.775249011024644719e-01
-4.101797700345866104e-02 1.411638332176606558e-01 -7.211360242659778930e-01 8.918092401078231424e-01 1.446127416462224535e-01 -4.286763746835953182e-01
1.337746062273614533e-01 -1.429390510128722425e-01 -7.404172987078360135e-01 2.936059966835604662e-01 1.807804985315743518e-01 -9.386766909123335223e-01
2.092105382687746151e-01 -1.594960170096478558e-01 -7.404997071803819386e-01 1.768858733490649982e-01 4.646532371164452946e-01 -8.676455249966700256e-01
1.989062657817647628e-01 -1.133546124025220786e-01 -7.185324834377333492e-01 1.789449541671853453e-02 3.036920455436203925e-01 -9.526021879605948151e-01
-1.179147181050690385e-01 1.862333007118975314e-01 -8.736736802852859141e-01 9.228001306286233163e-01 -2.954258682538227765e-01 -2.473125053010278573e-01
2.443729079178518226e-01 -1.384249187865735919e-01 -7.288863803465815971e-01 -2.246750024697400649e-01 4.372242567310876682e-01 -8.708364327422057904e-01
2.090696657789710700e-01 -1.129106989976487452e-01 -7.182000446835073992e-01 1.789449541671853453e-02 3.036920455436203925e-01 -9.526021879605948151e-01
-1.048748176241723340e-01 2.429470099772252090e-01 -8.972694895787286518e-01 9.309867431997120857e-01 -3.610529523046976386e-01 5.389294590626202142e-02
-1.116785308113378977e-01 -5.939483463945371272e-02 -9.878241004883653309e-01 8.294578599400123098e-01 3.134940968169457332e-01 -4.622998051531738706e-01
1.623359312873209059e-01 -9.686193835582147804e-02 -7.226096553843150971e-01 2.936059966835604662e-01 1.807804985315743518e-01 -9.386766909123335223e-01
3.807011512991403251e-02 5.797330090562766158e-02 -6.863428502353756677e-01 4.511279594688668015e-01 3.191053885199674478e-01 -8.334598461851517870e-01
6.710564882297671840e-02 -1.373507544549057713e-01 -7.726277685599941547e-01 5.606286025146627328e-01 4.286425006449229858e-01 -7.084921853368062461e-01
2.438635835293475815e-02 1.001307031966587741e-01 -6.753896869732004538e-01 4.821531888746156680e-01 3.665963284874579897e-01 -7.956980799257685755e-01
-2.293502518365104006e-02 -1.257701195877360123e-01 -8.735302881990129054e-01 7.290356516199071324e-01 3.395193800951170626e-01 -5.943345936481946312e-01
-4.611449565723312743e-02 -4.921560170918786586e-02 -8.409959217989088076e-01 6.922181982727266814e-01 2.995456602776946919e-01 -6.565869046736008130e-01
-1.124720574409605045e-01 1.889674606847795424e-01 -9.324496516469876761e-01 8.245663391704414202e-01 -4.034692605101858898e-01 3.966143065125365963e-01
2.048991815631109326e-01 -1.640803164822016158e-01 -7.438337043055847086e-01 1.768858733490649982e-01 4.646532371164452946e-01 -8.676455249966700256e-01
5.208819053612971650e-02 -8.849494357273042164e-03 -7.125151939387911471e-01 7.918299378695260460e-01 2.051834103976776791e-01 -5.752435289432820120e-01
-1.680643111668783107e-01 3.809507595984544526e-02 -1.017740960946272200e+00 7.695577929929932059e-01 6.361839226878741871e-02 -6.354002702304178962e-01
-4.078191888140759308e-02 5.892880070368078371e-02 -7.555964219645103785e-01 9.381493002420467908e-01 2.125651734407225935e-01 -2.732982573956038719e-01
1.330712670445741985e-01 5.603953844508113152e-02 -6.243889460544401748e-01 4.055402239562842515e-01 1.735580225770694540e-01 -8.974490178013589947e-01
1.688964536876871037e-01 7.151252399527264873e-03 -6.376727332112577251e-01 -1.214500367339855780e-01 5.849593737303176999e-01 -8.019179631747552772e-01
-3.422096793470505438e-02 -1.250246678550777091e-01 -8.869482507452368658e-01 7.290356516199071324e-01 3.395193800951170626e-01 -5.943345936481946312e-01
-3.185000325198270726e-02 -9.408593627316870489e-02 -8.523216312668324690e-01 7.477216252721203826e-01 5.492509554977437203e-01 -3.731430811166602801e-01
-4.373995856251643166e-02 1.049759089764351894e-01 -7.461419181530302147e-01 9.289350020305960909e-01 7.304044832884609706e-02 -3.629667407770824084e-01
7.737857471798248454e-02 -1.633048662769894799e-01 -7.870577479165111745e-01 5.435467686678393529e-01 5.535737733524905835e-01 -6.309619542627240563e-01
3.691966350957865545e-02 -5.083042454738308930e-02 -7.453800364812009915e-01 7.409192928304907388e-01 1.441916042383456220e-01 -6.559324529086343336e-01
-8.622863521062885256e-03 9.007253523219210800e-02 -6.993266425427052679e-01 4.511279594688668015e-01 3.191053885199674478e-01 -8.334598461851517870e-01
2.096239185201293626e-02 -1.178568188669472383e-01 -7.965912183905999866e-01 6.071919506593632665e-01 4.741086376408232828e-01 -6.376040579927638730e-01
1.862485523824536915e-01 -2.541368941770719841e-02 -6.701306878465500549e-01 8.383016619008588910e-02 7.623078168329350257e-01 -6.417626474265598624e-01
-1.422009493336304775e-01 9.826126901461312846e-03 -9.929718187758619363e-01 7.232200626986833303e-01 1.414777833754866931e-01 -6.759709888162886982e-01
9.578127201970790261e-02 4.740996881911542504e-02 -6.494842632319308695e-01 5.858224636700394283e-01 3.643211307564195311e-01 -7.239351868392149836e-01
-9.864517805213156298e-02 9.969872794919305088e-05 -9.091794524062165594e-01 9.941012188630111712e-01 9.469890391697474707e-02 -5.286666484656304954e-02
1.488393846834163425e-01 -3.470099977414984466e-02 -6.824009097827017367e-01 -5.777303083931784045e-02 7.345123358708164352e-01 -6.761315740011231146e-01
-1.637206220162723547e-02 -1.243598956676140038e-01 -8.641449464026484950e-01 7.172510217673173649e-01 4.431231910616794667e-01 -5.377665007389855756e-01
1.500034148109165855e-01 -7.747168284708091544e-04 -6.455981826276256941e-01 8.383016619008588910e-02 7.623078168329350257e-01 -6.417626474265598624e-01
-1.028148649855710611e-01 3.300033486483724965e-02 -9.286517736782836652e-01 9.941012188630111712e-01 9.469890391697474707e-02 -5.286666484656304954e-02
1.402612492282953940e-02 -1.174665109716731548e-01 -8.059836840641063649e-01 7.172825199588755973e-01 5.418424012569258430e-01 -4.380783020894482016e-01
9.852431380947396233e-02 3.748063124788882094e-02 -6.522614897418883562e-01 5.858224636700394283e-01 3.643211307564195311e-01 -7.239351868392149836e-01
7.529722171459618529e-02 -2.004041824341083466e-01 -8.159124576402981832e-01 5.741014714667761476e-01 4.088975214861889640e-01 -7.093731862582162151e-01
-1.532027428344647814e-02 -9.148908807546168864e-02 -8.173350361927556040e-01 6.724747903881997946e-01 5.923253530535090849e-01 -4.437660784944955084e-01
-9.905714690620850971e-02 -6.343493495715962771e-02 -9.679184929568375173e-01 8.294578599400123098e-01 3.134940968169457332e-01 -4.622998051531738706e-01
2.258834618742444345e-01 -1.158654887954672086e-01 -7.198962181946556571e-01 -9.779365213302647353e-02 2.514692517426220797e-01 -9.629120505168113908e-01
1.218591464277747616e-01 -1.062081395498310210e-01 -7.347572896432180700e-01 9.584206215407195528e-02 3.584300899816931230e-01 -9.286238041950949373e-01
-1.229963346828601284e-01 1.235589635867105351e-01 -9.028292775866616493e-01 9.775152767573291879e-01 1.232934104669618641e-01 1.710632007226209339e-01
-5.122982901837397351e-02 7.154886022815330759e-02 -7.816453053718787070e-01 9.381493002420467908e-01 2.125651734407225935e-01 -2.732982573956038719e-01
1.537495949662938954e-01 1.043874189423780324e-02 -6.329806892405845931e-01 -1.214500367339855780e-01 5.849593737303176999e-01 -8.019179631747552772e-01
1.269830945100919187e-04 -1.184581150081142203e-01 -8.299239822677502154e-01 6.724747903881997946e-01 5.923253530535090849e-01 -4.437660784944955084e-01
4.819012237064793786e-02 2.406374657431541858e-02 -6.991870676001719076e-01 3.870062485791478379e-01 5.538263726140097987e-01 -7.372262288862917456e-01
1.602247399311557130e-02 -6.125673054513559174e-02 -7.712767833054422484e-01 7.409192928304907388e-01 1.441916042383456220e-01 -6.559324529086343336e-01
-3.637359181455709217e-02 -8.812703222044654394e-02 -8.526149537292668779e-01 7.477216252721203826e-01 5.492509554977437203e-01 -3.731430811166602801e-01
8.629797072323552865e-02 -8.582386203218542176e-02 -7.249758226441653797e-01 3.076630190174795554e-01 5.524766156327971522e-01 -7.746696430788936327e-01
-1.489634211831628308e-01 3.127779398853408610e-02 -9.957172339438690178e-01 7.232200626986833303e-01 1.414777833754866931e-01 -6.759709888162886982e-01
-1.046440739541296266e-01 -6.433871474991463557e-02 -9.785554219104014573e-01 8.294578599400123098e-01 3.134940968169457332e-01 -4.622998051531738706e-01
2.467631703312163013e-02 -6.673429522750314036e-02 -7.627058086545194238e-01 7.409192928304907388e-01 1.441916042383456220e-01 -6.559324529086343336e-01
1.725750445191485405e-01 3.679606351454604851e-02 -6.166054346490691396e-01 -1.214500367339855780e-01 5.849593737303176999e-01 -8.019179631747552772e-01
-1.133290335179816394e-01 6.121781798551763354e-02 -8.788279709679840401e-01 9.142808434503256754e-01 2.950770553056074053e-01 -2.775249011024644719e-01
-3.838580828211483192e-02 9.995561029695181066e-02 -7.334493702753935862e-01 9.289350020305960909e-01 7.304044832884609706e-02 -3.629667407770824084e-01
-5.731509335108887770e-02 9.213894222562313274e-02 -7.865196581660318653e-01 9.381493002420467908e-01 2.125651734407225935e-01 -2.732982573956038719e-01
-3.385436291678511206e-02 -6.652260399445047989e-02 -8.355112113614233671e-01 8.293105824798394643e-01 -4.027630520767525590e-01 -3.873317462702595138e-01
1.589791284445373973e-02 1.533829040953328844e-02 -7.226936574706754879e-01 3.870062485791478379e-01 5.538263726140097987e-01 -7.372262288862917456e-01
-1.224612255134656935e-01 1.480105864097636670e-01 -9.485348965927685727e-01 9.781171874888477946e-01 1.910270781068517387e-01 8.243435551312884579e-02
-1.239322091943777238e-01 1.351985158508134388e-01 -9.058705422222803616e-01 9.775152767573291879e-01 1.232934104669618641e-01 1.710632007226209339e-01
-1.758138515613554692e-02 -1.178439602947942699e-01 -8.585155844470729880e-01 7.328429590532358207e-01 5.428233572688272446e-01 -4.102243290804394871e-01
1.982873613743451613e-01 -1.092002188680908127e-02 -6.552506756589779879e-01 -1.044188718947964278e-01 5.896132193787221309e-01 -8.009075793910787056e-01
5.742810593333792790e-02 -2.720470441128980052e-02 -7.117118467362595347e-01 7.918299378695260460e-01 2.051834103976776791e-01 -5.752435289432820120e-01
7.648404750342396863e-02 -1.528993362715014015e-01 -7.786990646452282006e-01 5.435467686678393529e-01 5.535737733524905835e-01 -6.309619542627240563e-01
1.312957617719304471e-01 -1.317846044485222190e-01 -7.390444055421027114e-01 2.936059966835604662e-01 1.807804985315743518e-01 -9.386766909123335223e-01
7.349375810646960328e-02 -1.840870431953484931e-01 -8.079664754823823181e-01 5.741014714667761476e-01 4.088975214861889640e-01 -7.093731862582162151e-01
5.797370625254510967e-02 -8.938888200559222397e-02 -7.424868291278053922e-01 4.171122637403825162e-01 6.024498861779749026e-01 -6.804935665247090482e-01
-5.657698760396053655e-02 -1.300564710406697244e-01 -9.186455225449444706e-01 9.216392683378991091e-01 2.468307257009123568e-01 -2.994255364987141177e-01
-1.952075081491295647e-02 -1.159643732332618915e-01 -8.594930172335276675e-01 7.328429590532358207e-01 5.428233572688272446e-01 -4.102243290804394871e-01
4.620805076027541258e-02 -1.799008382072437850e-01 -8.267886767403684889e-01 5.372782204107467985e-01 5.138010128813232935e-01 -6.688352809432134283e-01
1.557929916989685415e-01 -4.719891813475188269e-02 -6.964957278293829601e-01 -1.172842378184271034e-01 6.835183876257084901e-01 -7.204491802597198236e-01
-1.031720976851212140e-01 2.577399466930066496e-02 -8.830523383963692075e-01 9.142808434503256754e-01 2.950770553056074053e-01 -2.775249011024644719e-01
-1.624462937765562900e-02 8.101306639471697602e-02 -7.069206700541339483e-01 4.511279594688668015e-01 3.191053885199674478e-01 -8.334598461851517870e-01
-3.896098380459761534e-02 -5.667645727935954891e-02 -8.368336654125209106e-01 7.034410326385238665e-01 3.160923924234074756e-01 -6.365974497690780609e-01
7.587489303362515702e-02 2.950374461386351746e-02 -6.747105696224526827e-01 5.856481852048878167e-01 3.747404001267327089e-01 -7.187390595195711773e-01
-1.890420726375101855e-03 -7.654914193912708276e-02 -7.923416142953381147e-01 3.780553737875654852e-01 4.858216370226710601e-01 -7.880681895311826279e-01
1.109890802929241749e-01 -7.243657309926894439e-02 -7.131459079627466835e-01 -1.172842378184271034e-01 6.835183876257084901e-01 -7.204491802597198236e-01
1.314466648856366660e-01 -6.464916317925256672e-02 -7.090880427644076223e-01 -1.172842378184271034e-01 6.835183876257084901e-01 -7.204491802597198236e-01
4.332664387402497541e-02 -1.317806794863819464e-01 -7.880741202303797044e-01 5.606286025146627328e-01 4.286425006449229858e-01 -7.084921853368062461e-01
-6.009197736906676281e-03 -1.276863641639330305e-01 -8.514288394730749054e-01 7.172825199588755973e-01 5.418424012569258430e-01 -4.380783020894482016e-01
-3.081654449296982248e-02 -6.062717729015063700e-02 -8.226258349178607876e-01 9.513759484827009061e-01 2.042397247646313418e-01 -2.305860782369758277e-01
1.312857496638070720e-01 3.480085134008636255e-02 -6.293031457104325543e-01 4.055402239562842515e-01 1.735580225770694540e-01 -8.974490178013589947e-01
-4.315862659024629483e-02 8.045745043483001901e-02 -7.495880178829721352e-01 9.289350020305960909e-01 7.304044832884609706e-02 -3.629667407770824084e-01
1.758662753925412103e-01 -4.833105782339557586e-03 -6.474703036854289051e-01 -1.214500367339855780e-01 5.849593737303176999e-01 -8.019179631747552772e-01
2.536071195486349072e-01 -1.305094272216183737e-01 -7.276919719896712824e-01 -1.554666271559565771e-01 2.727124006568950598e-01 -9.494514597222459829e-01
-1.329063895258996986e-01 -3.172171842380427931e-02 -1.004120522423435968e+00 7.431887872808862205e-01 3.498573907749235601e-01 -5.703246729540357718e-01
8.798642007722068392e-02 -1.875536334527287685e-02 -6.860308470785159152e-01 5.190570970249028804e-01 3.057593487900090445e-01 -7.981797733941835560e-01
1.952572737516160006e-01 3.094915667004808843e-02 -6.240323177156452683e-01 -1.044188718947964278e-01 5.896132193787221309e-01 -8.009075793910787056e-01
1.347585607822397724e-02 -2.060034322368239565e-02 -7.504791956103498141e-01 3.780553737875654852e-01 4.858216370226710601e-01 -7.880681895311826279e-01
-3.927461766578632663e-02 3.320114559881682387e-02 -7.704327034964124632e-01 9.381493002420467908e-01 2.125651734407225935e-01 -2.732982573956038719e-01
8.141638426536244866e-02 -1.830845564844148579e-02 -6.901321505926100164e-01 5.190570970249028804e-01 3.057593487900090445e-01 -7.981797733941835560e-01
-1.208673873568629209e-01 -5.329454857526173817e-02 -1.000174020501064520e+00 8.294578599400123098e-01 3.134940968169457332e-01 -4.622998051531738706e-01
-1.193054306758959543e-01 1.904993519864668916e-01 -9.097611589382800235e-01 9.557245060936730985e-01 -2.412204836539549035e-01 1.685329247291367516e-01
-1.533304165664537561e-02 2.022018701124080609e-01 -6.609093833491062053e-01 7.937622815911492546e-01 -2.517110980548953880e-01 -5.536993439035411413e-01
7.232565204797475333e-02 -1.975530032377097733e-01 -8.166738938235604817e-01 5.741014714667761476e-01 4.088975214861889640e-01 -7.093731862582162151e-01
-7.501492360958764150e-02 -5.682876505125730726e-02 -9.005114283243212947e-01 8.643117256201835463e-01 4.018098663197122722e-01 -3.025129291180718716e-01
5.782963481663080246e-02 -1.830863167874716702e-01 -8.199001019142584390e-01 5.372782204107467985e-01 5.138010128813232935e-01 -6.688352809432134283e-01
-1.249211976615183378e-01 1.170065941722355091e-01 -8.813162958827583937e-01 7.964265732732626057e-01 -2.278043413594104186e-02 -6.043060195007052826e-01
-1.605056731773279880e-03 1.239983644052607692e-01 -6.801219914862972615e-01 4.819136687370026428e-01 3.679074807185445661e-01 -7.952378898894193471e-01
-1.701392246172122591e-01 2.949464394665218467e-02 -1.021115072625843112e+00 7.695577929929932059e-01 6.361839226878741871e-02 -6.354002702304178962e-01
5.294023521579491881e-02 -5.211858574656798998e-02 -7.267759806100858588e-01 7.918299378695260460e-01 2.051834103976776791e-01 -5.752435289432820120e-01
-1.182160349225257201e-01 -1.031139333187293047e-02 -9.664217038391221815e-01 8.028699709381784677e-01 -6.873695903050362549e-04 -5.961537866094407390e-01
1.978235086158122435e-01 -1.706755993938892935e-01 -7.488082083156714086e-01 1.768858733490649982e-01 4.646532371164452946e-01 -8.676455249966700256e-01
-5.695968289391822176e-03 1.940617034231511828e-01 -6.556193893058092081e-01 4.047349356189671177e-01 -9.905003002265382051e-02 -9.090537516791963313e-01
-1.235079058357813342e-01 1.220358143494240238e-01 -8.796432770575601801e-01 7.964265732732626057e-01 -2.278043413594104186e-02 -6.043060195007052826e-01
-5.534117617368388559e-02 8.885015707180381195e-02 -7.823017467784056933e-01 9.381493002420467908e-01 2.125651734407225935e-01 -2.732982573956038719e-01
1.513637310020105042e-01 8.258961471834198875e-03 -6.346899766989717584e-01 8.383016619008588910e-02 7.623078168329350257e-01 -6.417626474265598624e-01
-1.893570150213141554e-02 6.252539710056402578e-02 -7.154556136411551748e-01 4.511279594688668015e-01 3.191053885199674478e-01 -8.334598461851517870e-01
9.477507130740089880e-02 3.689799363152108241e-02 -6.555886628348190914e-01 5.858224636700394283e-01 3.643211307564195311e-01 -7.239351868392149836e-01
-9.506305688160779366e-02 2.061492399813802563e-03 -8.815500396111235482e-01 9.142808434503256754e-01 2.950770553056074053e-01 -2.775249011024644719e-01
-1.234282066749691764e-01 1.405159089968261721e-01 -9.196936785497324962e-01 9.781171874888477946e-01 1.910270781068517387e-01 8.243435551312884579e-02
-1.787142023756758957e-02 -5.019537962166795153e-03 -7.557142476242098006e-01 3.870062485791478379e-01 5.538263726140097987e-01 -7.372262288862917456e-01
6.987430147414451509e-02 -1.076635134062129961e-01 -7.513710650587700490e-01 4.171122637403825162e-01 6.024498861779749026e-01 -6.804935665247090482e-01
6.592501211289694685e-03 -2.970070099950132894e-02 -7.593914193272465196e-01 3.780553737875654852e-01 4.858216370226710601e-01 -7.880681895311826279e-01
6.424057484326789469e-02 -1.762872885286334915e-02 -7.010412129937869663e-01 5.190570970249028804e-01 3.057593487900090445e-01 -7.981797733941835560e-01
1.616860595179853144e-01 -6.134694218267734006e-02 -7.108778644696913673e-01 -1.172842378184271034e-01 6.835183876257084901e-01 -7.204491802597198236e-01
1.474491658773749610e-02 -5.925523012058570016e-02 -7.722798856360646447e-01 7.409192928304907388e-01 1.441916042383456220e-01 -6.559324529086343336e-01
-1.087670155548656724e-02 1.646127982848302196e-01 -6.669508111258183325e-01 4.819136687370026428e-01 3.679074807185445661e-01 -7.952378898894193471e-01
-1.185776187315094599e-01 1.980200273596146032e-01 -8.902269424564095424e-01 9.228001306286233163e-01 -2.954258682538227765e-01 -2.473125053010278573e-01
-1.065318105702488111e-01 4.713605148635314178e-03 -9.507033013906667218e-01 8.028699709381784677e-01 -6.873695903050362549e-04 -5.961537866094407390e-01
-4.350040943678142730e-02 1.835140109439281353e-01 -7.163441173874890433e-01 9.199698023163914717e-01 -3.197082537328924112e-02 -3.906832849648040340e-01
-8.999455292972269316e-02 2.106728840129891075e-02 -8.573293930082956926e-01 7.589647956320173527e-01 1.686838608358259550e-01 -6.289023724591676912e-01
-7.625112809245575274e-02 9.335584704872962325e-02 -8.213545107680877422e-01 7.589647956320173527e-01 1.686838608358259550e-01 -6.289023724591676912e-01
-1.093607462198985247e-01 -3.341492801952210268e-02 -9.641394625917901751e-01 8.596778773674392804e-01 3.790676470476613824e-01 -3.424349078682891179e-01
1.894281025132736052e-01 -8.781326059339336632e-02 -7.137760078769163075e-01 2.086105015730889134e-01 1.909458089004094361e-01 -9.591774375457299273e-01
-3.267315355315772440e-02 2.568120815240883953e-02 -7.536207334016833403e-01 9.381493002420467908e-01 2.125651734407225935e-01 -2.732982573956038719e-01
1.711044910986777856e-01 -8.847204189860366497e-02 -7.182511457433858881e-01 2.936059966835604662e-01 1.807804985315743518e-01 -9.386766909123335223e-01
-6.741671982022727494e-02 5.630465472125480153e-02 -8.208614450940513452e-01 7.538845766739572518e-01 1.725662176972586614e-01 -6.339392286038074698e-01
-1.152066129688516793e-01 1.672500392855106877e-01 -8.409476639788507901e-01 8.052323345822868239e-01 5.097378472552054340e-01 -3.029326895843185152e-01
-3.141965354287720030e-02 4.836090267500525730e-02 -7.316781004173986691e-01 9.381493002420467908e-01 2.125651734407225935e-01 -2.732982573956038719e-01
-8.770027194553690897e-02 -6.409120218549073378e-02 -9.437190927112696359e-01 8.596778773674392804e-01 3.790676470476613824e-01 -3.424349078682891179e-01
-1.404820430591424141e-01 2.796614705888032446e-02 -9.873361370544648796e-01 7.232200626986833303e-01 1.414777833754866931e-01 -6.759709888162886982e-01
-1.131595688482085749e-01 1.870475229122893213e-01 -8.562905530690401168e-01 9.820170646543460169e-01 -1.395174642318044167e-01 -1.271902586756896159e-01
1.680352362510018904e-01 1.472470014535743645e-02 -6.320178478639477682e-01 -1.214500367339855780e-01 5.849593737303176999e-01 -8.019179631747552772e-01
-1.656860617672406555e-02 2.076078332280509586e-01 -6.651381863090053415e-01 7.937622815911492546e-01 -2.517110980548953880e-01 -5.536993439035411413e-01
1.874685065369733616e-01 -1.247734646448922097e-01 -7.223876997830700475e-01 1.789449541671853453e-02 3.036920455436203925e-01 -9.526021879605948151e-01
-1.202567720243168797e-01 -2.416309722410380986e-02 -9.793238760497067208e-01 8.294578599400123098e-01 3.134940968169457332e-01 -4.622998051531738706e-01
2.887681388476193156e-02 -8.235913945582834517e-02 -7.635497263604014151e-01 6.486572512294558335e-01 4.168095372527146902e-01 -6.367994818485835928e-01
1.503671730414087027e-01 -2.926219535851678696e-02 -6.766230344076014092e-01 -5.777303083931784045e-02 7.345123358708164352e-01 -6.761315740011231146e-01
-7.939962782959807119e-02 -1.270554457577824370e-01 -9.629230050737499491e-01 8.728670700748224487e-01 1.221342475919839909e-01 -4.724259767880411021e-01
-1.136126123816694061e-01 2.039816305140989827e-01 -9.148047530758067758e-01 8.245663391704414202e-01 -4.034692605101858898e-01 3.966143065125365963e-01
1.025942489872834831e-02 -1.114287291555633858e-01 -8.046831446181386127e-01 7.172825199588755973e-01 5.418424012569258430e-01 -4.380783020894482016e-01
-1.025540452129683755e-01 -5.718939618099298100e-02 -9.699574084780564487e-01 8.294578599400123098e-01 3.134940968169457332e-01 -4.622998051531738706e-01
-5.846910888485008090e-02 -1.313855561396547189e-01 -9.253706543465860523e-01 8.728670700748224487e-01 1.221342475919839909e-01 -4.724259767880411021e-01
-5.503390251295038095e-03 -8.064272156149324133e-02 -7.967526546970832291e-01 5.569417097604006939e-01 4.845295895766774108e-01 -6.745717224682770130e-01
-4.966373151883531761e-02 1.247677986326685591e-02 -7.994001421642107363e-01 8.905662855786885546e-01 1.319813672564710827e-01 -4.352845157913270424e-01
1.545515319465102233e-01 -5.179962988955610914e-02 -7.006585022510902760e-01 -1.172842378184271034e-01 6.835183876257084901e-01 -7.204491802597198236e-01
1.429850040023215030e-01 3.877713407998463480e-02 -6.232474992209853237e-01 4.055402239562842515e-01 1.735580225770694540e-01 -8.974490178013589947e-01
-3.598899117832318750e-02 -1.540736704895211660e-02 -7.920340527506338768e-01 8.668752061756656024e-01 3.544642566520631588e-01 -3.505459565791591015e-01
-1.134761718863104840e-01 1.003340148758431333e-01 -9.446641709825371880e-01 9.781171874888477946e-01 1.910270781068517387e-01 8.243435551312884579e-02
1.710328274420336025e-01 -1.697437602282609870e-01 -7.502178240007734145e-01 -2.348763138011233757e-03 6.499815730020277460e-01 -7.599463389408038783e-01
-2.911252258635493861e-02 1.536142639799403797e-01 -6.921680523472294455e-01 8.918092401078231424e-01 1.446127416462224535e-01 -4.286763746835953182e-01
-1.053366300728329069e-01 -8.000189363463852329e-03 -9.490790332425796949e-01 8.028699709381784677e-01 -6.873695903050362549e-04 -5.961537866094407390e-01
-1.058687744021085675e-01 4.692257791710426756e-02 -8.695516480571930940e-01 7.589647956320173527e-01 1.686838608358259550e-01 -6.289023724591676912e-01
-1.805549422112003033e-02 -9.299693905802267069e-02 -8.234925704259271617e-01 6.724747903881997946e-01 5.923253530535090849e-01 -4.437660784944955084e-01
8.789651947714026414e-02 2.473769643369802540e-02 -6.673999708200034631e-01 5.856481852048878167e-01 3.747404001267327089e-01 -7.187390595195711773e-01
-3.266721749677421044e-02 -4.316684473198365360e-03 -7.726048918311807512e-01 8.668752061756656024e-01 3.544642566520631588e-01 -3.505459565791591015e-01
1.724084376256355411e-01 -1.245956899157214109e-01 -7.248003704521288615e-01 2.936059966835604662e-01 1.807804985315743518e-01 -9.386766909123335223e-01
-2.796851140381619721e-02 1.741574338208063955e-01 -6.828578965003807566e-01 8.918092401078231424e-01 1.446127416462224535e-01 -4.286763746835953182e-01
-5.057266333862286273e-02 -4.278623268781433370e-02 -8.427628397850507325e-01 6.922181982727266814e-01 2.995456602776946919e-01 -6.565869046736008130e-01
-4.544214135003994681e-02 4.498208775071501492e-02 -7.809071782247434257e-01 8.905662855786885546e-01 1.319813672564710827e-01 -4.352845157913270424e-01
-1.109894170851584289e-01 1.615483565099517238e-01 -8.393319288670565426e-01 8.052323345822868239e-01 5.097378472552054340e-01 -3.029326895843185152e-01
1.359192755212955059e-02 1.537919064210835907e-01 -6.583133528931651712e-01 3.466523416580761796e-01 2.549400443162848084e-01 -9.026836255449542934e-01
-1.321341931617123766e-01 -3.923085621462356343e-02 -1.006908646658265516e+00 5.627619483410276624e-01 2.103915686880892255e-01 -7.993962580124924777e-01
1.714641379549697031e-01 6.627597268432421085e-02 -6.071838392729445033e-01 3.999193060707188496e-01 3.691393075119503431e-02 -9.158066992266495898e-01
8.354854179931314739e-02 -1.107098631975686649e-02 -6.859731434122074978e-01 5.190570970249028804e-01 3.057593487900090445e-01 -7.981797733941835560e-01
-3.904415172180206173e-02 6.255194340097275374e-02 -7.468132009389069070e-01 9.381493002420467908e-01 2.125651734407225935e-01 -2.732982573956038719e-01
-4.361333537234977908e-02 7.428556073494921308e-02 -7.533716695432650656e-01 9.381493002420467908e-01 2.125651734407225935e-01 -2.732982573956038719e-01
3.919742536166457431e-02 8.609452513972147558e-02 -6.728817107727157465e-01 4.821531888746156680e-01 3.665963284874579897e-01 -7.956980799257685755e-01
-1.080911598593750911e-01 7.453805019549532285e-02 -9.502746178213222761e-01 9.651914161509927981e-01 2.133867986392694871e-01 1.512336085495713522e-01
1.158572232868562146e-01 -1.224564246745011437e-01 -7.416482512587736498e-01 9.584206215407195528e-02 3.584300899816931230e-01 -9.286238041950949373e-01
7.836729619104357281e-02 -3.043376800733973986e-02 -6.967598284560390098e-01 5.190570970249028804e-01 3.057593487900090445e-01 -7.981797733941835560e-01
-1.433323726702511181e-01 8.464125201440471369e-03 -9.944673874535835401e-01 7.232200626986833303e-01 1.414777833754866931e-01 -6.759709888162886982e-01
-1.003138902914216396e-01 2.535862062306503129e-01 -9.047815982458650153e-01 9.309867431997120857e-01 -3.610529523046976386e-01 5.389294590626202142e-02
-8.615504534090512312e-02 -4.612367958476747826e-02 -9.181210190697910445e-01 8.643117256201835463e-01 4.018098663197122722e-01 -3.025129291180718716e-01
2.630608687138739910e-02 2.631321524971193260e-02 -7.095658691838594434e-01 4.474905210130999955e-01 4.690503025614570221e-01 -7.614092508437430018e-01
9.874267340783214955e-03 -1.354422109800084706e-01 -8.351350476167507253e-01 7.115628448370475700e-01 5.533987492196020819e-01 -4.329297197116264151e-01
-1.142997948196415592e-01 1.030682236766675558e-01 -9.412275961809006830e-01 9.781171874888477946e-01 1.910270781068517387e-01 8.243435551312884579e-02
2.292103395915824193e-03 1.298911374007875041e-01 -6.750340925651538981e-01 4.819136687370026428e-01 3.679074807185445661e-01 -7.952378898894193471e-01
1.642512367994868605e-01 -1.588639116027077969e-01 -7.430517265419703810e-01 3.486868788211424652e-01 5.758327250483670223e-01 -7.394823414398357109e-01
-1.135202429619740633e-01 8.251600526739351349e-02 -9.268822373204030907e-01 9.651914161509927981e-01 2.133867986392694871e-01 1.512336085495713522e-01
-2.739498405227274846e-03 6.689592970845588404e-02 -7.050157339037488313e-01 4.511279594688668015e-01 3.191053885199674478e-01 -8.334598461851517870e-01
-1.181290853366942090e-01 1.183630280863250117e-01 -9.312345166099269544e-01 9.781171874888477946e-01 1.910270781068517387e-01 8.243435551312884579e-02
-4.965187440976129296e-02 -2.471923189623837641e-02 -8.327792591305303027e-01 7.034410326385238665e-01 3.160923924234074756e-01 -6.365974497690780609e-01
-3.396341298483469134e-02 -5.637577225567154404e-02 -8.284512800616905537e-01 8.668752061756656024e-01 3.544642566520631588e-01 -3.505459565791591015e-01
-3.723214473800966207e-02 5.724969113366427248e-02 -7.447171066699175279e-01 9.381493002420467908e-01 2.125651734407225935e-01 -2.732982573956038719e-01
-6.995436512012216668e-02 -1.118988453563302815e-01 -9.415533106254695417e-01 8.728670700748224487e-01 1.221342475919839909e-01 -4.724259767880411021e-01
5.947438812974301103e-02 -6.482978083413341863e-02 -7.223155887786507634e-01 7.918299378695260460e-01 2.051834103976776791e-01 -5.752435289432820120e-01
-1.907646468650749105e-02 -1.119987853696756963e-01 -8.530923770741229983e-01 7.477216252721203826e-01 5.492509554977437203e-01 -3.731430811166602801e-01
-1.242289430899301134e-01 1.045768634169827183e-01 -8.799353985027027480e-01 7.964265732732626057e-01 -2.278043413594104186e-02 -6.043060195007052826e-01
-9.817356082449060772e-02 -7.029287871746001115e-02 -9.709836628940663461e-01 8.294578599400123098e-01 3.134940968169457332e-01 -4.622998051531738706e-01
-8.445424683021314841e-03 5.950364160885177056e-02 -7.109344615631983944e-01 4.511279594688668015e-01 3.191053885199674478e-01 -8.334598461851517870e-01
-4.461735780738064483e-02 6.311488708172728612e-02 -7.655064674706366645e-01 9.381493002420467908e-01 2.125651734407225935e-01 -2.732982573956038719e-01
-1.047179698537849674e-01 4.280387443305527090e-02 -9.468767632874262041e-01 9.941012188630111712e-01 9.469890391697474707e-02 -5.286666484656304954e-02
-1.036516812417849487e-01 -2.000413549417078603e-03 -9.468167465879179234e-01 8.028699709381784677e-01 -6.873695903050362549e-04 -5.961537866094407390e-01
-6.569237704667293953e-02 -2.264523529611744621e-02 -8.494742257779697159e-01 7.034410326385238665e-01 3.160923924234074756e-01 -6.365974497690780609e-01
7.687328693017576875e-02 -1.290953431577686605e-01 -7.599040750165293456e-01 5.606286025146627328e-01 4.286425006449229858e-01 -7.084921853368062461e-01
-1.234709695798412304e-01 1.790585944787644601e-01 -8.858352803009216236e-01 9.228001306286233163e-01 -2.954258682538227765e-01 -2.473125053010278573e-01
