8.850889002152877161e-02 -9.071658520747624688e-02 -7.780978612883902024e-01 2.928425998562650956e-01 6.630144209529217347e-01 -6.889521676559884344e-01
6.692778047156053289e-02 -1.969679768539283893e-01 -8.527826253824247749e-01 7.017340372507633317e-01 4.620563489689896164e-01 -5.422852306131817901e-01
-5.741556509914988449e-02 5.832251517806204960e-02 -1.024077224456099167e+00 9.924262744611931364e-01 9.120625744780730404e-02 8.228917523855101834e-02
6.774600373905285966e-02 -7.638120124943882649e-02 -7.731275471572275348e-01 2.928425998562650956e-01 6.630144209529217347e-01 -6.889521676559884344e-01
-4.121928343399307304e-02 -4.546939998291792129e-02 -9.986433122343750801e-01 9.763563468727675110e-01 2.102871787840785434e-01 -5.007580613726699686e-02
4.109511009735083292e-02 3.625466098146012256e-02 -7.388780445731097934e-01 8.686844662404867856e-01 2.075247334204395055e-01 -4.498008260677786030e-01
-3.728170528344536966e-02 -7.356411303831461579e-02 -1.045898894985771932e+00 9.939727627380871011e-01 9.496084506422594607e-02 -5.477759432014627644e-02
-4.238808180184231583e-02 7.725041763258497229e-02 -9.594009967398510197e-01 9.499646815633769892e-01 -1.057535541122287329e-02 -3.121782593969640307e-01
-4.610669991550409019e-02 1.126932127840269277e-01 -1.050349820735966722e+00 8.530624887031630355e-01 -7.134725864542108831e-02 5.169080760167608091e-01
3.242190470738615798e-02 -2.014176398305711213e-01 -9.045758503572722820e-01 8.618789230670008683e-01 2.541114413149352935e-01 -4.388531615081664450e-01
-4.317153107636183956e-02 -3.676092283157208346e-02 -1.019894006575250867e+00 9.791873045486181315e-01 2.006346396615368843e-01 3.062619758796190569e-02
1.562899678804610323e-02 -1.376034435830501279e-01 -8.778907908747153321e-01 8.533371231843230875e-01 2.762044362043777346e-01 -4.421841964798440272e-01
3.364455553344592505e-03 -1.483038448605734222e-02 -8.397296060241600246e-01 7.312928003541746547e-01 4.328225911369632528e-01 -5.271389235786279048e-01
-3.819389348354695901e-02 -1.154078924522367183e-01 -1.104979939765549979e+00 9.896785064281483635e-01 -7.751558131167878007e-02 -1.205312763064504272e-01
-1.525048383921128597e-02 -1.185167011195984721e-01 -9.789330635045742079e-01 9.372513668974770118e-01 2.654787081893850709e-01 -2.260109084688304570e-01
-2.939202156751155592e-02 -5.128743503950780602e-02 -9.455568762945995021e-01 9.906842880239070670e-01 -3.281113275484870157e-03 1.361391778961430488e-01
6.268798949558812561e-02 2.718865384839507914e-03 -7.126488978270695274e-01 8.686844662404867856e-01 2.075247334204395055e-01 -4.498008260677786030e-01
-6.008663023529624281e-02 1.464624840898791705e-02 -1.161589459065967000e+00 8.434474149001850440e-01 5.855429336162887299e-02 -5.340110982246673021e-01
-3.748758433733028611e-02 -5.924954923735070017e-02 -1.069937937517135174e+00 9.783489863660655983e-01 1.765276459798083009e-01 1.080335646052640458e-01
-2.104681997173582855e-02 1.342173850004916846e-01 -7.964898815047120051e-01 8.005754327764555978e-01 2.292637027404596239e-01 -5.536398929272754454e-01
-4.792534427955282006e-02 8.772505236743755042e-02 -9.770257974142121382e-01 9.519774682986966718e-01 -1.520098600921396259e-02 -3.057904999766202780e-01
-4.138543574255897084e-02 5.021820348424263503e-02 -1.113630945389915805e+00 8.584103504077764679e-01 -3.279878366717047661e-02 -5.119139674816000074e-01
-3.267161253189299064e-02 -1.034230993403998516e-01 -1.056522252144918239e+00 9.971583609025436168e-01 4.161716707606159110e-02 6.279502119368866875e-02
-4.183880185909003707e-02 4.578386655835583324e-02 -1.056896587759730499e+00 8.674172413080503130e-01 1.848005070309318917e-02 4.972381896109177024e-01
1.891776307389221893e-03 2.623182751818200695e-02 -8.091251870396782842e-01 7.777256396504514946e-01 3.365934681208684887e-01 -5.308932723708805757e-01
2.838882960437489819e-02 -8.816148729160794284e-02 -8.124851939589262662e-01 6.723178424020268551e-01 4.461187655786469364e-01 -5.907340905910776208e-01
-3.366237589125960217e-02 -4.319025383960303777e-02 -9.110136805983304331e-01 8.491730502597070185e-01 3.330124328689934576e-01 -4.098876068720537780e-01
-3.463921253722584970e-02 -6.689535419293496377e-02 -9.645411943101258601e-01 9.273017825067506603e-01 3.698294350477230874e-01 -5.777190607972867986e-02
4.205633888306224005e-02 -2.270446261313325276e-01 -9.004933793091203231e-01 8.618789230670008683e-01 2.541114413149352935e-01 -4.388531615081664450e-01
2.448902401393163869e-02 -4.559689375022502218e-03 -7.838119134208436645e-01 8.227326198280143776e-01 1.607893639148864351e-01 -5.452135514849004716e-01
-3.403880697959577734e-02 1.219253075215647880e-01 -8.816466136555202171e-01 9.911867557912822368e-01 -1.324719261026389705e-01 -6.275834816805043190e-05
-3.707622979611954056e-02 9.917600430099463016e-02 -8.339916365471856663e-01 9.911867557912822368e-01 -1.324719261026389705e-01 -6.275834816805043190e-05
-3.237563250976915191e-02 -6.533529005727876926e-02 -9.518770727920605745e-01 8.120460140519005776e-01 -5.786294232403564886e-01 -7.595565563506778695e-02
-3.735980053749647645e-02 -6.933404796066121312e-02 -1.039982863019659476e+00 9.939727627380871011e-01 9.496084506422594607e-02 -5.477759432014627644e-02
7.676654246630680058e-03 -5.531049820390591260e-02 -8.424367003259779496e-01 9.402976458254179715e-01 -3.659295757971924717e-02 -3.383803964634265471e-01
-5.669640713356233902e-02 2.391990487889910158e-02 -1.144958864027137091e+00 9.535314159626656627e-01 1.676333781671020262e-01 -2.503535286280564875e-01
1.070768668901233601e-03 1.115106343319220705e-01 -7.739102868581407835e-01 8.005754327764555978e-01 2.292637027404596239e-01 -5.536398929272754454e-01
7.948165793279472757e-02 -1.882277393683263467e-01 -8.290903604811389327e-01 7.017340372507633317e-01 4.620563489689896164e-01 -5.422852306131817901e-01
-4.255010875320406477e-03 1.576863269016192948e-01 -7.653547084996452643e-01 6.931435488346020524e-01 1.418903969799047426e-01 -7.066959289212432216e-01
9.231618515134293323e-02 -1.920091558859090553e-01 -8.157040525357370786e-01 7.017340372507633317e-01 4.620563489689896164e-01 -5.422852306131817901e-01
-3.006660277518836966e-02 -8.621566181131139206e-02 -9.986772992834311857e-01 9.258219034589059149e-01 3.650526685238760782e-01 -9.793034401719123705e-02
-4.041890072597904143e-02 5.160862434267818322e-02 -1.112099282651391574e+00 8.584103504077764679e-01 -3.279878366717047661e-02 -5.119139674816000074e-01
-3.498140123279714492e-02 1.883270916400976436e-01 -1.051073779433519650e+00 7.596275001691674689e-01 -4.235878691028029941e-01 4.934970903011364762e-01
1.565921037215934827e-02 2.942673776203576924e-03 -8.080801753629645034e-01 7.312928003541746547e-01 4.328225911369632528e-01 -5.271389235786279048e-01
-4.011001848461500513e-02 -4.311914306823567966e-02 -1.072546449426873272e+00 9.783489863660655983e-01 1.765276459798083009e-01 1.080335646052640458e-01
1.251950047688825951e-01 6.250207505006882477e-03 -6.662006310724748470e-01 3.143718245633831954e-01 5.652440672772705010e-01 -7.626726036305080392e-01
-2.853122461188384307e-02 -5.640006657450572641e-02 -9.519441129134711410e-01 9.906842880239070670e-01 -3.281113275484870157e-03 1.361391778961430488e-01
-3.788581036447409567e-02 4.110338951703051968e-02 -8.579681085043984190e-01 7.777256396504514946e-01 3.365934681208684887e-01 -5.308932723708805757e-01
-5.135532604285490688e-02 1.287946072089443950e-01 -9.982074916059274772e-01 9.380561377110713250e-01 -2.091118971274542881e-01 -2.762659895505503727e-01
-4.521078938276270470e-02 1.231288550072384864e-02 -1.104602642529919354e+00 9.454959880578924780e-01 -1.884779958360508212e-01 -2.655435588600389418e-01
5.340737934425783540e-02 -1.888847994247500051e-01 -8.623860934887017660e-01 5.826185565543120504e-01 6.366091725894227338e-01 -5.052567455597005708e-01
9.380665451019604140e-02 4.221146133629465752e-02 -6.745034787902615125e-01 7.017792541898767444e-01 -8.276407216577966186e-02 -7.075704818230041937e-01
1.065838774760143048e-02 9.751227834793073368e-02 -7.658168055362892801e-01 8.006913355897494755e-01 2.279135345629779985e-01 -5.540296073988404402e-01
-1.547435951443451758e-02 2.150348950959610483e-01 -7.763699318034462671e-01 8.705791673220701909e-01 -4.304415582985685051e-01 -2.383526343766958489e-01
-3.036472224702668407e-02 -7.828936664554354830e-02 -9.688702659962902253e-01 9.273017825067506603e-01 3.698294350477230874e-01 -5.777190607972867986e-02
7.453561037851755278e-02 -5.218149276622149196e-02 -7.462742878307587757e-01 3.414395900729716438e-01 7.025985807350578760e-01 -6.243190215585965319e-01
-4.188814401201785415e-02 -3.364337190895929502e-02 -1.071927273978759088e+00 9.783489863660655983e-01 1.765276459798083009e-01 1.080335646052640458e-01
-3.107031370443579313e-02 -6.094399175712577471e-02 -9.636012936965394626e-01 9.279739769484494083e-01 1.252617844351350262e-01 -3.509612278679863917e-01
1.127944440203436510e-01 -5.750778426787381964e-02 -7.277406998853097608e-01 4.635872604844328282e-01 7.023742866172508759e-01 -5.401455483621487863e-01
-1.359709487380146836e-03 -1.406962044303812220e-01 -9.416316941207578672e-01 9.168076510320326555e-01 3.787996448477461975e-01 -1.263905062587682704e-01
-4.400799614009911348e-02 1.597700699110796499e-02 -1.057652355972663827e+00 9.430742057161434211e-01 -1.118584409766981980e-01 3.132071705678644014e-01
1.886508957170398779e-02 -4.744710844064733285e-02 -8.049464489024459324e-01 8.227326198280143776e-01 1.607893639148864351e-01 -5.452135514849004716e-01
-3.834061506122553309e-02 2.010550480803523915e-02 -9.003370590109626148e-01 9.944024660576668007e-01 -6.996540085065945658e-02 -7.917435305853252892e-02
-2.335807393355097961e-02 -1.887191273406101100e-02 -8.777256278682664670e-01 7.275820986782274291e-01 3.660406568733709509e-01 -5.802055904579833667e-01
-4.066777977020200052e-02 1.262056952687156397e-01 -9.599585175550811034e-01 9.380561377110713250e-01 -2.091118971274542881e-01 -2.762659895505503727e-01
-2.634028519886292066e-02 3.835071880466674188e-03 -8.656127864323481802e-01 7.312928003541746547e-01 4.328225911369632528e-01 -5.271389235786279048e-01
4.686221401379794121e-02 -2.211020874092159069e-03 -7.459233541339003182e-01 8.687818178221798915e-01 2.179651092755779951e-01 -4.446452115564430430e-01
4.588919626865603507e-02 2.851906518217029937e-02 -7.331883690936129572e-01 8.686844662404867856e-01 2.075247334204395055e-01 -4.498008260677786030e-01
-3.933615069678050163e-02 1.508045249867299813e-02 -1.085649737592680353e+00 9.454959880578924780e-01 -1.884779958360508212e-01 -2.655435588600389418e-01
-1.638375823584519927e-02 -1.148914306126136986e-01 -9.762153006523257570e-01 9.258219034589059149e-01 3.650526685238760782e-01 -9.793034401719123705e-02
7.958656096582485129e-02 1.903331619394562843e-02 -6.883353177638672493e-01 7.282075629335144074e-01 5.051015242397636357e-02 -6.834928454552673394e-01
-7.678037575925215040e-03 -1.155986561123601222e-02 -8.523633558228306262e-01 7.312928003541746547e-01 4.328225911369632528e-01 -5.271389235786279048e-01
-5.756678988802750585e-02 8.820355739488115743e-02 -1.007065032544228078e+00 9.519774682986966718e-01 -1.520098600921396259e-02 -3.057904999766202780e-01
-2.345383502931362371e-02 1.795275411586662317e-01 -1.076370867057807379e+00 7.596275001691674689e-01 -4.235878691028029941e-01 4.934970903011364762e-01
4.051573501007741523e-02 -2.170428162507350434e-01 -8.977276243276036682e-01 8.618789230670008683e-01 2.541114413149352935e-01 -4.388531615081664450e-01
6.775977478942850352e-02 8.357229795144046833e-03 -7.017247862140433279e-01 7.282075629335144074e-01 5.051015242397636357e-02 -6.834928454552673394e-01
-5.632293210090438818e-02 5.055306094532775740e-02 -1.028643254577717547e+00 9.924262744611931364e-01 9.120625744780730404e-02 8.228917523855101834e-02
-4.973244819864713201e-02 1.576938112622539023e-02 -1.123155845850104750e+00 9.454959880578924780e-01 -1.884779958360508212e-01 -2.655435588600389418e-01
-2.168587208458693308e-02 1.012253257273543067e-01 -8.110256205062499335e-01 7.763686854040804386e-01 1.862265615881570080e-01 -6.021389640963223933e-01
1.250144524713298899e-01 -1.813626071881508095e-01 -7.800147398727166337e-01 4.048250200901081786e-01 6.051989715715579976e-01 -6.854567148389254516e-01
9.895307995759373976e-02 -6.923996169180809956e-02 -7.521177190365286869e-01 3.414395900729716438e-01 7.025985807350578760e-01 -6.243190215585965319e-01
9.452893327449762850e-02 -6.404870240219683042e-02 -7.486951217658653901e-01 3.414395900729716438e-01 7.025985807350578760e-01 -6.243190215585965319e-01
-4.349389448119814205e-02 1.562737484847389335e-01 -9.817738431136797672e-01 9.462372771781876191e-01 3.223452090957499294e-01 2.699224798765807384e-02
1.159056829529300642e-01 -1.117933140194838360e-01 -7.694805109917896013e-01 5.748163403556795226e-01 1.050743381841804935e-01 -8.115081997831322669e-01
-4.677398411753477120e-02 4.479744025563021231e-02 -1.122319497648388564e+00 8.584103504077764679e-01 -3.279878366717047661e-02 -5.119139674816000074e-01
-3.588383930134488725e-02 -1.271801256267369486e-02 -8.973863747895660659e-01 9.906842880239070670e-01 -3.281113275484870157e-03 1.361391778961430488e-01
-4.219193731739713515e-02 -4.271070045771406531e-02 -1.012236323409705596e+00 9.791873045486181315e-01 2.006346396615368843e-01 3.062619758796190569e-02
9.916503897183175098e-03 -1.114445753410853029e-01 -8.630241874335917718e-01 7.481683312284648224e-01 4.765808994706010049e-01 -4.616435794058084130e-01
1.135014960271623213e-01 4.316169741353702294e-02 -6.446243644416431717e-01 9.018111038061739082e-01 -7.877954999772364408e-02 -4.248888272878523775e-01
5.969414288650026768e-02 -2.655447312167615037e-02 -7.327845119490221659e-01 8.687818178221798915e-01 2.179651092755779951e-01 -4.446452115564430430e-01
-4.763802412528392316e-02 1.858557186901586486e-02 -1.117697307982396193e+00 9.454959880578924780e-01 -1.884779958360508212e-01 -2.655435588600389418e-01
-4.606871329938555526e-02 -2.412994708068501304e-02 -1.129342548901032472e+00 9.856430035767546061e-01 1.189246024795870688e-01 -1.198532787422435242e-01
1.788253011432712480e-02 -1.934642972439130082e-01 -9.285249661212946481e-01 8.618789230670008683e-01 2.541114413149352935e-01 -4.388531615081664450e-01
6.115805566688562595e-02 -7.117847124621863586e-02 -7.709209307175690640e-01 2.928425998562650956e-01 6.630144209529217347e-01 -6.889521676559884344e-01
-4.039206947499356798e-02 6.876907940029484967e-02 -9.530397774016537982e-01 9.499646815633769892e-01 -1.057535541122287329e-02 -3.121782593969640307e-01
-1.745409735855288358e-02 6.145238102199212377e-02 -8.178701557406098388e-01 7.763686854040804386e-01 1.862265615881570080e-01 -6.021389640963223933e-01
4.243685463310954004e-02 2.603132637369086344e-02 -7.410035234470071508e-01 8.686844662404867856e-01 2.075247334204395055e-01 -4.498008260677786030e-01
5.422062340047321960e-02 -1.017461733637464172e-01 -8.032866072730295848e-01 2.928425998562650956e-01 6.630144209529217347e-01 -6.889521676559884344e-01
-4.908143934894720201e-02 -6.748634931353195837e-03 -1.027554030841812294e+00 9.791873045486181315e-01 2.006346396615368843e-01 3.062619758796190569e-02
-3.567534789802234013e-02 1.050150937673096918e-01 -9.399145699172053448e-01 9.499646815633769892e-01 -1.057535541122287329e-02 -3.121782593969640307e-01
-5.472174432043513947e-02 8.031419816630085140e-02 -1.035706010786779485e+00 8.674172413080503130e-01 1.848005070309318917e-02 4.972381896109177024e-01
-3.766464563144361621e-02 7.567065637185378668e-02 -9.409493571898736031e-01 9.944024660576668007e-01 -6.996540085065945658e-02 -7.917435305853252892e-02
1.020338903591679891e-01 -1.992336180993938555e-01 -8.093654246171120281e-01 4.048250200901081786e-01 6.051989715715579976e-01 -6.854567148389254516e-01
-4.842622444078172050e-02 1.740115367234374155e-01 -1.020693779981441729e+00 9.462372771781876191e-01 3.223452090957499294e-01 2.699224798765807384e-02
-5.015763337250909309e-02 1.799833140273338350e-01 -1.031313500524507321e+00 9.462372771781876191e-01 3.223452090957499294e-01 2.699224798765807384e-02
-5.755572448845622247e-02 4.160693660896563895e-02 -1.147170051855866513e+00 9.308634952255995243e-01 -3.646534539160994209e-02 -3.635428885865472082e-01
-5.133562909122443146e-02 1.529361962048773373e-02 -1.130317101402263713e+00 9.535314159626656627e-01 1.676333781671020262e-01 -2.503535286280564875e-01
1.110513180166856073e-01 -1.321127030911083688e-01 -7.755702284129659674e-01 6.426915612728162364e-01 7.867021750407567071e-02 -7.620751629246103054e-01
-3.797997396398045816e-02 -5.938945579046288337e-02 -1.031489797039262690e+00 9.777853232827939944e-01 2.047613501434943084e-01 4.481797697548903919e-02
-4.681995065316580523e-02 -1.609680587782489139e-02 -1.036422237043746364e+00 9.777853232827939944e-01 2.047613501434943084e-01 4.481797697548903919e-02
-1.228269538804962167e-02 2.022048223695432634e-01 -7.688171303562171266e-01 6.759308632200556888e-01 -2.164695416393468963e-01 -7.044561062898394566e-01
-3.040265100177782023e-02 1.205168306903206810e-01 -8.156920532094924514e-01 8.005754327764555978e-01 2.292637027404596239e-01 -5.536398929272754454e-01
1.611897372810511611e-02 -2.295801921241059917e-02 -8.117269873901001853e-01 9.699939654535514322e-01 1.601014638885515928e-02 -2.426012823467795509e-01
1.484010796733982972e-02 -4.151715441943525098e-02 -8.180650682411511054e-01 9.699939654535514322e-01 1.601014638885515928e-02 -2.426012823467795509e-01
6.446250403931121087e-02 -8.392277597362628183e-03 -7.145646139450496648e-01 8.687818178221798915e-01 2.179651092755779951e-01 -4.446452115564430430e-01
1.110087453641963595e-01 3.767422299391070400e-02 -6.488976927686567198e-01 9.018111038061739082e-01 -7.877954999772364408e-02 -4.248888272878523775e-01
-5.555903529066034963e-02 2.737388040119318952e-02 -1.012165084286869909e+00 9.924262744611931364e-01 9.120625744780730404e-02 8.228917523855101834e-02
-5.341345556386255938e-02 7.068431024679183716e-02 -1.037630383103780529e+00 8.674172413080503130e-01 1.848005070309318917e-02 4.972381896109177024e-01
-1.490968399997118915e-02 -1.164109115812843598e-01 -9.648369026492062961e-01 9.273017825067506603e-01 3.698294350477230874e-01 -5.777190607972867986e-02
2.288123812286426556e-02 -1.402409259212654136e-01 -8.655427185588489003e-01 8.533371231843230875e-01 2.762044362043777346e-01 -4.421841964798440272e-01
9.139443980100409037e-02 -9.465681795762453943e-02 -7.806632342109203204e-01 2.928425998562650956e-01 6.630144209529217347e-01 -6.889521676559884344e-01
-3.445596683598261406e-02 1.418100201407707095e-01 -8.414097395224526821e-01 9.957324778623874995e-01 -5.759178265367395633e-02 -7.211115794939175483e-02
-3.359154125954916248e-03 -9.779867906485803508e-02 -8.828170010970826098e-01 9.051684583320912525e-01 2.496465897528385991e-01 -3.440154680613695670e-01
-4.949264101344225814e-02 -1.180316485138738040e-03 -1.046262107766403382e+00 9.777853232827939944e-01 2.047613501434943084e-01 4.481797697548903919e-02
-3.928746901689982723e-02 5.568631489330263390e-02 -9.436715406478312085e-01 9.944024660576668007e-01 -6.996540085065945658e-02 -7.917435305853252892e-02
-4.809905383602214313e-02 8.539339104992646479e-02 -9.774506766460101526e-01 9.519774682986966718e-01 -1.520098600921396259e-02 -3.057904999766202780e-01
2.148392764985762246e-02 -6.947198849381960731e-04 -7.888070277073649939e-01 9.699939654535514322e-01 1.601014638885515928e-02 -2.426012823467795509e-01
1.931680968079273891e-02 -1.696081559684302353e-01 -9.041007900691615529e-01 8.353696075369752005e-01 4.050632763108528156e-01 -3.715930044926004649e-01
-5.923295210109305597e-02 6.647224674820205459e-02 -1.011191980524535072e+00 9.924262744611931364e-01 9.120625744780730404e-02 8.228917523855101834e-02
-2.203900053904684492e-02 7.670150362475708361e-02 -8.190655335990683072e-01 7.763686854040804386e-01 1.862265615881570080e-01 -6.021389640963223933e-01
7.552825726424513414e-03 -8.009032081814496107e-02 -8.412548838256815875e-01 9.051684583320912525e-01 2.496465897528385991e-01 -3.440154680613695670e-01
9.054911606679937053e-02 3.037661295919124801e-02 -6.763500406349300942e-01 7.017792541898767444e-01 -8.276407216577966186e-02 -7.075704818230041937e-01
1.721465341236548194e-02 1.885899400059969089e-02 -7.928537769724549600e-01 7.312928003541746547e-01 4.328225911369632528e-01 -5.271389235786279048e-01
-3.576519893441678505e-02 1.090005791327407908e-01 -8.659224410701505947e-01 9.911867557912822368e-01 -1.324719261026389705e-01 -6.275834816805043190e-05
1.574533467859097480e-01 -1.850478511761044220e-01 -7.640420075121544530e-01 1.983663669794808737e-01 4.608920495342913592e-01 -8.650024873533268543e-01
-5.986790830377514833e-02 8.094078601959747710e-02 -1.019570653624708445e+00 9.924262744611931364e-01 9.120625744780730404e-02 8.228917523855101834e-02
-3.445821490627631184e-02 1.132199409372672827e-01 -9.338595376663748615e-01 9.944024660576668007e-01 -6.996540085065945658e-02 -7.917435305853252892e-02
1.190385427414008546e-01 -3.724973809630800076e-02 -7.008671874834810911e-01 2.982862218986619407e-01 5.641166418036320795e-01 -7.699335973092841234e-01
-1.088383675520109527e-02 -1.053639694602535593e-01 -9.080755436528274993e-01 8.931029830841005213e-01 4.243903303857533005e-01 -1.491975505206169506e-01
-4.679930615172166880e-02 -2.082255840562247107e-02 -1.008319494488417511e+00 9.791873045486181315e-01 2.006346396615368843e-01 3.062619758796190569e-02
-5.492892741022959574e-02 2.444793128155150000e-02 -1.016521316398324881e+00 9.924262744611931364e-01 9.120625744780730404e-02 8.228917523855101834e-02
1.450095304980197619e-01 -1.441666190624849853e-01 -7.577090022241474987e-01 3.097035182034498790e-01 2.264891314604207673e-01 -9.234643491454933573e-01
-3.716373370021459899e-02 9.852501900288679337e-02 -8.418859570430494710e-01 9.911867557912822368e-01 -1.324719261026389705e-01 -6.275834816805043190e-05
-3.111491735466904301e-02 1.982189314520027557e-01 -1.048534806277913622e+00 7.596275001691674689e-01 -4.235878691028029941e-01 4.934970903011364762e-01
-2.546245077509098897e-02 2.055736206529413801e-01 -8.173555551839661870e-01 9.715572209064904374e-01 -2.345048504744501328e-01 -3.292478714301404208e-02
-4.022962054185769826e-02 -4.141375375447155921e-02 -1.080719685106046102e+00 9.833177431148316661e-01 1.818240199656427081e-01 5.122678897573113357e-03
-5.094739951326833494e-02 4.133964905391124441e-03 -1.038803447201105401e+00 9.777853232827939944e-01 2.047613501434943084e-01 4.481797697548903919e-02
1.109593750842388787e-01 -6.640616592421424991e-02 -7.408866178149124959e-01 4.635872604844328282e-01 7.023742866172508759e-01 -5.401455483621487863e-01
-1.326310513844056356e-02 -1.039288905702455273e-01 -9.182358853010585964e-01 8.931029830841005213e-01 4.243903303857533005e-01 -1.491975505206169506e-01
6.333419754822693093e-02 -1.197655902284513463e-01 -8.088466052098247649e-01 4.954144796900774028e-01 2.931118607016204303e-01 -8.177101750800483959e-01
1.914516861147975632e-02 -1.083866935918066793e-01 -8.449108136397418534e-01 7.481683312284648224e-01 4.765808994706010049e-01 -4.616435794058084130e-01
-4.530164703041141515e-03 -1.079817790633380153e-01 -8.945762335706538559e-01 8.794382310950037418e-01 3.141038628892433016e-01 -3.576690663260470027e-01
-2.895246459626042365e-02 -1.199645118493167240e-01 -1.028684938689596873e+00 9.471979950941779025e-01 1.594186475772198797e-01 -2.782115254518039982e-01
-6.882127314168066598e-03 -1.036688957247195869e-01 -8.965716885559328331e-01 8.794382310950037418e-01 3.141038628892433016e-01 -3.576690663260470027e-01
-3.071299235971877706e-02 1.788321821504775672e-02 -8.621822766517157621e-01 7.777256396504514946e-01 3.365934681208684887e-01 -5.308932723708805757e-01
-6.365407138532630515e-02 5.586007862054433865e-02 -1.167821477275802877e+00 9.424822818030980098e-01 -1.203992950808177032e-01 -3.118191113951609972e-01
-3.614506944334694438e-02 7.362732849109253352e-02 -9.200583426232014084e-01 9.944024660576668007e-01 -6.996540085065945658e-02 -7.917435305853252892e-02
-3.264106043536973284e-02 -5.501971060367449873e-02 -9.656400546908907589e-01 9.279739769484494083e-01 1.252617844351350262e-01 -3.509612278679863917e-01
6.031746166475503157e-02 -1.197329809845746745e-01 -8.106626233140125093e-01 4.954144796900774028e-01 2.931118607016204303e-01 -8.177101750800483959e-01
-3.557084506917353173e-02 4.170331490974712313e-02 -8.541964675026912923e-01 7.777256396504514946e-01 3.365934681208684887e-01 -5.308932723708805757e-01
-4.749799122744473301e-02 2.803271856428879438e-02 -9.732832537186417721e-01 9.499646815633769892e-01 -1.057535541122287329e-02 -3.121782593969640307e-01
-3.424351669482229160e-02 1.252713886328404858e-01 -9.358195424552395725e-01 9.462372771781876191e-01 3.223452090957499294e-01 2.699224798765807384e-02
-3.615553556800801122e-02 -3.826346776256586008e-02 -9.689521715138130764e-01 9.279739769484494083e-01 1.252617844351350262e-01 -3.509612278679863917e-01
-3.403678813013755189e-02 1.229206852697115465e-01 -8.758121279621225996e-01 9.997182357897742566e-01 2.328393158428896173e-02 4.616011195773062417e-03
2.621591071183859006e-02 -1.939496470308820220e-01 -9.124397859741973926e-01 8.618789230670008683e-01 2.541114413149352935e-01 -4.388531615081664450e-01
-2.940558072173065501e-02 1.826181599077126017e-01 -1.064556697477732738e+00 7.596275001691674689e-01 -4.235878691028029941e-01 4.934970903011364762e-01
-2.342871093418211551e-02 1.681791701198803168e-01 -1.086150290998769474e+00 7.596275001691674689e-01 -4.235878691028029941e-01 4.934970903011364762e-01
-3.843764342295204195e-02 1.345632072852257811e-02 -8.956798995517379902e-01 9.944024660576668007e-01 -6.996540085065945658e-02 -7.917435305853252892e-02
-4.065427579406098030e-02 2.051214660086677841e-02 -9.538090227736606419e-01 9.877631277891826267e-01 1.559598571451913385e-01 -7.254925103347164336e-04
-1.437774096090297174e-02 -9.224563913049491082e-02 -9.077791919671780452e-01 9.051684583320912525e-01 2.496465897528385991e-01 -3.440154680613695670e-01
-3.823987176418847111e-02 -5.676311675531356404e-02 -1.067188092414214307e+00 9.783489863660655983e-01 1.765276459798083009e-01 1.080335646052640458e-01
9.634540179421464956e-02 -1.776158809878723988e-01 -7.982262715160748368e-01 7.017340372507633317e-01 4.620563489689896164e-01 -5.422852306131817901e-01
-3.449474864405506491e-02 -7.042728479341676950e-02 -9.816865009600482805e-01 9.258219034589059149e-01 3.650526685238760782e-01 -9.793034401719123705e-02
-4.598390820959413761e-02 4.910204213665932821e-02 -1.049788894230962111e+00 8.674172413080503130e-01 1.848005070309318917e-02 4.972381896109177024e-01
-7.092700410922267093e-03 -1.016272042464164832e-01 -8.954189536042326258e-01 9.051684583320912525e-01 2.496465897528385991e-01 -3.440154680613695670e-01
-4.314030599341533989e-02 -2.550397299641584889e-02 -1.086703203821878905e+00 9.833177431148316661e-01 1.818240199656427081e-01 5.122678897573113357e-03
1.757645366229348277e-02 -1.901416600850363292e-01 -9.268796898476056034e-01 8.351939900721891963e-01 3.658830020936198468e-01 -4.105857130079614281e-01
-3.406466416392596452e-02 2.620446270251909973e-02 -8.618164866645361410e-01 7.777256396504514946e-01 3.365934681208684887e-01 -5.308932723708805757e-01
-5.774826058969860509e-02 4.928020980617438956e-02 -1.010042686200764539e+00 9.924262744611931364e-01 9.120625744780730404e-02 8.228917523855101834e-02
3.255204566786190634e-02 -1.869220957719976151e-01 -8.932204111045036754e-01 8.353696075369752005e-01 4.050632763108528156e-01 -3.715930044926004649e-01
4.152060897997625344e-02 -2.163462445228599151e-01 -8.953507779647805753e-01 8.618789230670008683e-01 2.541114413149352935e-01 -4.388531615081664450e-01
-3.415666658816358253e-02 6.814616030842052252e-02 -8.373354169410907044e-01 7.763686854040804386e-01 1.862265615881570080e-01 -6.021389640963223933e-01
-3.921976911916195269e-02 -5.321134844709901612e-02 -1.032667540835550124e+00 9.777853232827939944e-01 2.047613501434943084e-01 4.481797697548903919e-02
-3.813624870738796546e-04 5.555627657657060542e-02 -7.976809200397917410e-01 7.763686854040804386e-01 1.862265615881570080e-01 -6.021389640963223933e-01
-3.604012423762197742e-02 6.703184140263783453e-02 -9.067768452981247451e-01 9.957546227263162075e-01 5.807067274228461945e-03 9.186408051487998661e-02
-4.405793642228730128e-02 -2.013921294125616338e-02 -1.100976977078100827e+00 9.833177431148316661e-01 1.818240199656427081e-01 5.122678897573113357e-03
-3.502065312139394926e-02 -9.038174198452035568e-02 -1.041408164788047319e+00 9.783489863660655983e-01 1.765276459798083009e-01 1.080335646052640458e-01
2.091770764818390999e-02 -1.944768641097153472e-01 -9.231503877306660444e-01 8.618789230670008683e-01 2.541114413149352935e-01 -4.388531615081664450e-01
6.458321422349481977e-02 -1.131238893976242998e-01 -8.057091338743382902e-01 4.954144796900774028e-01 2.931118607016204303e-01 -8.177101750800483959e-01
-4.368331675842253292e-02 5.434091221844035598e-03 -1.062395257830856421e+00 9.430742057161434211e-01 -1.118584409766981980e-01 3.132071705678644014e-01
-1.453647134400585551e-02 1.430410395181334338e-01 -7.834218765270829499e-01 8.005754327764555978e-01 2.292637027404596239e-01 -5.536398929272754454e-01
1.738680668385341188e-01 -1.924077368891032314e-01 -7.641139094484108440e-01 3.289541035589906848e-01 2.691340541890133164e-01 -9.051828868397180372e-01
6.727885308278050425e-02 -4.974157682947498438e-02 -7.474971606500726562e-01 3.414395900729716438e-01 7.025985807350578760e-01 -6.243190215585965319e-01
-4.255693893963979207e-02 1.349889479324752617e-01 -9.730213632109795396e-01 9.380561377110713250e-01 -2.091118971274542881e-01 -2.762659895505503727e-01
-3.418662624830806629e-02 1.289604014522009734e-01 -8.738260927509722276e-01 9.997182357897742566e-01 2.328393158428896173e-02 4.616011195773062417e-03
9.822840519964039924e-03 1.096656377109246350e-01 -7.620186167724257720e-01 8.005754327764555978e-01 2.292637027404596239e-01 -5.536398929272754454e-01
-2.991159252568356686e-02 1.859239449353294604e-01 -8.138913695504691459e-01 9.957324778623874995e-01 -5.759178265367395633e-02 -7.211115794939175483e-02
5.449813480210789068e-02 -5.502290641705129964e-02 -7.582044253768474018e-01 2.928425998562650956e-01 6.630144209529217347e-01 -6.889521676559884344e-01
-3.698973616427527616e-02 7.533619240434175079e-02 -9.321771662309977780e-01 9.944024660576668007e-01 -6.996540085065945658e-02 -7.917435305853252892e-02
-3.071548163772088239e-02 1.653890455294209361e-01 -8.085914551292807673e-01 9.957324778623874995e-01 -5.759178265367395633e-02 -7.211115794939175483e-02
-1.864988625699064845e-02 -1.034688001933586204e-01 -9.491726692029233137e-01 8.931029830841005213e-01 4.243903303857533005e-01 -1.491975505206169506e-01
-6.846203550539653460e-02 3.282977928451387417e-02 -1.175880754319300170e+00 9.660267001629287975e-01 -1.349124234113321663e-01 -2.204337827593680355e-01
-3.801352357223220652e-02 2.495810319054048848e-02 -8.827266776393816183e-01 9.957546227263162075e-01 5.807067274228461945e-03 9.186408051487998661e-02
-5.063550014941863020e-02 1.079642344820421146e-03 -1.137167981819540152e+00 9.535314159626656627e-01 1.676333781671020262e-01 -2.503535286280564875e-01
-3.190178592286119219e-02 -5.281355648615804199e-02 -9.273301117842271957e-01 9.906842880239070670e-01 -3.281113275484870157e-03 1.361391778961430488e-01
1.540797522514353868e-01 -1.995074251253712294e-01 -7.736996803534362810e-01 5.688880569635896833e-01 3.830211804836914924e-01 -7.277782312937582931e-01
-8.374704474175490715e-03 -9.161211646676452325e-02 -8.915243529448343418e-01 9.051684583320912525e-01 2.496465897528385991e-01 -3.440154680613695670e-01
-3.966196168036151964e-02 5.770443844798400779e-02 -8.669285584344712525e-01 9.957546227263162075e-01 5.807067274228461945e-03 9.186408051487998661e-02
-6.236490153228285011e-02 7.694953523216031301e-03 -1.165950099141821017e+00 8.434474149001850440e-01 5.855429336162887299e-02 -5.340110982246673021e-01
4.395141249973304187e-02 -1.155027287684280146e-01 -8.190617368907603391e-01 4.954144796900774028e-01 2.931118607016204303e-01 -8.177101750800483959e-01
1.935082481115306674e-01 -1.793404439817946339e-01 -7.540500448248388388e-01 6.885752476564929725e-02 4.675089026075008869e-01 -8.813024834107063832e-01
6.075581432210944849e-02 -6.918158676858775225e-02 -7.691701998815284602e-01 2.928425998562650956e-01 6.630144209529217347e-01 -6.889521676559884344e-01
-8.484874709395595974e-03 -1.953090573079223824e-03 -8.455947509672124829e-01 7.312928003541746547e-01 4.328225911369632528e-01 -5.271389235786279048e-01
-3.760893209383828206e-02 5.398345651921821614e-02 -8.493963635061834161e-01 7.777256396504514946e-01 3.365934681208684887e-01 -5.308932723708805757e-01
-1.431897569121204535e-02 -1.021089104143298870e-01 -9.193794641344309460e-01 8.931029830841005213e-01 4.243903303857533005e-01 -1.491975505206169506e-01
-4.252062793858281398e-02 -5.823456873465837277e-03 -1.069916648896571454e+00 9.430742057161434211e-01 -1.118584409766981980e-01 3.132071705678644014e-01
7.633929866569481859e-02 -1.604747453727136397e-01 -8.077722619402045723e-01 6.426915612728162364e-01 7.867021750407567071e-02 -7.620751629246103054e-01
-4.885704392682059527e-02 5.530130503852235396e-02 -9.783426292862039686e-01 9.499646815633769892e-01 -1.057535541122287329e-02 -3.121782593969640307e-01
1.389580147776486585e-01 -1.881601037001813526e-01 -7.777813895249841014e-01 4.048250200901081786e-01 6.051989715715579976e-01 -6.854567148389254516e-01
-4.652257294440949320e-02 5.070456625486458729e-02 -9.710830682451098150e-01 9.499646815633769892e-01 -1.057535541122287329e-02 -3.121782593969640307e-01
-4.015665858746388789e-02 1.460571679699644750e-02 -1.069738565492620808e+00 9.430742057161434211e-01 -1.118584409766981980e-01 3.132071705678644014e-01
-3.663689710445641040e-02 4.709826509855680882e-02 -8.990480904300367504e-01 9.957546227263162075e-01 5.807067274228461945e-03 9.186408051487998661e-02
1.232814871580826810e-01 -1.256947890763675801e-01 -7.660559682826183492e-01 5.748163403556795226e-01 1.050743381841804935e-01 -8.115081997831322669e-01
-1.361536338189641565e-02 2.213012127304818943e-01 -7.808963354032986137e-01 8.705791673220701909e-01 -4.304415582985685051e-01 -2.383526343766958489e-01
-3.630178756903260084e-02 -7.711395956492227144e-02 -1.034271602846701166e+00 9.939727627380871011e-01 9.496084506422594607e-02 -5.477759432014627644e-02
2.012825687065774097e-02 -1.874746589387920048e-01 -9.193123025980949325e-01 8.351939900721891963e-01 3.658830020936198468e-01 -4.105857130079614281e-01
-4.266305598463624588e-02 2.397484094132372109e-02 -9.611355594248580658e-01 9.343600717630962116e-01 1.399818437864281673e-01 -3.276832917696810288e-01
-3.985943024032184701e-02 -5.193667135670310131e-02 -1.105870243402748532e+00 9.856430035767546061e-01 1.189246024795870688e-01 -1.198532787422435242e-01
-3.996924157026498364e-02 2.621586909158841322e-02 -9.261916978458982763e-01 9.944024660576668007e-01 -6.996540085065945658e-02 -7.917435305853252892e-02
3.185973705030087366e-02 -2.097624502686235015e-01 -9.105118501204565451e-01 8.618789230670008683e-01 2.541114413149352935e-01 -4.388531615081664450e-01
-2.760578652481220779e-02 -1.182472841620049904e-02 -8.786063564812243154e-01 7.275820986782274291e-01 3.660406568733709509e-01 -5.802055904579833667e-01
-3.790713014428724603e-02 4.240731409376850142e-02 -1.066582919091862536e+00 9.430742057161434211e-01 -1.118584409766981980e-01 3.132071705678644014e-01
6.040129222466764092e-02 -8.337365469382422567e-02 -7.829786546871265740e-01 2.928425998562650956e-01 6.630144209529217347e-01 -6.889521676559884344e-01
1.542220515755776955e-01 -1.811334172312977497e-01 -7.638875605263527602e-01 4.219390462441500733e-01 2.544498978970022862e-01 -8.701854346717036170e-01
-2.201919529018302570e-04 -3.778929784821955136e-03 -8.356284246281452388e-01 7.312928003541746547e-01 4.328225911369632528e-01 -5.271389235786279048e-01
-2.847362498378300244e-02 -1.007685469315942051e-01 -1.012921025049846602e+00 9.372513668974770118e-01 2.654787081893850709e-01 -2.260109084688304570e-01
3.451866917664505631e-03 1.233186881268713911e-02 -8.173059912490802104e-01 7.312928003541746547e-01 4.328225911369632528e-01 -5.271389235786279048e-01
1.007090140230525177e-01 -7.950867580551847225e-02 -7.621261841386618441e-01 2.928425998562650956e-01 6.630144209529217347e-01 -6.889521676559884344e-01
-3.607402374893205199e-02 8.430484193178083840e-02 -1.106908388536939958e+00 8.584103504077764679e-01 -3.279878366717047661e-02 -5.119139674816000074e-01
-3.104772804545100767e-02 1.548947701824200940e-01 -8.047979300515901713e-01 9.957324778623874995e-01 -5.759178265367395633e-02 -7.211115794939175483e-02
-3.490642258688539390e-02 1.619885839176277431e-01 -8.845349955355300553e-01 9.997182357897742566e-01 2.328393158428896173e-02 4.616011195773062417e-03
7.085503219329111237e-03 -1.685748011546552849e-01 -9.403593068171247626e-01 9.421833346794982189e-01 2.230543509694308257e-01 -2.500746295925013185e-01
-1.273754422054191975e-02 2.176103720970555544e-02 -8.333907732711199889e-01 7.777256396504514946e-01 3.365934681208684887e-01 -5.308932723708805757e-01
-3.396148729423393436e-02 1.387249340952641519e-01 -8.321179050350832052e-01 9.957324778623874995e-01 -5.759178265367395633e-02 -7.211115794939175483e-02
-6.008331594060171976e-02 4.709865525970363676e-02 -1.154192882204620352e+00 9.308634952255995243e-01 -3.646534539160994209e-02 -3.635428885865472082e-01
1.147759431696757648e-01 -6.507808524852838616e-02 -7.358840364393397504e-01 4.635872604844328282e-01 7.023742866172508759e-01 -5.401455483621487863e-01
-4.073362077978712192e-02 -4.449173395415662730e-02 -1.105672114220839442e+00 9.856430035767546061e-01 1.189246024795870688e-01 -1.198532787422435242e-01
-5.427319951823571242e-03 5.025156831281245469e-03 -8.356233550619978079e-01 7.312928003541746547e-01 4.328225911369632528e-01 -5.271389235786279048e-01
-3.224667344919155548e-02 -7.087595804405136257e-02 -9.516203589370655358e-01 9.273017825067506603e-01 3.698294350477230874e-01 -5.777190607972867986e-02
-2.992394071012543719e-02 2.785043433236536470e-02 -8.547070160939534977e-01 7.777256396504514946e-01 3.365934681208684887e-01 -5.308932723708805757e-01
1.564599532701398954e-01 -1.707421174327824753e-01 -7.603867724367845415e-01 3.097035182034498790e-01 2.264891314604207673e-01 -9.234643491454933573e-01
-3.403439153571908432e-02 1.317747993024140085e-01 -9.209928035878262031e-01 9.997182357897742566e-01 2.328393158428896173e-02 4.616011195773062417e-03
-2.231268991170692884e-02 1.577333995491513319e-01 -7.885823151424949939e-01 8.005754327764555978e-01 2.292637027404596239e-01 -5.536398929272754454e-01
-2.698956894150758914e-02 1.864366245015321444e-01 -7.834591056048795243e-01 8.005754327764555978e-01 2.292637027404596239e-01 -5.536398929272754454e-01
-3.772192861403310393e-02 2.898193454137092118e-02 -9.004105630610254041e-01 9.944024660576668007e-01 -6.996540085065945658e-02 -7.917435305853252892e-02
-2.689416884366116825e-02 1.593960499110063933e-01 -1.082658238332728340e+00 8.994224278969767949e-01 -8.838794019942837824e-03 4.369910432905696474e-01
1.221130603220071387e-01 -1.812121563478268638e-01 -7.815954428082145800e-01 4.048250200901081786e-01 6.051989715715579976e-01 -6.854567148389254516e-01
4.533148834451070780e-02 -4.687489874572936532e-02 -7.648396416283395061e-01 8.227326198280143776e-01 1.607893639148864351e-01 -5.452135514849004716e-01
-4.080025601702797107e-03 -1.161312019380772026e-01 -9.006262274727636630e-01 8.794382310950037418e-01 3.141038628892433016e-01 -3.576690663260470027e-01
1.395244271102847045e-01 -1.901689336555770216e-01 -7.792204941653998462e-01 4.048250200901081786e-01 6.051989715715579976e-01 -6.854567148389254516e-01
-3.459463591195795218e-02 1.484690235497230504e-01 -8.838656526930319668e-01 9.997182357897742566e-01 2.328393158428896173e-02 4.616011195773062417e-03
-1.101086199144109615e-02 7.331484776274149739e-02 -8.058937964700882972e-01 7.763686854040804386e-01 1.862265615881570080e-01 -6.021389640963223933e-01
7.326824574806854729e-02 1.814342101950440142e-02 -6.951327461471531466e-01 7.282075629335144074e-01 5.051015242397636357e-02 -6.834928454552673394e-01
1.024253653333943997e-01 9.391873190606535998e-03 -6.731299549749230060e-01 2.982862218986619407e-01 5.641166418036320795e-01 -7.699335973092841234e-01
-3.157393810144657614e-02 -4.055966957341447521e-02 -9.294205261595046563e-01 9.906842880239070670e-01 -3.281113275484870157e-03 1.361391778961430488e-01
-4.780714022065644248e-02 -1.221635907826263551e-02 -1.032476700859948915e+00 9.791873045486181315e-01 2.006346396615368843e-01 3.062619758796190569e-02
-4.093562926582874212e-02 -7.376528965142057671e-03 -1.075405292950581959e+00 9.454959880578924780e-01 -1.884779958360508212e-01 -2.655435588600389418e-01
-3.552627856587047689e-02 2.080133681512546240e-01 -1.029173486206073518e+00 8.685657835385014458e-01 -4.869288308739547211e-01 9.216177803120445544e-02
1.772386772352708417e-01 -1.789553928109439140e-01 -7.565137509222894519e-01 2.567081726528790964e-01 2.595585538574277651e-01 -9.309834967455975496e-01
2.952527330387323332e-02 -3.690500989211788208e-02 -7.857511479396239729e-01 8.227326198280143776e-01 1.607893639148864351e-01 -5.452135514849004716e-01
-3.960992186610858695e-02 1.660836479718968972e-02 -9.131887335111328330e-01 9.944024660576668007e-01 -6.996540085065945658e-02 -7.917435305853252892e-02
1.824127446775979447e-02 7.047714260969820121e-02 -7.659794712976448761e-01 8.006913355897494755e-01 2.279135345629779985e-01 -5.540296073988404402e-01
-3.903323225310950662e-02 -4.648302262215454200e-03 -9.630128537934401489e-01 9.343600717630962116e-01 1.399818437864281673e-01 -3.276832917696810288e-01
8.298953968159408778e-02 1.492951237285072841e-02 -6.850129844052923467e-01 7.282075629335144074e-01 5.051015242397636357e-02 -6.834928454552673394e-01
-4.394850879259480647e-02 1.373778154384239780e-01 -1.050504380441976693e+00 8.530624887031630355e-01 -7.134725864542108831e-02 5.169080760167608091e-01
3.087215957393385415e-03 -1.512838885396706468e-01 -9.400006392238007269e-01 9.421833346794982189e-01 2.230543509694308257e-01 -2.500746295925013185e-01
-1.494692293512618793e-02 -1.014128989272761183e-01 -9.211585885965271059e-01 8.931029830841005213e-01 4.243903303857533005e-01 -1.491975505206169506e-01
-2.772310731311115883e-02 1.971007403558580895e-01 -8.237162844253682614e-01 9.715572209064904374e-01 -2.345048504744501328e-01 -3.292478714301404208e-02
-2.138157676188196660e-02 -9.896271525970375127e-02 -9.570223968706290663e-01 9.273017825067506603e-01 3.698294350477230874e-01 -5.777190607972867986e-02
8.701121044254668535e-03 -5.464873029055703629e-02 -8.396614577804101254e-01 9.402976458254179715e-01 -3.659295757971924717e-02 -3.383803964634265471e-01
-4.783015063921920024e-02 1.707019144906259389e-01 -1.002065704990960704e+00 9.462372771781876191e-01 3.223452090957499294e-01 2.699224798765807384e-02
7.168512799541996994e-02 -1.754484209806030925e-01 -8.243803123311290726e-01 5.826185565543120504e-01 6.366091725894227338e-01 -5.052567455597005708e-01
1.917685286217034324e-02 6.661856658769235717e-02 -7.662146792786725946e-01 8.006913355897494755e-01 2.279135345629779985e-01 -5.540296073988404402e-01
-7.688746281771410666e-04 1.441975480061387371e-01 -7.646437030484337649e-01 6.931435488346020524e-01 1.418903969799047426e-01 -7.066959289212432216e-01
-4.092547403284273883e-02 8.350594443499033404e-02 -1.114992427135040876e+00 8.584103504077764679e-01 -3.279878366717047661e-02 -5.119139674816000074e-01
-4.296072983705308962e-02 1.331517727769435944e-01 -9.730018289481225935e-01 9.380561377110713250e-01 -2.091118971274542881e-01 -2.762659895505503727e-01
-3.578805069959251767e-02 -8.592257744370884742e-02 -1.041744941388807577e+00 9.783489863660655983e-01 1.765276459798083009e-01 1.080335646052640458e-01
-3.734941664443179599e-02 -5.707635516603022652e-02 -1.077658482958621544e+00 9.833177431148316661e-01 1.818240199656427081e-01 5.122678897573113357e-03
-7.266512210575802599e-04 1.536437899895531922e-01 -7.627056730539207852e-01 6.931435488346020524e-01 1.418903969799047426e-01 -7.066959289212432216e-01
7.838763752410431163e-02 -5.865879804299280187e-02 -7.514570722937889968e-01 3.414395900729716438e-01 7.025985807350578760e-01 -6.243190215585965319e-01
2.752270758006325133e-02 -1.653187103927091783e-01 -8.809774952757261079e-01 8.353696075369752005e-01 4.050632763108528156e-01 -3.715930044926004649e-01
-2.945152269792145755e-02 -6.195269836948971709e-02 -9.453809321006620969e-01 9.906842880239070670e-01 -3.281113275484870157e-03 1.361391778961430488e-01
-5.235007133479657737e-02 4.092761297261029302e-02 -1.038379506054965873e+00 8.674172413080503130e-01 1.848005070309318917e-02 4.972381896109177024e-01
4.980237617455674642e-02 -1.784927888442597310e-01 -8.534494339512231909e-01 5.826185565543120504e-01 6.366091725894227338e-01 -5.052567455597005708e-01
-3.754656775823311116e-02 6.496568188965369528e-02 -9.300064858485680430e-01 9.944024660576668007e-01 -6.996540085065945658e-02 -7.917435305853252892e-02
-5.879229354898454080e-02 1.624744000035061031e-02 -1.158078929743222574e+00 9.535314159626656627e-01 1.676333781671020262e-01 -2.503535286280564875e-01
1.095549528179615290e-01 -7.076753345191745537e-02 -7.477632544699694961e-01 4.635872604844328282e-01 7.023742866172508759e-01 -5.401455483621487863e-01
-4.436299538332131448e-02 -3.560026891671533994e-02 -1.126696601550160048e+00 9.856430035767546061e-01 1.189246024795870688e-01 -1.198532787422435242e-01
-3.848414744033785279e-02 8.864338430625118281e-02 -8.377021322815866311e-01 9.911867557912822368e-01 -1.324719261026389705e-01 -6.275834816805043190e-05
1.418470740365619827e-02 -1.541670147501236765e-01 -8.968763363762600749e-01 8.123138550605480956e-01 4.523725903700145379e-01 -3.681103643726888475e-01
1.060433224769218585e-01 -1.342377354285513025e-01 -7.800130621296486044e-01 6.426915612728162364e-01 7.867021750407567071e-02 -7.620751629246103054e-01
-1.687917985214982403e-02 8.069042226052565436e-02 -8.111790388050834633e-01 7.763686854040804386e-01 1.862265615881570080e-01 -6.021389640963223933e-01
-4.584097856854970482e-02 -2.424315683660905121e-02 -1.016550737321906706e+00 9.791873045486181315e-01 2.006346396615368843e-01 3.062619758796190569e-02
-3.885632956617170175e-02 2.034037525163606003e-02 -1.071605817776770886e+00 9.430742057161434211e-01 -1.118584409766981980e-01 3.132071705678644014e-01
-4.987436172531298229e-02 7.477855009382811113e-02 -1.130828965196269964e+00 9.308634952255995243e-01 -3.646534539160994209e-02 -3.635428885865472082e-01
-5.776556733278676026e-02 1.111661092678793011e-01 -1.008825339285003952e+00 9.519774682986966718e-01 -1.520098600921396259e-02 -3.057904999766202780e-01
9.151079637141330825e-02 -1.291598078515553139e-01 -7.917447792357727998e-01 6.426915612728162364e-01 7.867021750407567071e-02 -7.620751629246103054e-01
-3.860698587614551369e-02 4.658268717266191711e-02 -1.062984449077604143e+00 9.430742057161434211e-01 -1.118584409766981980e-01 3.132071705678644014e-01
-4.218039624982117264e-02 2.733474786723703517e-02 -1.059099012275737106e+00 9.430742057161434211e-01 -1.118584409766981980e-01 3.132071705678644014e-01
4.140254797457927627e-02 -1.785150934355104191e-01 -8.641595611469442551e-01 8.353696075369752005e-01 4.050632763108528156e-01 -3.715930044926004649e-01
5.322887954122003731e-03 9.625349212354784856e-02 -7.740455767291186673e-01 8.006913355897494755e-01 2.279135345629779985e-01 -5.540296073988404402e-01
1.877254875802835954e-01 -1.826941965124280476e-01 -7.562809425911752870e-01 6.885752476564929725e-02 4.675089026075008869e-01 -8.813024834107063832e-01
7.974172041210929318e-02 -4.789597117637497958e-02 -7.386042132420888029e-01 3.414395900729716438e-01 7.025985807350578760e-01 -6.243190215585965319e-01
