-1.913542380004907423e-02 1.951157472739573906e-01 -5.746497505624419411e-01 7.815232341099522806e-01 -2.646596691794725342e-01 -5.649572497597785681e-01
1.311792023466650803e-01 -4.741979394786045160e-02 -6.044237361669231312e-01 -1.490428302312785669e-01 6.483019286484409394e-01 -7.466530948622407404e-01
1.579668263444322998e-02 -4.522805498013801606e-02 -6.694153527195207953e-01 3.473031508510475152e-01 4.551776390038892450e-01 -8.198742820455948710e-01
8.090707231475928463e-02 -1.745693449351551629e-01 -6.965175886790956339e-01 5.161139425688734406e-01 5.324560556778670239e-01 -6.709075547778411419e-01
-4.610323042462789733e-02 1.022095000383185237e-01 -6.599477462058986887e-01 9.168135312790443026e-01 7.039633680417616002e-02 -3.930614514655463299e-01
-1.092174732131855203e-01 6.787790383613009904e-02 -7.677950217663001009e-01 7.377401070665456917e-01 1.513232365831759241e-01 -6.579063858144513777e-01
4.081468443670665386e-02 -3.989187922425895677e-02 -6.458046782843467337e-01 7.193267942370112911e-01 1.253627100193300536e-01 -6.832665322034396915e-01
-1.240505123179060365e-01 4.902452177686159734e-02 -8.677682458119178044e-01 5.779577797603510092e-01 9.802682026305706287e-02 -8.101577299042452829e-01
9.783625706447614256e-02 -2.206419232708156652e-01 -7.099058350515878857e-01 5.467551970860085042e-01 3.848454257583176497e-01 -7.436079294442328180e-01
1.605403712924061976e-01 -1.572096852019196633e-01 -6.511156685809112998e-01 3.178807645207409882e-01 5.468503327307041584e-01 -7.745363342929934003e-01
-1.044569182287535397e-01 -3.232377343551516569e-02 -8.432916090155795352e-01 7.853195602213729476e-01 -1.571196694550503620e-02 -6.188912040321890018e-01
-1.732576075259929238e-01 1.689042337982270270e-02 -9.176007688481782054e-01 7.498512644602822741e-01 4.624149854754144862e-02 -6.599884885355149500e-01
1.376227863144811187e-02 1.011905002840035456e-01 -5.942710469431051745e-01 4.530661679664970132e-01 3.373004279830202345e-01 -8.252026834218519902e-01
1.927866610783396939e-01 -1.619363082520752506e-01 -6.509113905917867093e-01 -3.475851692575028518e-02 6.147320615418068179e-01 -7.879697570425421294e-01
-1.082394114621566122e-01 3.009276694638436667e-02 -7.825954936903256609e-01 9.010065872140506915e-01 2.958359289358239996e-01 -3.172825758650599792e-01
1.444280099445128564e-02 1.568904676506541196e-01 -5.715733723776635911e-01 3.163840418338313420e-01 2.188904257059724190e-01 -9.230320252337657072e-01
-6.364271498522101889e-02 -1.223528510348019793e-01 -8.205861953669653097e-01 9.085174313396031653e-01 2.467613632020109471e-01 -3.372015815247235149e-01
1.542786094979778366e-01 -9.377604617915471716e-03 -5.725381156024074158e-01 -8.912133227645392675e-02 7.021387316188913985e-01 -7.064407899420053205e-01
-4.546704836817128115e-02 5.749827102724938688e-02 -6.780377379246109726e-01 9.263268197161537154e-01 2.139672182893233576e-01 -3.100591114160097805e-01
-4.802612000972650980e-02 -1.052409855403928507e-01 -7.841757185027680155e-01 6.941986823729268119e-01 4.289590041490201067e-01 -5.779985831740188651e-01
-8.291605580011669752e-02 7.912757962589973826e-02 -7.357145490662051479e-01 7.377401070665456917e-01 1.513232365831759241e-01 -6.579063858144513777e-01
-2.622998345920433873e-03 4.866359765650615787e-02 -6.226445342304824937e-01 4.177392452604585804e-01 4.406740265532712586e-01 -7.945440990219166943e-01
9.634701752014762643e-02 -3.033257550498666411e-02 -5.957630419064083860e-01 4.908691639882964974e-01 2.769726872050276567e-01 -8.260348626951873330e-01
-8.881755624125277360e-02 -2.842292969494586777e-02 -7.897388369880543602e-01 8.452711130921500837e-01 3.956313903729404280e-01 -3.591553261800966013e-01
1.637966587114045025e-01 2.820548586185538803e-02 -5.386852960317747296e-01 -1.539418109881465213e-01 5.460975119287382329e-01 -8.234557828413932024e-01
8.510638863801667231e-02 -1.286966847194299379e-01 -6.588374816707438519e-01 5.329935097439207903e-01 4.044061716175617049e-01 -7.432183844123370076e-01
7.643152187983220935e-02 -1.693015868935702495e-01 -6.957798481581746186e-01 5.161139425688734406e-01 5.324560556778670239e-01 -6.709075547778411419e-01
-3.576186347367961427e-02 -8.467445622038287378e-02 -7.422910158217911336e-01 7.276534240977409196e-01 5.428892833121422568e-01 -4.192752323518071922e-01
-5.900892002479456860e-02 9.664973152074324281e-02 -6.914773359157693200e-01 9.263268197161537154e-01 2.139672182893233576e-01 -3.100591114160097805e-01
8.709712299175281780e-02 -1.149350316431179686e-01 -6.499217362251769048e-01 5.329935097439207903e-01 4.044061716175617049e-01 -7.432183844123370076e-01
2.920685049421876869e-03 1.563358248387571037e-02 -6.380491614635995790e-01 4.177392452604585804e-01 4.406740265532712586e-01 -7.945440990219166943e-01
-6.145316733907871948e-02 -6.791421548231631189e-02 -7.711507696650213850e-01 8.093851339892937924e-01 3.977183364593113168e-01 -4.321062713282127765e-01
-8.189953424616173983e-02 -1.823592508324961906e-02 -7.637243983996566676e-01 8.093851339892937924e-01 3.977183364593113168e-01 -4.321062713282127765e-01
-5.726333872836728706e-02 -7.656888844077061607e-02 -7.712686507131403246e-01 8.093851339892937924e-01 3.977183364593113168e-01 -4.321062713282127765e-01
-1.333016765370049761e-01 1.539932700287091061e-01 -8.133343448227960959e-01 9.639716850763583311e-01 -2.189952005318519523e-01 1.509956705176020153e-01
-3.107340908959851239e-02 8.908587885970002673e-02 -6.272411842468258447e-01 9.168135312790443026e-01 7.039633680417616002e-02 -3.930614514655463299e-01
2.560648628989357564e-02 5.274862587445131729e-02 -6.057616164387457092e-01 4.217463930630320212e-01 2.876863878057022705e-01 -8.598642463840612260e-01
-1.219098517838979323e-01 1.543627820610362356e-01 -7.686437419995724163e-01 7.877928106039149281e-01 5.074669400006959208e-01 -3.490842195905086709e-01
9.710617325346138431e-03 1.638088380245214526e-01 -5.715547623620560458e-01 3.163840418338313420e-01 2.188904257059724190e-01 -9.230320252337657072e-01
-1.222816554542255352e-01 1.686311170643191859e-01 -8.478518106866136383e-01 8.420780024687229970e-01 -3.726757648365481845e-01 3.898941036509515623e-01
-3.525745080607338433e-02 -8.984039600986847007e-02 -7.481046092733601993e-01 7.276534240977409196e-01 5.428892833121422568e-01 -4.192752323518071922e-01
-1.200182266952330296e-01 7.897171675544042979e-02 -7.773547364747397381e-01 7.377401070665456917e-01 1.513232365831759241e-01 -6.579063858144513777e-01
-2.621704432421692599e-02 1.839438738883635294e-01 -5.905668965066214193e-01 8.766552987447780998e-01 1.383505469676325206e-01 -4.607978009240721873e-01
1.440441873998980216e-01 5.457326030903398087e-03 -5.565023984083220521e-01 -8.912133227645392675e-02 7.021387316188913985e-01 -7.064407899420053205e-01
6.539151037643647912e-02 -1.870249727478979773e-01 -7.163635448782235127e-01 5.467551970860085042e-01 3.848454257583176497e-01 -7.436079294442328180e-01
1.992258079865185938e-01 3.144629796199113064e-02 -5.429615186716107988e-01 -1.369666793485508627e-01 5.510467952703729244e-01 -8.231570677401021108e-01
7.199964160143906833e-02 -7.941752982666586136e-02 -6.337107410359078541e-01 3.875298741809398151e-01 5.771371076092417507e-01 -7.188416763361342721e-01
-3.003150926574596827e-02 -7.854764847623904589e-02 -7.244128070760486038e-01 7.276534240977409196e-01 5.428892833121422568e-01 -4.192752323518071922e-01
-1.183139000800489393e-01 1.545480088423079879e-01 -7.602593430401962671e-01 7.877928106039149281e-01 5.074669400006959208e-01 -3.490842195905086709e-01
-1.104033689183504113e-01 3.502056092307794660e-02 -7.841459142025168916e-01 9.010065872140506915e-01 2.958359289358239996e-01 -3.172825758650599792e-01
-2.487636602524474772e-02 1.878120041687258712e-01 -5.868549198624054553e-01 8.766552987447780998e-01 1.383505469676325206e-01 -4.607978009240721873e-01
-4.195358513796899891e-02 -1.197090362735258595e-01 -7.876197666125281938e-01 6.941986823729268119e-01 4.289590041490201067e-01 -5.779985831740188651e-01
-5.647591696740056344e-02 1.116012755493760167e-01 -6.824599329214153798e-01 9.168135312790443026e-01 7.039633680417616002e-02 -3.930614514655463299e-01
2.806883038657538576e-02 6.031478754907988737e-02 -6.020224605469826074e-01 4.217463930630320212e-01 2.876863878057022705e-01 -8.598642463840612260e-01
-2.198136951897046096e-02 1.817344626801591090e-01 -5.831719968221737993e-01 8.766552987447780998e-01 1.383505469676325206e-01 -4.607978009240721873e-01
8.431908324893744311e-02 -6.697620861087432743e-03 -5.949857201631352233e-01 4.908691639882964974e-01 2.769726872050276567e-01 -8.260348626951873330e-01
2.351873594939598786e-02 1.943010512309868362e-02 -6.256422825893879214e-01 3.566023337048457309e-01 5.255449945971978343e-01 -7.724229633109631621e-01
-5.974050463453333543e-02 -1.276296956235210833e-01 -8.139340772182498407e-01 9.085174313396031653e-01 2.467613632020109471e-01 -3.372015815247235149e-01
8.092534227940853531e-02 -1.508440885398761311e-01 -6.776743281827246612e-01 5.161139425688734406e-01 5.324560556778670239e-01 -6.709075547778411419e-01
4.111480801960092774e-03 -1.374196130400631710e-01 -7.442919891246581043e-01 6.897295218218921775e-01 5.437791095106369044e-01 -4.780977586092227671e-01
1.708655592930340417e-01 -1.256843374095242827e-01 -6.317760678876758185e-01 2.635401556484929242e-01 1.423888476775142797e-01 -9.540817587700951563e-01
-1.175913431806696607e-01 -3.575776018719047794e-02 -8.657503841709474068e-01 8.432014643472346416e-01 3.759689407221754043e-01 -3.842637715618329453e-01
-6.990390348294679701e-02 -1.056391129676177432e-01 -8.235782614605038354e-01 8.797480566929223311e-01 3.784229654813028310e-01 -2.878183731824008329e-01
-1.260484152580179651e-01 1.621015074774661557e-01 -8.459577622319758294e-01 8.420780024687229970e-01 -3.726757648365481845e-01 3.898941036509515623e-01
1.307284902333383930e-02 -4.410267170467332271e-02 -6.699443932111307509e-01 3.473031508510475152e-01 4.551776390038892450e-01 -8.198742820455948710e-01
1.330904471661703004e-01 -1.123171053266566327e-01 -6.402155062089945892e-01 2.635401556484929242e-01 1.423888476775142797e-01 -9.540817587700951563e-01
-3.913109082122745441e-02 3.700412907005696389e-02 -6.732512543030448882e-01 9.263268197161537154e-01 2.139672182893233576e-01 -3.100591114160097805e-01
-1.050407572677344720e-01 3.026169256186495189e-03 -7.996665839835664924e-01 9.655350270073661534e-01 2.344501177259095126e-01 1.130276688257889905e-01
8.049335946215741000e-02 3.338844432461761380e-02 -5.832089322169632384e-01 5.585827061408781269e-01 3.504752715568354993e-01 -7.517662166042684557e-01
1.338033302211559528e-01 -1.449148791799480529e-01 -6.492307657171157986e-01 1.874266604546600823e-01 6.963037589609285538e-01 -6.928436491790153084e-01
8.369814954751618463e-02 3.694694467972751972e-02 -5.791687045109287224e-01 5.585827061408781269e-01 3.504752715568354993e-01 -7.517662166042684557e-01
-1.314905789366828948e-01 3.684088467906979775e-02 -8.745500950560671782e-01 5.779577797603510092e-01 9.802682026305706287e-02 -8.101577299042452829e-01
-9.191860933411611506e-03 -1.002157694188396814e-01 -7.194243790973342545e-01 6.497177487260583639e-01 5.815846651508059795e-01 -4.895162144932151960e-01
1.527636034278679472e-02 -1.550526143164347448e-01 -7.438419771774453793e-01 6.985563272530860290e-01 3.865338899974187226e-01 -6.021715781553818037e-01
-1.004142574789002457e-01 9.685894158777871854e-02 -7.512577301621284898e-01 7.377401070665456917e-01 1.513232365831759241e-01 -6.579063858144513777e-01
-3.052595510875763529e-02 1.685237017791356429e-01 -6.033942552849824725e-01 8.766552987447780998e-01 1.383505469676325206e-01 -4.607978009240721873e-01
1.472421492148513235e-02 4.975005642715919080e-02 -6.129214918614611651e-01 4.177392452604585804e-01 4.406740265532712586e-01 -7.945440990219166943e-01
1.615548593955623835e-01 -1.756594550190685999e-01 -6.637255050431343228e-01 3.178807645207409882e-01 5.468503327307041584e-01 -7.745363342929934003e-01
1.705409849524629484e-01 1.501634037609275198e-02 -5.486928683889072955e-01 -1.539418109881465213e-01 5.460975119287382329e-01 -8.234557828413932024e-01
-1.147850991031800216e-01 5.843962935738068742e-02 -8.313684577308861900e-01 9.655350270073661534e-01 2.344501177259095126e-01 1.130276688257889905e-01
-1.536157541314749075e-02 7.658497858860167234e-03 -6.520844181030047704e-01 4.177392452604585804e-01 4.406740265532712586e-01 -7.945440990219166943e-01
5.494478266673705202e-02 6.501699905045800476e-02 -5.864462276925925810e-01 4.530661679664970132e-01 3.373004279830202345e-01 -8.252026834218519902e-01
-8.055757484582738714e-02 4.454423348963042206e-02 -7.410896481690057991e-01 7.324547707551807285e-01 1.548966425350460641e-01 -6.629608125140926678e-01
3.570747783965373678e-02 -1.440331616148931293e-01 -7.062320274412967613e-01 6.897295218218921775e-01 5.437791095106369044e-01 -4.780977586092227671e-01
5.279593403984237515e-02 -4.981341090990578507e-02 -6.350114615515740635e-01 7.193267942370112911e-01 1.253627100193300536e-01 -6.832665322034396915e-01
-1.453136411575103593e-01 1.197882910001021872e-02 -8.887831072649393649e-01 7.011058130276935918e-01 1.214780896789360576e-01 -7.026334127172810806e-01
-9.070143412183209741e-02 -5.420669763782767075e-02 -8.238314191165583278e-01 8.486092330432628561e-01 4.005654833677643745e-01 -3.455570331046304289e-01
-7.539237913837229521e-02 8.763169297861916895e-02 -7.253219033491267176e-01 7.377401070665456917e-01 1.513232365831759241e-01 -6.579063858144513777e-01
1.466134526802396199e-01 -5.821593657989534293e-02 -6.168786827900825109e-01 -1.490428302312785669e-01 6.483019286484409394e-01 -7.466530948622407404e-01
1.258088446101090774e-01 1.574239882407768229e-02 -5.577649267364767072e-01 5.585827061408781269e-01 3.504752715568354993e-01 -7.517662166042684557e-01
1.340926847097699375e-02 7.652499823122035916e-02 -6.037892050202664507e-01 4.217463930630320212e-01 2.876863878057022705e-01 -8.598642463840612260e-01
-5.018257952464617866e-02 1.106516536497207104e-01 -6.679508351707360569e-01 9.168135312790443026e-01 7.039633680417616002e-02 -3.930614514655463299e-01
-9.411380565316290747e-02 1.048047383149393469e-01 -7.434604801063656732e-01 7.790052108623902738e-01 -3.824605349866166265e-02 -6.258499187832661237e-01
-1.069094758102696607e-01 2.488966346829878939e-01 -8.156073514348357589e-01 9.379055053703414524e-01 -3.442614025323265659e-01 4.263038496753227685e-02
8.700423138332764872e-02 -8.078858110627218717e-03 -5.938532117552118850e-01 4.908691639882964974e-01 2.769726872050276567e-01 -8.260348626951873330e-01
9.445781460073446323e-02 -3.295854860444674683e-02 -5.977661949914285788e-01 4.908691639882964974e-01 2.769726872050276567e-01 -8.260348626951873330e-01
-4.763139828535267045e-02 1.752637878496245138e-01 -6.346976670556848665e-01 9.087667903633199762e-01 -3.588652174400826234e-02 -4.157584374247461634e-01
-1.566289852858369566e-02 -8.212779560208510743e-02 -7.065231921085539657e-01 6.497177487260583639e-01 5.815846651508059795e-01 -4.895162144932151960e-01
2.026031923339626784e-01 -9.083131601090690954e-02 -6.201139880969932516e-01 1.778366377125182307e-01 1.503404197414985322e-01 -9.725080403158921083e-01
1.169445109595374788e-01 -1.753648486087034941e-01 -6.818262259933590697e-01 3.178807645207409882e-01 5.468503327307041584e-01 -7.745363342929934003e-01
-3.177985608745847318e-02 1.253333831858050584e-01 -6.189538029164216582e-01 8.922862605223312871e-01 2.245102362169217880e-01 -3.916891409228706045e-01
-2.317630944395813672e-02 1.998154499284501007e-01 -5.833628126830329164e-01 9.087667903633199762e-01 -3.588652174400826234e-02 -4.157584374247461634e-01
-2.646723466274903368e-03 1.623376026215580803e-01 -5.782057852436118806e-01 4.528186498839480989e-01 3.386273734255997869e-01 -8.247949880328796501e-01
-3.272800570723471275e-02 1.268113164164319517e-01 -6.202666035182289317e-01 8.922862605223312871e-01 2.245102362169217880e-01 -3.916891409228706045e-01
-1.167256308765559636e-01 6.690942570947744361e-02 -8.323601914790281775e-01 9.655350270073661534e-01 2.344501177259095126e-01 1.130276688257889905e-01
-4.251105882251781515e-02 1.708078500228208119e-01 -6.255097938083178377e-01 8.766552987447780998e-01 1.383505469676325206e-01 -4.607978009240721873e-01
2.194500990589758754e-02 5.304918089703122841e-02 -6.074569408758101474e-01 4.217463930630320212e-01 2.876863878057022705e-01 -8.598642463840612260e-01
-1.060811606877172658e-01 2.742600265203088555e-02 -7.789530829175128623e-01 9.010065872140506915e-01 2.958359289358239996e-01 -3.172825758650599792e-01
-7.720304373056395553e-02 5.008231634508102104e-02 -7.360895445477362298e-01 7.324547707551807285e-01 1.548966425350460641e-01 -6.629608125140926678e-01
-1.691828018623709462e-01 2.731590793870909695e-02 -9.121577435792314059e-01 7.702861204823249208e-01 4.531846905332952147e-02 -6.360861018407426570e-01
-1.058178710339181400e-01 -7.712594849514609052e-02 -8.739784217071743244e-01 8.106225446627666198e-01 3.045806527263028030e-01 -5.001217012580841947e-01
7.224386056394466529e-03 1.650747203276776431e-01 -5.721067631243741403e-01 3.163840418338313420e-01 2.188904257059724190e-01 -9.230320252337657072e-01
-6.840024083238216424e-02 -8.415851823229503204e-02 -8.015798739428641184e-01 8.485070439851397639e-01 2.883256118179159944e-01 -4.437388171857680197e-01
-5.858600379784995732e-02 8.918319226907993336e-02 -6.953663878610822913e-01 9.263268197161537154e-01 2.139672182893233576e-01 -3.100591114160097805e-01
-1.104960071996913956e-01 -3.965909589816744157e-02 -8.539979969599864607e-01 8.432014643472346416e-01 3.759689407221754043e-01 -3.842637715618329453e-01
1.087059714587761128e-01 -1.631280350615960661e-01 -6.743241660284263750e-01 1.874266604546600823e-01 6.963037589609285538e-01 -6.928436491790153084e-01
2.992037059741308944e-02 1.123083744630579139e-01 -5.808552537689729567e-01 4.530661679664970132e-01 3.373004279830202345e-01 -8.252026834218519902e-01
4.282462430737022513e-02 -7.339337945051488399e-02 -6.505190776700084943e-01 6.232261115742061541e-01 3.971563996728380008e-01 -6.736883612257259513e-01
1.579236832149660819e-01 -1.733365695776626636e-01 -6.635757514279774227e-01 3.178807645207409882e-01 5.468503327307041584e-01 -7.745363342929934003e-01
7.549660908703499651e-02 -1.249478357671436890e-01 -6.636892083685806965e-01 5.329935097439207903e-01 4.044061716175617049e-01 -7.432183844123370076e-01
-4.232672965344324439e-02 -9.308104498469572941e-02 -7.635014162367351753e-01 7.118224001223769637e-01 5.345642572209946541e-01 -4.555764761110752126e-01
1.301584440004664167e-01 -4.911564130234959830e-02 -6.056924436888331265e-01 -1.490428302312785669e-01 6.483019286484409394e-01 -7.466530948622407404e-01
2.441488832919436539e-02 3.219749443949782713e-02 -6.175616164015149678e-01 4.177392452604585804e-01 4.406740265532712586e-01 -7.945440990219166943e-01
-3.614802989104032999e-02 8.423502366895051219e-02 -6.399464837211144008e-01 9.168135312790443026e-01 7.039633680417616002e-02 -3.930614514655463299e-01
8.416304270060613948e-03 1.166518667307223263e-02 -6.378977136886376798e-01 3.566023337048457309e-01 5.255449945971978343e-01 -7.724229633109631621e-01
1.202174297080707832e-01 -8.196400400474460057e-02 -6.322295599530517451e-01 -1.490428302312785669e-01 6.483019286484409394e-01 -7.466530948622407404e-01
-1.100619257570060183e-01 1.408820465477330919e-01 -7.615031060018128128e-01 7.877928106039149281e-01 5.074669400006959208e-01 -3.490842195905086709e-01
1.620068101141504124e-01 -5.214530419111367693e-02 -6.146804288240235170e-01 -1.490428302312785669e-01 6.483019286484409394e-01 -7.466530948622407404e-01
1.296495111766870767e-01 -1.067456101162254228e-01 -6.399447350083385944e-01 6.328047426190534785e-02 3.173315942099794174e-01 -9.462009516447028590e-01
-1.265353946496282356e-01 -6.105356228167210797e-02 -8.977701384008845986e-01 8.106225446627666198e-01 3.045806527263028030e-01 -5.001217012580841947e-01
1.220799489515362879e-01 4.646041105085582656e-02 -5.464812662680145205e-01 5.587772736063562062e-01 3.398347996332982679e-01 -7.564920802356382978e-01
1.711716386426454517e-01 -7.605070235788154165e-02 -6.242841100603911952e-01 2.635401556484929242e-01 1.423888476775142797e-01 -9.540817587700951563e-01
-4.019025601511469481e-02 1.853584672054967020e-01 -6.193041128394431993e-01 9.087667903633199762e-01 -3.588652174400826234e-02 -4.157584374247461634e-01
1.364852868386626011e-03 8.739161897542430113e-02 -6.060610868616210789e-01 4.217463930630320212e-01 2.876863878057022705e-01 -8.598642463840612260e-01
-1.059956294887456907e-01 1.137044370354669265e-01 -7.587938383889900607e-01 7.790052108623902738e-01 -3.824605349866166265e-02 -6.258499187832661237e-01
6.159443447796254800e-02 -2.528373734158403593e-02 -6.161859803638243260e-01 7.715343695880737540e-01 1.907070895618887818e-01 -6.069312337779028121e-01
-1.945211789148579562e-01 2.851807914994955798e-02 -9.450898982131663573e-01 7.934278556933063165e-01 9.027729915772181313e-02 -6.019320950628145317e-01
-1.022312442080386546e-01 -7.907700289648125075e-03 -8.159176736396183127e-01 9.904988796075056001e-01 1.070721000102089898e-01 -8.629910136078774996e-02
-7.489655820049996235e-03 -9.393001482467133734e-02 -7.096971193784249454e-01 6.497177487260583639e-01 5.815846651508059795e-01 -4.895162144932151960e-01
5.014207332808485323e-02 -1.100645174576403255e-02 -6.262581439254052418e-01 7.715343695880737540e-01 1.907070895618887818e-01 -6.069312337779028121e-01
-1.367049102680044648e-01 -2.469456102961770441e-02 -8.911148744262703536e-01 7.207055774178253715e-01 3.347110046540241468e-01 -6.070848491292898386e-01
-1.066885140778180141e-01 1.441957040101680132e-01 -7.490730938808586314e-01 7.877928106039149281e-01 5.074669400006959208e-01 -3.490842195905086709e-01
2.701612051229631412e-02 -6.303468710928421259e-02 -6.645776186556232590e-01 7.193267942370112911e-01 1.253627100193300536e-01 -6.832665322034396915e-01
1.149138021977099411e-01 -3.796641019055161520e-02 -5.929687669797403249e-01 -1.490428302312785669e-01 6.483019286484409394e-01 -7.466530948622407404e-01
-1.420890674423600786e-01 1.720539373423991478e-02 -8.846619248515106282e-01 7.011058130276935918e-01 1.214780896789360576e-01 -7.026334127172810806e-01
1.946651637258243472e-01 8.239712451626160505e-02 -5.038491788386291192e-01 6.605612502965492183e-01 6.918988354524549522e-02 -7.475771496117676884e-01
1.979128695979401331e-01 -1.470240537050355456e-01 -6.395037680352028131e-01 -3.475851692575028518e-02 6.147320615418068179e-01 -7.879697570425421294e-01
-1.097376940403957113e-01 3.094678818610217125e-02 -8.174581162901841669e-01 9.655350270073661534e-01 2.344501177259095126e-01 1.130276688257889905e-01
1.336169072131248269e-02 -7.994773305313757072e-02 -6.820558089664724433e-01 7.193267942370112911e-01 1.253627100193300536e-01 -6.832665322034396915e-01
-1.641824790393087152e-01 1.088833213282967838e-02 -9.077994579971184752e-01 7.011058130276935918e-01 1.214780896789360576e-01 -7.026334127172810806e-01
1.265361622064920533e-01 2.215766266122424100e-03 -5.635306596093455633e-01 5.585827061408781269e-01 3.504752715568354993e-01 -7.517662166042684557e-01
-3.371015679274141225e-02 6.013027648901404787e-02 -6.410967597424735986e-01 9.263268197161537154e-01 2.139672182893233576e-01 -3.100591114160097805e-01
-5.547714544917167756e-02 -1.429006003937439706e-01 -8.149320062557844357e-01 7.060388137486038884e-01 3.230838259954232350e-01 -6.301793672127192769e-01
5.249102964088408346e-02 1.867018502080429986e-03 -6.192270960339483210e-01 7.715343695880737540e-01 1.907070895618887818e-01 -6.069312337779028121e-01
-3.764501871651333102e-03 9.364483215201252486e-02 -6.064847846149957755e-01 4.217463930630320212e-01 2.876863878057022705e-01 -8.598642463840612260e-01
1.268425998568377955e-01 3.918127615374860512e-02 -5.462333353991511986e-01 5.587772736063562062e-01 3.398347996332982679e-01 -7.564920802356382978e-01
-3.851805539040898535e-02 -1.208506739592871658e-02 -6.978661807623768309e-01 8.505624581218338420e-01 3.511334324123894790e-01 -3.914700722610067185e-01
-1.264455300699785789e-01 1.766540342255570606e-01 -7.903359816518168435e-01 9.200030795469046341e-01 -2.924949345961012082e-01 -2.608467880956833462e-01
-1.010171792920901840e-01 -6.527564583795769648e-02 -8.582619054912939971e-01 8.432014643472346416e-01 3.759689407221754043e-01 -3.842637715618329453e-01
1.910166879714809973e-01 5.465021403766393698e-02 -5.260621685412081305e-01 -1.369666793485508627e-01 5.510467952703729244e-01 -8.231570677401021108e-01
9.729098038693024956e-04 1.183422099746914147e-01 -5.942813033987320859e-01 4.528186498839480989e-01 3.386273734255997869e-01 -8.247949880328796501e-01
-1.072159489397019883e-01 1.397090959105732610e-01 -7.567856014204317194e-01 7.877928106039149281e-01 5.074669400006959208e-01 -3.490842195905086709e-01
-9.382962109826127606e-02 2.853665241568337924e-02 -7.595887020116586230e-01 7.377401070665456917e-01 1.513232365831759241e-01 -6.579063858144513777e-01
-7.677777705567717659e-02 -8.466615958607524861e-02 -8.179290510255219360e-01 8.485070439851397639e-01 2.883256118179159944e-01 -4.437388171857680197e-01
-1.109766998143372901e-01 2.671908140021433259e-02 -7.981045380929843169e-01 9.655350270073661534e-01 2.344501177259095126e-01 1.130276688257889905e-01
-1.301447144061752270e-01 1.375272090378137080e-01 -8.308013955981758958e-01 9.768416085768463208e-01 2.091885444085701540e-01 4.495135861376171188e-02
-6.085000266612294005e-03 3.412669288763803960e-02 -6.325272461368760535e-01 4.177392452604585804e-01 4.406740265532712586e-01 -7.945440990219166943e-01
-1.179025320034002150e-01 -3.136081287975402837e-02 -8.621312015846717136e-01 8.432014643472346416e-01 3.759689407221754043e-01 -3.842637715618329453e-01
1.237651791035125799e-02 6.074048909899960186e-02 -6.095768014464930662e-01 4.217463930630320212e-01 2.876863878057022705e-01 -8.598642463840612260e-01
-7.842524155598941393e-02 9.559620513522144869e-02 -7.268908932686727331e-01 7.377401070665456917e-01 1.513232365831759241e-01 -6.579063858144513777e-01
-7.120978908921249406e-02 -6.992042779159744759e-02 -7.941795496834019863e-01 8.486092330432628561e-01 4.005654833677643745e-01 -3.455570331046304289e-01
-1.280736853508519513e-01 1.270738252682571678e-01 -8.271605538943104241e-01 9.768416085768463208e-01 2.091885444085701540e-01 4.495135861376171188e-02
-7.636784474008795343e-02 -6.591033125175869978e-02 -8.021981027024429611e-01 8.486092330432628561e-01 4.005654833677643745e-01 -3.455570331046304289e-01
-1.254115186111500468e-01 1.744482721914340506e-01 -8.340391870217993553e-01 9.639716850763583311e-01 -2.189952005318519523e-01 1.509956705176020153e-01
-4.731544066052226216e-02 8.431697172858489131e-02 -6.659797271782198491e-01 9.168135312790443026e-01 7.039633680417616002e-02 -3.930614514655463299e-01
1.357134599335261538e-01 7.384757753914840406e-02 -5.363824096403404518e-01 3.727947213894369782e-01 1.315190519694046413e-03 -9.279129086170045948e-01
1.071602968951265444e-01 -2.569889740763236369e-02 -5.877835873110792697e-01 4.908691639882964974e-01 2.769726872050276567e-01 -8.260348626951873330e-01
1.419138467895983760e-02 1.375817554067174375e-01 -5.791252841898538728e-01 4.528186498839480989e-01 3.386273734255997869e-01 -8.247949880328796501e-01
-1.784337583348491810e-02 2.058217802871801227e-01 -5.778777640994398057e-01 7.815232341099522806e-01 -2.646596691794725342e-01 -5.649572497597785681e-01
1.888285988850917918e-01 2.062267143385701149e-02 -5.483936719543365257e-01 -1.539418109881465213e-01 5.460975119287382329e-01 -8.234557828413932024e-01
8.831020773401267177e-02 -1.378163192904907075e-01 -6.615021381975603187e-01 5.329935097439207903e-01 4.044061716175617049e-01 -7.432183844123370076e-01
-1.218744862206024848e-01 1.335840719821392575e-01 -7.797733565199256311e-01 7.790052108623902738e-01 -3.824605349866166265e-02 -6.258499187832661237e-01
4.350171368437034947e-02 -1.069565503888459945e-01 -6.718215676962671079e-01 5.808274161276169023e-01 4.537329555611770981e-01 -6.758445958297181200e-01
-4.462701403708425538e-03 -1.327207102719727694e-01 -7.513257853096766414e-01 6.954863410568776771e-01 5.320880155497266228e-01 -4.828882822265109787e-01
-2.121261714407692706e-02 -6.298923677007967070e-02 -6.988488600731511680e-01 5.293730524280310101e-01 4.617129679754204408e-01 -7.117480639709233836e-01
-3.175345810021096282e-02 -7.129890359088553436e-04 -6.729681614801441558e-01 8.505624581218338420e-01 3.511334324123894790e-01 -3.914700722610067185e-01
-2.697304550663359723e-02 -4.484268136982456215e-02 -6.971948676154695601e-01 9.409086644485770146e-01 2.077867394180940019e-01 -2.674239257949670989e-01
-1.308079424180275951e-01 1.569625803613338977e-01 -8.249480842304052208e-01 9.639716850763583311e-01 -2.189952005318519523e-01 1.509956705176020153e-01
-1.164899765619016037e-01 -3.738358582937907799e-03 -8.592862282751518865e-01 7.853195602213729476e-01 -1.571196694550503620e-02 -6.188912040321890018e-01
-5.849252779279545678e-02 9.393351642269109902e-02 -6.918089920775322144e-01 9.263268197161537154e-01 2.139672182893233576e-01 -3.100591114160097805e-01
-1.095254047719456669e-01 -4.612317102310464073e-02 -8.581927147772440145e-01 8.432014643472346416e-01 3.759689407221754043e-01 -3.842637715618329453e-01
9.226456576566144374e-02 -1.444449896888030660e-01 -6.638727690746880628e-01 5.161139425688734406e-01 5.324560556778670239e-01 -6.709075547778411419e-01
1.600848703409788742e-01 -1.420973496582720319e-01 -6.392895362617379007e-01 1.874266604546600823e-01 6.963037589609285538e-01 -6.928436491790153084e-01
7.360937828347783284e-03 -7.078861085177903800e-02 -6.866927841608039262e-01 7.193267942370112911e-01 1.253627100193300536e-01 -6.832665322034396915e-01
-1.338349369233838848e-01 3.833738350128453737e-02 -8.760414625654914245e-01 5.779577797603510092e-01 9.802682026305706287e-02 -8.101577299042452829e-01
-1.117506305390028737e-01 2.977452607561550946e-02 -7.978310841713909252e-01 9.655350270073661534e-01 2.344501177259095126e-01 1.130276688257889905e-01
-1.601479300295325509e-02 1.453050305549332399e-01 -5.925378392840343622e-01 4.528186498839480989e-01 3.386273734255997869e-01 -8.247949880328796501e-01
-3.310513208771089996e-03 -1.232838443490037322e-01 -7.390250018075296135e-01 6.497177487260583639e-01 5.815846651508059795e-01 -4.895162144932151960e-01
1.414560070291242255e-01 -6.459872870729449490e-02 -6.213912150127880452e-01 -1.490428302312785669e-01 6.483019286484409394e-01 -7.466530948622407404e-01
1.279235811266311307e-01 -1.178467436006278984e-01 -6.424679709295753050e-01 2.635401556484929242e-01 1.423888476775142797e-01 -9.540817587700951563e-01
1.481768055727906708e-01 -3.145307420528760389e-02 -5.937093751528284002e-01 -8.912133227645392675e-02 7.021387316188913985e-01 -7.064407899420053205e-01
-5.772996481204601543e-02 -8.605488806166808335e-03 -7.342104463396654790e-01 6.796256121327240995e-01 2.973833760064641396e-01 -6.705759874974782653e-01
8.590867606112499721e-02 -8.838364087333661079e-02 -6.344265304228043911e-01 2.762488179310152447e-01 5.213106983986793841e-01 -8.074167116965056401e-01
-6.712519196572533375e-02 2.669500535146447293e-02 -7.304195945562267367e-01 7.324547707551807285e-01 1.548966425350460641e-01 -6.629608125140926678e-01
-1.212187692870932976e-01 1.065243334453402496e-01 -7.773035389655865712e-01 7.790052108623902738e-01 -3.824605349866166265e-02 -6.258499187832661237e-01
-3.043186720366670289e-02 -1.056339045625340201e-02 -6.789321158797353428e-01 8.505624581218338420e-01 3.511334324123894790e-01 -3.914700722610067185e-01
-1.199990020898459575e-01 1.324080090404297361e-01 -7.773670421117312435e-01 7.790052108623902738e-01 -3.824605349866166265e-02 -6.258499187832661237e-01
8.568694658944621401e-02 -9.471047988983019583e-02 -6.386101361354510342e-01 3.875298741809398151e-01 5.771371076092417507e-01 -7.188416763361342721e-01
1.428492533464182368e-01 -4.364743794937554072e-02 -6.034777972238186683e-01 -1.490428302312785669e-01 6.483019286484409394e-01 -7.466530948622407404e-01
-1.501090257595006083e-01 2.848067428385909344e-02 -8.907150668991925535e-01 7.011058130276935918e-01 1.214780896789360576e-01 -7.026334127172810806e-01
1.664051726046639756e-01 -6.640436320516859836e-02 -6.239571502829357463e-01 6.328047426190534785e-02 3.173315942099794174e-01 -9.462009516447028590e-01
-1.797089543719218932e-02 -1.507138741699973541e-02 -6.669771075830358553e-01 3.473031508510475152e-01 4.551776390038892450e-01 -8.198742820455948710e-01
2.077179916962431649e-01 -1.361040829954809628e-01 -6.322295112378572002e-01 -1.442215180891515819e-02 2.604016390817628923e-01 -9.653926599579737422e-01
2.002631362371894708e-01 -1.115178568215432903e-01 -6.254863393434741958e-01 -1.442215180891515819e-02 2.604016390817628923e-01 -9.653926599579737422e-01
-1.086785007638203515e-01 -5.120190342365796288e-02 -8.613034294204074959e-01 8.432014643472346416e-01 3.759689407221754043e-01 -3.842637715618329453e-01
-1.339986767659277489e-01 -3.321241959420696138e-02 -8.925983959145838975e-01 7.207055774178253715e-01 3.347110046540241468e-01 -6.070848491292898386e-01
1.548864589033061567e-01 -7.538250458165553225e-02 -6.277385432055838654e-01 6.328047426190534785e-02 3.173315942099794174e-01 -9.462009516447028590e-01
-4.645190834315314488e-02 -1.768562053569660425e-02 -7.201278542203353172e-01 8.505624581218338420e-01 3.511334324123894790e-01 -3.914700722610067185e-01
1.782948567125628714e-01 -1.284887061876170966e-01 -6.303805772735620039e-01 1.778366377125182307e-01 1.503404197414985322e-01 -9.725080403158921083e-01
-6.866516322628000990e-02 8.847459494401394009e-02 -7.176050625402012884e-01 8.754288628522768345e-01 1.254152311965860134e-01 -4.667925940597989487e-01
1.981734469046252667e-01 -1.684251055269785913e-01 -6.538672709777773040e-01 1.443022044104347035e-01 4.274126004002543056e-01 -8.924658776790190817e-01
-1.194794743800580150e-01 1.347732377734603970e-01 -7.768649183293024896e-01 7.790052108623902738e-01 -3.824605349866166265e-02 -6.258499187832661237e-01
-4.968825545044868244e-03 7.149526269970217507e-02 -6.144861043831487679e-01 4.217463930630320212e-01 2.876863878057022705e-01 -8.598642463840612260e-01
-1.138981370535923909e-01 3.852554004792687475e-02 -7.976380650216561286e-01 9.655350270073661534e-01 2.344501177259095126e-01 1.130276688257889905e-01
-3.877213815732617752e-02 -1.159282147428194326e-01 -7.809928061801262311e-01 6.941986823729268119e-01 4.289590041490201067e-01 -5.779985831740188651e-01
-7.950392011671908454e-02 -1.083028651159958639e-01 -8.487379984307757974e-01 8.568327713908849841e-01 1.136296385654729652e-01 -5.029173959111926662e-01
6.151896168817016369e-02 5.909389383442442689e-02 -5.852578261130638726e-01 4.530661679664970132e-01 3.373004279830202345e-01 -8.252026834218519902e-01
-3.611308517945643892e-02 5.388780501723106769e-02 -6.525835412476965747e-01 9.263268197161537154e-01 2.139672182893233576e-01 -3.100591114160097805e-01
-6.892255679110235837e-03 -6.394887238314464007e-04 -6.533370899565332790e-01 3.566023337048457309e-01 5.255449945971978343e-01 -7.724229633109631621e-01
1.297299922852721277e-01 -1.156708340982980131e-03 -5.627298131742199949e-01 5.585827061408781269e-01 3.504752715568354993e-01 -7.517662166042684557e-01
-1.212739377925844408e-01 1.868654381701411182e-01 -7.835461840645510101e-01 9.200030795469046341e-01 -2.924949345961012082e-01 -2.608467880956833462e-01
2.806073712090822320e-02 9.612524486451211672e-03 -6.302251242620634519e-01 3.566023337048457309e-01 5.255449945971978343e-01 -7.724229633109631621e-01
1.730448036569534054e-01 -1.100006273230169640e-01 -6.288334439672598197e-01 2.635401556484929242e-01 1.423888476775142797e-01 -9.540817587700951563e-01
-5.962978892567244449e-02 1.635508117081037605e-01 -6.604916114053916987e-01 8.922862605223312871e-01 2.245102362169217880e-01 -3.916891409228706045e-01
-8.237842762109112704e-02 -3.480831266720590955e-02 -7.816182516587248941e-01 8.452711130921500837e-01 3.956313903729404280e-01 -3.591553261800966013e-01
2.565896481326677622e-02 5.810979898012060690e-02 -6.039421790569777793e-01 4.217463930630320212e-01 2.876863878057022705e-01 -8.598642463840612260e-01
-8.152650466735093804e-02 -3.133243460402450331e-02 -7.757843625819155209e-01 8.452711130921500837e-01 3.956313903729404280e-01 -3.591553261800966013e-01
-2.841505314081110845e-02 -3.038706737578475252e-03 -6.678007557640948111e-01 8.505624581218338420e-01 3.511334324123894790e-01 -3.914700722610067185e-01
-1.606546410124194968e-01 6.705056141040516976e-03 -9.050025352541621881e-01 7.011058130276935918e-01 1.214780896789360576e-01 -7.026334127172810806e-01
1.188066759995321520e-01 -1.708104070929437057e-01 -6.778463684083861907e-01 3.178807645207409882e-01 5.468503327307041584e-01 -7.745363342929934003e-01
6.745687252236824520e-03 1.738895727340482658e-02 -6.350645548031831344e-01 4.177392452604585804e-01 4.406740265532712586e-01 -7.945440990219166943e-01
-1.310169549012441849e-02 -1.218088452433806340e-01 -7.510468705343948947e-01 7.276534240977409196e-01 5.428892833121422568e-01 -4.192752323518071922e-01
4.481291162805643019e-02 -4.193911377009366254e-02 -6.419710570633180291e-01 7.193267942370112911e-01 1.253627100193300536e-01 -6.832665322034396915e-01
-7.559838957096795542e-02 9.087983894997102297e-02 -7.248058150271395883e-01 7.377401070665456917e-01 1.513232365831759241e-01 -6.579063858144513777e-01
-2.441808093540306750e-03 1.642664134572372758e-01 -5.773013936549553637e-01 4.528186498839480989e-01 3.386273734255997869e-01 -8.247949880328796501e-01
-6.577187994426483830e-02 2.646666447536127897e-02 -7.288389066692536611e-01 8.754288628522768345e-01 1.254152311965860134e-01 -4.667925940597989487e-01
9.104972810704882458e-02 -1.605490886516107718e-01 -6.775881007951622959e-01 5.161139425688734406e-01 5.324560556778670239e-01 -6.709075547778411419e-01
-5.547895051572902109e-02 1.012680200343005765e-01 -6.819851751019826436e-01 9.168135312790443026e-01 7.039633680417616002e-02 -3.930614514655463299e-01
-1.970681964181997606e-02 1.969167768424714415e-01 -5.762838901657405533e-01 7.815232341099522806e-01 -2.646596691794725342e-01 -5.649572497597785681e-01
-9.061615722041897747e-02 8.890513824886479843e-02 -7.421001107815355935e-01 7.377401070665456917e-01 1.513232365831759241e-01 -6.579063858144513777e-01
-1.083676210514185334e-01 1.201432711914391382e-01 -7.621397744036710886e-01 7.790052108623902738e-01 -3.824605349866166265e-02 -6.258499187832661237e-01
-6.035364743075644078e-02 1.628690341589806440e-02 -7.214125248343971064e-01 8.754288628522768345e-01 1.254152311965860134e-01 -4.667925940597989487e-01
-6.290484422356780458e-02 4.928455964529041000e-02 -7.173314459956282585e-01 8.754288628522768345e-01 1.254152311965860134e-01 -4.667925940597989487e-01
-1.145201325434307277e-01 5.601448961741040122e-02 -8.286015263559118882e-01 9.655350270073661534e-01 2.344501177259095126e-01 1.130276688257889905e-01
1.230833604518508928e-01 -1.810030018589104187e-02 -5.772722423605524122e-01 -8.912133227645392675e-02 7.021387316188913985e-01 -7.064407899420053205e-01
-1.217814142672548894e-01 1.041600211295492379e-01 -8.572652473673324502e-01 9.768416085768463208e-01 2.091885444085701540e-01 4.495135861376171188e-02
-5.783860133129677117e-02 1.550843891101334748e-01 -6.612640261223029503e-01 8.922862605223312871e-01 2.245102362169217880e-01 -3.916891409228706045e-01
-3.029831925147608712e-02 1.323424518369651082e-01 -6.138242910389803964e-01 8.766552987447780998e-01 1.383505469676325206e-01 -4.607978009240721873e-01
-1.151471081509873734e-01 4.583992234041313341e-02 -8.021407894660176341e-01 9.655350270073661534e-01 2.344501177259095126e-01 1.130276688257889905e-01
1.994971656936399967e-02 1.571166999310745216e-01 -5.696321393122729670e-01 3.163840418338313420e-01 2.188904257059724190e-01 -9.230320252337657072e-01
1.659296533943073193e-01 5.976613109416544813e-03 -5.564914697897368479e-01 5.293932924425699682e-02 7.335809888866970940e-01 -6.775369806609700118e-01
-2.836682073657556882e-02 1.525206777034161798e-01 -6.040913301088908227e-01 8.766552987447780998e-01 1.383505469676325206e-01 -4.607978009240721873e-01
3.388768001206755170e-02 1.252532960621706437e-01 -5.733734353994777155e-01 4.528186498839480989e-01 3.386273734255997869e-01 -8.247949880328796501e-01
-2.890419483456830099e-02 1.385817156434570319e-01 -6.092987223116269613e-01 8.766552987447780998e-01 1.383505469676325206e-01 -4.607978009240721873e-01
2.152120667721018898e-01 -9.639036638365378051e-02 -6.216878324543281265e-01 -1.294931196371799653e-01 2.060391998463030339e-01 -9.699378227975886668e-01
5.865542809891905601e-02 -1.109816963529946382e-01 -6.662466024400267584e-01 3.875298741809398151e-01 5.771371076092417507e-01 -7.188416763361342721e-01
3.075837445204886514e-02 1.250858785353646252e-01 -5.751601825275663993e-01 4.528186498839480989e-01 3.386273734255997869e-01 -8.247949880328796501e-01
-2.013780028294031785e-02 2.951878255939224469e-02 -6.424713039691444250e-01 4.177392452604585804e-01 4.406740265532712586e-01 -7.945440990219166943e-01
1.023154905813975502e-01 -2.247477611883279824e-01 -7.087373008974021671e-01 5.467551970860085042e-01 3.848454257583176497e-01 -7.436079294442328180e-01
2.425047351111985217e-01 -1.349388026665611917e-01 -6.345719475886739680e-01 -2.577387233949318679e-01 4.172637866636971782e-01 -8.714709879289291861e-01
9.216083922341003487e-02 -5.700425755873265304e-02 -6.120272406234286144e-01 2.762488179310152447e-01 5.213106983986793841e-01 -8.074167116965056401e-01
-1.172717563206670949e-01 6.889421709488871559e-02 -7.765928933102805853e-01 7.377401070665456917e-01 1.513232365831759241e-01 -6.579063858144513777e-01
2.179451704069477469e-01 -1.303606495463845161e-01 -6.308330830112144350e-01 -1.442215180891515819e-02 2.604016390817628923e-01 -9.653926599579737422e-01
-1.090778294086131445e-01 1.381563330145679780e-01 -7.632446498576236360e-01 7.877928106039149281e-01 5.074669400006959208e-01 -3.490842195905086709e-01
-2.716064840352627741e-02 8.627542993406851768e-02 -6.204257260672885188e-01 4.217463930630320212e-01 2.876863878057022705e-01 -8.598642463840612260e-01
1.256853221982651980e-01 -1.715123704379775127e-01 -6.755188850562073855e-01 3.178807645207409882e-01 5.468503327307041584e-01 -7.745363342929934003e-01
-4.360254914456485054e-02 -8.974900386212171510e-02 -7.615850899090943482e-01 7.118224001223769637e-01 5.345642572209946541e-01 -4.555764761110752126e-01
-1.771534258708783519e-02 -1.107722916786985784e-01 -7.447634310559766435e-01 7.276534240977409196e-01 5.428892833121422568e-01 -4.192752323518071922e-01
-1.142842949883000891e-01 -2.261822687921677746e-02 -8.560081000084102110e-01 7.853195602213729476e-01 -1.571196694550503620e-02 -6.188912040321890018e-01
-7.873658770337757518e-02 7.773576461584598418e-02 -7.313480505018739031e-01 7.377401070665456917e-01 1.513232365831759241e-01 -6.579063858144513777e-01
-1.459259663768902766e-02 7.152233880573609370e-02 -6.191973147118507992e-01 4.217463930630320212e-01 2.876863878057022705e-01 -8.598642463840612260e-01
1.644053761216949239e-01 -1.292507813356804924e-01 -6.340927870777520736e-01 2.635401556484929242e-01 1.423888476775142797e-01 -9.540817587700951563e-01
1.106783318871523286e-01 -7.517014745824510125e-02 -6.244264657460771861e-01 -1.490428302312785669e-01 6.483019286484409394e-01 -7.466530948622407404e-01
-2.903923861687376581e-02 -1.371689138285211162e-01 -7.823730164343284388e-01 7.060388137486038884e-01 3.230838259954232350e-01 -6.301793672127192769e-01
-1.993102916657308460e-02 -7.729719919338034866e-03 -6.637314852773884555e-01 3.473031508510475152e-01 4.551776390038892450e-01 -8.198742820455948710e-01
-6.930563547140232428e-02 1.085851757189047889e-01 -7.134030137649941539e-01 8.754288628522768345e-01 1.254152311965860134e-01 -4.667925940597989487e-01
1.875777042838756570e-01 1.600329223926235875e-02 -5.512232914106683923e-01 -1.539418109881465213e-01 5.460975119287382329e-01 -8.234557828413932024e-01
1.142146385474645115e-01 -6.447434516471038830e-03 -5.767246918190831462e-01 5.585827061408781269e-01 3.504752715568354993e-01 -7.517662166042684557e-01
-2.662286650705257898e-02 1.427414405408525266e-01 -6.037096357836140292e-01 8.766552987447780998e-01 1.383505469676325206e-01 -4.607978009240721873e-01
-1.316844806524556377e-01 1.689528579376799733e-01 -8.019621849046665307e-01 9.639716850763583311e-01 -2.189952005318519523e-01 1.509956705176020153e-01
-1.307743431259733857e-01 -5.192026117901404891e-02 -8.990785407108616845e-01 8.106225446627666198e-01 3.045806527263028030e-01 -5.001217012580841947e-01
1.498450327090268819e-01 -8.703497566258552864e-02 -6.318143400428751777e-01 2.635401556484929242e-01 1.423888476775142797e-01 -9.540817587700951563e-01
7.675788722433395106e-02 2.830101672516848214e-04 -5.971383094996690621e-01 4.908691639882964974e-01 2.769726872050276567e-01 -8.260348626951873330e-01
1.718827698881936761e-01 1.145672351872075757e-02 -5.513043683103399095e-01 -1.539418109881465213e-01 5.460975119287382329e-01 -8.234557828413932024e-01
8.940606187975889962e-02 -1.653198110021308620e-01 -6.826387505280425705e-01 5.161139425688734406e-01 5.324560556778670239e-01 -6.709075547778411419e-01
-6.501210085093211966e-02 -8.931532600918326570e-02 -7.984518607305597371e-01 8.485070439851397639e-01 2.883256118179159944e-01 -4.437388171857680197e-01
-1.198120746394217839e-01 6.738036737950464650e-02 -7.806919345177242286e-01 9.010065872140506915e-01 2.958359289358239996e-01 -3.172825758650599792e-01
1.589600121400120691e-01 4.246013549097944068e-03 -5.589097925037272985e-01 5.293932924425699682e-02 7.335809888866970940e-01 -6.775369806609700118e-01
-3.682455714687923876e-02 9.256486579817727045e-02 -6.400326253924770725e-01 9.168135312790443026e-01 7.039633680417616002e-02 -3.930614514655463299e-01
1.358893545554268611e-01 8.613070108635051056e-03 -5.535985449042086781e-01 5.585827061408781269e-01 3.504752715568354993e-01 -7.517662166042684557e-01
-1.312262050864514140e-01 1.564200736152715210e-01 -8.230646726420697279e-01 9.639716850763583311e-01 -2.189952005318519523e-01 1.509956705176020153e-01
-8.798192750016854691e-02 -6.808234533617486817e-02 -8.294561458301158430e-01 8.797480566929223311e-01 3.784229654813028310e-01 -2.878183731824008329e-01
1.639385117935930614e-01 -1.762176418139819178e-01 -6.631413199092935917e-01 3.178807645207409882e-01 5.468503327307041584e-01 -7.745363342929934003e-01
-8.828728968348235895e-02 7.656375063884181265e-02 -7.423272551507877903e-01 7.377401070665456917e-01 1.513232365831759241e-01 -6.579063858144513777e-01
-1.226104461668367090e-01 1.928584459610724611e-01 -8.239842895676458001e-01 8.420780024687229970e-01 -3.726757648365481845e-01 3.898941036509515623e-01
-6.536111032097356721e-02 4.304485428608745279e-02 -7.236144084163256274e-01 8.754288628522768345e-01 1.254152311965860134e-01 -4.667925940597989487e-01
7.965280388049388038e-02 -1.411272429600080036e-01 -6.703494152099307435e-01 4.864866599400497482e-01 5.742725970062171337e-01 -6.584388460807194532e-01
-9.199354027785894283e-02 -4.816453795106706570e-02 -8.200005394798669522e-01 8.486092330432628561e-01 4.005654833677643745e-01 -3.455570331046304289e-01
6.353154062686110215e-02 -1.766456903200527007e-01 -7.110837164319711023e-01 5.094084862162991945e-01 4.909168747703153146e-01 -7.067556977036444366e-01
-9.296836494867383172e-02 1.879931053835678587e-02 -7.608625958401067368e-01 7.377401070665456917e-01 1.513232365831759241e-01 -6.579063858144513777e-01
-4.841314794640383390e-02 1.377183374647865388e-01 -6.497463563016583343e-01 8.922862605223312871e-01 2.245102362169217880e-01 -3.916891409228706045e-01
2.094088023400743070e-01 -1.491984325192662331e-01 -6.417072053223852324e-01 -3.475851692575028518e-02 6.147320615418068179e-01 -7.879697570425421294e-01
-4.869247692619927542e-02 -1.205816760774769680e-01 -7.958880270329805606e-01 7.060388137486038884e-01 3.230838259954232350e-01 -6.301793672127192769e-01
