3.773066965630839098e-02 -5.708289669767811769e-02 -7.607788116777909337e-01 5.431000031296006059e-01 1.078634443398776982e-01 -8.327111527869465180e-01
-7.651461216769962770e-02 1.094925243609811694e-01 -7.598036176881931558e-01 4.461229114812319541e-01 2.585364283081681980e-01 -8.568157696314675498e-01
7.285879972400521962e-04 1.822668494237350001e-01 -7.004597226062637683e-01 1.298999074238733065e-01 2.284731282146435505e-01 -9.648450879468081220e-01
-1.056300038856438223e-01 -3.227670701664218239e-02 -8.414984207975760855e-01 5.430647178730869662e-01 5.131095378209604707e-01 -6.646798585774842394e-01
8.964031119414687943e-02 -1.926401747104489748e-01 -7.961202209262312479e-01 5.556393796742665758e-01 4.617483300757433962e-01 -6.914140289489781876e-01
2.137649200131677696e-02 2.368911716636294962e-01 -6.848018467664207520e-01 -1.942522300106221955e-01 -3.282838436350934419e-01 -9.243894142319403207e-01
-7.531451190361715398e-02 -1.237355638324838109e-01 -8.664168144533929139e-01 6.248547661942495113e-01 2.712295660037892797e-01 -7.321140919895789967e-01
8.310458407078955001e-02 2.547740178244263694e-03 -6.958083669771097934e-01 5.916274864878792172e-01 4.080291741170891107e-01 -6.953338121372786285e-01
-2.994365638390478548e-02 1.833473724457253956e-02 -7.676903400411297929e-01 3.259881729704568465e-01 4.962269550639983318e-01 -8.046679564586227684e-01
-5.251653800999556837e-03 1.111064670014505831e-02 -7.620698587186571782e-01 2.527668861185882743e-01 3.497192462259205992e-01 -9.021116062334451069e-01
2.322605875170624321e-02 -2.187100527386762541e-02 -7.586964707557151133e-01 5.621522423369881283e-01 2.354562015236554007e-01 -7.928084469779238530e-01
5.775769819198115634e-02 9.019022704480225694e-02 -6.735284237077200364e-01 6.976775332622872083e-01 2.578891844026994784e-01 -6.683855385547777805e-01
-2.826439421130660934e-02 3.917055465895896010e-02 -7.558831561090093576e-01 2.600069631312887375e-01 5.562015297186824192e-01 -7.893264454342335812e-01
1.111679789114086297e-01 -8.338281072182766873e-02 -7.147327022330046686e-01 3.506924248039066661e-01 3.476016176343507125e-01 -8.695906730198631474e-01
9.121957511897158324e-03 -1.704792400324831123e-04 -7.626579078392886624e-01 8.959384931851471778e-01 2.307906729535929846e-01 -3.795126897835637836e-01
1.475651488339604911e-02 -1.394812634456744638e-01 -8.241722086353108212e-01 6.621344363648078435e-01 5.651084840233033812e-01 -4.921690659364343357e-01
-1.487170952019191243e-02 -1.806088026919764611e-01 -8.653826716465135016e-01 5.790622006052311699e-01 6.358029921658692185e-01 -5.103347166156293468e-01
8.558323683775938273e-02 2.082491678071027308e-02 -6.852167282596786091e-01 5.053363839575375493e-01 5.435275121529544728e-01 -6.702335283925597853e-01
1.031080338551019632e-01 -7.290613137215617989e-02 -7.154718096602686872e-01 6.327493596953431831e-01 3.916161085024819632e-01 -6.680307413334398703e-01
2.762345982058161953e-02 -2.226109148101671487e-01 -8.719095552965304696e-01 6.783077829053204555e-01 6.168901974068599081e-01 -3.991804554251047743e-01
-1.012336024605074714e-01 8.154999194420154904e-03 -8.174967893612120617e-01 5.537942379406324278e-01 3.430160310646167554e-01 -7.587173020673982915e-01
4.734291613910760615e-02 1.967256870134081181e-01 -6.518057766730736002e-01 9.273005069459264726e-01 3.174276068752322072e-02 -3.729693914542613897e-01
-1.336501056721002209e-02 1.683807261392456234e-01 -7.081177049192364237e-01 3.270718827697459141e-01 2.244814624724741914e-01 -9.179499204791472522e-01
-3.829601112934970242e-02 -1.640561167520997732e-01 -8.661235152665495152e-01 5.705611722664544194e-01 3.630391847043285686e-02 -8.204522985558765358e-01
2.758033287416199880e-02 1.200276496159079359e-01 -6.872177881925977116e-01 7.373505386750764945e-01 2.806136526569669720e-01 -6.144673799788638036e-01
-2.840470146659814822e-03 -1.095575345669361073e-01 -8.200619087751468417e-01 5.434570535888918474e-01 4.748238205076031337e-01 -6.922403992711230192e-01
3.327185274307967178e-02 -1.176043645030236569e-02 -7.468978046797501991e-01 6.015376582709122122e-01 3.011289024104673029e-01 -7.399147449639144059e-01
9.774502047999000798e-02 -3.157872926645863970e-02 -7.010491084777010773e-01 4.018935571013820263e-01 3.551760924835033473e-01 -8.439973412804973041e-01
-7.506465812680281069e-02 -8.844571574329319896e-02 -8.506507021366659371e-01 5.970686810366898634e-01 5.049521834554434596e-01 -6.233235777256367349e-01
-1.534621601319565223e-02 8.758484191992098322e-02 -7.323636364753218775e-01 3.796789255446390010e-01 5.758120720097743561e-01 -7.240748381383508292e-01
-1.595486604380064871e-02 -1.490096913956145130e-01 -8.472290062823009116e-01 3.740064293280265240e-01 3.045765175405077407e-01 -8.759864929233766029e-01
2.748151457836224554e-02 -1.159655641317523939e-01 -7.998911544650454397e-01 5.223452685925721317e-01 4.540554365561498829e-01 -7.217957335096667482e-01
-1.163023644799381258e-02 1.886893907562180728e-01 -7.031948288015464898e-01 2.025854651453604938e-01 1.805512425341402050e-01 -9.624761701627817523e-01
-1.308400993924757269e-02 -2.079545636538398523e-01 -8.844378086002709916e-01 4.624061403366175327e-01 5.775344239846479377e-01 -6.727812055131393576e-01
1.290445274761344539e-02 -9.215267709027551157e-02 -7.995853648205558661e-01 1.024157065771057196e-01 5.690192066067452092e-01 -8.159216663129752467e-01
2.168648335438106214e-02 1.922868853022845770e-01 -6.814322875640185240e-01 6.168577535487598240e-01 -2.620320565389794992e-02 -7.866383564893316693e-01
3.208019465472513460e-02 2.021226359164987330e-01 -6.700278512035311440e-01 7.283408170236981283e-01 6.472959731040162090e-02 -6.821508143286826309e-01
-7.018399698242709650e-02 -1.411449910559747778e-01 -8.714570874771648823e-01 5.393200140805018972e-01 1.545869295467375559e-01 -8.277903138026678764e-01
-4.798610257760690945e-02 -9.165729359580990221e-02 -8.363595095555672598e-01 4.875274351261194572e-01 4.708205877935031647e-01 -7.352856411688776239e-01
5.143222775729010786e-03 2.364897755329626872e-01 -6.923690584749325749e-01 2.428638347782342555e-01 6.606235745073726906e-02 -9.678083088529780831e-01
3.133441089021272996e-02 1.154323686561107704e-01 -6.851972132681350969e-01 6.602614312749487402e-01 1.164734347029965783e-01 -7.419493118665472231e-01
-7.838133313493621246e-02 -2.710248890861820942e-02 -8.206281694042056873e-01 6.440027444890277231e-01 4.613676586776890853e-02 -7.636307117487238783e-01
-9.865058686941349797e-02 -6.869157649943806454e-02 -8.539145203441357301e-01 5.639148032219610807e-01 4.428132553705256824e-01 -6.970771231185931560e-01
2.233186120886272025e-02 -1.637595883131693353e-01 -8.347898660881263311e-01 7.317931475721631829e-01 1.926666798657648283e-01 -6.537265021673271947e-01
7.179999314187412995e-02 -1.523218997962628440e-01 -7.846318245034387129e-01 3.263124608121852344e-01 2.890745821635173352e-01 -8.999755907054834969e-01
-7.299646509985499576e-02 -1.533484272265663029e-01 -8.790629449155116237e-01 9.725223391938855322e-01 2.315460091932926290e-01 -2.422282798338058762e-02
-1.031867207413881826e-01 -2.640855776881404979e-02 -8.350370305366632273e-01 4.753398604206536815e-01 4.679567160220511890e-01 -7.450292135380536251e-01
1.707896282023324552e-02 1.610407098827799643e-01 -6.894484184677646121e-01 7.030700168835961605e-01 2.551322763930268800e-01 -6.637771259254207079e-01
4.815000374132689942e-03 3.545763759617485272e-02 -7.463440565456626041e-01 8.693533949268836269e-02 4.591381329176804083e-01 -8.841009114621233289e-01
-8.819394090440714484e-02 -1.048184756247764471e-01 -8.646611567918844887e-01 6.108585294553291467e-01 3.598146952216100813e-01 -7.052554445690245588e-01
-7.481512815395117977e-02 1.068481404248060457e-01 -7.599645315730332307e-01 5.261008345718070078e-01 2.928472290012957280e-01 -7.984099274990952289e-01
-9.124894886052384302e-02 -1.019220789647074105e-01 -8.666804380573741584e-01 9.200391787470861837e-01 3.829566142833579767e-01 -8.289837843416648921e-02
4.041419975892991678e-02 -2.398158714191580276e-01 -8.738545266196765526e-01 4.998964636422701391e-01 4.514135120576746596e-01 -7.391409654252074635e-01
6.231322911733723491e-02 3.863668680355279023e-02 -6.971869099381916568e-01 5.566796576237585947e-01 1.055375879131698058e-01 -8.239961021299582189e-01
5.428631359464333034e-03 -1.194552347125142633e-01 -8.205183253928526321e-01 2.130024229737466079e-01 5.275134664999504147e-02 -9.756266003107567641e-01
2.046886453591567883e-03 -3.235625507791622252e-02 -7.808681018377833238e-01 -6.064582865102979142e-02 1.206702542062892819e-01 -9.908384193283076291e-01
4.941495312508598081e-02 -2.180498727171697182e-01 -8.464056773526544841e-01 4.508943341771611268e-01 5.952018930973791422e-01 -6.651533701788111541e-01
-5.241149706569255690e-02 1.641866485876745940e-01 -7.252825147014949625e-01 2.152636091701855270e-01 5.592087525321921548e-01 -8.005917496817056556e-01
-6.140459982523355231e-02 1.195000142468166486e-03 -7.919720408849278970e-01 2.768115862891312173e-01 3.765565791745187352e-01 -8.840704091736579784e-01
4.753123393391920498e-02 -1.102632417313179208e-01 -7.791562309788471197e-01 5.035821523976998781e-01 4.888460867471973725e-01 -7.123443824853616935e-01
7.965015699279381911e-02 -1.786616167182857318e-01 -7.964380456797073293e-01 4.343765674175270042e-01 7.617330575374848811e-01 -4.807075480301525316e-01
5.333574402575536055e-02 -2.112985551583841382e-01 -8.403989349844648293e-01 6.614412934040274639e-01 6.025600750567513542e-01 -4.465610499445841208e-01
5.367132505094576039e-02 5.378842327907623795e-03 -7.210629758836655245e-01 6.243715786172111537e-01 3.012128128308729225e-01 -7.207155980007405871e-01
3.266051304249632803e-02 6.471075071802967482e-02 -7.087405796998176299e-01 6.994245967613909043e-01 3.392529218859742235e-01 -6.290569834577744990e-01
-6.100161831744391888e-02 7.940775101642840589e-03 -7.876302939372779033e-01 4.824472798972723742e-01 3.832210651128912793e-01 -7.876460101933252522e-01
-6.635893030681622173e-02 1.083175681765654597e-01 -7.539646108696408389e-01 5.393174752065937883e-01 4.253388037097927676e-01 -7.267899029262220312e-01
7.374287195112319560e-02 -5.054754731824721847e-02 -7.265391236118613483e-01 5.853193855297893489e-01 3.279227274079123955e-01 -7.415307827544219688e-01
-1.678886603800369345e-02 -4.946546892116854971e-02 -7.981653567865173438e-01 4.186919202752666380e-01 5.078994385612998208e-01 -7.528181959844794102e-01
-2.904549621330067277e-02 1.949341980255278328e-01 -7.077304741637120422e-01 2.326093577823338393e-02 4.086365844909458644e-01 -9.124007182605102795e-01
-7.961440461899434162e-02 7.880942801658648300e-02 -7.745760812761730563e-01 4.680264174342256833e-01 3.041798169617682679e-01 -8.297143553879183786e-01
6.801775468742864150e-02 -2.110175225904454277e-01 -8.267732699652440287e-01 5.766929602929152798e-01 2.674586896956641091e-01 -7.719398155652240634e-01
1.647361988394569973e-02 -2.269077108316678026e-01 -8.852184268460047134e-01 5.263996800678406585e-01 5.088267079231966195e-01 -6.811745430713900262e-01
1.792336946160238628e-02 -2.350824645344568031e-01 -8.918219488519448790e-01 5.013264535696414503e-01 6.610615954385649085e-01 -5.582735476336891933e-01
6.231740045501839992e-02 -1.946671556601834163e-01 -8.220317682791485892e-01 5.464101192480944613e-01 3.821471935652108742e-01 -7.452513026043741107e-01
-1.369280373565244513e-02 1.997364708438529035e-01 -7.014437167675646734e-01 2.251799575824007527e-01 5.970854006194957486e-02 -9.724859263489927796e-01
-5.030988094239609992e-02 1.057244280576183776e-01 -7.459509670611952359e-01 4.108596735642095488e-01 2.059551315219161072e-01 -8.881310784104456957e-01
4.718322443894697876e-02 7.723149465447858020e-02 -6.902475407463718460e-01 6.309907537464818361e-01 2.982745923125103560e-01 -7.161584575128971952e-01
8.417200107564928868e-02 -1.605277945047126897e-01 -7.813890280467460370e-01 5.978929204540867071e-01 3.938861435148335866e-01 -6.981244599767975068e-01
-6.731578789843427335e-02 3.157674122642335768e-02 -7.798437183542651363e-01 6.864289463443826733e-01 2.395536791248479014e-01 -6.866071194200433769e-01
-4.215129309487884030e-02 8.556743912894142212e-02 -7.465047973579240770e-01 4.649559371835403909e-01 2.575920088512836381e-01 -8.470314831538054978e-01
2.141927182301205795e-02 2.274516018283125884e-01 -6.842888683899294167e-01 6.837750123267092306e-01 -1.690778017158571789e-01 -7.098340858852453250e-01
-2.491054238296519507e-02 9.050189969559475911e-02 -7.355897016097807661e-01 4.960600304169967001e-01 2.260462729159646023e-01 -8.383480951988198093e-01
-2.345287731709623513e-02 -2.247564845301979197e-01 -9.038487057661240831e-01 4.379868368689182612e-02 6.863068847392537197e-01 -7.259921041352973559e-01
-1.492651304627776870e-02 4.607612088318373961e-02 -7.470949390820288416e-01 3.547976746012038163e-01 4.714491706521438674e-01 -8.073749374293111014e-01
-6.642169380817540547e-02 -1.119974497307764799e-01 -8.563729526724198626e-01 4.812889598366872912e-01 2.734855414391069162e-01 -8.328064575656687341e-01
2.762586242708927123e-02 -1.095760164760670868e-01 -7.972241949385199256e-01 5.696306091715974684e-01 4.812070608801669591e-01 -6.663037848113019246e-01
2.048647625716598641e-02 -5.786496429463110908e-02 -7.763805441006050856e-01 7.104485910558075989e-01 2.891406908801689157e-01 -6.416077153090945506e-01
5.820748183818455490e-02 1.149226587152375190e-01 -6.607315787543482921e-01 7.223446743576722451e-01 3.768004458360901254e-01 -5.798617037232517424e-01
3.912999156398261347e-02 -1.631953673835795648e-01 -8.201580307237045231e-01 7.163345840181336577e-01 5.769138379515558190e-01 -3.924731676427997695e-01
-5.265252774359276133e-02 -1.296085527921995162e-01 -8.572074214633956801e-01 5.281902679129226730e-01 3.900234573263253735e-01 -7.542524402461652233e-01
1.030883208631433318e-01 -1.433247819501667353e-01 -7.551714212453899400e-01 5.228686542702122297e-01 3.708915996149745320e-01 -7.674944896979407627e-01
1.350756463306099567e-02 -1.501735083515479963e-01 -8.311689758197745581e-01 5.722820383878275408e-01 4.657693773873394227e-01 -6.749460390482213690e-01
-1.252005319039252614e-02 -1.502361607754497674e-01 -8.460874759745307117e-01 2.999472185122689094e-01 5.443478474350785801e-01 -7.834009746608368019e-01
5.123799530702515675e-02 -1.701123057496242985e-01 -8.145326309406820675e-01 6.359705818759691098e-01 4.766627209286248834e-01 -6.069053216649703542e-01
5.702367330491477787e-02 -1.514867971605120267e-01 -7.966206082263571631e-01 4.525031268570477438e-01 4.175776885443365227e-01 -7.879529137039621434e-01
8.100120661779661169e-02 -1.872029998787531901e-01 -7.978457386348766223e-01 6.696491230781470572e-01 3.740447334495221043e-01 -6.416078158340531301e-01
6.344581551413309983e-02 4.115856193597183105e-02 -6.947038071908464563e-01 6.016893572376665889e-01 2.528568210833255225e-01 -7.576498831376921039e-01
-3.330046750765034563e-02 -8.787858481468733760e-03 -7.853353554500610567e-01 4.085619338697915603e-01 4.499996686408505586e-01 -7.940890657953304510e-01
3.935171240706419188e-02 -8.533585833453659342e-02 -7.742413298089951823e-01 4.977503985556233079e-01 4.037486239821016509e-01 -7.676142191037615969e-01
1.397576618437630994e-02 2.484856431979871050e-01 -6.897162142655157702e-01 2.639792829433275020e-02 8.577636665676303951e-02 -9.959646400876548400e-01
2.507255963174228469e-02 -1.875711843385873545e-01 -8.471916949579169076e-01 3.814564619470684481e-01 5.848435195998311631e-01 -7.158554499484561795e-01
5.981613654053685031e-02 -2.227121831984277267e-01 -8.397445492911504994e-01 6.582293204205296178e-01 3.788113206090283347e-01 -6.505660190304833890e-01
-4.737638345308979940e-03 2.494538206217084275e-01 -6.949683544804967639e-01 5.429227456122859286e-01 -8.303560110506827963e-01 -1.254742491861002007e-01
-2.234284471426285085e-02 -7.401718742661586581e-02 -8.138841072567911672e-01 4.409037152299731255e-01 2.533173469746872741e-01 -8.610657556877479024e-01
-5.153065082143382103e-02 -9.542419540317986434e-03 -7.936524861990894575e-01 2.921639464821718657e-01 5.124899201484148792e-01 -8.074616462236665626e-01
3.355994300167803451e-02 -8.163458927390242897e-03 -7.448687082209083377e-01 6.351445051967165023e-01 2.924730907470668995e-01 -7.148782754478387735e-01
-7.235432697054745843e-02 9.281949611644095544e-02 -7.643775896006775872e-01 5.907253030493262447e-01 2.141261216859046967e-01 -7.779419132229826728e-01
2.418635346818317350e-02 1.806658039948195738e-01 -6.801451353450245207e-01 8.573285083821602370e-01 -1.726953532882127829e-01 -4.849372574548992954e-01
9.984958723551835835e-02 -6.720226967130289719e-02 -7.162468371820680524e-01 5.753043809352991200e-01 3.996246422908456553e-01 -7.136701020433500187e-01
-1.776653574348173101e-02 5.927409038632481392e-02 -7.431394732902866229e-01 3.847342755925641788e-01 1.826859575711273220e-01 -9.047681349885090540e-01
6.873811665408031957e-02 -5.319959082861517446e-02 -7.311674128085663416e-01 5.365596643950251154e-01 3.375801690328347759e-01 -7.733972821390443508e-01
9.905573893455098256e-02 -1.701205250187159401e-01 -7.741751859331778007e-01 3.807943132629053595e-01 3.057930146861894127e-01 -8.726318371201935431e-01
-5.893580869782986953e-02 1.446328143257480936e-01 -7.347761739845959372e-01 5.473703755459539133e-01 2.800566506306511050e-01 -7.886405673132865779e-01
-2.031035762953408569e-02 -2.197489423245143070e-01 -8.964622068379823894e-01 2.366273806164650717e-01 7.136397219109381629e-01 -6.593374174529075260e-01
9.750558742762373277e-02 1.838858481332244707e-02 -6.753378405408887453e-01 6.680896568725144258e-01 2.201237455069346149e-01 -7.107754547281187607e-01
1.381751366795125335e-02 -1.023017641964932140e-01 -8.041290332184717338e-01 6.030837001723453605e-01 3.695229319029843529e-01 -7.069249276862819009e-01
1.047912543322896406e-01 -6.226844656363803021e-02 -7.096145490304045511e-01 5.507454926714119292e-01 4.033503203669125958e-01 -7.307447716966799511e-01
6.609961563578424515e-02 -1.322511731523525469e-01 -7.772270311959401656e-01 8.685736603872706851e-02 4.259287572055092119e-01 -9.005778654564993158e-01
1.521961225698175400e-02 -1.061345656519276370e-01 -8.050138391845392816e-01 6.606692023328154528e-01 3.208276886804625194e-01 -6.786647178577014383e-01
-9.663799707910662729e-02 4.063687919895149492e-02 -7.991664836035543562e-01 5.858654676472271339e-01 3.487025484964639266e-01 -7.315519028001821189e-01
9.409575869646279178e-02 -1.786897680421589696e-01 -7.796974999648764726e-01 7.342085151406664290e-01 6.416327680992292004e-01 -2.219127017461108298e-01
6.821990727339883633e-03 -4.029799129857748741e-02 -7.826200733423586131e-01 1.125701012027180009e-01 5.475546336445873408e-01 -8.291633708079194642e-01
9.465498267199935756e-02 -3.306008137478928799e-02 -7.043090859359462108e-01 7.682627436979269087e-01 2.285428804078168119e-01 -5.979469110720714298e-01
-9.434784499442938621e-02 7.137276291416504159e-02 -7.875930246562188319e-01 4.726529915524422809e-01 3.456041447934241062e-01 -8.106521601020578727e-01
-9.401754100873997710e-02 2.831651960776459826e-03 -8.155834775958821226e-01 3.794129483246225787e-01 5.378960086068105273e-01 -7.528038911751713247e-01
-1.069638217776167632e-01 -3.526120664901399165e-02 -8.428442713318275992e-01 5.524468197244394307e-01 4.556650327180382654e-01 -6.979769977115447555e-01
2.119205013350815639e-02 3.099359978119321790e-02 -7.361037803976026028e-01 4.313542034543961790e-01 4.276843173501830853e-01 -7.943674690311349762e-01
4.050560585216294446e-02 -2.150812867413984808e-01 -8.536051038038121597e-01 5.902041754589792966e-01 4.502906424678295716e-01 -6.699980362483874963e-01
5.890864430049312650e-02 -1.812431780457751662e-01 -8.164573375471868566e-01 5.814043200972701664e-01 4.495497722064555890e-01 -6.781401174398655751e-01
1.030968219093443966e-01 -6.650559489903758170e-02 -7.108439384530816918e-01 3.600686765380757270e-01 2.010375863302575339e-01 -9.110073748651119629e-01
1.023828185312894851e-01 -1.005957503721180563e-01 -7.284331743564634865e-01 8.538250520175280078e-01 3.374898745188842919e-01 -3.963374384845483878e-01
9.481838961365209040e-04 6.307145602687300179e-02 -7.355500011072300115e-01 6.997369444657770832e-02 3.420750263902961885e-01 -9.370636896207081845e-01
-1.091268194116565629e-02 -1.853970588570021394e-01 -8.667326065781671973e-01 6.716424087423762401e-01 2.015975227954988069e-01 -7.129199910098306114e-01
1.069082604422717936e-01 -1.021241598569205544e-01 -7.280236060300900869e-01 7.085401779773170539e-01 5.226685432019388955e-01 -4.741185612682070061e-01
-4.771945396745191220e-02 -1.826233498883400863e-01 -8.805651151656820330e-01 6.723682637502277452e-03 3.119148786448746047e-01 -9.500862595426498025e-01
1.094975859002483842e-02 1.948923464307978359e-01 -6.941603579562426463e-01 5.617321325797475229e-01 -1.900341153772528435e-01 -8.051981409691616465e-01
-6.478550711463842982e-02 9.781264001845811629e-02 -7.574577651237976994e-01 4.927944244792650252e-01 4.452517728285561027e-01 -7.475991666629770993e-01
3.059557979084683715e-02 -2.413274854431799732e-01 -8.859715554740795751e-01 8.259266833953818887e-01 5.246860643338491226e-01 -2.062756591296229236e-01
-1.456799608612463666e-02 3.204149846620282099e-02 -7.537145457203980881e-01 4.073706762774797485e-01 3.096225163313735540e-01 -8.591757849764254384e-01
3.419412941594619088e-02 -1.492892853595266245e-01 -8.149227407223880171e-01 4.963200197727496432e-01 3.338620316409914857e-01 -8.013754312438876592e-01
-3.228467759391494274e-02 -9.838773546905064948e-02 -8.312936804803054969e-01 3.990389585320979760e-01 4.689312921495983888e-01 -7.879539027230758608e-01
-1.340350228141237200e-02 -6.342724417125865377e-02 -8.034640951633770234e-01 5.400250687435261820e-01 1.776678029309025908e-01 -8.226828531884297080e-01
1.205947898455014648e-02 2.455227450107335951e-01 -6.903586955354434895e-01 9.632639743484959494e-02 2.443989052340099499e-02 -9.950497057476211937e-01
3.334559648467472909e-02 -1.613971948588714123e-01 -8.233748655398990257e-01 5.811560462352592937e-01 4.169009299478492192e-01 -6.988928848778040992e-01
3.390544839712034825e-02 2.409684531556800235e-01 -6.730387004054804168e-01 8.029860327716824564e-01 -1.030424655210356172e-01 -5.870227265387093496e-01
5.449110351831155247e-02 -2.369511020213479688e-02 -7.342475218314468144e-01 4.404037809082634869e-01 5.090826705310771416e-01 -7.395129101825422824e-01
-7.940565786057020292e-02 1.105419355742698166e-02 -7.989906112519827852e-01 5.842263584364593143e-01 3.085122669580885324e-01 -7.506661996150184590e-01
5.698184153166372529e-02 1.562453199342230259e-01 -6.491611410443404173e-01 3.974738286208899796e-01 3.921736744001358965e-01 -8.295868638478718360e-01
8.537522961152618772e-02 -1.234061781884391307e-01 -7.586222419662275174e-01 6.333194787640252787e-01 5.912372886786335657e-01 -4.993444765830509779e-01
6.153808928264497408e-02 -8.632018073033480288e-02 -7.538996299609566076e-01 7.433198648980761103e-01 3.813910341613371835e-01 -5.495602401095366352e-01
-5.930163045822531981e-02 -5.520739006963821388e-02 -8.260763618430325694e-01 1.252121143786789625e-01 5.510947211921553013e-01 -8.249948694912963010e-01
4.733370890073933940e-02 1.822924208432683824e-01 -6.541424219451240640e-01 7.385208024639053903e-01 -2.299990672898873795e-02 -6.738382807606932978e-01
4.342833279304792599e-02 1.642083541486891174e-01 -6.610478524453365923e-01 6.592560394325188700e-01 2.008869013673235115e-01 -7.245867286466017854e-01
-1.046340523367831760e-01 8.581010622680261546e-02 -7.891100934482045970e-01 5.965824799292482883e-01 3.054171739051898538e-01 -7.421655438817104100e-01
-4.318807892651750635e-02 -6.496097221494087984e-03 -7.874110433412394583e-01 -2.005231181605998947e-01 6.961536479911601960e-01 -6.893189229027083531e-01
2.075885030109309373e-02 4.907650515338476266e-02 -7.265672734307752068e-01 5.009402307311096036e-01 4.216915736749706767e-01 -7.558009671379030125e-01
3.867447374248524777e-02 -2.076346228108093550e-01 -8.495525917826171058e-01 6.433663364184409872e-01 5.771763473401144706e-01 -5.029385859472675913e-01
-6.217622554275414187e-02 -1.062772266347715294e-01 -8.516902399974081161e-01 6.390423042800585929e-01 4.464884551798193324e-01 -6.263170065801914044e-01
4.760247053395209871e-02 -9.141123528965783285e-02 -7.705878434086352868e-01 3.988217088770119045e-01 4.962696332142144118e-01 -7.711405161692965748e-01
-1.291245775055970739e-04 1.453937346533900610e-01 -7.090182765255805819e-01 3.221931141659988285e-01 2.834201810264107557e-01 -9.032522339695441271e-01
-4.586905319024501410e-02 -1.307647226365509126e-02 -7.934067353433225112e-01 4.235895494354855462e-01 4.410679520213115490e-01 -7.912211797650313683e-01
-4.891287870882682354e-02 1.218217281346000852e-01 -7.392252840107456091e-01 4.450105594210686522e-01 3.134413583635993761e-01 -8.388802756478000999e-01
1.108085511850871209e-02 -1.957683012936995148e-01 -8.640109945709411043e-01 7.775191015090355817e-01 5.969068233093954845e-01 -1.979047525333029744e-01
3.216184218640413817e-02 2.193108093575281414e-01 -6.711668045581213882e-01 6.516095167197847315e-01 -2.799186806532679150e-01 -7.050181344770801717e-01
-1.778302651740359605e-02 -1.002438060828386573e-01 -8.245472727025388027e-01 4.408996687501257616e-01 6.327100383003398942e-01 -6.366203653120215966e-01
8.328472741616077535e-02 -7.653312139841365880e-02 -7.297361711916353633e-01 3.931987132798238638e-01 4.687077327586224862e-01 -7.910169613398707611e-01
-2.396388276365014891e-02 8.505968962129269520e-03 -7.705332210647412028e-01 2.899283857606456127e-01 3.280519745905445816e-01 -8.990680914688669034e-01
-8.076796510628934944e-02 1.485077061709652035e-01 -7.438242519524643770e-01 2.480071638014355040e-01 4.009040429308614040e-01 -8.819117841739376740e-01
-6.914738288447158654e-02 -3.063236445222386473e-02 -8.172442136766678855e-01 5.833660723935969461e-01 2.470805304455405416e-01 -7.737152170242090898e-01
2.637988108783615587e-02 1.689125720076382342e-01 -6.802998681990078955e-01 7.225554014261791336e-01 8.472245502968629716e-02 -6.861018856435213698e-01
2.170001308069413257e-02 2.636312500742578613e-01 -6.860237592524346395e-01 3.944465171570154527e-01 -1.168033783139812570e-01 -9.114652576577678689e-01
4.999552926354227517e-02 5.636609627495709623e-02 -6.999589104276795481e-01 5.554571131840999598e-01 2.620973814504471977e-01 -7.891592729291121433e-01
2.014172989402129507e-02 1.076406824343190544e-01 -7.002693976039550128e-01 8.364317254018692749e-01 2.866882667057251144e-01 -4.671100582031164627e-01
-3.710917262233429104e-02 4.243857821221645038e-02 -7.585933469412520225e-01 3.941957206182908346e-01 3.225415367671841671e-01 -8.605676562049549005e-01
3.885653006255633535e-02 -1.580162307207662042e-01 -8.170061986972275703e-01 6.034064683070085033e-01 4.202468233167888645e-01 -6.777117687464271345e-01
6.203166047115840631e-02 6.452515367946762281e-02 -6.838874852938097160e-01 5.452467399148783755e-01 4.865259318791167464e-01 -6.826408354481543483e-01
5.233625690786604390e-02 2.092746816012330813e-02 -7.140841405950254517e-01 5.258520132135988678e-01 3.479344078835159282e-01 -7.761580431909163025e-01
2.726111646764719284e-03 2.176950412101145704e-01 -6.939599065621838703e-01 5.000123537632863435e-01 1.614102761467592351e-01 -8.508433280212785998e-01
4.028218271214554363e-02 -1.685111206540548801e-01 -8.234057002036527795e-01 2.637208709910584536e-01 3.298253290906600355e-01 -9.064582475183041721e-01
8.648465879801504885e-02 2.243107448589030939e-02 -6.824601378659229667e-01 8.913730288044842132e-01 3.023973775622010307e-01 -3.376535940330319119e-01
5.640235662850515835e-02 8.754312795829823080e-02 -6.758414842943747392e-01 6.057790456823219927e-01 1.870792825775992874e-01 -7.733259919610007138e-01
5.297633247870530554e-02 -1.513147140953557956e-01 -8.008051712028629865e-01 7.247199980722595081e-01 4.499354401016670280e-01 -5.218611157527097699e-01
-1.917844051228553229e-03 1.360745840354377345e-01 -7.115505010224559834e-01 5.233836712081902931e-01 6.254939968141759454e-02 -8.497982733049832538e-01
9.026513867833732552e-02 -1.529251851518961813e-02 -7.001010939597849259e-01 3.537643436060265989e-01 3.361414085341032365e-01 -8.728457725518902199e-01
-1.030711413033112561e-01 7.044271730578155477e-02 -7.944501343147906125e-01 3.515569852823539621e-01 3.008048682996971590e-01 -8.865236135074938684e-01
-1.750636286320400581e-02 -8.335269096041633685e-02 -8.147141013754739536e-01 3.980976850671672507e-01 2.102482936905205602e-01 -8.929243462603017045e-01
-8.291288922726604282e-02 2.172641541580667360e-03 -8.063405259468238162e-01 5.351036315466142224e-01 5.358616739854346056e-01 -6.530822075812148242e-01
-2.853232884857551457e-02 1.521969006401245605e-01 -7.179608103352805859e-01 3.202169055452097624e-01 2.693992644536489789e-01 -9.082318920379768290e-01
4.872798182204831317e-03 -1.487303391894535531e-01 -8.380481771903582899e-01 2.360854300076470902e-01 6.076881147299774133e-01 -7.582735818647713399e-01
-4.848213140164266133e-03 -5.229743920742239288e-02 -7.935632849569126401e-01 5.084352571256801623e-01 5.130214219348115945e-01 -6.915942523962494981e-01
1.035062559058972792e-01 -9.294818306371903371e-02 -7.256868019644469037e-01 7.576704878379466601e-01 4.048279464085353108e-01 -5.119079660115241071e-01
-5.495087388892965635e-02 -7.600130258306642649e-03 -7.934950185188538452e-01 2.898314796122089532e-01 6.843614676984833833e-01 -6.690643429113339868e-01
-1.115387555011100318e-01 2.442607839828111202e-04 -8.291242300648111740e-01 7.376220580643489955e-01 2.995027175352804605e-01 -6.051543783580317637e-01
-4.938579877569214405e-02 6.955835471312010743e-02 -7.570127867809605116e-01 4.997297806928504560e-01 2.562913377761324440e-01 -8.273964566455405123e-01
-5.875942215408758856e-02 -8.205943423352336785e-02 -8.388172448062308773e-01 5.562385721153958462e-01 3.596205701131567345e-01 -7.491806834419272310e-01
9.186072299205839953e-02 -1.017722516326104165e-01 -7.390368428868046013e-01 4.616908535064198071e-01 3.789273754725882570e-01 -8.020321688722775733e-01
3.802066799406059183e-02 -2.220986994687235982e-01 -8.604994006847009880e-01 6.681714387675237177e-01 3.335295813942256160e-01 -6.650601076221079877e-01
5.157560535328216053e-03 2.555024008958319826e-01 -6.918809122815010593e-01 4.180664025228650882e-01 -8.925701046972150943e-01 -1.689351688737206481e-01
5.968745427355550554e-02 -1.263957688883964869e-01 -7.796909174796887720e-01 3.729708847393546356e-01 3.328396528434703350e-01 -8.660891897673016482e-01
-9.562826961670502224e-02 8.387587803773249862e-02 -7.840643343119091391e-01 5.190248177517946537e-01 2.405431804753069280e-01 -8.202147382756177496e-01
6.840190321431072196e-02 7.585600377981729925e-02 -6.711676998254235693e-01 5.884872635203870495e-01 4.093229485076152474e-01 -6.972355875163850358e-01
-3.275685974278974566e-02 -1.499525670486951956e-01 -8.555328529009808003e-01 2.655482870878109747e-01 3.335185360233776097e-01 -9.045714418184735983e-01
3.023769489437528810e-02 -2.207102885631697653e-01 -8.676042473399633304e-01 7.921651092230124203e-01 4.468464578660528708e-01 -4.156954207376532540e-01
3.479787290316410653e-02 -2.360102574527154218e-01 -8.781008059051336190e-01 1.202421689413121081e-01 7.363779324063004506e-01 -6.657997908330334225e-01
-3.242466037091545211e-02 -1.012964864485067090e-01 -8.328888560992128154e-01 5.312703325382771569e-01 3.403678203055392482e-01 -7.758231632692621504e-01
-5.853379893752472252e-02 8.267686492715738134e-02 -7.580411887297900941e-01 6.137021162056873758e-01 2.494120302105887199e-01 -7.491083711659437538e-01
5.166844423947824366e-02 -1.158312455126238455e-01 -7.797107818940662849e-01 5.565284521718886213e-01 2.847938529700619337e-01 -7.804925004339429151e-01
2.506916492543041775e-02 2.313881242285135142e-01 -6.799204408485013396e-01 5.682512311713080466e-01 -1.157445848302647295e-01 -8.146740018895669566e-01
1.510800776215010660e-02 -2.425727792201010924e-01 -9.075918218742247134e-01 4.892369042130194634e-01 7.732323226966975049e-01 -4.034340425560675736e-01
-3.757849179032028697e-02 -8.397940311371887567e-02 -8.269819088837522258e-01 5.192737959039805951e-01 4.267845745766560839e-01 -7.404118122983273098e-01
-2.406025768634078438e-02 -5.491905401756673466e-02 -8.061668715959966480e-01 5.298346793846884228e-01 4.349203904536598775e-01 -7.280930342263689514e-01
2.114415322637897693e-02 -2.220676871441466249e-01 -8.774397195564394014e-01 7.797518632484784495e-01 3.718039203298376116e-01 -5.037349269088754466e-01
2.127707073996038326e-02 1.549766833350211259e-01 -6.849563617153544559e-01 5.573387460490363265e-01 1.085173600419679224e-01 -8.231631094272929827e-01
1.444891525043671271e-02 6.649096866451924270e-02 -7.237219126971553562e-01 6.298788460141157008e-01 3.306182522037822147e-01 -7.028116466405789353e-01
3.596546057186140316e-02 1.942321265539814767e-01 -6.650690325622732324e-01 6.889749907688367259e-01 1.604666087904477179e-01 -7.067983655600617032e-01
-5.397322074189557506e-02 -8.384837845712447835e-02 -8.368216129617519483e-01 3.462319736714855600e-01 2.036807120687839090e-01 -9.157715806568254013e-01
-6.231440407887199606e-02 8.368028455725239068e-02 -7.600541110967483638e-01 5.866699232329534164e-01 2.822192646101355229e-01 -7.590590806101686905e-01
3.722340206221303599e-02 5.895608463255009452e-02 -7.078840915749120555e-01 5.841907133505205296e-01 3.363794817474081156e-01 -7.386271418614096529e-01
7.641029231554793966e-02 -8.175538552989894403e-02 -7.390140349398679476e-01 3.974738286208899796e-01 3.921736744001358965e-01 -8.295868638478718360e-01
-6.737627185018170428e-02 -5.145995933461709054e-02 -8.281484449890599286e-01 5.288511915974293265e-01 3.025481218845297304e-01 -7.929571558981751700e-01
-8.654060667158883224e-02 -1.135672637065079787e-01 -8.687545751981540221e-01 8.435035829602441915e-01 3.544539181762906277e-01 -4.035642766929521952e-01
7.394704435743336413e-02 -8.937419364297902180e-02 -7.461394435117308932e-01 4.921083267667469840e-01 4.751920855954980261e-01 -7.293982975811180713e-01
3.765603136076917708e-03 1.262405068767693261e-01 -7.117208420223968268e-01 6.288898447344175302e-02 2.936996098887571516e-01 -9.538267739915310406e-01
-5.350623147519652928e-02 -3.261205745203270279e-02 -8.086241976689705346e-01 4.414828608591572223e-01 4.484595716914621666e-01 -7.771595049447211911e-01
4.846488380356957920e-02 -6.493372241758724184e-02 -7.537455536516081134e-01 6.866181864565813475e-01 3.967843482235134389e-01 -6.091942605047395709e-01
6.255582633496212241e-02 -1.095175261722887011e-01 -7.667097270837328615e-01 3.771043799997788604e-01 8.637218487997003202e-02 -9.221345521473764961e-01
2.328456952090190643e-02 9.540371238333730797e-02 -7.032358651189105636e-01 5.851199603800385507e-01 5.230857573130515137e-01 -6.196901826405623037e-01
3.668746480414551009e-02 -4.276296054113178785e-02 -7.570071270324305601e-01 6.661497159866587303e-01 6.973451124094946774e-02 -7.425507752557261032e-01
2.177763604621981569e-02 2.101006688458127436e-01 -6.827010654742006190e-01 7.416190794512137474e-01 1.715711327995136648e-01 -6.485094350769506910e-01
-7.718024950068749779e-02 -7.465274635980098661e-02 -8.453079366410625184e-01 5.336981775774113368e-01 3.630070136777439060e-01 -7.638011280898425737e-01
-1.967156535798933806e-02 1.960063328336105193e-01 -7.044413455743073760e-01 1.678679347530768473e-01 5.185901153521275120e-01 -8.383821615115649717e-01
6.061488780523906217e-02 8.909558236727208036e-02 -6.710397137270261991e-01 6.375162711273159033e-01 3.889145267977579534e-01 -6.650702931973421217e-01
2.158300786447556879e-02 1.924502796853274841e-02 -7.416152256941043186e-01 5.766507388639796616e-01 1.294336921758384162e-01 -8.066726998587200326e-01
4.499553380167227445e-02 8.450509341133753682e-02 -6.891958344405757497e-01 6.245024302980048958e-01 4.761748128628143228e-01 -6.190753283300418630e-01
-3.634147597045134237e-02 -6.794101614054416129e-03 -7.852513112174145382e-01 2.749368195947399229e-01 4.549209881263796551e-01 -8.470281221973965380e-01
-3.781585535205903709e-02 -1.844236548839477408e-01 -8.778087175658025876e-01 4.929472119406626551e-01 5.571870602152323437e-01 -6.682406947864178992e-01
6.210873000481166757e-03 7.059061831461055370e-02 -7.316489906845938807e-01 1.385328815972576844e-01 2.366336930438972252e-01 -9.616720522261039683e-01
-7.875933641173678279e-02 1.285391627008053983e-01 -7.523093686882653675e-01 4.052387057670462922e-01 4.600680063248895335e-01 -7.900120384554216724e-01
1.146152506630077192e-03 -4.647219766791539641e-02 -7.871394792156451992e-01 1.693590991622992981e-01 5.857778873540032682e-01 -7.925791835633932969e-01
1.100032129164190686e-01 -1.252338070510896351e-01 -7.373712781048621379e-01 6.041661975880211477e-01 3.003694088948615226e-01 -7.380795511949803656e-01
-5.480534892944857045e-02 1.475117061172226234e-02 -7.795631427024416471e-01 6.978683843907944606e-01 2.750679571184115324e-01 -6.612997331274873547e-01
-4.518031223582117534e-02 3.068316147316143064e-02 -7.677424510527552926e-01 3.235567740008494786e-01 4.341042452549792596e-01 -8.407523525092081007e-01
2.308049837410211177e-02 7.010219949753875024e-02 -7.142411989971602093e-01 7.802137852782582428e-01 2.399624919348180563e-01 -5.776542666043453789e-01
4.758428183993783367e-02 -1.989462008582094377e-01 -8.366615829232827428e-01 7.796055892822396638e-01 -1.484062829515884474e-01 -6.084329875511228503e-01
-2.073240501951728598e-02 4.850821372885551902e-02 -7.478737206007357585e-01 5.841308022329663174e-01 5.756295399624328929e-02 -8.096157806082446839e-01
8.631683412231418162e-02 -1.841734411258314774e-01 -7.901213987205650824e-01 5.903768607388133471e-01 5.553503380658683097e-01 -5.856971609238936782e-01
1.583340371472571548e-02 -1.437705317547788575e-01 -8.251502087982545142e-01 6.589274417219134206e-01 5.727566004210135064e-01 -4.876110163029314659e-01
-3.555176986205442480e-02 -1.880838247295333887e-01 -8.780880522192696658e-01 5.246586833676001316e-01 5.084641498404534055e-01 -6.827865510494482981e-01
5.470075572776039036e-02 -7.407078301691408934e-03 -7.273515973014101910e-01 5.325104962615918591e-01 3.617481333233948937e-01 -7.652260185123558323e-01
3.753530644668616467e-02 -1.063821304102933185e-01 -7.853874143582300071e-01 5.182008890076478247e-01 4.758785880022728954e-01 -7.106387324883481904e-01
-1.490918127583037121e-02 -7.329215706965483412e-02 -8.091677592683877984e-01 5.094861073309691069e-01 2.963187836521493090e-01 -8.078484294047038050e-01
7.296565476431403352e-02 6.664213291377778237e-02 -6.714007992029481509e-01 5.601555368255357603e-01 4.225230672554454725e-01 -7.125307236889831808e-01
7.392096888312771341e-02 -1.717718454615370371e-01 -7.961286904596267533e-01 2.683431209057180467e-01 5.630190714696002852e-01 -7.816658458856241554e-01
8.631878913657818619e-02 -1.659147700478039444e-01 -7.832481047784393136e-01 6.718845597187279584e-01 3.334923856025612809e-01 -6.613274280994880794e-01
9.596097879587812962e-02 -2.309048306484311197e-02 -6.966946591953349088e-01 4.101252129203669661e-01 1.628639391945143067e-01 -8.973698496367420452e-01
-8.834013080693933762e-02 9.308769367854471954e-02 -7.750590835997290817e-01 4.558740664035825230e-01 4.857139047499435813e-01 -7.458289604951154894e-01
-9.262254827085749861e-03 2.054545164932485568e-01 -6.993542875902416522e-01 2.025753315399320964e-01 9.777042875195823823e-02 -9.743737364651947619e-01
2.392338633790604477e-02 -1.975580690264523986e-01 -8.540937592230589681e-01 7.930047640824267052e-01 2.760050726760389650e-01 -5.431064757482358951e-01
-2.242077103159138482e-02 -8.332211647606991428e-03 -7.796824173086920329e-01 4.704348036211791761e-01 3.311950765703672306e-01 -8.179247623085211805e-01
-3.274428518667049648e-02 -2.055316130636299088e-01 -8.890564460218767229e-01 3.669644700302343021e-01 3.110915026351517287e-01 -8.766750565195934319e-01
6.076313039901742180e-02 -1.723557374361438799e-01 -8.089234796884569034e-01 2.131502735334366294e-01 4.615857141118559492e-01 -8.611071881133435246e-01
4.594045630950101267e-02 -6.224842550109610517e-02 -7.546496659581952704e-01 5.584044866455114553e-01 3.466480575044088019e-01 -7.536707195603280507e-01
-5.917477785390471562e-02 -1.642578394236666739e-01 -8.775379809939301001e-01 2.906652319690464226e-01 5.977014433743987887e-01 -7.471724750768998780e-01
-2.785788978907880603e-02 1.341106595794930578e-01 -7.233872060458784725e-01 4.001731183657518676e-01 3.452346222822888500e-01 -8.489255155283266241e-01
-5.095377022675124518e-02 2.930763963609059677e-02 -7.705379311739810611e-01 5.192506339412891192e-01 2.717863782313849619e-01 -8.102536292787805294e-01
-9.755378088371588138e-03 -3.296901214985072104e-02 -7.858042089305795619e-01 4.632708938426670642e-01 4.213456689907276731e-01 -7.796460133554025118e-01
-9.939204542438306866e-02 1.161523349383930537e-01 -7.721815988507308992e-01 9.978714753568521667e-01 -3.301217782357883379e-02 -5.623801903057501494e-02
-7.714539341310103215e-02 9.274505109868848296e-02 -7.674302140325179877e-01 3.974738286208899796e-01 3.921736744001358965e-01 -8.295868638478718360e-01
-4.291984814333763693e-02 -1.349413514428162708e-01 -8.530367387311765803e-01 4.172554510816322559e-01 5.139992409195650591e-01 -7.494682574177337075e-01
-2.628702525048632471e-02 -1.846956293065914467e-01 -8.726538796372503848e-01 3.974738286208899796e-01 3.921736744001358965e-01 -8.295868638478718360e-01
1.728466365262942492e-02 1.283831013334391091e-01 -6.955864937048366059e-01 7.159087721634137536e-01 1.332482566807595692e-01 -6.853608772252844927e-01
2.620687170274528521e-02 -1.500065925650763965e-01 -8.220108364115243926e-01 5.677230018634319419e-01 4.346890819487261859e-01 -6.990965564138813537e-01
-7.470532291098896938e-02 1.444890232467519950e-02 -7.934908006076648590e-01 6.725026890793742718e-01 3.575449955581612715e-01 -6.479982325070992033e-01
-1.077698512865860186e-01 9.550066372387956692e-03 -8.215593783897920943e-01 5.367887818683834134e-01 4.159163322432193888e-01 -7.340786117532679400e-01
7.869321413166850687e-02 -7.017438047426155512e-02 -7.297345057889964570e-01 4.815360383289899460e-01 2.355562018395454538e-01 -8.441778956862994177e-01
4.916490031521539988e-02 1.930776504591516507e-01 -6.491566772431461851e-01 8.374824156768846395e-01 -5.849825411011640858e-02 -5.433241736735792138e-01
6.347155431354140065e-02 -1.844431071461946625e-01 -8.150261975787624902e-01 9.300801523796367043e-01 1.570024923425046570e-01 -3.321161356328736214e-01
-3.152893088695127993e-03 -2.372505493457427277e-03 -7.684745970591059239e-01 3.526430520411699132e-01 4.059443932634404506e-01 -8.431204109882917130e-01
-3.371770203652767889e-02 -5.076192128925971492e-02 -8.087005552392523278e-01 4.236860409167089725e-01 4.233914578410713503e-01 -8.007682637065088871e-01
1.473036849125458278e-02 1.955922376859566825e-01 -6.891723375589523526e-01 6.080470462929090658e-01 1.216799048509602521e-01 -7.845207392095699950e-01
4.292025477625396185e-02 2.027961229226970252e-01 -6.574524073315192174e-01 2.995095460383667696e-01 5.925445847480101946e-01 -7.477866988103624157e-01
-8.942011306590351427e-02 1.332089325822282677e-01 -7.566593091561537587e-01 4.156031635179057715e-01 4.202503588022392655e-01 -8.066372458549739832e-01
-5.425600398165935506e-02 -3.493917289084812888e-02 -8.106143988048766236e-01 2.922072045807295182e-01 5.932533047115730040e-01 -7.501103025821689307e-01
8.193396626631874180e-02 -4.123582168000376053e-02 -7.182355841663539131e-01 -5.639453788989751831e-02 -9.121693429320917867e-02 -9.942329339718802839e-01
-3.522305264580344818e-04 9.577534489738016854e-02 -7.232902643937914045e-01 3.187187095389619196e-01 4.142089437882743308e-01 -8.525545936041990513e-01
6.984300381870316154e-02 3.141178038210399454e-02 -6.925820012087826605e-01 4.408579731251542344e-01 3.864912351679046787e-01 -8.101041739618233262e-01
3.202655600425741850e-02 3.078165452982308328e-02 -7.265912058162700138e-01 5.568934449795026609e-01 4.766458243448212784e-01 -6.802047111520965750e-01
-6.814373791164565763e-02 9.523088511917671530e-04 -7.963440601273806818e-01 4.683611128879858199e-01 3.924658522242806535e-01 -7.915860172919909621e-01
6.725020204602201457e-02 -1.826605090454692382e-01 -8.096533018888686373e-01 7.458172881359188544e-01 3.670619348479284838e-01 -5.558975703340308661e-01
-3.177632030514435102e-02 -1.543363397661452474e-01 -8.584258923632497318e-01 3.459733957288925188e-01 4.615131461339927466e-01 -8.168892369185204450e-01
-1.491021100898708152e-02 3.213403234668650381e-04 -7.721773888542983189e-01 3.945594646240664916e-01 3.619509019943026318e-01 -8.445794062260105761e-01
8.299775030621721339e-02 -1.857232278321748614e-02 -7.063712450607287918e-01 6.315717696573541762e-01 2.250451940709931598e-01 -7.419378413300043995e-01
-9.859175523128682617e-02 -2.836349186298517400e-02 -8.344957637366097192e-01 5.370064088325959828e-01 5.517534838265830688e-01 -6.381161414334752813e-01
9.014749802066916728e-02 -5.752050600707098171e-02 -7.194194751135959409e-01 6.448092817976885938e-01 2.524594132062025764e-01 -7.214466264327032974e-01
6.071640525683114770e-02 1.152890581666001224e-01 -6.573861545469394940e-01 9.588840146199598680e-01 1.325686756353078588e-01 -2.509322473230746198e-01
4.787129528317535243e-02 -2.303595198545873024e-01 -8.571786355124367818e-01 5.698997494925491791e-01 6.967705128058654385e-01 -4.355744804423015148e-01
9.631768857746232648e-02 -6.687458343547944550e-02 -7.180475383820266178e-01 6.014422082995346530e-01 4.378872613383154588e-01 -6.682230289606972962e-01
7.769413317454995638e-02 -1.251814727946455874e-01 -7.653504683175452739e-01 1.559966036227877773e-01 6.695469819326863199e-03 -9.877348988175183031e-01
1.661245500046705861e-02 6.933370923449031983e-03 -7.500922050983044320e-01 5.279581473993918417e-01 2.469991958396824394e-01 -8.125586697889279897e-01
1.033168287737430552e-01 -1.310872136708583768e-01 -7.448712963784780428e-01 9.623805600523278603e-01 2.080266959104373203e-01 -1.747814390087056025e-01
5.295829226570100690e-02 2.539140937976336332e-02 -7.109510153294069656e-01 4.009480514081567026e-01 6.338199615053865532e-01 -6.614475916271161937e-01
-4.571808616961728355e-02 -1.145457072570602308e-01 -8.477451787712172449e-01 6.229724052858416350e-01 3.819800364399826287e-01 -6.826394612192313582e-01
-7.004362368027272634e-02 5.537091639378010667e-03 -7.951493453500811937e-01 5.604005182267401963e-01 2.348887455210211528e-01 -7.942156737302291658e-01
-3.510535076366344542e-02 2.132338722611831494e-01 -7.047823165217650399e-01 9.135756576886235047e-02 4.922062058829324571e-01 -8.656713268135406425e-01
-1.156920462211939553e-02 5.979153012028112085e-02 -7.406385947492726274e-01 3.974738286208899796e-01 3.921736744001358965e-01 -8.295868638478718360e-01
3.668909492425947300e-02 4.546698478090065165e-02 -7.151984382480892632e-01 5.932133778346904140e-01 4.364660146833034826e-01 -6.764579117612794512e-01
-1.568608589261422104e-02 6.212714692995534999e-02 -7.420452990970605178e-01 3.925012056959587547e-01 3.236356360291784973e-01 -8.609313437314310979e-01
3.637906768556233711e-02 1.037791107175393968e-01 -6.859655588362524314e-01 6.943469087240285997e-01 3.075205717462690669e-01 -6.506254439370112719e-01
4.174250614873015186e-02 -1.389951298110166933e-01 -8.021466981162813648e-01 7.419868696268370201e-01 4.001430819914555403e-01 -5.379042658649828557e-01
-2.796943831502014897e-03 7.536334311060492730e-02 -7.320903486953295181e-01 3.617519944945057908e-01 4.377028887908037680e-01 -8.231352717648736661e-01
-7.343230633932378015e-02 -3.491096076631003409e-02 -8.223569785735902471e-01 4.953922543481061314e-01 4.869132048854276085e-01 -7.193761500356422589e-01
3.432630528639701861e-02 -1.140116644987852201e-01 -7.925285669424531054e-01 5.498834610189310412e-01 4.035949038456491111e-01 -7.312587318368669598e-01
-3.236979800734730330e-03 3.454459585446386510e-02 -7.479998710082512714e-01 2.216738710892378339e-01 3.831456362678694050e-01 -8.966939925555434954e-01
