8.293884311726275327e-02 1.208146467343942237e-01 -8.083154697618771811e-01 6.610768955636396604e-02 4.415050351433968401e-01 -8.948201368568695635e-01
5.770613127651191832e-02 -5.430684592881374062e-02 -8.951024004043478532e-01 1.613257293274435455e-01 5.307724396560447033e-01 -8.320184050599713776e-01
1.043616854579994604e-02 -2.333461683787915741e-01 -1.014062139216614256e+00 -1.898092711382667053e-01 7.859825832083254804e-01 -5.883908730453996094e-01
5.098726291568239644e-02 5.034344636220041552e-02 -8.472709749527245204e-01 1.315539424882393726e-01 5.309573930379127837e-01 -8.371247260678568169e-01
7.075383276633998887e-03 -5.842552133853017027e-02 -9.020150168798873880e-01 -1.134028755759708823e-01 5.096584236889356578e-01 -8.528704936706452688e-01
-5.165011133331228604e-02 1.099581287626650583e-01 -8.126824210764196366e-01 -2.584531287468350702e-01 2.937126941560267990e-01 -9.202906244945560088e-01
4.749707924202825615e-02 1.729299321419984492e-01 -7.930848098938331203e-01 1.693251669293971140e-01 3.643711860102641364e-01 -9.157306518020488229e-01
1.193803538851141710e-01 -6.810444451133322585e-02 -9.030114286112302935e-01 2.575225688714607650e-02 4.619374410350987059e-01 -8.865385619560848252e-01
-5.650730473913784940e-02 -8.724773948635496101e-02 -9.066851006995076956e-01 1.056913134648026359e-01 4.004122523635087472e-01 -9.102194100409342070e-01
5.249860874107607767e-02 -1.957960700202882320e-01 -9.824987619744517398e-01 -1.822427308845669669e-01 5.962739428005567888e-01 -7.818215731078373976e-01
5.743760870567385379e-02 1.719977385781163437e-01 -7.915517262289184508e-01 2.815884849506551935e-01 2.364602959541427518e-01 -9.299432528818485366e-01
-3.712999593270795845e-02 2.163616433306680964e-01 -7.858498811445725485e-01 -4.526067629595329489e-01 1.095838351117969789e-01 -8.849511292752179070e-01
3.478513484004002159e-03 -1.644935363679636553e-01 -9.605888206525182715e-01 8.635168560240711333e-01 6.385325110965376499e-03 -5.042795524166439058e-01
-7.118629659252338759e-02 1.030231238487465673e-01 -8.120609961792862874e-01 -1.400768166193303577e-01 4.603081208740679164e-01 -8.766384199333147054e-01
-1.229112681367089538e-01 -2.312870139869015532e-02 -8.624545486756741708e-01 -4.173258902142926163e-02 3.762963147996950530e-01 -9.255590064829669616e-01
-1.008313186053575589e-01 -6.482402909655024525e-02 -8.868711647629280437e-01 -1.772296293767807729e-01 6.733827327653190142e-01 -7.177362702862938315e-01
-4.173014753800868143e-02 6.468549845663566777e-02 -8.293895950999258249e-01 -2.370249967907549216e-01 3.346355518362601478e-01 -9.120516423665843142e-01
5.779368310481106975e-03 -1.373321285151047622e-01 -9.435365633072050340e-01 -1.801259977005296997e-01 8.029197733648759661e-01 -5.682204347716518500e-01
1.176881070791467934e-02 -1.045916615538618477e-01 -9.251027049523580237e-01 -1.862500579664390088e-01 3.055095791840015118e-01 -9.337959161049657064e-01
-3.708583149800968176e-02 -9.486317864703379399e-02 -9.125487637620248726e-01 -2.150340002854317922e-01 3.279220487293126873e-01 -9.199062499398592552e-01
-1.683211531042592708e-03 -1.788489667053561882e-01 -9.678348124379302364e-01 -1.489316099539020055e-01 5.758519604913956424e-01 -8.038743030814921031e-01
3.944067746183099049e-02 1.357099202615635325e-01 -8.054513371556150103e-01 2.678630101369047778e-02 3.117735593949828021e-01 -9.497787856865339551e-01
-3.870891246784375489e-02 -4.598217785486980597e-02 -8.861321327605468090e-01 -1.880044746652648480e-01 5.006845025504537139e-01 -8.449670682409120559e-01
-1.243137753703348475e-01 4.678385812928885501e-02 -8.334236843333874267e-01 3.134394176042108460e-01 2.791702445459989246e-01 -9.076451432426994037e-01
-7.810347026877609289e-02 1.529156287131201719e-01 -7.889284536912622992e-01 -3.930655934168412330e-02 4.649409008559316492e-01 -8.844687406030772303e-01
-2.236150296853769287e-02 3.718943622675936755e-02 -8.432817699357084695e-01 -2.164442205182751378e-01 5.893076253895366268e-01 -7.783755019667445429e-01
1.030447506656196610e-01 1.036368272145457153e-01 -8.156022818197430357e-01 -6.293829841968100192e-02 6.091476311496152318e-01 -7.905554591910977091e-01
4.860751548180458625e-02 -9.195648948340154338e-02 -9.161396550358774649e-01 -1.524663459269887805e-02 4.258914769415870771e-01 -9.046457815090446219e-01
2.436907733742926796e-02 -1.972879684103274467e-01 -9.822049283058266189e-01 -5.659750856730593194e-01 3.479728954422737774e-01 -7.473868251681275998e-01
-1.147501454636869200e-01 -8.575371933896334953e-02 -8.945461206209951444e-01 6.619210432765375296e-02 5.336258243103227938e-01 -8.431263754347891881e-01
-4.765032981498863035e-02 5.606347356657179204e-02 -8.323150546633724112e-01 -1.957512865903640320e-01 5.222428207420143353e-01 -8.300264272790603970e-01
-6.534635284300850666e-02 -1.375334395145008104e-01 -9.285453150617715146e-01 -2.747923608558316411e-01 4.201665213969688617e-01 -8.648405938162527784e-01
-4.678550078562585673e-02 9.216691024122905876e-03 -8.508742319610458349e-01 -1.127678837367805109e-01 5.044330605205128437e-01 -8.560553088740447958e-01
-1.618020295337437367e-02 -3.337297183285947710e-02 -8.841919065011515366e-01 -2.419328526020253500e-01 3.362443366617568485e-01 -9.101693473715437577e-01
4.806322228313333889e-02 1.116722642415814565e-01 -8.155553402094646298e-01 1.079067646157398364e-01 4.372465408650954011e-01 -8.928446632262926341e-01
-1.844672813206342174e-02 -2.383091955307820031e-02 -8.788255782472591537e-01 -3.699263983130184896e-01 4.086533390557918755e-01 -8.343601790052721512e-01
1.039631482601074131e-01 -7.969813951461564294e-02 -9.095398993411610844e-01 3.157615320166012179e-02 5.178379892541318252e-01 -8.548957617360275485e-01
-3.321794053491869403e-02 -2.097388744186736986e-01 -9.775232073290908152e-01 -2.884942712341901916e-01 5.263264676780482487e-01 -7.998446754755587085e-01
-2.224242559153727372e-02 2.171171860602319759e-01 -7.912066666947126237e-01 -5.310333041821663214e-01 4.786845866383128423e-02 -8.459977780789496027e-01
1.051204136266607608e-01 1.632610076589688028e-02 -8.624319612031612348e-01 1.311639774947615800e-01 6.554885630737794511e-01 -7.437276078560115522e-01
1.339679136939476468e-02 -3.371404107341004295e-03 -8.743086980696416211e-01 2.974888475246789121e-01 3.013039330666872351e-01 -9.059339520721052530e-01
-2.330593177172051497e-03 1.519141354351512541e-01 -8.098368037357276394e-01 -3.677249336441380523e-01 2.501858941459385033e-01 -8.956480288298586112e-01
1.604591127914831508e-02 5.694532715898712252e-03 -8.706112228015266963e-01 2.840251188967508889e-02 5.980852667465205164e-01 -8.009290299515307021e-01
5.653049395478828426e-02 4.646122576135738869e-02 -8.490257217755207142e-01 1.637666957105628207e-01 4.199173387666634838e-01 -8.926644935131937686e-01
4.987370923518387456e-02 -1.264862983436534222e-02 -8.799462758087023273e-01 -1.840998221583064476e-01 4.576775241395911742e-01 -8.698497222961754094e-01
5.660768499080182786e-02 -2.073529392427923557e-01 -9.897499343112232673e-01 7.738075746470084171e-02 4.383013393492642407e-01 -8.954910129637426719e-01
-6.589918015770612758e-02 -1.969925904497629998e-01 -9.584152309440330253e-01 1.929774318771078911e-01 1.320839000064632784e-01 -9.722723662355103880e-01
-3.101881433503726401e-02 1.292533491536571322e-01 -8.093536970338481851e-01 -2.029127167834390566e-01 2.440327909859028310e-01 -9.483008100234832094e-01
5.801079068536066363e-03 -1.740264197192661899e-01 -9.655274364205507220e-01 -1.737563747565367689e-01 3.887577809782428728e-01 -9.048072225398835489e-01
-5.935489658163283812e-03 -2.251939066250105148e-01 -1.003735103822478658e+00 -4.922894197006994488e-01 6.608621913713079721e-01 -5.664912102289507700e-01
1.160153091240676698e-02 2.229962948692142122e-01 -7.929742762525314737e-01 1.025032178397179555e-01 1.461576385691935875e-01 -9.839364994858053048e-01
-6.413978058116413805e-02 -1.198612027592748375e-01 -9.205965977291726832e-01 4.633834294097696205e-01 1.989007105530577468e-01 -8.635475115417389214e-01
7.707289316060697559e-02 -5.287548836504880195e-02 -8.934750076341765324e-01 3.113442481497383577e-02 4.394343028074326196e-01 -8.977350060611349880e-01
-4.898224025801384968e-02 -1.086693991911382995e-01 -9.168823223012628754e-01 -4.618825862132775462e-01 3.899852876014305858e-01 -7.966027567158950884e-01
9.320154831328429645e-02 -7.892736047600136529e-02 -9.084511577523691761e-01 -1.202888760477596880e-01 5.932835256666596502e-01 -7.959555543318386217e-01
-8.798606286858757716e-03 9.731054270493486036e-02 -8.240956218395095734e-01 -2.399083665672712695e-01 3.489457628073587281e-01 -9.059143614436268033e-01
8.164232044937962118e-02 -1.140463919298054934e-01 -9.298886616244825820e-01 -4.763273989611321313e-01 5.883501239222640455e-01 -6.534189625956526859e-01
1.076575616975256576e-02 -2.312663751027614900e-01 -1.010366913230586361e+00 1.839720857857957415e-01 7.691683842918511926e-01 -6.119920491783262806e-01
3.701106931050891086e-02 1.909012909808926739e-01 -7.898216423754377269e-01 -2.784821308554877306e-02 2.435266532744659873e-01 -9.694943249822971509e-01
8.186411549122735165e-02 9.877136380845040475e-02 -8.193343612776088358e-01 2.657619979980100910e-01 6.230653554712018982e-01 -7.356358632038343393e-01
-2.067620007297739024e-02 9.353117930917956291e-02 -8.232210741322718572e-01 -1.786589876122883225e-01 1.990888629540746024e-01 -9.635582965202498240e-01
9.635126453416252568e-02 -1.743007112841002126e-01 -9.647958109410752492e-01 1.125244841273623925e-01 4.896411989728174929e-01 -8.646327178289824333e-01
-4.709419125181936450e-02 2.107322573517440012e-01 -7.816944338903570877e-01 -6.299486462132517506e-01 1.733724556744164758e-01 -7.570381065359349515e-01
7.480250733981996802e-02 -6.111977213487711225e-03 -8.749507437957847467e-01 2.515684132184627386e-01 3.148064977054223501e-01 -9.152104689486405542e-01
4.004816265765202832e-02 1.916579690871740016e-01 -7.892643762977645805e-01 2.824202314646183654e-01 2.318609938938284987e-01 -9.308486946706415743e-01
-3.227639394640952064e-02 1.912643501722527395e-01 -7.919851115409232145e-01 -3.744045488655666776e-01 2.006036317134470004e-01 -9.053062557677080679e-01
1.264635116918655655e-01 -3.159532891183418346e-02 -8.853920648397493043e-01 -4.878986636783592956e-02 4.391733003228572296e-01 -8.970765637465611952e-01
-1.489277740398665777e-02 1.472995326330120980e-01 -8.074710610364563834e-01 -2.236849763318261020e-01 2.223273946930436618e-01 -9.489655214666306016e-01
-7.785788336930803133e-02 -4.630499737168646684e-02 -8.795883832681569148e-01 -1.100488383462664699e-01 5.312542893408270794e-01 -8.400346024037402826e-01
-6.636568892765455641e-02 -1.041621082375142338e-01 -9.125483668054210629e-01 -1.140524839530463741e-01 2.846010728134419354e-01 -9.518373076621748918e-01
5.554401283821733953e-02 1.747932516903593081e-01 -7.906981774755680314e-01 2.323119010897112813e-01 3.975055670592937962e-01 -8.877051902343215950e-01
1.307670061136617934e-01 -9.167627370024224176e-02 -9.160860851320925535e-01 -1.349228989190367489e-01 5.528116868273258433e-01 -8.223107990622583463e-01
-9.826601428773787394e-02 -1.090209497506497843e-01 -9.084029948909829733e-01 -1.146438804555861557e-01 5.734077184875654432e-01 -8.112092017802621235e-01
-1.139733456298100134e-01 -3.985214574041504032e-02 -8.706832155793133854e-01 -2.592840806103455242e-02 3.321765165988046498e-01 -9.428607953858854085e-01
3.693181595473692819e-02 4.986432387292853707e-02 -8.479545664824461593e-01 -3.897690876479131122e-02 5.451647643393808806e-01 -8.374223428509226519e-01
1.447463543065496397e-03 -2.159579358459551290e-01 -9.957948279866783992e-01 -1.216944561449104789e-01 6.266332002050433170e-01 -7.697540462669750783e-01
-4.570101925062115822e-02 1.648323902999237756e-01 -7.944776171204659398e-01 -4.340277777064242004e-01 3.572841401635962755e-01 -8.270235373716896543e-01
-2.735096329880686711e-02 1.351476924998774587e-01 -8.082128545498611372e-01 -1.175855216855747759e-01 2.776268235883179725e-01 -9.534657790996968751e-01
-2.329286928754911810e-03 -1.947584791265599691e-01 -9.783198089142323139e-01 -2.807570822635847563e-01 6.736879797407199222e-01 -6.836080505024103582e-01
-3.830872833803253275e-02 2.009297849715968864e-01 -7.881062605068231974e-01 -3.817557639777083844e-01 4.904958245809644402e-03 -9.242502248062495207e-01
6.510714767551654958e-02 -1.811638382377168677e-01 -9.722862562524146046e-01 -1.619279445948215157e-01 6.365597254917549908e-01 -7.540365088251083092e-01
-5.235984531884931709e-02 2.050388321003455971e-01 -7.815435431643620312e-01 7.569973744758225209e-02 -2.360475170845411919e-01 -9.687884802311544918e-01
-1.075025081395498544e-01 -1.172841853050956978e-01 -9.128215985226064699e-01 -9.091218860175630245e-02 5.355437595037561005e-01 -8.395998187352242681e-01
-1.311505098608802163e-02 -3.083606016638596251e-02 -8.834815538742960550e-01 -2.723165224750985769e-01 4.781828276288621060e-01 -8.349759846534120511e-01
4.366982897341932469e-04 -1.755429281870865554e-01 -9.665706294198677107e-01 -4.587383229968912679e-01 5.448290768317369803e-01 -7.019404732971856742e-01
-2.488844167663247994e-02 1.899788152318696854e-01 -7.947559375759467581e-01 -1.892216111422737046e-01 1.899655742501476716e-02 -9.817506367111356047e-01
-1.004156795262848012e-01 -3.502216860231244927e-02 -8.693374647068317085e-01 6.824220760423305686e-03 5.881386568159121531e-01 -8.087313214966930230e-01
-1.226284960306376660e-02 8.865729811455567988e-02 -8.267450539275216226e-01 -4.659130437028329852e-01 3.200301493610699932e-01 -8.249277175652985905e-01
-2.234830815343470320e-02 -1.387423834251204358e-01 -9.358969886448509357e-01 -3.701233704242383182e-01 3.985713788919688638e-01 -8.391361907306564838e-01
-2.073971662670058558e-02 3.782994342874647104e-03 -8.634325324780897093e-01 2.418495050879365671e-02 5.485745594621800336e-01 -8.357517818585624703e-01
3.658122093240325640e-02 -2.175584478316540393e-01 -9.963646550710411054e-01 -6.453568130722280027e-02 6.011144977250900689e-01 -7.965528899344507252e-01
1.110202844780380366e-01 -1.334486056286482425e-01 -9.404161993603190606e-01 -5.329406278113311968e-02 1.608858175483488528e-01 -9.855331027337844718e-01
1.166350532806834650e-01 6.211724438478314486e-02 -8.376642609695766906e-01 -2.404861346275616873e-01 3.732256375845319218e-01 -8.960295991213202971e-01
-8.407406559504268517e-03 2.425712576131736631e-01 -7.954006648847870009e-01 -2.913803748908843638e-01 -3.233938559373499833e-01 -9.002854497715820914e-01
5.340366539447742589e-03 -6.261401004725688363e-03 -8.772990403083286148e-01 -2.117223498684722705e-01 3.676353542027717691e-01 -9.055483934646311184e-01
3.033764517595203755e-02 -1.644307191091064491e-01 -9.609635609323029515e-01 -1.739555452148587034e-01 5.201955525523637158e-01 -8.361435614735917010e-01
7.201808003510233591e-02 1.351183298214459760e-01 -8.022511539732406494e-01 1.382683402002431450e-01 3.762378473368244713e-01 -9.161478856219786859e-01
-2.897610342211986295e-03 6.323209991132856811e-02 -8.401902442824069617e-01 -2.630955606673900937e-01 2.628751664362856677e-01 -9.282657878152177355e-01
-6.176380717558480060e-02 7.424427621909922802e-03 -8.486884959874534395e-01 -2.201018231188938898e-02 4.851400567142895581e-01 -8.741594118041932093e-01
-6.299986914994834541e-02 -9.609025962864860271e-02 -9.095253024824242472e-01 -1.134907599707292575e-01 3.739780595045956724e-01 -9.204674130084363748e-01
9.973520928085242987e-02 -5.865690259578320437e-02 -8.960817873617972218e-01 2.147675321530926121e-02 5.481145957002817592e-01 -8.361274657919361974e-01
8.145987185361133753e-02 -3.255694802446793684e-02 -8.834930111882592918e-01 -4.000354816674146080e-02 3.049410418594478700e-01 -9.515307021445736924e-01
1.962952899098054094e-02 1.208125816340631237e-01 -8.147189513284428530e-01 1.730532994697487892e-01 3.190669405793257196e-01 -9.317987137638590323e-01
5.554066420675810717e-02 1.371381581849002163e-01 -8.035911505870310112e-01 1.054113178189545891e-01 3.753313784694407018e-01 -9.208771961623876123e-01
4.790250621249923096e-02 -1.356013997092610501e-01 -9.433495514069081267e-01 -3.670064543770575061e-02 4.669136945228314350e-01 -8.835409806519985976e-01
1.082943153914497636e-01 -1.349217358063901917e-01 -9.418115413798804347e-01 2.857894525098431115e-02 7.957239749118107941e-01 -6.049847928988701939e-01
8.733785384388891015e-02 6.081668513446976398e-02 -8.408791825875547854e-01 1.514383741948969742e-01 4.784166901551794027e-01 -8.649762363222295303e-01
-3.999136181670591428e-02 2.649449240846013867e-02 -8.442917136837743142e-01 -2.107552200319715296e-01 3.216290475933735182e-01 -9.231126653737639076e-01
1.023543771100144800e-01 -1.026158986925829047e-01 -9.243454027812031404e-01 2.831905213358428819e-01 5.051349541095019324e-01 -8.152556695677281029e-01
3.116698546019214255e-02 1.103634905105723985e-01 -8.179981515761878264e-01 -3.357620682116165597e-03 4.984810381806933366e-01 -8.668941001977421568e-01
-7.362004379069908566e-02 -2.223393577924527229e-02 -8.638323189549417247e-01 -9.491828151704295724e-02 3.544357577432743489e-01 -9.302504036370001783e-01
6.972929926689462599e-02 4.254867023709769935e-02 -8.499964736947370758e-01 8.620956338036366018e-02 4.829225662978400835e-01 -8.714090349210724673e-01
-2.515402524890180281e-03 -5.876676109521911107e-02 -9.012839629765659888e-01 -1.784974075586638342e-01 5.005940046313648306e-01 -8.470798770021450430e-01
4.044400079285327687e-02 -1.744568578269699577e-01 -9.676663360745664244e-01 -9.389262447532382982e-02 6.474457672986229095e-01 -7.563055952961296180e-01
1.933408202634534848e-02 -7.794677184933931913e-02 -9.103167196986152732e-01 1.002378780521291229e-01 4.266517356629641600e-01 -8.988440711599462452e-01
8.533343383839585294e-02 1.244457866156790105e-01 -8.059961898325945784e-01 1.040714689575060470e-01 4.881666173260203467e-01 -8.665232155444523299e-01
4.721621920882686924e-02 -1.809280949993140319e-01 -9.707289624403176997e-01 3.441179991436057461e-01 6.872799436893960445e-01 -6.397101544197199008e-01
-5.867319327326440265e-02 1.546077405119880843e-01 -7.941815942820786844e-01 -3.858498178557882019e-01 3.349029215124913472e-01 -8.596277980748721070e-01
2.543107156553143719e-02 -7.842821474653255409e-02 -9.099101110922783731e-01 4.442128354027709107e-03 4.396926124933538960e-01 -8.981373358314727051e-01
-4.319077869456784680e-02 -1.474994234960976813e-01 -9.363781997481768204e-01 -4.099497971053255307e-01 -2.202684912988303600e-01 -8.851118322529867299e-01
1.340618036834842486e-01 -5.310109007621296312e-02 -8.940887226251145181e-01 -1.039326452886952384e-02 6.332424533998957106e-01 -7.738836962131414587e-01
2.081209687637752825e-02 4.202389842312903405e-03 -8.711730463153690707e-01 6.261608500895719798e-02 4.849627880558881055e-01 -8.722902728445448561e-01
6.237688867000099231e-03 -1.670019690923575384e-01 -9.606122999969749499e-01 7.361764755198362854e-03 6.573925538347187292e-01 -7.535123320705214844e-01
-6.768835323132545156e-02 1.759824403631712886e-01 -7.829361473150253659e-01 -2.331267130308058433e-01 -1.167705422856133053e-02 -9.723762554052804985e-01
-6.931980062214156482e-03 -1.085280121430817341e-01 -9.242741843119187672e-01 -8.794859972747061383e-02 4.347669864076752488e-01 -8.962380885322632773e-01
-2.676004016323853610e-02 -1.681994875656298294e-01 -9.535838518361466898e-01 -8.239592705847295639e-02 5.721690566696369107e-01 -8.159862019629696706e-01
7.447385190894030560e-02 -1.310774781079341866e-01 -9.401530340918220485e-01 1.059623282021699003e-01 5.995022368774078902e-01 -7.933278344927522374e-01
6.630943028941857498e-02 -2.058349316368097981e-01 -9.889950258852913123e-01 8.997579541227043176e-01 -2.191604219126536135e-02 -4.358386296412884997e-01
5.390305665582344197e-02 4.046042211091178259e-02 -8.524534956871515634e-01 1.320308687660164126e-01 5.383777696327114448e-01 -8.322963575903704614e-01
7.050938192815046912e-02 -1.124469583373379350e-01 -9.286890946788002310e-01 6.058068537722992308e-02 8.422156539998483238e-01 -5.357263972559431764e-01
2.742379334022784776e-02 8.949454357532185544e-02 -8.288640518385453904e-01 1.238785663564589620e-02 2.980775557872047954e-01 -9.544612678070809597e-01
2.566043351492931085e-02 -1.487320661203052896e-01 -9.506666474347220674e-01 -1.985291735024502513e-01 4.716844824568164340e-01 -8.591274156246435645e-01
4.996662268752104924e-02 1.873196320949011284e-01 -7.879038852328851261e-01 4.448713305234440751e-01 2.150105526235318587e-01 -8.694020712758991909e-01
1.309099161212404043e-02 2.000630815806037910e-01 -7.954711271360189739e-01 2.995252623670060510e-01 7.459841630374222654e-02 -9.511675422810376146e-01
-7.624479979307997868e-02 -9.599165820965099849e-02 -9.068876481005986312e-01 -2.074249444704808487e-01 5.494317018619928605e-01 -8.093822937280330532e-01
9.104555936954858431e-02 4.072884749246696162e-02 -8.499016242757360118e-01 1.852169600764115923e-02 3.956736474413961591e-01 -9.182043952723282221e-01
9.341611473960051426e-02 -1.318792925825388873e-01 -9.416678034634567984e-01 -1.964273884722370078e-01 3.407736745345702478e-01 -9.193963148730711632e-01
4.342406444977617297e-02 9.776453080349221253e-03 -8.688356236651885167e-01 -7.116932941379271182e-02 1.066651475819183903e-01 -9.917446611109729249e-01
-3.733326645082466616e-02 7.083201051826851224e-02 -8.276413483427295104e-01 4.256123139631579066e-02 3.133701914963741286e-01 -9.486767967350918651e-01
3.265625378651362126e-02 -1.581970587945381312e-01 -9.571274095135449134e-01 5.803903173360247525e-01 4.118579973290983354e-01 -7.025098359301831241e-01
1.254751895099054729e-02 1.583885707583603253e-01 -8.040529200939454668e-01 1.027111553667101052e-01 1.461834152449831836e-01 -9.839109856437969759e-01
-3.084178526240900428e-02 -1.175496568380904605e-01 -9.250451903108559693e-01 -2.256635047740682687e-01 4.983796316551020178e-01 -8.370745040702223250e-01
1.265537554935176889e-01 3.283734442818084243e-02 -8.532013815752808039e-01 -1.495698956516222644e-01 7.954134969692139290e-01 -5.873212197375206056e-01
1.081618498180947907e-01 -1.250236116793732866e-01 -9.361176870647829329e-01 1.444111053067292372e-01 6.041960030571915663e-01 -7.836406207910630028e-01
9.060619030571842591e-02 -1.302470621271431261e-01 -9.410126683377127987e-01 5.187161412304850533e-02 7.193480986151667977e-01 -6.927103641977745419e-01
-1.135149307045051487e-01 -4.972531887390255114e-04 -8.518720707087583666e-01 -1.369271067515794305e-01 3.053572789049461833e-01 -9.423417106636045038e-01
-5.350484754520119096e-02 6.923969723930607778e-02 -8.265459139107266262e-01 1.388196575882741195e-02 4.304014641907257799e-01 -9.025308142380237264e-01
-1.146792866675023087e-01 -6.973721760830328686e-02 -8.859965356802738112e-01 1.944105383707046483e-02 4.986883188410942691e-01 -8.665633306788067536e-01
-1.091760595722158084e-01 -6.493502656811667162e-02 -8.850273000379684785e-01 3.488211627294292294e-02 2.648597165681735865e-01 -9.636558350903851045e-01
8.561010551345830943e-02 2.060139948871896054e-02 -8.601512675563364185e-01 1.153173817020579084e-01 5.070451016051228388e-01 -8.541704551292044201e-01
-1.716730152816123636e-02 1.161378421575028352e-01 -8.167955759382190539e-01 -1.216898536425509297e-01 3.570949256880863176e-01 -9.261073337190860455e-01
-1.069839668949887183e-02 -4.934812519720261498e-02 -8.933296262826562195e-01 -1.559877838458109678e-01 6.246574729799774239e-01 -7.651606711934044736e-01
1.961807919278488882e-02 1.473643084130203396e-01 -8.055989368264209194e-01 9.295490099319193844e-02 2.074898457000716456e-01 -9.738107363921935100e-01
5.898183532075949170e-02 1.000551114363636002e-01 -8.210505347759342598e-01 4.302529322503158976e-02 4.073236327998386308e-01 -9.122698516917251421e-01
-1.761277817546651539e-02 1.093908072127915826e-01 -8.187258688933204409e-01 4.344215564815828712e-02 2.836524252346962482e-01 -9.579426291647722413e-01
-8.569183623301031283e-02 -4.090800771940342195e-02 -8.745731687909302776e-01 -3.119179326180914619e-02 4.926156061364656558e-01 -8.696878386087246726e-01
4.449876706193097581e-02 -6.132108176333507521e-02 -9.002953536254182376e-01 7.689451855936065006e-02 6.177488527434034093e-01 -7.826069179030636924e-01
-7.813228795380397496e-02 3.541182745424582227e-03 -8.498598862882494887e-01 2.099156454549410133e-01 3.401608048071840251e-01 -9.166384503533354655e-01
-4.896832588855416085e-02 1.834578344956507845e-01 -7.877794297479345786e-01 -3.699746459803603393e-01 4.086645369092560265e-01 -8.343333012678149085e-01
-6.752791447144626535e-02 -1.289996912622224656e-01 -9.240575972672276928e-01 -2.287429323618957733e-01 3.005272000219853523e-01 -9.259374022802118187e-01
-1.191597022637116629e-02 2.190827733540374328e-02 -8.550183509586913866e-01 -1.865737013835137570e-01 4.753990420793011151e-01 -8.597592713906249129e-01
9.422013773058232622e-02 -1.582222918366797404e-01 -9.556565021755515366e-01 2.179590138132135035e-01 7.124730230849958268e-01 -6.669902995349320518e-01
2.279173965666657711e-02 1.872518555135140594e-01 -7.949593452693706208e-01 2.747050451864450071e-01 2.350687873249155957e-01 -9.323517594635121197e-01
4.163602874638791529e-02 -1.821874691558247050e-01 -9.725988088560493239e-01 2.919803852856774906e-01 1.904124564065362568e-01 -9.372782676738301566e-01
-4.713634526325047314e-02 -7.547019168293514491e-02 -9.016994009465110205e-01 -3.764912036084543390e-01 3.400296544938904986e-01 -8.617622686508287222e-01
3.160390527863695537e-02 -1.421573274486674365e-01 -9.467184320068422476e-01 -5.456081869642926963e-01 6.548137802290446841e-01 -5.230015483148071631e-01
5.327956138171489192e-02 1.480685790481303943e-01 -8.004363554995874708e-01 2.727773539957808469e-01 4.090735212630052797e-01 -8.707763027026779179e-01
1.129092376887897431e-01 -7.543516570722824666e-02 -9.087694371661210191e-01 3.637380294151993949e-04 6.377107272885566003e-01 -7.702758570770252833e-01
6.974768465142380802e-02 -1.614791804420073473e-01 -9.600964126815718647e-01 -4.683070136039190201e-01 5.602467206439021297e-01 -6.832365278709359169e-01
-2.142727757077247941e-02 -1.694559098824469645e-01 -9.556917093255923312e-01 -3.847640530671168069e-01 5.500344824269389754e-01 -7.412278270604079067e-01
-9.205488762658095570e-02 -8.712455697047517822e-02 -8.996557119513645118e-01 -2.378076669780515573e-01 4.283950782583023087e-01 -8.717368699616411254e-01
-3.709844849853227017e-02 -5.239835262624430862e-02 -8.900310837505657213e-01 1.123124971562520225e-01 2.096501780628079459e-01 -9.713046410991555968e-01
7.040119231718533488e-02 -1.175886342259701289e-01 -9.313122176656820628e-01 5.180049846240378925e-02 4.634580772034966878e-01 -8.846034812467584718e-01
-5.331985019139236920e-02 2.991740546400789916e-02 -8.404839316293671869e-01 -7.294061429888527848e-02 5.482855987226938899e-01 -8.331041765703721680e-01
-1.131050646151616212e-01 2.183318786516952673e-02 -8.427837337660154526e-01 4.610995129681243476e-01 3.794761079033105999e-01 -8.021129114227704138e-01
8.814654166614488418e-02 -1.517329511657914964e-01 -9.538395245653934484e-01 -4.583527814303357539e-01 1.221759008842467492e-01 -8.803327649236948327e-01
-3.802508512604790142e-02 -2.299026259004720574e-01 -9.931726888034307921e-01 -4.347737182462489414e-01 6.476625984068690167e-01 -6.257035820156329198e-01
3.022780246688544503e-02 -7.793725751499140653e-02 -9.101779447902972331e-01 1.524724853844883210e-01 6.644120654562304384e-01 -7.316479675888281076e-01
1.320878176708884244e-01 -3.478141469488608972e-02 -8.867452859672022569e-01 1.439782671943163894e-01 4.351156821674493358e-01 -8.887882772109885199e-01
1.240117577869019466e-01 1.435424685852951243e-02 -8.616452108468469762e-01 -9.656062107278570728e-02 1.706573603943959128e-01 -9.805876359618526106e-01
4.865184550557438009e-02 -5.067300356266470768e-02 -8.938559992578007929e-01 2.893502643915928790e-02 5.259487066949301015e-01 -8.500239538806512174e-01
3.243102658085134787e-02 -2.121026860512715551e-01 -9.926955679709974500e-01 -2.219538652162885983e-01 5.371856716095346762e-01 -8.137370803478005676e-01
-1.056325098883395264e-01 2.382640824662765958e-02 -8.420624862935954802e-01 -5.284222472748299759e-02 2.395276888039890584e-01 -9.694504554550837927e-01
7.410046158416215556e-02 -5.453717952750982562e-02 -8.942952532318088066e-01 -8.856713856451313427e-02 5.453161944154305552e-01 -8.335383075028803823e-01
3.956475734853153597e-02 2.490570646566140842e-02 -8.615903176522531348e-01 -8.609188480337350013e-02 3.159165076935807615e-01 -9.448729795785748564e-01
5.400094169313173972e-03 1.557702022373162187e-01 -8.068696954571423774e-01 3.909708453984664933e-01 2.504855015396182938e-01 -8.856629220910482436e-01
-4.535338542000612663e-03 2.158301105174798007e-01 -7.988569429690314250e-01 4.083906287142790581e-01 5.679616572664596408e-01 -7.145884481668398625e-01
1.867883448959487946e-03 -1.860597744946433096e-01 -9.747738143025839186e-01 5.095022953946887895e-03 3.176390894274441767e-01 -9.481980012680909509e-01
1.303815451232282485e-01 -1.034659015496832701e-01 -9.221693689512274750e-01 2.507243845514039449e-01 3.865516373948831852e-01 -8.875331625458590112e-01
-5.059362585990865441e-02 -1.798288518981451534e-02 -8.661820510241192705e-01 -1.645012262679905746e-01 5.113680387853873910e-01 -8.434702576055148615e-01
9.284886895582164512e-02 4.676936756911322102e-02 -8.470501915114468927e-01 -1.719200893271075337e-01 5.730245042488624208e-01 -8.013029392284197749e-01
-2.465309955734766925e-02 1.326431895432153840e-01 -8.093188761319024538e-01 -2.122132165124383518e-01 4.296821439863299230e-01 -8.776894700728473664e-01
-2.631366452938665415e-04 -1.390150759672391656e-01 -9.421739899590538814e-01 -2.824532999306719749e-01 5.624991249236818147e-01 -7.770552540317618995e-01
-5.930701335648384115e-02 -5.432086177998848159e-02 -8.873864297554021618e-01 -3.740927897564698679e-01 3.935810998351667589e-01 -8.397312084856451975e-01
-5.283920992387189375e-02 1.850129658099041452e-01 -7.866129395245644584e-01 -3.449651999829033699e-01 5.339587362362783196e-01 -7.719372246482947286e-01
3.160010022879734554e-03 -2.343167066504136808e-01 -1.014842524428592352e+00 -4.371429131561784254e-01 7.004273378843974829e-01 -5.641875732604414440e-01
-1.954538033963754574e-03 -1.771291685348430969e-02 -8.812822018947272795e-01 -6.124125968234028078e-02 2.810047920383033082e-01 -9.577503928289615720e-01
1.279410939260042235e-01 2.116806869157476095e-02 -8.592863782316902954e-01 -2.397201987927446154e-01 2.210671643303383505e-01 -9.453377889123601996e-01
8.101750294222241633e-02 1.368400516528364974e-01 -8.003819473780632299e-01 -2.122132165124383518e-01 4.296821439863299230e-01 -8.776894700728473664e-01
8.245154888272512861e-02 -1.882219976617734991e-01 -9.737054022247764173e-01 -1.272838276930481349e-01 6.881019706523623380e-01 -7.143630065954856834e-01
-7.325273094462084189e-02 -9.677648444776509873e-02 -9.076044912191447711e-01 -2.278629829944676111e-01 4.454997327954454134e-01 -8.657993122312176437e-01
-4.033611828966635754e-02 -7.485877566050917753e-02 -9.037284553208497773e-01 -3.269239947427137194e-01 3.713887735817178459e-01 -8.690173073759426270e-01
8.948015831777082763e-02 -1.607475647170591437e-01 -9.567303735160984646e-01 6.063775574000290075e-02 4.307587516246272341e-01 -9.004276542163773822e-01
-8.261747538364407062e-02 -1.193229114870803381e-01 -9.160478144335862938e-01 -2.701487524367655046e-01 4.487293597890475993e-01 -8.518577423608771904e-01
-1.356670537674281064e-02 -2.323991757944963432e-01 -1.008308704059794891e+00 -1.561139465132862225e-01 7.841658888415011797e-01 -6.005932854115714203e-01
2.897773206884927261e-02 5.534543852461726310e-02 -8.450796385830964264e-01 -5.704897293817789289e-02 4.019671409633935877e-01 -9.138751732443629594e-01
-6.275253076765953397e-02 1.030435778818830084e-01 -8.133339706890321263e-01 -2.721691158373474306e-01 3.978769628752177323e-01 -8.761380569279644259e-01
-6.876184137279675590e-02 -1.479562002909437235e-01 -9.331739565916105095e-01 5.577191196025353959e-01 2.991837756532370607e-01 -7.742341067246047981e-01
5.745983373392461041e-02 -5.123969932751863687e-02 -8.932978038251822017e-01 -1.395854485374081744e-01 2.647326786912471142e-01 -9.541658720524263115e-01
4.285394576188261001e-02 -2.168020537601975106e-02 -8.833302284892052825e-01 -3.539331983987429459e-02 5.799456966628387944e-01 -8.138859267937779141e-01
1.311151353989132573e-01 -2.761172529956864782e-02 -8.814946442928925929e-01 -3.440904522030534263e-02 3.763589452384752398e-01 -9.258347379235719599e-01
-8.936714385924725279e-02 -7.667515530866554629e-02 -8.946459145711411765e-01 -1.025131546922839476e-01 3.360787002097699316e-01 -9.362383032008182449e-01
3.066235153688058861e-03 -1.555622621343561995e-01 -9.554872753858119072e-01 -6.529277993232566191e-01 4.546028817072986228e-01 -6.058230012258605246e-01
-2.329587542529410263e-02 -5.781128418160698390e-02 -8.969104044362653516e-01 -1.570284131309160058e-01 5.788610996051243296e-01 -8.001636737777669817e-01
4.867436655550366753e-02 1.020987238533730690e-01 -8.210257011308251807e-01 1.092253005602266402e-01 5.165587761162583336e-01 -8.492566541009857195e-01
5.631754929591554354e-02 -1.338666730982271957e-01 -9.420543568737905771e-01 1.800730485609265130e-01 7.609910470015330830e-01 -6.232706663765626987e-01
8.498127795364844583e-02 3.569428639941986392e-02 -8.526927595014611727e-01 1.310458453154278446e-01 4.595664327818447803e-01 -8.784222676399630059e-01
-7.160732318956866682e-02 -6.908748938346252755e-02 -8.936645193463786940e-01 -2.730978987133599878e-01 6.089763712907855231e-01 -7.446914239655605394e-01
4.425565905925175209e-02 -7.642750800114196663e-02 -9.086039454328016518e-01 3.403608443684934259e-02 4.711229784558901845e-01 -8.814106217462203130e-01
7.140355540650226984e-02 4.018775958110897689e-02 -8.512817850264562392e-01 8.451042015364856885e-02 3.936301717666824129e-01 -9.153760302522595538e-01
1.330736943555302088e-01 -9.430380085182937799e-02 -9.171028552241314857e-01 2.739958555119086370e-01 5.392736114168457107e-01 -7.963103937483988481e-01
-8.518456792006860734e-02 9.310198498188336502e-02 -8.143785909405295564e-01 -3.118313702152095135e-01 3.216071274845639372e-01 -8.940526002986806109e-01
1.058323739270763866e-03 2.338154300309302769e-01 -7.927544305955003257e-01 -8.526727512199111514e-01 -2.634832423816475463e-02 -5.217805526626189128e-01
-1.269998208593207077e-02 1.375742764731417156e-01 -8.111950475128940630e-01 -3.561912687742160299e-01 2.578530212451001224e-01 -8.981311705334517059e-01
-1.119372188182185257e-01 3.957836830062805289e-02 -8.363677240640539079e-01 -3.138175439058003835e-02 3.122163979178634863e-01 -9.494925520311171541e-01
-1.824646969184186632e-02 1.481626645100925233e-01 -8.064749215979747365e-01 -2.327343381356645757e-01 2.129038577235964347e-01 -9.489503017645152250e-01
-3.146880829474286295e-02 -5.624618684602451790e-02 -8.940340256644565553e-01 -3.189838379413657554e-01 4.167272500620433084e-01 -8.512271789527890986e-01
-1.251442555463635475e-01 1.194045420692427424e-02 -8.462350935186739864e-01 -1.707616582510810277e-01 3.549748677653080109e-01 -9.191481378571916272e-01
5.408603311024054450e-02 4.388854495682417700e-02 -8.508103052604820693e-01 -3.317992321225544938e-02 5.067955946764914898e-01 -8.614274884818396982e-01
4.485674094784013188e-02 -3.550991486400045805e-02 -8.888164681979265902e-01 2.868553215185683930e-02 4.485537992823607212e-01 -8.932953763422959437e-01
1.318646125390507129e-01 -8.491048786797994463e-02 -9.125529988495723055e-01 -1.274693949402370130e-01 6.521040807560224417e-01 -7.473364846004192374e-01
-4.997456219986916998e-02 1.237160580559784340e-01 -8.071331484949298973e-01 -2.354037630884366350e-01 3.061591808406964321e-01 -9.224161882310808469e-01
5.077511150576752448e-05 -1.356200951015261724e-01 -9.401170409922338100e-01 -2.122132165124383518e-01 4.296821439863299230e-01 -8.776894700728473664e-01
3.403190129803658481e-02 -1.038251243218438480e-01 -9.231076223377658874e-01 -4.232859170155394146e-01 3.347057337965623769e-01 -8.419032629821661118e-01
4.636756296905377578e-02 -1.210842680755519762e-01 -9.336228046645045353e-01 -8.983236069509148436e-02 4.826688074124469430e-01 -8.711836599265351255e-01
-8.901312398817367785e-03 -7.664156098888150193e-02 -9.083901514582236603e-01 -1.937100467932869607e-01 5.277962085908103340e-01 -8.269870494563431595e-01
8.569181784606254293e-02 -9.176469583932714280e-02 -9.179619962807716860e-01 -3.189838379413668101e-01 4.167272500620431419e-01 -8.512271789527887655e-01
2.617667494526416255e-02 -1.176444788568054151e-01 -9.312533963097173739e-01 -2.854188969794274056e-01 5.409402289449551926e-01 -7.911508844436857535e-01
8.163068783003442352e-02 -9.018199007859847849e-02 -9.168870324872735456e-01 -1.287513592328879408e-01 5.679353848492284529e-01 -8.129406412105636415e-01
-1.107735411517372232e-01 7.792275041957609505e-02 -8.191237862706447492e-01 -1.951589832321183327e-01 3.947536903225789540e-01 -8.978209705952020503e-01
-8.810868722901954789e-04 2.634939939528807007e-01 -7.925203908238567241e-01 -2.567904573745561358e-01 -6.554422874356785611e-02 -9.642419898966113623e-01
-1.265204447136565047e-01 1.603490649364891496e-02 -8.449818212595071598e-01 3.721611033351033271e-01 5.510119730979734509e-01 -7.469149340233308676e-01
-3.878336053075755185e-02 1.152695146987618852e-01 -8.128175624434651469e-01 -8.813342008319713372e-02 5.328953123122482927e-01 -8.415789246292173509e-01
-1.136052039917535977e-01 -1.450686382662974040e-02 -8.583972659430622043e-01 -1.107960278320050812e-01 3.157104019225559499e-01 -9.423646758737020956e-01
-7.545326620229125814e-02 6.514986866635491536e-02 -8.270594110501628959e-01 -1.171188808244199575e-01 3.367472620746506662e-01 -9.342828529089366452e-01
5.932812410072006715e-02 -2.051307594302216042e-01 -9.884545984148751518e-01 9.982770845732277798e-03 8.022977603976169103e-01 -5.968405548781094971e-01
1.249327779010733080e-01 -1.013794568226057402e-01 -9.215910000306715144e-01 -1.733066006567273720e-01 3.000894146918335337e-01 -9.380358017467788079e-01
-7.314908138409752236e-02 1.032238671714063097e-02 -8.468048327863477720e-01 1.013385507516795792e-01 3.099044691619343150e-01 -9.453516372890081731e-01
9.715782508602596734e-02 2.339789484397791081e-02 -8.585188837015502727e-01 2.320835892852027814e-03 5.473686829440261858e-01 -8.368883669001979664e-01
8.917079330061709885e-02 -1.712687647201898977e-01 -9.630014256718190113e-01 -3.058787061551027642e-01 3.744330017112217912e-01 -8.753502980809477751e-01
-9.074181497202871496e-03 1.925960081285321701e-01 -7.997770260827896660e-01 2.835262866985933244e-02 1.168399837452150647e-01 -9.927459627950780963e-01
1.079678575980679150e-01 -5.806398420232600222e-02 -8.977448681749600201e-01 -1.799101250262734042e-01 4.481021143938523910e-01 -8.756922073358819336e-01
-4.589562320168919657e-02 5.085782943057992611e-02 -8.353301673903293922e-01 -3.070262794675985285e-01 5.362403263787353103e-01 -7.862449847735191177e-01
-3.395922650257091058e-02 2.331905265189193055e-01 -7.857004567543455220e-01 -2.577378523726193138e-01 -1.536818749082903002e-01 -9.539146087459937640e-01
-1.573811187622362398e-02 -1.903162384159566012e-01 -9.699493552829445697e-01 -3.272871337158565486e-01 5.290704599364195460e-01 -7.829224613757892470e-01
9.422524310436877770e-02 1.617111580860393708e-02 -8.635627381481859599e-01 1.391638677877738046e-03 6.260260152318932736e-01 -7.798009307475001206e-01
1.147700341753136455e-01 -6.388473068694486279e-02 -9.015869862155891923e-01 -7.282241048313489729e-02 8.304844628760316150e-01 -5.522612184944141189e-01
2.875849633076331402e-02 1.640645967611728262e-01 -7.990294032677812686e-01 9.335595915152956892e-02 2.016790893389720229e-01 -9.749924152598832272e-01
-7.091835831130582912e-02 -1.733510704493336496e-01 -9.440274085135534898e-01 -2.838786556248704684e-01 3.823683606317958561e-01 -8.793220943820125868e-01
-3.609151901439985877e-02 7.949024899906578789e-02 -8.246318079448565763e-01 2.177187823428397562e-01 6.140022455389960720e-01 -7.586829207832619382e-01
-2.913445147839324040e-02 -1.619856256732222222e-01 -9.485401900805821018e-01 -2.430346835327649446e-01 6.311771801963284023e-01 -7.365796018079379115e-01
9.547780866651287002e-02 1.082610904096791699e-02 -8.653297168882226886e-01 3.364542243732800142e-02 3.957699142552169036e-01 -9.177331641165813458e-01
-2.218746429635131551e-02 -1.917677011154966527e-01 -9.681119725261183584e-01 -2.360132676154254039e-01 3.331769063979490020e-01 -9.128476798199038900e-01
7.606774240145128263e-02 3.423952608268023695e-02 -8.544357328320357770e-01 -8.075283560152185514e-02 5.041123625956841492e-01 -8.598544675818756700e-01
8.053228685583400936e-02 9.276524044413991810e-02 -8.234165011791660937e-01 8.840138671104805224e-02 5.293236844911214378e-01 -8.438018913609445226e-01
-2.890226095473300352e-02 1.389705982567931708e-01 -8.065787793352486856e-01 -1.217279515407286711e-01 2.728823138778753710e-01 -9.543152249578512603e-01
8.341305682934467558e-02 -1.692830468135123334e-01 -9.625771134632887804e-01 1.383661083479042209e-01 5.825652957114756392e-01 -8.009197814346057376e-01
4.263070383752623482e-02 -9.318059786211885590e-03 -8.782616602950359397e-01 -8.781322195216796633e-02 4.740056220568188428e-01 -8.761321294809975013e-01
-7.567968084017495656e-02 -2.566314550527534766e-02 -8.658419189868152843e-01 -4.062025286550028924e-01 4.546808666808356825e-01 -7.926315759472655209e-01
-1.170472949386661549e-01 -8.970124852316142816e-02 -8.978894209287469064e-01 1.370805094015740688e-01 6.624585889863546795e-01 -7.364492866589068543e-01
-1.138067720369855956e-01 1.881959976834550810e-02 -8.438246141663211519e-01 1.642229333710025774e-01 2.227609132538451997e-01 -9.609414153221494947e-01
6.786393138536192873e-03 -3.379813275608643808e-02 -8.907495589245281176e-01 -1.090641761707662472e-01 3.116695565900707843e-01 -9.439105322916682139e-01
-9.945902034617566667e-02 8.143529492666508329e-02 -8.180273162235979223e-01 -5.608704736166086890e-02 5.465433748189894025e-01 -8.355504667940294450e-01
6.303628354670812173e-03 -1.640911804038695521e-01 -9.586553522499215996e-01 -2.875008087314863681e-01 2.861879243104336612e-01 -9.140239367530953452e-01
9.915947856749907086e-02 -9.722854221850690815e-02 -9.213378551589755938e-01 -9.970135271862722026e-02 5.757458913236337406e-01 -8.115271461202208103e-01
6.975615485334818455e-02 -7.690787195339524041e-02 -9.089296271335653987e-01 -3.245770160459730130e-02 6.670465968950279878e-01 -7.443086289821642110e-01
-4.227663020896829660e-02 -2.014462181191643830e-01 -9.676177477053238274e-01 6.550567355527248115e-01 3.504251510948609011e-02 -7.547666495956276700e-01
6.815860381469181217e-02 1.002652123705805726e-01 -8.198756816418932836e-01 1.454170731317966890e-02 3.173846858098721690e-01 -9.481853721513460176e-01
5.415048467639435066e-05 1.607392301931177825e-01 -8.082621846459674408e-01 5.074934241078107311e-01 -1.993958526524492944e-02 -8.614248878612573712e-01
8.491527694359103651e-02 -1.320694022607430129e-01 -9.420906667742717788e-01 -3.902134266061639267e-01 4.386843360823036719e-01 -8.094995583521366056e-01
5.144936481585515170e-02 -1.658217427852323733e-01 -9.626479042993372204e-01 -3.541903610474999020e-01 2.139525980876736677e-01 -9.103699654055904533e-01
-9.950639886870457640e-02 -9.522292713350580251e-02 -9.035997630209691156e-01 -1.589771466582493298e-01 5.338459352752707998e-01 -8.305027298151840265e-01
1.116180360802754012e-01 3.065910263063141919e-02 -8.546733695260632091e-01 1.137615056099519628e-01 3.321648195229974232e-01 -9.363358652281835726e-01
2.803845972352182400e-02 -9.586790774676567928e-02 -9.195074814979010691e-01 -3.792048419069041915e-02 5.123407148644492093e-01 -8.579446536758235098e-01
5.536061662673050915e-02 1.998160494683499377e-01 -7.842320773915008036e-01 2.568974281575980845e-01 5.580808227412182854e-01 -7.890180648720891421e-01
-1.068697315644857176e-01 1.567810755364074451e-02 -8.445585441529298576e-01 -1.241669691426757274e-02 4.040507837060278717e-01 -9.146522780949510878e-01
-4.482858096136214249e-02 -1.670872885856470036e-01 -9.473619452086810000e-01 -7.968251771997672539e-02 4.495073105340087194e-01 -8.897156141971925836e-01
8.424455908259151360e-02 -9.810207014180341578e-02 -9.210338909083839454e-01 5.788540597995128767e-01 6.035318175093142834e-01 -5.483405171127935240e-01
-2.411059329398228604e-02 3.219161718724667526e-02 -8.462473546441099392e-01 -1.847470362101353014e-01 6.523941802952040181e-01 -7.350172556671845658e-01
-4.865064545987105027e-02 2.079060032146342052e-01 -7.817051018376939275e-01 -3.627477443391255441e-01 1.515956114003550737e-01 -9.194742218143088230e-01
4.183964082375494359e-02 2.017804996340528678e-01 -7.868368113026917854e-01 2.990754986941181193e-02 2.155307937074257829e-01 -9.760389415513377465e-01
-4.402338835306825876e-02 1.059137341097386581e-01 -8.163289027599770487e-01 -1.527092876939282196e-01 3.875061501996041602e-01 -9.091308250243718136e-01
-8.504656550460337749e-02 1.481952981113762724e-01 -7.879041947826570524e-01 4.463448238035588878e-01 -7.555751240533481461e-02 -8.916654981454017470e-01
-1.164201184767802051e-02 -2.030359981229379329e-02 -8.791689622372698132e-01 -4.227497740004479976e-01 5.038095095575134685e-01 -7.532984844415842041e-01
1.932877043081532298e-02 1.141710130614432966e-01 -8.180792513347817652e-01 2.282374941585854078e-01 5.406193418464088074e-01 -8.097149952185430655e-01
1.096558986765206467e-01 -1.109967958850679309e-01 -9.279661682652337040e-01 1.389770177643806677e-02 4.539518102175074676e-01 -8.909178457554777220e-01
3.157555596714742979e-02 -2.209815046827515173e-01 -9.994646106151906517e-01 -1.138083583066774873e-01 5.537572953401715958e-01 -8.248639375297461829e-01
7.051882000277064078e-02 -1.213207122995529387e-02 -8.773745788366557052e-01 -1.087287583770952665e-01 3.050362610771484295e-01 -9.461135959967220677e-01
5.267532351494860765e-02 5.641390839802221113e-02 -8.436451848823951494e-01 -7.567462979093025899e-02 5.488899540235900876e-01 -8.324621125180332593e-01
4.648563431453058004e-02 1.436288916383759440e-01 -8.017535172220834339e-01 4.260644570003495057e-01 7.648558347114674250e-02 -9.014538446321450627e-01
9.890214660019656587e-03 -1.462424044273420154e-01 -9.479548590298711996e-01 3.338034527118797102e-03 3.194747055399345670e-01 -9.475889246111245390e-01
-4.363832330350156385e-02 1.149680763156887137e-01 -8.122081170763648661e-01 -2.772474069588902190e-01 4.038165059020243364e-02 -9.599495807750437759e-01
6.873775670998161225e-02 -1.153614270220442439e-01 -9.295504936147849229e-01 -2.264193516879696721e-01 3.370619190424594680e-01 -9.138509396573457622e-01
9.195636580724270148e-02 -1.231329312591078889e-01 -9.365885774081692539e-01 -1.625283481663344909e-01 7.479965664035939099e-01 -6.434948894053134083e-01
-1.525962040812546203e-02 1.270879188733621823e-01 -8.138375352622124748e-01 -2.764802334523174809e-01 8.887544157154252111e-02 -9.569011633369536307e-01
1.190445835178769868e-01 -1.318498368880611227e-01 -9.414262090654420545e-01 5.026357668828084213e-01 5.301286493396625277e-01 -6.828769296142871426e-01
4.550258394592519157e-02 -1.488385792882374603e-01 -9.508061942137524536e-01 5.109176451085421095e-02 6.533975166205697738e-01 -7.552888962994489530e-01
1.070184182009585455e-01 -5.379968805390604458e-02 -8.936684496409756928e-01 5.409438801827364252e-01 3.698109409319618179e-01 -7.553936632378260851e-01
1.962838033730818568e-02 5.587977869310958162e-02 -8.453639483413289968e-01 4.004554054308925859e-01 -5.687017129846497210e-02 -9.145497536370903457e-01
-6.969824283348768912e-02 5.057058513330503491e-02 -8.335088900822618108e-01 -3.132771146290173891e-02 2.805413022129431555e-01 -9.593305750611531568e-01
2.428849558093299291e-02 1.964185156968605017e-01 -7.927229874312148317e-01 8.011657603861452315e-02 4.335408785226521622e-01 -8.975653964439892496e-01
-5.754006069969869880e-02 -1.569610017997524198e-01 -9.391575194978253327e-01 -1.653658404341471488e-01 7.095935778517841186e-01 -6.849314513796340709e-01
