1.191759629408327414e-01 1.953026839338452975e-02 -8.878353964817949917e-01 -1.621220144217884419e-03 5.566372520554235814e-01 -8.307540798993590103e-01
-1.938122812453518112e-02 -2.386276116135100933e-01 -1.052896469963381154e+00 -2.011487345092097256e-01 9.146686576162019744e-01 -3.506001046490410111e-01
-1.314186438062403192e-02 -5.273751665963841151e-02 -9.152995095065805664e-01 -2.253035833130170029e-01 5.422131155236982192e-01 -8.094709585280988051e-01
-9.138097885859830516e-02 7.632460445645730153e-03 -8.582130287250659961e-01 1.742564468141421033e-02 5.247424025346225651e-01 -8.510826974446307203e-01
1.286835418204301286e-02 2.478127897779164313e-01 -7.992796806291030398e-01 6.898732512635195047e-01 6.218404994057215029e-01 -3.706606136210639502e-01
7.597620726150271231e-02 -6.945521534751501747e-02 -9.327757817733195456e-01 -3.594442081031786751e-01 6.341104730311689641e-01 -6.846194338851809835e-01
-1.119898756454572597e-01 -6.418303066967026571e-02 -8.951574188569544344e-01 -7.746979554551187974e-02 4.057814117817157840e-01 -9.106809960851131036e-01
-4.941302624966956158e-02 1.920440617574681597e-01 -7.926006016818943900e-01 -4.680250981161618307e-01 1.153510617763307405e-01 -8.761544613140025417e-01
9.339200681219080036e-02 -1.058559098451814923e-01 -9.559888247932227801e-01 -2.172618829601452584e-01 4.846385239817632695e-01 -8.473032369142643461e-01
9.125237044624727456e-02 -1.504971876999097562e-02 -9.031464690364009451e-01 -7.113258970342696552e-02 4.291547918670409745e-01 -9.004256322982150396e-01
9.031298630085622670e-03 1.026675569715836817e-01 -8.399574014462487526e-01 5.452635737295984802e-02 5.306500620562014658e-01 -8.458353196641682503e-01
-1.208634238013450712e-01 4.692949825734572811e-02 -8.381889005043487995e-01 9.860532078356878949e-02 5.301707495871921250e-01 -8.421377363563066210e-01
1.099500756222880765e-01 -6.153237728241899712e-02 -9.309679594699805660e-01 -4.706339016824829802e-01 4.749174923960276518e-01 -7.436108565663841485e-01
7.942195354285253028e-03 2.174088284860376807e-01 -8.037920184706076610e-01 3.680991108932940015e-01 2.622201755706664583e-01 -8.920446312171018688e-01
-7.092628588887298080e-02 -1.378881063720614475e-01 -9.458901958014179767e-01 -4.630744082823409075e-02 4.516273118240798912e-01 -8.910041482162104343e-01
-3.033257470224823282e-02 -3.649913057635749327e-03 -8.794927340848933683e-01 -3.577844586281249684e-01 5.317920601821848336e-01 -7.675854909333336140e-01
-2.658460422096469919e-02 -9.423710678106203553e-02 -9.346736737619478763e-01 -1.373331940050609989e-01 4.999448113582624642e-01 -8.550992804466154285e-01
2.840903318455070131e-02 2.133118967461992699e-01 -8.003576421222386994e-01 2.951351051196562381e-01 1.667571333687644652e-01 -9.407907993792463675e-01
7.803102492675377533e-02 -1.189312134896605873e-02 -9.023288231728781028e-01 -2.265137590636584486e-01 7.102104300376994861e-02 -9.714152193606538921e-01
-1.848335147604972251e-02 8.362337830082326728e-02 -8.392205362097903132e-01 -8.319690960920756995e-01 2.626387746835640025e-01 -4.887210832166445917e-01
-1.082269084054560404e-01 7.594407122177759817e-02 -8.245674275788003049e-01 -2.128686088125053000e-01 4.689640503655151393e-01 -8.571812380395402720e-01
-5.247901179640395569e-02 1.923167040142960416e-01 -7.909583774852053661e-01 -5.097303196482008136e-01 1.995403985242646394e-01 -8.368743218596926825e-01
-6.615081906794482991e-02 2.280149415877586686e-03 -8.624576685457568948e-01 -1.755257224582711939e-01 3.665794292316131853e-01 -9.136795077157672251e-01
-6.054995765629812843e-02 1.198201515220137792e-01 -8.138675342824325254e-01 -2.269207880434964686e-01 5.481967308014861207e-01 -8.049765836918992834e-01
3.540445547379214575e-02 -2.909068052512352523e-02 -9.092029042729753430e-01 -2.903553282779144581e-02 4.043255831738972739e-01 -9.141541230145459052e-01
-5.697540031678153399e-02 -9.952938248814809097e-02 -9.296126939362012731e-01 -1.935721458950964979e-01 4.338702389076296573e-01 -8.799354749774573881e-01
9.006110610896907176e-02 -1.163126821879996720e-01 -9.624877378724456811e-01 -1.926049219221997733e-01 4.700339027470166187e-01 -8.613776606806977654e-01
-1.049558477760012265e-01 7.982157492120257880e-02 -8.228946476478118388e-01 -2.907228023213981327e-01 4.081428654000588407e-01 -8.653898853311278172e-01
1.341933617049115568e-01 -2.293856957680966147e-02 -9.115023727297643097e-01 -4.490411170975460720e-01 4.449828849757830884e-01 -7.748240492101523547e-01
7.627152719225049893e-02 -1.623472820671890970e-01 -9.939978191511747996e-01 -3.080382330244518241e-01 6.037433181803029125e-01 -7.352594458745910222e-01
3.350630945068563266e-02 2.609604867632988462e-02 -8.807423483164277256e-01 -3.549403450677749983e-01 4.643591914798548825e-01 -8.114110504123936973e-01
2.563466095836421446e-02 7.328738256278220786e-02 -8.523956268410225467e-01 -2.284339899498342430e-01 4.204598712881561506e-01 -8.780839418141902497e-01
-2.565694167992987017e-03 -7.972062575237216786e-02 -9.320395398322247615e-01 -2.326272791519550243e-01 3.975287077943179259e-01 -8.876122326070872148e-01
-1.184749656661099847e-02 9.163691323915533482e-02 -8.384359907695700942e-01 -4.077394843240952360e-01 4.473591990629234294e-01 -7.960014195570885853e-01
1.154394026253876236e-02 1.902507163479498498e-01 -8.077037706561198682e-01 1.535434474088090070e-02 2.737818336439689637e-01 -9.616692527392795009e-01
-3.949421623045769325e-02 3.691427873974173490e-02 -8.532051710852434079e-01 -1.778758254544679507e-01 4.402751206775439852e-01 -8.800670479180922046e-01
5.236231583329001293e-02 -1.302223368213248356e-01 -9.700080558083413740e-01 4.466164206411785825e-02 8.390393927330821455e-01 -5.422344835679826502e-01
-3.790759839862204578e-02 -1.391417287682387149e-01 -9.546293047463986214e-01 -4.067844975993722967e-01 3.457808779762276408e-01 -8.455542306314924872e-01
-9.261593240930262108e-03 8.908333987213597205e-02 -8.408720313272465274e-01 -5.235297447877542698e-01 3.123757863576140936e-01 -7.926777241855171852e-01
6.790584052227675860e-02 -9.109674933224524984e-02 -9.440881430071360603e-01 -7.528441144275524466e-02 6.051709468482264764e-01 -7.925278433497076058e-01
-8.676695227710209957e-02 -1.235397799448605949e-01 -9.337612068366372142e-01 -1.198966358706477636e-01 3.657408437135091783e-01 -9.229617716604689992e-01
-7.801018282845402496e-02 -1.361129161232034999e-02 -8.701336769332446153e-01 9.533104454503130154e-02 3.218257831341925224e-01 -9.419873445307089810e-01
4.613399227547651527e-02 -8.477970746160500004e-02 -9.388862778631607009e-01 -9.453101225624574444e-02 3.945191841632882945e-01 -9.140123090248525317e-01
1.073279330192405123e-01 -1.483646744386517002e-01 -9.831740732108231740e-01 3.998210148872858305e-01 4.693262368070196255e-01 -7.873220684694807181e-01
-8.068140634677663237e-02 -1.695150819342056414e-01 -9.611856610512070631e-01 4.349835574090644696e-01 7.132144019169989191e-01 -5.496494534536829901e-01
5.541441043504542752e-02 -1.828222156148543928e-02 -9.052643218994333996e-01 -1.738418661754980166e-01 4.861280876324314271e-01 -8.564219100300126675e-01
7.590951473466880928e-02 5.549369838188910470e-02 -8.653862244362776623e-01 -1.247287212408620394e-01 4.996136288012398841e-01 -8.572216562906445070e-01
-1.761255429019015564e-02 -7.990943491827610934e-02 -9.287950003864803294e-01 -2.219621717536674477e-01 3.133490084716233914e-01 -9.233337387966745746e-01
2.012274293325181512e-02 2.032231154876116760e-02 -8.823991636049201004e-01 2.301403047254936204e-02 4.679097017964538030e-01 -8.834765788441490963e-01
7.576185246833227506e-03 -2.059839469110116492e-02 -9.057592260321462030e-01 -6.102802882734602308e-02 3.676723651937843229e-01 -9.279507592379332426e-01
2.931083970524816021e-02 -2.031115409177972619e-01 -1.018975081104209313e+00 4.750640828884898637e-02 6.122533589540966048e-01 -7.892331503560395811e-01
-9.871759092686974157e-02 9.457099878117081193e-02 -8.171355354565218443e-01 -2.307406367729562813e-01 3.280361942758108218e-01 -9.160518619525057638e-01
8.851474361320496587e-02 -4.877198885876948137e-02 -9.196996422391403581e-01 -9.509377767258191116e-02 5.083117885118193513e-01 -8.559067116852588919e-01
6.023526494019864480e-03 5.389428144659037107e-02 -8.647872339387608909e-01 6.469824866909777983e-01 3.893831684171833452e-01 -6.555870728351453902e-01
-1.624602390053349679e-02 -2.365913807110193168e-01 -1.049911827478254400e+00 -1.715705916973620238e-01 8.915785611670568045e-01 -4.191076249985169477e-01
-1.776554541746016083e-02 -6.146838830699851569e-02 -9.203751426811582759e-01 -2.403097040657026506e-01 6.386512236948802546e-01 -7.310101645017572647e-01
-1.019188249020007847e-01 2.924806056901483112e-02 -8.487432373005892039e-01 -1.076195750620912300e-01 4.966769932939540944e-01 -8.612374767716115542e-01
5.699899819429313924e-02 -6.069457016555884765e-02 -9.253824536861356975e-01 1.473679282866955653e-01 5.632289869617288502e-01 -8.130533819858027922e-01
-6.111998284066443542e-03 -1.987002893682587312e-01 -1.008579687168749794e+00 -6.841284118476025355e-01 6.652974033389752462e-01 -2.989108248513155375e-01
-5.734462920995809371e-02 7.133140288907385829e-02 -8.360171670368914398e-01 -2.142956229029903403e-01 4.063845431147048437e-01 -8.882167467021052643e-01
1.272244563994461564e-01 1.859367351160532908e-02 -8.879780889436139635e-01 -1.515563582279508270e-01 5.342363725206735747e-01 -8.316382438035379021e-01
2.553996316253310042e-02 9.389417984926980154e-02 -8.435148097960681879e-01 -1.640323106260621888e-01 4.865849923727921245e-01 -8.580958258074936618e-01
1.055361574684220011e-01 8.478075548038249698e-02 -8.477870136915305332e-01 -4.583942858055047309e-01 6.430033556437778630e-01 -6.135318764104292777e-01
3.295152497272849090e-02 5.432129979800276454e-02 -8.639792974903298672e-01 -7.964017861189523484e-02 5.006664416687341967e-01 -8.619689995222757917e-01
7.883389615130727279e-02 -1.110791992223919278e-01 -9.587342037599145828e-01 -1.962861274428675806e-01 6.141408554546612386e-01 -7.643969949148798904e-01
1.840514738010108620e-02 1.609734141650321082e-01 -8.144396932906000641e-01 3.295859594887838306e-01 3.159422675980604334e-01 -8.896929688678300030e-01
4.151733178875540581e-02 -6.903554653755190895e-02 -9.303082637607821281e-01 8.109666067712681392e-02 6.563355135323359901e-01 -7.500980104648081737e-01
7.877329292642469560e-02 2.975020350566616456e-02 -8.801896033259035690e-01 -1.509151784067137292e-01 4.481028624085717227e-01 -8.811517653774031400e-01
-5.044819915942718586e-02 -2.077127357908785110e-01 -9.940145867866462259e-01 -6.531899294538224821e-01 6.030166269228114384e-01 -4.579452627932132924e-01
-1.045896560024009575e-01 2.029365123091962392e-03 -8.595856880187071614e-01 -1.672873041808267403e-01 4.609429951210330390e-01 -8.715196573277981251e-01
1.711288429971739682e-03 -2.316274722280280696e-01 -1.044839987561313466e+00 -3.252512051998960318e-01 6.451257097838259957e-01 -6.913931385918794525e-01
1.277628199656767605e-01 -8.809859484776789984e-02 -9.478133775852762843e-01 -1.370489902263033188e-01 6.247068470933241358e-01 -7.687385312787882174e-01
9.086856265685491763e-02 6.342452788718068446e-02 -8.617518190092667840e-01 3.486290220913031146e-02 5.154622504963703999e-01 -8.562028067944962295e-01
4.406036723425419549e-02 -7.629760727373058327e-02 -9.340354455098621722e-01 -6.248477734511196551e-04 4.618924508143361085e-01 -8.869357211466825097e-01
-6.428074483864840150e-02 -1.428673248377433647e-01 -9.508249023881080175e-01 -1.501808327121856579e-01 3.393194897905891794e-01 -9.286054066901228143e-01
-1.204452716794079774e-02 2.094968677959737624e-01 -8.051708923534361961e-01 -7.606185143247238267e-01 2.512225105406150072e-01 -5.986206861311430538e-01
3.511644900138578135e-02 -1.249642913119534127e-01 -9.645307109692989878e-01 -2.015802201675563621e-01 5.320569546750708589e-01 -8.223629440940835034e-01
9.788172512407963821e-02 -7.585909407200187686e-03 -9.018062025948263560e-01 4.375523076318517390e-02 2.711508297982649363e-01 -9.615418385491982800e-01
-4.144853875835202012e-02 1.931129228049639490e-01 -7.958849183010401340e-01 -3.848030426848850771e-01 1.794479167803263997e-01 -9.053866928023933669e-01
1.147297087001151669e-02 -3.521632179253069567e-02 -9.107300743033217572e-01 -6.626603244770766510e-02 5.007533700321310510e-01 -8.630497525317428753e-01
-2.727563767611917295e-02 1.097314605748663484e-02 -8.714541246697918853e-01 -4.759465918499605763e-01 6.245504420764673714e-01 -6.192023796857504259e-01
2.608037469403216152e-02 -6.387316930000395965e-02 -9.254053294477793123e-01 -1.721864355836969229e-01 4.730355430540891803e-01 -8.640539372102322702e-01
4.939614518550931171e-02 -1.567713607774170737e-01 -9.882272661900678434e-01 4.206704250170981152e-01 6.958156769265615438e-01 -5.821313745703498022e-01
5.591267574190200186e-03 1.994703313189516158e-01 -8.068880197334340476e-01 8.074713720823001317e-02 1.310192595709697705e-01 -9.880859544868300093e-01
1.322721638557278756e-01 -1.582935288504251636e-02 -9.073161819795761973e-01 4.244659083010047795e-01 3.462046902485348965e-01 -8.366426986116110021e-01
-5.155266942970346961e-02 -4.278138777707400121e-03 -8.705505448008715730e-01 -2.800170918289516253e-01 5.582403107016795651e-01 -7.809981970474378921e-01
4.315831115022061154e-02 8.063956534213405358e-02 -8.509227790001535618e-01 -3.913594280295032424e-01 -4.428312511176303590e-02 -9.191718027239280664e-01
2.807618880733164096e-02 1.174808102186557512e-01 -8.299083859167352140e-01 1.075686385137881174e-01 4.155671679530407170e-01 -9.031793381869290815e-01
-8.870760755235021500e-02 -1.530154171203438052e-01 -9.507274841330553006e-01 9.463009331371659005e-01 3.115290054811914455e-01 -8.639573304063583037e-02
-4.726749406621312544e-02 -4.746175650119633521e-02 -9.015581298739570038e-01 2.587081339537087854e-01 6.833851399140676852e-01 -6.826821016921563734e-01
-1.024466442006309042e-01 -4.711751020490839714e-02 -8.868547813085915221e-01 -1.011608136890901864e-02 5.155667928195079019e-01 -8.567896749141786783e-01
-3.928761129243407701e-02 -1.545338418261485436e-01 -9.636982721676188302e-01 -3.285683231102456969e-01 5.818381112159095592e-01 -7.439806915405960952e-01
-5.147210315881298702e-03 1.441495740452405638e-01 -8.241780551305998292e-01 -6.674806122830413413e-01 6.098414756296186567e-01 -4.272739248165579595e-01
-2.008376483059821568e-02 1.099142149995422368e-01 -8.295670495899029051e-01 2.998432623357556726e-02 3.888678649686803102e-01 -9.208054755348810128e-01
-8.810893585462759026e-02 1.308561930290889352e-01 -7.983612671848966391e-01 -3.176122891711579688e-01 1.203178467940063390e-01 -9.405562447351623057e-01
2.547188464043239828e-02 2.016274327668757804e-01 -8.031121623566537249e-01 5.375358956220444018e-02 4.009922035834573850e-01 -9.145030367770577984e-01
1.251284717177760138e-02 1.826583571203568152e-02 -8.833991539309756780e-01 -8.665905855042038697e-02 5.101627979668095225e-01 -8.557009566091595687e-01
-5.799657071389209551e-02 1.576527817710917379e-01 -7.989778812015467802e-01 -4.051810232005379486e-01 2.676739448337798755e-01 -8.741733224568726257e-01
-9.289445895427246580e-02 1.221663113251436200e-01 -8.022136353372574247e-01 -2.882394077880190419e-01 5.802456432539512265e-01 -7.617302916930769330e-01
-5.824474888433964215e-02 2.415117834577939701e-02 -8.548866650304531856e-01 5.933277254014969471e-03 4.948129610982869298e-01 -8.689792458684912901e-01
8.175218910749129653e-02 2.743290307681776896e-02 -8.811334368645531434e-01 -1.556102151367750597e-01 5.008714365626752985e-01 -8.514183842158495885e-01
4.656982012020957629e-02 1.599812382390645160e-01 -8.112037345045089998e-01 2.455670452602392029e-01 2.551998132709710210e-01 -9.351844104713342709e-01
4.630039592622990641e-02 1.683612484660843567e-01 -8.081958833228334305e-01 8.495611705918307832e-01 -2.341425699469381339e-01 -4.726765007500175475e-01
5.501643097802758585e-03 -2.302032788674960861e-01 -1.043930813602613306e+00 4.327146595586261330e-02 8.712625851056892134e-01 -4.889060114469671037e-01
-2.186988503346701251e-02 -1.722926913403852178e-01 -9.819708287670626534e-01 -3.254579303822235925e-02 4.312841808110081665e-01 -9.016289296255364238e-01
-4.081947612468441594e-02 9.554096661390240608e-02 -8.306081837126992884e-01 -1.362485992981407046e-01 3.525904259375173821e-01 -9.258057629581349923e-01
-2.959127634709286803e-02 1.608009149484709022e-01 -8.097131321316026753e-01 1.718702439204692622e-01 -3.462508667014809610e-02 -9.845109052863777466e-01
-5.490171266755355245e-02 -1.532119915359253237e-01 -9.583412246785171229e-01 -5.915210254473456386e-01 1.012710381939080084e-01 -7.999044025862395157e-01
5.263632371424178946e-02 -1.397207624665906256e-01 -9.764330297396762726e-01 -3.190329989868829208e-01 7.761528359578576675e-01 -5.438793255787628400e-01
-4.656690866011149038e-02 -3.799314490496359664e-02 -8.950949604497531187e-01 -1.851812207055174575e-01 5.573336809624684918e-01 -8.093745014286276573e-01
6.117696148622497887e-02 -6.075530201436098177e-02 -9.253047070045368194e-01 2.780554025868984223e-03 5.003102730174879831e-01 -8.658417287428895603e-01
-8.242687720105436322e-02 1.120738746308597017e-01 -8.113701127405416047e-01 -2.530244605352008902e-01 4.300321457931342017e-01 -8.666319726131864742e-01
-6.183189657311543436e-02 7.640684388004585770e-02 -8.335444668563560811e-01 4.255088318044692765e-03 1.448407429930836654e-01 -9.894458314595180326e-01
-4.724337286510020550e-02 -2.057868081945622152e-01 -9.930738363053335238e-01 -3.728331131811032373e-01 5.387798200917384150e-01 -7.554546810878864926e-01
-4.622371582171574955e-02 -1.560016393457545336e-01 -9.619443579825074364e-01 -1.668648049739966666e-01 6.184707404413655185e-01 -7.678867625365728422e-01
2.345618384527757214e-02 -1.429412062425196028e-01 -9.738065233919398489e-01 -1.755117933734010316e-01 7.414812829661622251e-01 -6.476118570545990050e-01
-1.037998162833316251e-01 -1.085352919360731694e-01 -9.214725282144562435e-01 -2.093926570022161260e-01 4.859055105566508770e-01 -8.485579237767052474e-01
-9.960821312842428610e-02 3.487501157221029741e-02 -8.468533700299037958e-01 -1.610402635272648875e-01 3.961195037293554488e-01 -9.039664663516440157e-01
9.901305906243980381e-02 -4.511721866233150101e-03 -8.995603052659177923e-01 2.170888950359109448e-01 5.297193355503144740e-01 -8.199206285953660744e-01
6.151968079371839676e-02 -1.562282510121867085e-01 -9.887318872296441130e-01 -3.073306181535578885e-01 6.390071094445710642e-01 -7.051367280355249623e-01
9.814340252089574779e-02 -9.472802079238858142e-02 -9.508164244344543548e-01 -6.864810601918792943e-02 3.142603549552467346e-01 -9.468515548085562061e-01
1.284572242227839112e-01 -8.271179257176021482e-02 -9.450980750014030818e-01 -2.533491351107360900e-01 1.544844106565336217e-01 -9.549600947697999276e-01
-5.074044737091541746e-02 -8.466500386614378426e-02 -9.239431346282168667e-01 -2.675681287694632315e-01 2.537051776638521994e-01 -9.295380461785094361e-01
-4.415280670980121364e-02 1.870880056475766884e-01 -7.959716851967346685e-01 -4.100746955704182017e-01 2.134684179886175148e-01 -8.867186580727087764e-01
-8.205546533579993751e-03 -9.777580236715646689e-02 -9.417876768450265113e-01 -1.374253844201444030e-01 4.067612179536630457e-01 -9.031387353479131130e-01
5.095338317246071030e-02 -4.334700246082053704e-02 -9.150972850180456586e-01 -3.518938479894965776e-01 -1.163229431762850125e-01 -9.287839859934878817e-01
-5.589704239450638684e-02 -1.035899268011098925e-02 -8.731542245433107086e-01 -2.601335696603506720e-01 5.034719935031176652e-01 -8.239214026190604390e-01
-2.646013933251222666e-02 2.226044475253243504e-01 -7.981611357085423020e-01 -1.702776143215715687e-01 2.773141758210415642e-01 -9.455698715323210823e-01
5.741957615213592186e-02 1.417733512016760844e-01 -8.183311627591044468e-01 4.904197266933554150e-02 1.511791886589300415e-01 -9.872890852395399541e-01
2.476799181269041111e-02 1.514661530275887742e-02 -8.850824590743804343e-01 -2.134412259216207294e-02 4.346692146932926160e-01 -9.003372158412018544e-01
-9.241622996309109550e-02 6.809372632695835648e-02 -8.323981740406931618e-01 -3.782815340551818895e-01 4.888565435918128532e-01 -7.860803780659607609e-01
-1.853441117622786627e-02 -1.381233085867324406e-01 -9.598456887692823347e-01 -1.159919889532136233e-01 4.897547724034712058e-01 -8.641100169577375922e-01
5.723818723421289500e-02 1.285620949254992484e-01 -8.234603877372770331e-01 -2.194478401503564477e-02 4.234284055879220521e-01 -9.056637410185987003e-01
5.008732116310851690e-02 -9.486051187825549069e-02 -9.450740543535111060e-01 -1.281644896840065107e-01 4.958156751048061195e-01 -8.589183196930912922e-01
-3.442291659786449187e-02 -2.289660844394883765e-01 -1.024367727571512621e+00 -3.583583319300590597e-01 8.565953796975808165e-01 -3.712460927970320790e-01
1.287612971467979039e-01 5.103822265752150367e-03 -8.956790900846444137e-01 -4.675258853231126777e-01 5.902601803978843042e-01 -6.580368272289146558e-01
-6.824625222335375940e-02 2.056149935129921585e-02 -8.557017113653101470e-01 -3.694366323672697294e-02 3.207225756868692379e-01 -9.464524262695043211e-01
-7.179925278372030484e-03 1.980180908436006137e-01 -8.096695958614732458e-01 -1.568221618475241497e-01 2.558093315701758796e-01 -9.539226359800299093e-01
2.239621032939643694e-02 -1.715296478793533752e-01 -9.944630907561641253e-01 -6.380502405765895446e-01 2.186022168786075914e-01 -7.383122383354578933e-01
6.541455954677657947e-02 -1.351937033177410541e-01 -9.741865318934440632e-01 -6.967920374348844648e-02 4.722242994769373370e-01 -8.787201030755975584e-01
-4.886987725192591669e-02 -1.513784511638725794e-01 -9.586250820692903130e-01 2.689429792187884027e-01 4.049528093517510974e-01 -8.738895216942736965e-01
-1.776273435484001595e-03 2.402520940160677854e-01 -8.025299078601983993e-01 -2.481358415219509506e-01 1.680329763790774644e-01 -9.540406296386865215e-01
3.791480003920766340e-02 8.875059476786346935e-02 -8.465183018417143934e-01 1.596606151760638359e-01 5.284916553645233606e-01 -8.337895766748745219e-01
6.131998025587077905e-02 -4.187063170976875436e-03 -8.986960856029835298e-01 1.103200441247475794e-01 5.706829971340389163e-01 -8.137262467478998396e-01
5.136979525332329571e-02 -1.059487290050271646e-01 -9.526389005606484828e-01 1.507534272396366115e-01 4.205388882070446588e-01 -8.946621975254606118e-01
-8.194020840667265437e-02 -1.167507050098796351e-01 -9.317969164524562142e-01 -1.895811158401947416e-01 2.969407785811823408e-01 -9.358873727817826893e-01
1.047068618352707120e-01 -8.680593486897345001e-02 -9.473332614881054825e-01 1.161063472239523692e-01 5.318721628099756238e-01 -8.388273472903404748e-01
-5.691835821576306936e-02 1.934448534471263637e-01 -7.882918822464025643e-01 3.309763226306829398e-01 -1.623496980856141136e-01 -9.295683134602749087e-01
-7.862570500959301101e-02 1.284218970259062009e-01 -8.045383192141508655e-01 -3.915534152782538246e-01 4.549915690409636060e-01 -7.997928451077672696e-01
-8.979914863573461303e-02 -1.344164029098945667e-01 -9.379689666254494851e-01 2.398615093876427795e-01 6.339450551889239671e-01 -7.352415407985278817e-01
3.640280382873715970e-02 8.576916867242821707e-02 -8.477208970788153719e-01 -3.414432662807465046e-01 4.108220535205964752e-01 -8.453648539256025662e-01
-2.775608775725171146e-02 2.025525037815635587e-02 -8.662668220011684461e-01 -3.319133423648851222e-01 4.416175872736591845e-01 -8.335511020751891209e-01
1.354946570309289722e-01 -2.161583547024169272e-02 -9.086012906444859150e-01 5.849079826507636720e-02 6.852157569873462695e-01 -7.259877360497021259e-01
7.173802243852195337e-02 -1.295604980356533653e-01 -9.707342424422775728e-01 3.231596407526972636e-01 3.902824152343412067e-01 -8.621180214723717095e-01
3.039290560927201956e-02 1.556525098765507154e-01 -8.148124962165956831e-01 1.026505084012956509e-01 3.084032408825513882e-01 -9.457009644375404811e-01
-5.642990976824221842e-03 2.417902256539913586e-01 -8.027442834660634130e-01 -1.625171667423299660e-01 1.545066052932290990e-01 -9.745336728070549404e-01
3.368759130977327931e-02 1.562331232615484511e-01 -8.142643657318971995e-01 1.530566617887853254e-01 2.261126710513003957e-01 -9.620014128223094430e-01
3.914977554083815675e-02 -2.036901282434948612e-01 -1.021193651838709693e+00 -1.098519733185949060e-01 8.270166356679636843e-01 -5.513402110189797867e-01
1.354209892477772730e-02 1.259548132789217734e-01 -8.276221819240701105e-01 2.032901047372341063e-01 3.942133675236683121e-01 -8.962527289674343534e-01
-1.017081901167463803e-01 7.604727683049157527e-02 -8.255691336689275905e-01 -9.690115954880701432e-03 5.887157583308856301e-01 -8.082820408407396240e-01
3.931497676295377108e-02 1.439584460093551732e-01 -8.181787549250097991e-01 2.064816345812094944e-01 2.623406184253456730e-01 -9.426254476221607170e-01
-6.437662555190618030e-02 5.739391150326150076e-02 -8.410180267137356003e-01 -1.841776006813589939e-01 3.930998826066931517e-01 -9.008613065849047086e-01
9.189906922295698610e-02 -1.581501470200730175e-01 -9.894458111281592139e-01 6.503846890293772665e-02 4.772233855287668081e-01 -8.763719746016662704e-01
-1.738260803209678781e-02 2.655740062378474792e-02 -8.668222668418408272e-01 -2.714170063000878041e-01 4.146680358898885976e-01 -8.685523753362947019e-01
4.672755586921936710e-02 2.026004533436895627e-01 -7.983802163402483609e-01 2.979013921312284596e-01 2.601527729430718749e-01 -9.184635514250450994e-01
-1.824010538997095435e-02 -2.141171978373081486e-01 -1.015864747108217836e+00 -5.533301739987305234e-01 5.780895420180629518e-01 -5.996984241699160334e-01
-2.907322858142931399e-02 -5.029294871886896140e-02 -9.090147614615430305e-01 -3.265873582646328654e-01 4.129028013195817359e-01 -8.502070183691560201e-01
9.883390698290452081e-03 -1.378954544891938805e-01 -9.700963490023263303e-01 -8.586358577823501037e-02 4.973275051820201242e-01 -8.633034212990997602e-01
5.978200395458675709e-02 2.028668743153687337e-02 -8.856753448259672146e-01 1.076887242479575985e-01 3.683078167569804884e-01 -9.234459869345653660e-01
6.477379694188019343e-02 -1.248803406520096609e-01 -9.658350059530921294e-01 -1.213490358247193979e-01 5.488290975712204478e-01 -8.270798227278736148e-01
-8.939672146834430622e-02 -3.859843026291168155e-02 -8.835708240054089835e-01 -2.030722707878962197e-01 5.964211972991635413e-01 -7.765586959459530592e-01
-7.904078660315690119e-02 -1.074090973813429661e-01 -9.283549327296493070e-01 -3.794118395007745614e-01 3.204277895725180514e-01 -8.679704417296180141e-01
1.130424966535482356e-01 -7.882803980588358461e-02 -9.429450357634475699e-01 -2.713172538045343640e-01 5.103391811227444563e-01 -8.160520007934127795e-01
8.393491370236666471e-02 1.346861286552854531e-01 -8.204526414728067207e-01 1.457805088526951953e-01 4.102843327264206197e-01 -9.002304202579941572e-01
-6.038382753393127522e-02 -9.386907783529670202e-02 -9.260242133874970749e-01 -7.472464595118875896e-02 3.681449231124872545e-01 -9.267607797452209750e-01
1.009137560317560217e-01 3.294467400408451763e-02 -8.783479819727096904e-01 -8.041465927747079578e-02 5.550621084913317516e-01 -8.279127600722464564e-01
1.875338982105239499e-02 1.758817818879178374e-01 -8.116274782735958260e-01 2.389531360900569723e-01 2.261336514013999321e-01 -9.443330823690317954e-01
-1.742784014588290992e-02 1.171059040043919558e-01 -8.281714642463048337e-01 -3.133912952699475785e-01 2.484736654016154178e-01 -9.165406339333300734e-01
1.786470389794734322e-03 9.959925096763058705e-02 -8.406311970564740443e-01 -7.056021572048173374e-01 2.851622381920725369e-01 -6.486972280326128715e-01
-5.036588222553443905e-02 4.221864815374999809e-03 -8.652688527968311893e-01 -3.243003322688771117e-01 4.770840490469583917e-01 -8.168354207765815556e-01
1.098734646585541180e-01 8.441567758178187414e-03 -8.931657494176533651e-01 3.640063028684419888e-01 6.332332862648001326e-01 -6.830190455897474644e-01
6.777295509462392953e-02 7.416853128697439845e-02 -8.561571924266115907e-01 3.388551377830324729e-02 3.831145462424085935e-01 -9.230790954265261083e-01
-1.032152878577969335e-01 -5.592268042321892584e-03 -8.640113961179806124e-01 -1.815132991612763425e-01 6.001324653919363206e-01 -7.790339827056229627e-01
7.530177332046643357e-02 7.607658477027350041e-02 -8.541897114747434294e-01 4.667926589568553719e-02 5.653624125889898933e-01 -8.235207274665262700e-01
-1.668345078991671088e-02 -4.283450910729502681e-02 -9.075755567872028085e-01 -2.103221491982180114e-01 5.860905774535198898e-01 -7.824719985896249064e-01
-6.767358044916640947e-02 9.350879621854381318e-02 -8.248466453588230163e-01 -3.236415398998055415e-01 5.211706567687623970e-01 -7.897070977105998812e-01
-1.373510338613541382e-02 2.489762303293732437e-01 -8.020138409821235825e-01 -9.528731122874141424e-02 6.928715345397974332e-03 -9.954256984940961228e-01
-3.387330294347593723e-02 1.499937745261482359e-02 -8.669366738255870342e-01 -3.038849276953168310e-01 4.282262827418688578e-01 -8.510441830414522402e-01
4.096854849859977304e-02 -1.745826808515781869e-01 -9.979185855741010691e-01 -7.831577214484714000e-02 5.156340569468035318e-01 -8.532222214346839584e-01
-8.054715728890274318e-02 -1.537848676276769820e-02 -8.710117953697661397e-01 -1.420110787690448961e-01 3.658597068187723345e-01 -9.197714544566676365e-01
-5.615427596409183764e-02 1.268880777028038309e-01 -8.122378995111877442e-01 -3.445061933281637345e-01 4.527969876894595291e-01 -8.223687559105640199e-01
-2.930432486549577279e-03 -8.765546776914235130e-03 -8.942189152959637566e-01 -5.637903585190535694e-01 4.012835897138286589e-01 -7.218808158327387758e-01
6.959857167963043323e-02 1.313488004552162691e-01 -8.228191894273988449e-01 4.852231884084499958e-02 4.538152199188103531e-01 -8.897737525598005126e-01
1.045573168497709038e-01 -8.208238012257591809e-02 -9.440482120071892469e-01 -5.189681044427432721e-02 6.585406906430283369e-01 -7.507535413390429291e-01
5.276783506674743301e-02 -2.747051678331054181e-02 -9.084743862662824077e-01 -3.412852488945041785e-01 7.054061295168242429e-01 -6.212298860543571388e-01
2.446101757791125861e-03 -9.949705694337435125e-02 -9.448627287200574987e-01 -6.025593387814091040e-01 1.660432476899844079e-01 -7.806099430214000767e-01
7.095306339688775554e-02 -1.458032571087264917e-01 -9.823917465401158511e-01 -1.407185566694916026e-02 6.678320037158499423e-01 -7.441790091711546484e-01
-1.072335471931020467e-01 -6.036549259920596759e-03 -8.646215589982640948e-01 -4.780534474450596205e-01 7.057554523992251028e-01 -5.228519319985903691e-01
7.829770622101271671e-02 7.381041517646443062e-02 -8.562490870393547615e-01 -1.472784814878410307e-02 6.443167281655216572e-01 -7.646169265030582363e-01
-3.898655766503757170e-02 2.692572248139995725e-02 -8.573182681498177082e-01 -4.605280889773707420e-01 4.257719807210194607e-01 -7.788659061069179712e-01
4.669580806412616802e-02 -4.267823479341432275e-02 -9.153470646151737888e-01 -9.620257974331034023e-02 2.274390217863085095e-01 -9.690286657367874756e-01
-8.604196069796671287e-02 8.116166321622009239e-02 -8.267769188082572107e-01 -2.258865187001070640e-01 3.401831419097729459e-01 -9.128256737351010397e-01
-1.233266576582034077e-02 1.767369027444700147e-01 -8.120587099063940606e-01 -5.228337761827457353e-01 2.102994465813370073e-01 -8.260865482805500593e-01
-1.168856026846785134e-01 -6.652122978371408091e-02 -8.964812566900404178e-01 -1.098885354472372150e-01 6.211350435539951809e-01 -7.759611893944421412e-01
1.031812186287055094e-01 -1.575990680345556727e-01 -9.923016109071050028e-01 -1.016686418221081217e-01 5.747939846446238343e-01 -8.119577344211972303e-01
-2.395059808034068639e-03 2.357410251203502227e-01 -8.033938887180913646e-01 -5.952542366851137912e-01 -4.159856434538824477e-01 -6.874797001720718281e-01
-8.300878638963933576e-02 -1.455387811091140571e-01 -9.466137390423949860e-01 -1.994572923549036911e-02 4.125750949206312135e-01 -9.107051986985120751e-01
1.028335637471066433e-01 3.098054502761732679e-02 -8.798688996361362369e-01 -6.160931653764038091e-02 5.344229508187702260e-01 -8.429688023609905878e-01
-2.989962391010637932e-02 8.190676826353788381e-03 -8.722089518833614497e-01 -3.529563065560432644e-01 5.323704297106167660e-01 -7.694176832072743277e-01
-5.720686913648831071e-03 9.089205203093961294e-03 -8.826033705069342705e-01 -4.254629821957803815e-01 3.660199585255658472e-01 -8.276536961447196195e-01
2.712246271167213785e-02 -1.347939075942743495e-02 -9.005514964393872557e-01 -9.343552447979314168e-02 3.565590111535748008e-01 -9.295888738202336965e-01
7.228317191880370696e-02 1.077488453033422638e-01 -8.352217537933317448e-01 7.653645863507060887e-02 4.250794664998046590e-01 -9.019144181461139498e-01
-2.747612152144948000e-02 2.909620016590515681e-02 -8.606570459259647032e-01 -4.111066875504205687e-01 5.701331858046884138e-01 -7.112942020679750010e-01
1.369446246364532382e-01 -4.317164971922054367e-02 -9.230850044129224052e-01 -3.309135461333183037e-01 3.953229807709534027e-01 -8.568640299719905151e-01
8.055567894769799508e-03 2.693192432902657800e-03 -8.927776582224318247e-01 4.036183207996192901e-01 4.734638188936246550e-01 -7.828947970918955779e-01
1.489630890738519349e-02 -1.311199907615242521e-01 -9.653757869928085711e-01 6.725427474911938042e-02 7.151094688578448766e-01 -6.957695811673724196e-01
-2.045554396342785103e-02 -1.812428626522354369e-01 -9.878602847499506900e-01 -2.638408802256235822e-02 7.562634671227522754e-01 -6.537349984471471087e-01
1.058666542144451328e-01 4.963566888420820056e-02 -8.701134687932816636e-01 -1.503879294306995074e-01 6.383488129683693169e-01 -7.549134146797370493e-01
1.274610419155787766e-01 -3.568710219134811623e-02 -9.176708552300035793e-01 -9.729822104484243256e-03 5.326155223007684736e-01 -8.463013860121547660e-01
1.986783996356681486e-02 -2.086139680216004821e-01 -1.023037896229501698e+00 1.194062911812845684e-01 7.737810808566145671e-01 -6.220972404172030457e-01
-1.106778701832278611e-01 -2.555601289803244303e-02 -8.738219410133666321e-01 -1.095670218131775536e-01 4.580099754761934316e-01 -8.821688784440804287e-01
4.767921110195354195e-02 2.070034363307103886e-01 -7.968379475433531312e-01 4.860603380287633057e-01 2.939096041349925637e-01 -8.230203474960847698e-01
-2.377569138788516306e-02 1.588730123621787949e-01 -8.122516308642035998e-01 -3.433171952036802033e-01 2.686628762595463793e-01 -8.999742009621307659e-01
-4.338975249337380380e-02 -1.726444971883920876e-01 -9.729161100512437876e-01 -4.840286966158201254e-02 1.682828931165607222e-01 -9.845496585205053552e-01
3.301371367651390748e-02 1.263115212656150954e-01 -8.251380752141432851e-01 1.320121261372223798e-01 4.613562136319028784e-01 -8.773387274570545458e-01
-4.421614072869143805e-03 -1.077944904282603922e-01 -9.479196452934358641e-01 -1.150771484945087852e-01 5.834947999898928428e-01 -8.039223023894334075e-01
3.889908627889825804e-02 -2.378717868393247475e-04 -8.952295219298905815e-01 -5.055438900942028219e-02 4.335649123917514891e-01 -8.997031290901553735e-01
1.203809064168232801e-01 2.703351457431463472e-03 -8.971580510182569634e-01 -2.788752731848364030e-01 4.193195573081608951e-01 -8.639442637490978294e-01
-8.334896373191066909e-02 -1.111232077277042041e-01 -9.290223010438632967e-01 -4.224042615674190176e-02 6.317746343503959361e-01 -7.740003603290636081e-01
-1.720205975474749932e-02 8.022253128826163648e-02 -8.420954656180905662e-01 -2.868491757927861263e-01 6.282966636683154915e-01 -7.231603230060833498e-01
-1.942052061690404188e-02 -1.506288286190317349e-01 -9.680880244892643427e-01 -3.049438270840775234e-01 3.611577869395824480e-01 -8.812345404353029155e-01
3.229309670433302970e-02 -1.037070166603689531e-01 -9.495528938200540336e-01 -1.427194628126439990e-01 5.558936199186663707e-01 -8.189099085175313153e-01
-2.515922338892255528e-02 1.789616022665126704e-01 -8.064018100210416096e-01 -4.525721111492047033e-01 1.868963476029651682e-01 -8.719221521802410502e-01
-2.263985180133864378e-02 -2.076392315700694713e-01 -1.008171495051761291e+00 -1.941170489932199927e-01 6.575422884415047520e-01 -7.279812567650847388e-01
1.475990886831159664e-02 -8.546225175938279572e-02 -9.377480767444351661e-01 -5.509112645114985218e-01 5.331716061715686683e-01 -6.420473635229499987e-01
1.203146562476733149e-02 1.935560769357302369e-01 -8.070405167852225947e-01 2.386512236544112778e-02 1.245024041403331172e-01 -9.919322594299267992e-01
2.392155981753686309e-02 2.066227716230282507e-01 -8.022740145586070293e-01 1.450448062786706682e-01 2.499358329425001857e-01 -9.573369749377286242e-01
-7.722347326629935838e-02 -1.607887656590236414e-01 -9.560362023643280693e-01 -1.090615453602183510e-01 2.709863301031750771e-01 -9.563848536132586453e-01
-5.340963612664828553e-02 -1.052632931942912853e-01 -9.331573527399832368e-01 -1.818466455197123577e-01 5.606177154418223729e-01 -8.078611109875383223e-01
-1.912487760309751136e-02 2.300624484842377915e-01 -8.004257570536696953e-01 -3.933743807127129122e-01 8.993708891718957266e-02 -9.149688063731959975e-01
3.832544585900151540e-02 1.231769850086726209e-01 -8.262572783015565969e-01 4.394746722401145916e-02 2.756036177795549991e-01 -9.602662474498493417e-01
-8.529873030186901905e-02 -5.231293929549878097e-02 -8.941956586486189407e-01 3.819072751964263518e-02 2.026916664475062468e-01 -9.784976017774663637e-01
-1.087490019408438313e-01 -9.964945314983034153e-02 -9.155922758733734401e-01 -9.341436448048712204e-02 5.590176549323387922e-01 -8.238768220933605502e-01
2.120462696050203974e-02 -1.524322700192130564e-01 -9.816714752658064480e-01 1.290940237343823072e-01 3.740904855626643877e-01 -9.183632405794321940e-01
8.510640494938798151e-02 -1.241008760484144380e-01 -9.672617279851151162e-01 -3.511873541797591591e-01 3.307609496743153521e-01 -8.759364340149148331e-01
-8.044612829760809658e-02 -1.736219550395133038e-01 -9.623295832941125560e-01 6.682791626843568311e-01 5.145923829273061356e-01 -5.372128443690556976e-01
-1.128724796642243400e-01 -5.988355159529740873e-02 -8.917918597020122462e-01 -1.960610714370283336e-01 5.537200686217277346e-01 -8.092923710702538687e-01
1.241706073153815357e-02 1.620382906946250812e-01 -8.153043866631113357e-01 8.410191890986476460e-02 4.243167781357243262e-01 -9.015997665417825324e-01
4.445725798581044372e-03 3.607275722626788333e-02 -8.721178414914527721e-01 -5.722025693331299623e-01 4.206251859745709920e-01 -7.040303065723959586e-01
-9.705604958279359651e-02 -1.313667647078773093e-01 -9.352714906156361918e-01 -3.939319410424622220e-02 4.939094807011311650e-01 -8.686205161817235343e-01
-8.410667780049138620e-02 7.915400732424740515e-02 -8.282366802680130036e-01 -1.400746177486084931e-01 3.999452123341057930e-01 -9.057720069606963742e-01
-1.013649448503560757e-01 -1.296363129676733894e-01 -9.347829802252082265e-01 5.524582546875320688e-01 6.398868968753960162e-01 -5.341672360176931145e-01
3.326765508672215044e-02 -2.211929408915665196e-01 -1.034245521746867125e+00 -1.692746251511220434e-01 5.457230942869698564e-01 -8.206902007711568414e-01
7.619031575849469218e-02 5.893707407133338960e-02 -8.642112270611477243e-01 -8.009387611284037034e-02 2.297718229968835346e-01 -9.699432356410913059e-01
4.369945795629899717e-03 -1.147222803424137044e-01 -9.543434312490256533e-01 -4.171606962820274545e-01 6.782260691044653123e-02 -9.062985421313249912e-01
8.920030665549932240e-04 -3.096016855265028983e-02 -9.080657776475740128e-01 -6.544792415656762730e-01 4.858325452563510422e-02 -7.545174548937315651e-01
5.012608394248930371e-02 -1.964233580932397139e-01 -1.013985395112294796e+00 -2.033657597868323008e-01 6.712241023452081290e-01 -7.128117368402359100e-01
-6.252943799655577561e-02 1.421921039773846873e-01 -8.047188021461888496e-01 -4.527817468092213971e-01 5.588584706936617907e-01 -6.947416062755499278e-01
-6.341438978089632139e-02 -1.884726442098662649e-02 -8.765532294696750659e-01 -4.039162964153420465e-01 3.997312155819411350e-01 -8.228405561100503585e-01
5.813563816324415767e-02 -9.118971719525258146e-02 -9.432342670690387898e-01 -1.611677657346232140e-01 5.837535517975661614e-01 -7.957743034628823597e-01
9.150128089561862521e-02 -1.473484717742304384e-01 -9.849661758184395932e-01 -1.546954538579929928e-01 8.335638001956244825e-01 -5.303213248202437446e-01
5.476631536273750961e-02 -1.885184193706169464e-01 -1.010377897350373866e+00 8.291190004507938138e-02 7.527355276277705176e-01 -6.530810380633146339e-01
6.483189712400554139e-02 2.351422867265585623e-02 -8.833695568442111457e-01 -2.192666001367753192e-02 4.415078997254385240e-01 -8.969894068832008349e-01
3.959451474891044487e-02 7.418129248983605650e-02 -8.532117353516202041e-01 7.837826775492640063e-02 5.049269526322871515e-01 -8.595961956926105874e-01
-6.243650224502492879e-02 -1.209661510594233630e-02 -8.723116365795741123e-01 -1.920952303257058014e-01 4.731953693279065121e-01 -8.597590156158526620e-01
-7.454345449825645897e-02 8.341061690419902808e-02 -8.279340528568555069e-01 -1.247245764154585740e-01 5.334842396207285509e-01 -8.365634142814740715e-01
9.238700851481665421e-02 -2.386739962802910189e-02 -9.069558533652062327e-01 -7.127885867337468984e-02 4.540547698183481362e-01 -8.881180047220232909e-01
-1.889642009138560105e-02 -5.379664000220840681e-02 -9.138640256308941945e-01 -2.549794539165214924e-01 5.741413644450625853e-01 -7.780405977284180485e-01
-4.285953034898337677e-02 1.793942113604440614e-01 -7.993752210714343276e-01 -6.236032257126408185e-01 3.518629456412784018e-01 -6.980769902850485487e-01
-8.857444948266915419e-02 5.031165968797009225e-02 -8.413079400332439395e-01 -2.058833335803029185e-01 3.915754034755762336e-01 -8.968170138589037776e-01
7.385450631454219816e-02 -1.831332745793504135e-01 -1.007560035509494689e+00 -7.895379335129418252e-02 3.924342338169378164e-01 -9.163851104442681805e-01
4.773737514686518350e-03 -2.167318575801656377e-01 -1.028154085139328489e+00 -1.310645156765536667e-01 6.112012560796619143e-01 -7.805479596393253283e-01
4.296411468238436719e-03 -2.243885070315125574e-01 -1.035480936703724320e+00 -1.207419618935950539e-01 7.543689069667323110e-01 -6.452510603167598280e-01
6.774930555698904788e-02 -1.690785314932482242e-01 -9.982058334664529742e-01 -1.181498638944068341e-01 4.936505158602708110e-01 -8.615972248403667155e-01
-2.875498999242012688e-02 1.889309974151176241e-01 -8.022738349074493014e-01 -4.079075847858248949e-01 7.829344382095235200e-02 -9.096601227540154211e-01
-5.687457835444513499e-02 8.620542130480406129e-02 -8.308520543036914674e-01 -2.566774168991309835e-01 2.779274670610071274e-01 -9.256743632115141951e-01
5.802748930981738856e-02 9.139920778996671324e-02 -8.446420500414780763e-01 -1.340045210145406063e-02 4.409428704947958577e-01 -8.974351301588801011e-01
9.872675697188670885e-02 -1.279939622683782530e-01 -9.727616286756952668e-01 -5.454430280152736815e-02 5.227343283316095990e-01 -8.507489294824861492e-01
-6.924398414254079315e-02 8.850966478819000116e-03 -8.591201466173292722e-01 6.236678948206699630e-02 4.033364508802859127e-01 -9.129239239723065946e-01
-4.541043130766803104e-02 6.947747441613663644e-02 -8.387211464821977547e-01 -2.055074711749018124e-01 3.454779146578214055e-01 -9.156482347359051754e-01
5.244043112022647116e-04 2.267968676712297516e-01 -8.043154267724067497e-01 1.589325836496251754e-01 1.258976424444404121e-02 -9.872091630909450855e-01
-2.720886448267954144e-02 7.993695100111795904e-02 -8.389055809395338237e-01 -1.679631533865487136e-01 3.253297160316103165e-01 -9.305637833975908269e-01
-3.724550227793545221e-02 -2.277131577879253077e-01 -1.020431729346982230e+00 -5.758583879469151290e-01 6.313051395666138266e-01 -5.194621620368112813e-01
-1.404232923860646368e-02 4.014293578128527024e-02 -8.600900057966838208e-01 -3.256365701607073504e-01 5.174153350351841096e-01 -7.913546583197692552e-01
-7.358090514570614360e-02 -1.311835651558462545e-01 -9.418401108620747531e-01 -1.890874641650460153e-01 3.662490933249677449e-01 -9.111023721483064719e-01
3.219864741613245179e-02 -9.745471051456594536e-02 -9.465763898551744493e-01 -8.170695750259818202e-02 5.987713649501209545e-01 -7.967413793769200225e-01
2.463357647314982912e-02 -4.941384038752327790e-02 -9.183929544380424748e-01 9.329543056580960614e-02 4.599876631248230874e-01 -8.830103693663535758e-01
7.326921911369138618e-02 1.320363161022989618e-01 -8.216275934462909936e-01 1.142001552054925373e-01 5.499908285941883523e-01 -8.273260620899837159e-01
4.242179424554622796e-02 -1.460862605410951920e-01 -9.791923401507663938e-01 1.634255185619323258e-01 7.476186883392547111e-01 -6.437067629974502214e-01
-5.867502662012745451e-02 -1.437981708495476019e-01 -9.527544927451847556e-01 -1.395055136547642127e-01 4.951755743527159193e-01 -8.575193072021050078e-01
1.237267213827937667e-01 -1.046133122016559558e-01 -9.597431539741040352e-01 -1.460222269378296522e-01 4.747156518496906674e-01 -8.679415643515638878e-01
1.281164190814549839e-02 -1.420108856898674166e-01 -9.718473633116546662e-01 -8.045351203990867839e-02 5.844705949791593191e-01 -8.074164699863086714e-01
-1.578762667181149090e-02 -1.506972923076619619e-01 -9.692723606865570884e-01 -3.737869368718952368e-01 5.712735464552568532e-01 -7.307050437381411578e-01
5.686850783126893433e-02 -1.487181122594686544e-01 -9.824263371861102767e-01 4.878696319536694921e-03 6.174669670070197514e-01 -7.865816823301784444e-01
6.658945843249153285e-02 -1.283736619382848665e-01 -9.685399892733463911e-01 -2.246609947123977824e-01 4.967747586558096118e-01 -8.382972483655770635e-01
9.406337448544505042e-02 -1.551332341146623439e-01 -9.880638059737573142e-01 3.871872611901822775e-02 5.283808420194215927e-01 -8.481241336234732753e-01
7.780789142578703466e-02 6.180056942946771797e-02 -8.624814153147081219e-01 -4.748796688889536655e-02 3.868235004883170403e-01 -9.209302212821143252e-01
-3.527239732230685182e-02 -1.948814586448940553e-02 -8.884344265738046698e-01 -2.708127079863172360e-01 5.139798681153280313e-01 -8.139319212104090262e-01
4.787728026841173851e-02 -6.971857650290258501e-02 -9.311433002094916533e-01 -1.743670499299916077e-01 4.983432334180741274e-01 -8.492644780073700383e-01
-1.410209555581423864e-02 2.442879564314567598e-01 -8.015914459705556494e-01 -5.811279200298207215e-01 4.157669351608991176e-02 -8.127494811552224974e-01
2.264202406809563001e-02 -1.748552562013443168e-01 -9.966198020173021588e-01 -2.831942652154058049e-01 6.378268586049349320e-01 -7.162247598284120498e-01
6.324634508233741015e-02 -1.973784277336357584e-01 -1.015098486358078311e+00 2.345593708586522427e-02 5.290148420313501854e-01 -8.482883448014413297e-01
-3.176642406678339969e-02 2.392708283607435649e-01 -7.951483273443084032e-01 5.713212672895600086e-01 -6.312184404845908592e-01 -5.245524663318744674e-01
-2.554176017632038206e-02 -7.960375321488924460e-02 -9.269233150387156117e-01 -2.309235185805683099e-01 3.334264827647789309e-01 -9.140574977305738757e-01
-5.387190444515359972e-02 -2.614559230126165326e-02 -8.849963527423121423e-01 -3.849779266973872849e-01 5.374346801188035760e-01 -7.503039121325304484e-01
3.931072488592035619e-02 3.370144764360135346e-03 -8.932417478078640283e-01 -7.880936705289226171e-03 4.367462839285359277e-01 -8.995502066651209772e-01
-8.093216253811737204e-02 6.634013098252151963e-02 -8.351692491063393842e-01 -5.704679500388272484e-02 3.456606475405464285e-01 -9.366239266224384297e-01
1.788280328077564846e-02 1.833199694375776401e-01 -8.090253576093440202e-01 4.235076346073279319e-01 7.272362189296598112e-02 -9.029687471048345460e-01
1.229480121247667201e-01 -3.128706173673884844e-02 -9.156647678840167393e-01 -8.246106440846902308e-02 5.205823039882424563e-01 -8.498201207496296483e-01
-1.754533109298123811e-02 5.202912687775444051e-02 -8.534307808581055310e-01 -2.799838062552296170e-01 2.470470366933479323e-01 -9.276728032533181345e-01
8.659090668458094275e-02 -2.813458998508175726e-02 -9.082590269080296208e-01 -1.298106698509549906e-01 4.468936089013079149e-01 -8.851188012442233743e-01
1.169577133963907861e-01 -1.322519872975169430e-01 -9.766458403209771211e-01 -2.981254336771053115e-01 3.645392663551900725e-01 -8.821747837475617526e-01
