-1.734764704461758122e-02 -2.193584522242158497e-01 -8.822098392810916456e-01 -9.329352484746838980e-01 6.243480227515429276e-02 3.545895057927437310e-01
3.725135557820318227e-03 1.376320006377435845e-01 -6.375332656051753144e-01 -8.146742857293349793e-01 -3.140209675786782006e-01 4.875414239757979162e-01
1.363784758166835349e-03 1.176160541817860422e-01 -6.691615519013038860e-01 -9.450026291641093756e-01 -2.828216998902246537e-01 1.642617330485846572e-01
-1.043223502745174204e-02 -1.971566964633235941e-01 -8.670997029920705090e-01 -8.504628137376243346e-01 6.238403548518194064e-02 5.223229217314384609e-01
-7.517228215805895654e-03 1.712419608163028018e-01 -6.256067453375447895e-01 -7.567468365425585874e-01 -5.995117799178102391e-01 2.606143724406026485e-01
-2.225519893888082065e-02 -1.523623839435018501e-01 -9.183108133196282719e-01 -9.165952548372290343e-01 5.815196192764477551e-02 3.955647710980350062e-01
-1.138483796962805675e-03 1.707220061358805663e-01 -6.108952300382528566e-01 -7.681962250429048567e-01 -5.859141727247731968e-01 -2.580293433508580869e-01
3.156133246938654796e-02 -1.583359041196112371e-01 -7.326260081733814156e-01 -9.604415211028695110e-01 -2.370145241729475563e-02 2.774713060749107174e-01
4.288743560456305740e-03 -3.525297412774756889e-02 -7.693670869093404141e-01 -9.011579178572431958e-01 -1.503189595598366790e-01 4.065939220894064232e-01
-8.820714771208822830e-03 -1.759887996369057794e-01 -8.590838164324292592e-01 -7.810842522875268701e-01 -1.270239675780389099e-01 6.113692030918538300e-01
-1.090148333582780481e-02 1.662677605972772421e-01 -6.431581038861543531e-01 -8.459558542468573750e-01 -5.244780589330865217e-01 9.634032573772824404e-02
3.322090135419052126e-02 -7.307744400443347277e-02 -6.947264931973791136e-01 -9.722447058180292423e-01 7.614349649216793636e-02 2.212292927050142632e-01
2.585375002299855184e-03 8.119875350711325268e-02 -7.066413903163464294e-01 -7.913386424843469324e-01 -3.561690941544219391e-01 4.969172257833787132e-01
6.196286478781643306e-03 -1.449424031107373612e-01 -8.187735226108108222e-01 -8.539805380657712330e-01 -2.583288770480404728e-01 4.516452500447607488e-01
8.309117454980065320e-03 -3.571178075812954811e-03 -7.440950052209696075e-01 -9.819220570238219592e-01 4.213056830114063345e-02 1.845375006461537348e-01
-2.303116553777038999e-02 -2.042664249792765507e-01 -9.134699669358419261e-01 -9.551576124708418547e-01 5.786763248309204771e-02 2.903881410281813347e-01
-2.239360597558408272e-02 -8.016224144430085519e-02 -9.320068107961634318e-01 -9.335366990528987108e-01 -3.551974300057542111e-01 4.841505177860703363e-02
-1.712417390290173203e-02 1.169464593179183887e-01 -8.322276479779712188e-01 -9.150420276775612649e-01 -2.423872952719974272e-01 3.224073303671348145e-01
-3.702666453208100505e-02 2.133812189914776059e-01 -6.315046866591582653e-01 -6.083114002279655930e-01 -7.933913397200887951e-01 2.207764502510185800e-02
-3.974866032745869894e-03 -5.200293548733126575e-03 -7.727269871242078425e-01 -9.258555662367529138e-01 -2.374031738513102952e-01 2.939918425972833926e-01
-1.367094343881142260e-02 -1.509522485133714398e-01 -8.790496227527365702e-01 -9.368462776383186252e-01 -7.282735129912530636e-02 3.420748879675037935e-01
-9.954336564097823400e-03 1.671591343945961761e-01 -7.547602250323168782e-01 -9.974733573201105541e-01 -7.081467948808799207e-02 -5.672971491768316783e-03
1.361786974276934332e-04 6.029142654013392583e-02 -7.283625014831700550e-01 -8.919701097217412888e-01 -3.509819849785191237e-01 2.849578382559840306e-01
2.664387391464521915e-02 -1.340978296716640976e-02 -7.056156443494254749e-01 -9.807111266218970780e-01 -4.504467858827825022e-02 1.902016378764598281e-01
1.785361932413816188e-02 -1.198765451934201282e-01 -7.604380422866223732e-01 -9.582360011661998911e-01 -1.931560777183173594e-01 2.108897714671958135e-01
-1.367169758163909454e-02 -8.804130245509562622e-03 -8.818207556401179703e-01 -9.816026419406155279e-01 4.033538894698842497e-02 1.866261228598478927e-01
-1.078401450858093927e-02 8.020037525180514354e-03 -8.521175312773501265e-01 -9.680982915180399440e-01 -2.247815940863077677e-01 1.107200655702039321e-01
-6.036010752782998770e-03 1.259745627188418315e-01 -7.174354549551312799e-01 -9.923625865651664046e-01 -1.046791089774185418e-01 -6.525933595575469925e-02
-9.262257804541536993e-03 1.603016863705288286e-01 -7.395985310797688062e-01 -9.957760413839487068e-01 -8.915007484483351841e-02 2.196223032555771892e-02
-1.350743034294064719e-02 -1.128771389256988944e-01 -8.786414252436546279e-01 -9.786616964885455072e-01 -7.000297733313040616e-02 1.931860941958788713e-01
-2.253491908580017647e-02 -8.319642968061741195e-02 -9.304830878276938444e-01 -8.854520005260531068e-01 3.361712906485258001e-01 3.208794448201920391e-01
-1.451005004656703325e-02 1.006853949096306738e-01 -8.077511855908963145e-01 -9.986574108818069284e-01 3.584361822656559338e-02 3.739800426860084848e-02
1.863082572582070232e-02 1.323946689349006847e-02 -7.147066829634900476e-01 -9.216263361013697919e-01 -2.796678658507843473e-01 2.690553500951665677e-01
-2.008051891993102578e-02 -5.364702007159281860e-02 -9.080147926644380751e-01 -9.882349913400150232e-01 1.408504910180146674e-01 -5.960487455891880226e-02
-6.338521255048159414e-03 1.220348008987603844e-01 -7.328444239520441883e-01 -9.831789416797066528e-01 -2.287042086787668960e-02 1.812073742619158268e-01
2.807291195907115830e-02 -4.828789571115713053e-02 -7.111833496275661304e-01 -9.615316146380575857e-01 -2.036124910450965164e-01 1.843879267792233045e-01
-1.172076997782417127e-02 7.444136800402248455e-02 -8.022396043123037890e-01 -9.954037658861474291e-01 5.549983175413180161e-03 9.560617420662820276e-02
-1.138988011903175994e-03 -5.946245722708708159e-02 -7.937359816270473933e-01 -9.372738188980410667e-01 -9.475093314788800292e-02 3.354698929500031235e-01
-1.694920268618166706e-02 -1.568156199263605333e-01 -8.932785709933210860e-01 -9.346961876656376678e-01 9.738461769315073790e-02 3.418468560628894481e-01
-4.475085693432868592e-03 -6.775768542376936487e-02 -8.228379252581321524e-01 -9.976486515807468924e-01 -4.281592300441240673e-02 5.351602317435252137e-02
-1.086966400405972762e-02 1.636755743484854808e-01 -7.718556660636706201e-01 -9.963363769220188182e-01 2.015890140901670236e-02 8.311102643985396332e-02
-1.798784561499881113e-02 -1.599039120115950952e-01 -9.025792809626337343e-01 -9.219338145280558949e-01 3.872508085501752406e-01 -8.651757450595629756e-03
1.058812089042386780e-02 1.239467945524806852e-01 -6.313265790165943914e-01 -8.418963521013212992e-01 -3.231148728263325554e-01 4.322121137554001957e-01
-4.925459094376876193e-03 -6.506069945661815956e-02 -8.283237095918133397e-01 -9.866634876491174877e-01 -7.781363655134783397e-02 1.429692278314976250e-01
1.305035538498738878e-02 -1.615868213193277780e-01 -8.050873626265349081e-01 -6.197615352514174170e-01 -7.645974781440914025e-01 1.768794387103873877e-01
-2.005317234449015967e-02 1.247516997192303981e-02 -9.086465381112310835e-01 -9.580617855372155489e-01 1.179840145675623286e-01 2.611462950144297634e-01
-5.672574480170344997e-03 1.278434897734337730e-02 -7.804770568108494455e-01 -9.931248097470827263e-01 -4.435961382797793014e-03 1.169762134428663641e-01
-8.216814794132266259e-03 -1.640882942704508796e-01 -8.594221066742906423e-01 -9.534599035464814687e-01 1.538846424604585206e-01 2.592946762738320143e-01
1.278683972137120185e-02 1.409586990707733523e-01 -6.120815349675583494e-01 -8.170184664451372036e-01 -5.639981829567669580e-01 1.199453004877701068e-01
8.132304317974182063e-04 -1.095797728050954822e-01 -8.162899627045092643e-01 -9.674028360717629171e-01 -1.242023546292952002e-01 2.206932891250848738e-01
4.041805794228052993e-03 -1.773246868437925172e-01 -8.308877871956111827e-01 -9.568324210449522527e-01 1.873259093964986521e-02 2.900358737707161572e-01
-1.707957446087216002e-02 -9.547969618483799492e-02 -8.991667455627037064e-01 -9.801023925603067344e-01 1.384890559959449929e-01 1.421973328403675907e-01
-2.655676356423931211e-02 -1.780433255609686072e-01 -9.328461872415171330e-01 -5.268372873498055053e-01 2.079570427472996752e-01 -8.241336912356490574e-01
-1.034577967420539230e-02 6.428286325024890058e-02 -7.897583433453693180e-01 -9.924687710344677338e-01 8.685763962724996068e-02 8.637991062576906576e-02
-1.434199311817563154e-02 -7.805560944359374309e-02 -8.856337471646285042e-01 -8.496268854887994992e-01 4.180151541751111477e-01 3.215547952286832434e-01
-6.287779463466642953e-03 9.956461432751703700e-02 -7.407615170214015832e-01 -9.764754073133145029e-01 -2.066036781592879845e-01 6.173086005677961424e-02
-1.057664135461901071e-02 -1.366084100620890696e-01 -8.664389116206575592e-01 -9.320610435583124298e-01 -1.314999296633740655e-01 3.375944009895859854e-01
-1.619350901231957421e-02 2.026823970794724428e-01 -7.087574274446981626e-01 -9.374358234442733417e-01 -2.642027461736190519e-02 -3.471542107082962736e-01
-2.225486629043422343e-02 1.914416901957692041e-01 -6.711226392996094692e-01 -9.246745238639577646e-01 -2.382050607423840671e-01 -2.970443972770400731e-01
2.236049505188008463e-02 -1.248369032391189182e-01 -7.487129388818620779e-01 -9.202285292526990457e-01 -5.431006367347266522e-02 3.875949831114919308e-01
-1.441097869204649266e-02 8.315998750087752467e-02 -8.215903703731382013e-01 -9.877038391614011426e-01 -1.135464017141164378e-01 1.074632065574333689e-01
-2.123960942509101751e-02 -8.784984335694134838e-02 -9.160849667684881625e-01 -9.290298352491869194e-01 -2.567828519758904027e-01 2.663946924170907948e-01
-9.798874718708354067e-03 2.871373558565234671e-02 -7.971222690892226792e-01 -9.125439203671554811e-01 -4.073352464096861025e-01 3.662772765683243448e-02
1.370978681499214827e-02 5.553644382723847001e-02 -6.938053727795318038e-01 -9.830263415706157470e-01 -1.782065414190914243e-01 4.360780175308908574e-02
-1.336391809106536079e-02 -1.434040581867907227e-01 -8.776780970535280613e-01 -8.976391992573887757e-01 2.622555852777139762e-01 -3.542116259345500229e-01
-1.169693780686952532e-02 1.558437497288361895e-01 -6.919078303217778281e-01 -9.518036431719631985e-01 -2.920074061563202594e-01 -9.381630772118378092e-02
8.038111206253672689e-03 -1.280020563083361929e-01 -8.001009579084830126e-01 -9.195699763368390123e-01 -1.140683053336195019e-01 3.760046280808009844e-01
-1.984725452333872819e-02 9.243652346114000773e-02 -8.564957996999902345e-01 -8.398977332248526162e-01 2.600609712820773356e-01 4.763822928484819919e-01
-2.176175538233643403e-02 -7.319067687486693896e-02 -9.250335452779585577e-01 -9.799859578017043882e-01 1.645851670573089398e-01 1.119787716319197851e-01
-2.089737831516069039e-02 -8.764392270207531366e-02 -9.127941419223549735e-01 -9.339175788972805536e-01 2.494067573247854275e-01 2.561136958996476642e-01
3.590936020735133877e-02 -4.523012585363322957e-02 -6.649624340982674964e-01 -9.439405706225245662e-01 -2.659419034307606289e-01 1.955788923489616971e-01
1.807324431322316141e-02 4.721589405569515119e-02 -6.805018332721083363e-01 -9.881040563904343044e-01 -8.237957690224000096e-02 1.298613839991600294e-01
3.590270281747950237e-02 -1.135955509865261975e-01 -7.008257316223552857e-01 -9.867868042913577886e-01 -1.181715955112750023e-02 1.615925667120634013e-01
3.375927941913954566e-02 -1.069382865806904614e-01 -7.031436038676053268e-01 -9.739770178733243577e-01 -2.252499332829328293e-01 2.512441463238963835e-02
-1.385311359848442198e-02 6.073332029439707652e-02 -8.276274966507625175e-01 -9.954617168854321685e-01 4.534594706422511584e-02 8.366430123030982324e-02
3.024277001224472908e-04 1.041568117400411969e-01 -6.880418802252032950e-01 -9.545406708866781553e-01 -2.123288426020733255e-01 2.092093932462746331e-01
3.189401603545502333e-03 -5.257728074268854662e-02 -7.813746323466062016e-01 -9.222789820716941200e-01 4.688601048343262606e-02 3.836706676952866824e-01
-9.468691886112531875e-03 1.501588540493912771e-01 -7.035968949276083517e-01 -9.678059641523411027e-01 -2.457712697946920766e-01 -5.429639670053759692e-02
-9.222024798239135054e-03 1.259768871298090898e-01 -7.622619520359088519e-01 -9.915950252092301520e-01 -9.049843155183276422e-02 9.246264038499288351e-02
1.592509627431723963e-03 9.797734806687317943e-02 -6.911397630851238150e-01 -9.784956082799028954e-01 -2.044341681503795138e-01 2.744112733845546423e-02
2.867504937409844079e-02 -7.297191863290330982e-02 -7.107942047601526481e-01 -9.784574863416229951e-01 -4.168974775982690201e-02 2.021952332617039660e-01
-7.014875176301236907e-03 -3.877611991317501255e-02 -8.356332779960190527e-01 -9.736601994801727944e-01 1.434517124842986380e-01 1.772213929906660823e-01
3.002609176227781854e-02 -2.458803105103561301e-02 -6.934506831410569561e-01 -9.942441510925437154e-01 -6.446288119582616050e-02 -8.557514222132520110e-02
2.128262514293492030e-03 1.531982815601390657e-01 -6.249798169570992545e-01 -8.541278840558972352e-01 -2.484516235475682788e-01 4.568778265956593976e-01
2.000860348418170842e-02 -1.534710980914712752e-01 -7.739096248009683654e-01 -9.119730621629926759e-01 -3.053447626289322314e-01 2.739885213364521843e-01
6.427524017921271669e-03 1.810278001210686299e-02 -7.421247307023586259e-01 -9.362292719778251282e-01 -1.233546109166813315e-01 3.290264279012641291e-01
-2.234116426671187844e-02 -1.137329602884985802e-01 -9.308881620036288940e-01 -9.359240651529558974e-01 3.342846137478679425e-01 1.109051003290845577e-01
-1.786939946254951367e-02 1.865919728467759220e-01 -6.858107933354712360e-01 -9.734297736954532487e-01 -1.203340143614456820e-01 -1.948183786783942717e-01
-1.816490628727293957e-02 -1.643395538863942074e-01 -8.985154643872370617e-01 -9.613209003761464810e-01 -1.481070318395557861e-01 -2.322206571769009076e-01
1.319285074548969677e-02 -9.327358122473204671e-02 -7.633779183684417102e-01 -8.475732762973919865e-01 -3.158172590374257460e-01 4.264727426232451379e-01
-1.092415598489814878e-02 -1.270433326466735013e-01 -8.680291876627707071e-01 -6.557909105437867980e-01 -3.119709032548485632e-03 7.549361225055423175e-01
-1.082915632745639484e-02 1.689194306699115800e-01 -7.319946682137080662e-01 -9.940147918408036576e-01 3.811077981968021000e-02 -1.023824304420421077e-01
-1.983528000274208461e-02 -2.105184768550804469e-02 -9.025100104438898985e-01 -9.586021356200814525e-01 1.280742198380283026e-01 2.543205453704029395e-01
-2.077016912743361726e-02 -1.297555738261643721e-01 -9.116520262665436247e-01 -7.696059863569076898e-01 -1.113472385682153232e-01 6.287355709889843602e-01
1.828553720890128964e-03 -1.767235777966500443e-01 -8.362915081612904977e-01 -8.304953336194363933e-01 -1.062270884775109309e-01 5.468028040435893855e-01
2.756319200623317395e-02 -1.222931020003495128e-01 -7.300757104984836321e-01 -9.178948376112550100e-01 -1.884163337178599851e-01 3.492396774064025489e-01
1.184549074719700584e-02 -6.580867221428063352e-02 -7.597609929911627313e-01 -9.697590309330835767e-01 -2.338715496407533789e-01 -6.979627635024117371e-02
-1.441773849209535517e-02 -8.318337968749696387e-02 -8.882850760963231229e-01 -9.928978797284477853e-01 -3.138155284948397628e-02 1.147562572215909960e-01
2.274670342769229484e-02 1.128126317916481464e-02 -7.011756397934201246e-01 -9.632173213044410431e-01 -2.652240226730520362e-03 2.687105460544422786e-01
3.420817599275666893e-02 -2.404350196935964648e-02 -6.535761530147684573e-01 -9.518608029841804097e-01 1.360084813329336673e-01 -2.747047592376586356e-01
-2.253018166440940925e-02 -1.108722152532695543e-01 -9.222810760043261835e-01 -7.558921558215482284e-01 -5.271095106567839084e-01 3.883073686432154670e-01
-2.382525115296808046e-03 -2.472725380766314374e-01 -8.547096387415878960e-01 -7.621609585602356907e-01 -3.305365082576788068e-03 6.473791376065601844e-01
-6.177259467609980299e-03 -6.255249637380622119e-02 -8.322560516870469716e-01 -9.613977540240296049e-01 2.375827641298258741e-01 1.388120626818262759e-01
-2.116230122276100897e-02 2.871605839927907425e-02 -8.973135524046556011e-01 -9.997247663774844195e-01 -1.121523239337073388e-02 2.060606837431293650e-02
-1.888682136198931508e-02 7.344002362169960163e-02 -8.640849671688083378e-01 -9.261613024602013411e-01 -3.659599229876750459e-01 9.109652349062652421e-02
-6.623025430378605416e-03 -2.584380692666162979e-02 -8.334661026007447182e-01 -9.855456541379612467e-01 2.077924349868186943e-02 1.681308616804206013e-01
-2.145355960707351003e-02 -2.004299721903646525e-01 -9.068939164924888496e-01 -9.163473742349012019e-01 -7.238251752284871610e-02 3.937870755749314222e-01
3.273369328148727914e-02 -1.868884180510234014e-02 -6.590062280428289343e-01 -9.534629766188448263e-01 -2.883438767025778282e-01 8.812582473520835791e-02
-9.590681370052140178e-03 -1.696301844491325192e-02 -8.574469590162794308e-01 -9.597024341311237716e-01 -1.245434988691401096e-02 2.807421006754959314e-01
-9.296676979663060988e-03 4.161635093079676245e-02 -7.857401193271646989e-01 -9.592569156812179587e-01 -2.351824551965415733e-01 1.565738882620061057e-01
-1.186140434852277388e-02 1.492114460260846598e-01 -6.872322280590112964e-01 -9.582040230613392273e-01 -3.253304343260041837e-02 -2.842299267742176561e-01
-2.914189317180043357e-02 1.934675725427739135e-01 -6.483363467862364171e-01 -9.472569963042203334e-01 2.933174924232231917e-01 -1.291086038622474286e-01
-1.176477982981693170e-02 -1.869979861630033935e-01 -8.661601772486291484e-01 -9.781903264034421674e-01 -1.924283374522023360e-01 7.819859510316427842e-02
-2.247000484684585214e-02 -4.008128652065029440e-02 -9.325350089187269820e-01 -9.954034232374862068e-01 3.067011885096207393e-03 -9.572156729384684315e-02
2.030035267249330824e-02 -3.530694586249261829e-02 -7.292080786906431911e-01 -9.410876509193454309e-01 -7.838033247890707766e-02 3.289537304357619818e-01
-1.480606848496362343e-02 8.986875746946960952e-02 -8.199451388898438831e-01 -9.292367143441827571e-01 -1.609295337701613024e-02 3.691343191392976730e-01
1.019160168775253396e-03 1.164933610497658756e-01 -6.728214810797240597e-01 -9.280021115347730776e-01 -1.781090773293750040e-01 3.272449198381562341e-01
-2.935483781915617773e-03 -1.376133634902763359e-01 -8.385251265308114599e-01 -8.847261467722640216e-01 -6.501847659579519656e-02 4.615541603307943275e-01
1.873305072283579925e-02 -7.651397760604897180e-02 -7.412713055059411138e-01 -8.516805859138455448e-01 -2.642336106353874725e-01 4.525712966904059109e-01
3.134071236149752956e-03 1.530802200100978561e-01 -6.207682511739127662e-01 -8.573723633842470493e-01 -1.136498082902703266e-01 5.019923819944834831e-01
-2.654210699406098564e-02 -2.411122256530943697e-01 -8.942525660687654643e-01 -7.301659819177908073e-01 6.352113505572161423e-02 6.803107409495026126e-01
-1.318263144776370653e-03 -1.909414056328190279e-02 -7.723778447107748635e-01 -9.596792866129388866e-01 -2.556814680757261704e-01 1.168017710855548813e-01
-2.040872323839121663e-02 8.150810888616473460e-02 -8.639374659254531741e-01 -8.928706185535446593e-01 -3.792952982681422336e-01 2.427285216769786980e-01
-1.054981565213187165e-02 1.735545349919120628e-01 -7.615567041117304870e-01 -9.280021115347730776e-01 -1.781090773293750040e-01 3.272449198381562341e-01
-2.335127587568158747e-02 -1.501574816720886441e-01 -9.369279254561820869e-01 -9.095990159131097652e-01 1.314990526036420859e-01 3.941289502361465802e-01
2.156581581009990589e-02 -1.243465161209779818e-01 -7.517477861023336150e-01 -9.217144224647031425e-01 -1.681175547463715225e-01 3.495411437966345902e-01
9.994358209601516760e-03 -9.053687530651044479e-02 -7.691237050259673858e-01 -8.758775874509616699e-01 -2.721411664801456909e-01 3.984691171319411085e-01
-2.140504562513033740e-02 -1.183622125924840979e-01 -9.281148404201783331e-01 -9.942120218753740524e-01 -5.911000504707121517e-02 8.971322567947140336e-02
2.542864764782313408e-02 -1.496211816359599156e-01 -7.554355131597720874e-01 -9.037008402414413721e-01 -1.792287167749500587e-01 3.888468315804022857e-01
-1.879166668345710542e-02 -2.445583110876470290e-01 -8.783087299110333701e-01 -8.456804517437487290e-01 2.424206762391672987e-01 4.754542977723874020e-01
-6.102587055902742100e-03 6.713135827066453454e-02 -7.602440979625719741e-01 -9.739665801997736683e-01 -1.424383243371465380e-01 1.763531241968343544e-01
1.666399928594533911e-02 7.438712442893886945e-02 -6.547624528671526223e-01 -9.028185269778019606e-01 -2.296299006923695762e-01 3.635777991759734928e-01
2.036008348017946321e-02 -1.725158995011450702e-01 -7.829180552171748353e-01 -9.085166728448587081e-01 1.337959460725297589e-01 -3.958485821339581268e-01
-7.355365135014558554e-03 -2.186390043202036948e-02 -8.413297789491572809e-01 -9.363554288378953538e-01 -3.032301811677494685e-01 1.768897060735156457e-01
-8.901894215448589998e-03 -1.903086057460102011e-03 -8.133008235368226480e-01 -9.662005666023781858e-01 4.770940721895945008e-02 2.533382670661084024e-01
-1.945835489089799489e-02 3.606629954756188083e-02 -8.925187305331193643e-01 -9.772398344518200552e-01 -1.565465433066537126e-01 1.431624452826829041e-01
2.702022076239234474e-02 -1.108558785375025058e-01 -7.268497016440584879e-01 -9.576064595992509476e-01 -2.237707862461955910e-01 1.814290598458457582e-01
-8.107667182784602383e-03 -1.546134468959443897e-01 -8.506240247677387956e-01 -6.243975869767719455e-01 -2.425378465579393905e-01 7.424978426666452025e-01
5.793184072179690010e-03 -6.653364168576640647e-02 -7.749260814425622534e-01 -9.332473227188191611e-01 -4.153158694591574038e-03 3.592105036201110879e-01
-8.363021163901546845e-03 1.226704558692353758e-01 -7.523246231270469542e-01 -9.942164577522348834e-01 5.189578057197991034e-02 9.402373686162157629e-02
-1.451915871669578507e-02 -1.070102479758419239e-01 -8.849703865857412310e-01 -9.119101661565554018e-01 3.730201344508660144e-01 1.711018064036186059e-01
-1.368634768240287701e-02 7.522876487944460400e-02 -8.190441245153560201e-01 -9.989835105975162222e-01 5.866151113552264817e-03 4.469377837434387879e-02
2.163128526148127770e-02 -9.631671526418630891e-02 -7.384047501717664330e-01 -8.777798378558231418e-01 -1.075582464881405000e-02 4.789434919590498940e-01
-7.782781167070896948e-03 -5.408204552301208029e-02 -8.435348521819934220e-01 -9.904239838991767408e-01 -3.251478677077244278e-02 1.341757085263007021e-01
-1.211530547185744704e-02 7.286234634305932545e-02 -8.049562364744078380e-01 -9.953437458103346902e-01 -8.268932231948254719e-02 4.953083535128820908e-02
-2.240543083101295338e-02 -2.958629768890675901e-02 -9.299441871086621125e-01 -9.847213049539811358e-01 1.709247349043777897e-01 -3.329694531930186413e-02
2.379838357324334797e-02 5.584264197111613731e-02 -6.403289667020267695e-01 -8.789885120474518754e-01 -3.140152957605381046e-01 3.588503723239372389e-01
-3.246989335809667698e-02 2.124549474035033469e-01 -6.438191082885397210e-01 -3.080913706578901068e-01 -6.607037444087584532e-01 6.845073187705070783e-01
-4.777906087416512564e-03 1.249846520264040195e-01 -6.808840275148270171e-01 -8.475470756853431542e-01 -3.848447861181501506e-01 3.654564886479627628e-01
3.200167935788757884e-02 -7.179546339685182084e-03 -6.453203159216104323e-01 -9.708886069596287527e-01 -2.143008324766692563e-01 1.070068506021845667e-01
-4.261246501773986728e-03 1.325129896444131317e-01 -6.704814186969351164e-01 -8.936983724627102221e-01 -3.838101011454995160e-01 2.323639931576842454e-01
9.027903021781771148e-03 -6.788876993561505924e-02 -7.668501829203652198e-01 -8.811062020518920512e-01 -2.260781960909635513e-01 4.153799585415097195e-01
3.745297529296351402e-02 -3.875498147520428649e-02 -6.483070136254872606e-01 -9.392565870661988559e-01 -2.338683866116106069e-01 2.512023913031848354e-01
-1.040743164098620853e-02 6.770553594233232053e-02 -7.880948854752400923e-01 -9.769577164188517626e-01 -2.815583922902236899e-02 2.115676465033628495e-01
-8.099462978083287953e-03 -1.389560634430034823e-02 -8.222956242850002484e-01 -9.902697011219318002e-01 -5.749069040234734695e-02 1.267309731555045227e-01
-2.224648620532718168e-02 -2.099238978637148548e-02 -9.239012669330085581e-01 -9.231608676428049165e-01 8.917782660460903121e-02 3.739269015396749496e-01
1.105725043968864771e-02 9.883106272724209718e-02 -6.551317237628692114e-01 -9.101831276414599214e-01 -3.026265296668087523e-01 2.828141752080930438e-01
-2.638267501956518581e-03 -1.339644694436615546e-01 -8.369590136864664132e-01 -9.280021115347730776e-01 -1.781090773293750040e-01 3.272449198381562341e-01
-7.039821930005211656e-03 -8.619355870082134885e-02 -8.493494871304173577e-01 -8.198580006248685770e-01 -3.327907042614958733e-01 4.659218882694078356e-01
-1.093105909560479483e-02 -9.820395099126252858e-02 -8.693800737840400306e-01 -9.656679649562580625e-01 -7.751071038226278742e-02 2.479465088144536256e-01
1.384763451787518647e-03 -7.919958722558878561e-02 -7.975911870515353108e-01 -9.287310051214139328e-01 -7.221581218610637065e-02 3.636531267519489963e-01
-1.634683814690392895e-02 -5.039811985406502520e-02 -8.877258390591226123e-01 -8.811062020518914961e-01 -2.260781960909639954e-01 4.153799585415104967e-01
-6.949109700445854285e-03 -1.040425740098086249e-01 -8.500106967865203034e-01 -8.873662413175656960e-01 -8.912132231240206537e-02 4.523699190698078909e-01
-1.540223030744672546e-02 -5.062698120688338688e-02 -8.833430750681823262e-01 -9.445516798054783836e-01 -4.912096942630009982e-03 3.283260505660112738e-01
3.045414225656293064e-02 3.016767120392631688e-02 -6.260384683159344599e-01 -9.335375895125105350e-01 -2.056174777696334333e-01 2.936477852850680192e-01
-4.480444295882731603e-02 2.340178505207337334e-01 -6.274626618557629376e-01 -7.825079918908188770e-01 -6.120278499740169353e-01 1.144690066488754931e-01
3.701780771863193154e-02 -3.574351370551672596e-02 -6.449947910239068882e-01 -9.624786171106994859e-01 2.486615388144819694e-01 -1.086386244348178237e-01
7.814651556899109008e-03 9.513598112643649463e-02 -6.694401679784746095e-01 -9.615103927351646984e-01 -2.529435528734545052e-02 2.736018279413844900e-01
3.621964119286535250e-02 -5.882056588400421532e-02 -6.723149287652762096e-01 -9.528170270674788389e-01 -2.458327133017558508e-01 1.780617589517409505e-01
2.306030174496719043e-02 3.355327728330101400e-02 -6.635552814187541948e-01 -9.537233030507383802e-01 -2.292553476335665863e-01 1.945606506963884486e-01
-2.521651826379097544e-02 -1.805555176123751771e-01 -9.264104130006703963e-01 -8.779815670104313963e-01 3.360911959794332105e-01 3.408681210894053404e-01
-2.195156294856858217e-02 -4.081191249418923001e-02 -9.267406815087901872e-01 -9.317629693432891713e-01 -2.850870074443820346e-01 2.248180756678244963e-01
2.895868125046260205e-02 -1.572896949599917465e-02 -6.941773812112395081e-01 -9.884043529941960449e-01 -1.515928464533675413e-01 -8.743219446530146183e-03
-1.555018698713069546e-02 6.903143035140439643e-02 -8.361184448924701140e-01 -9.787510660395082329e-01 3.039606986009112458e-02 2.027866604675631068e-01
-2.234535963395491501e-02 -1.293101843187134947e-01 -9.335347275044237891e-01 -8.863230362971357135e-01 -2.628278059122645116e-01 3.812519111668440930e-01
-1.912571484741115713e-02 1.733945555278542383e-01 -6.559535196096066834e-01 -9.344770391290004863e-01 -3.532176626171736888e-01 -4.460881253694935072e-02
-1.677753383829982958e-02 -5.238628508563195410e-03 -8.887874526220459481e-01 -9.396183813921309413e-01 -1.480853963901662684e-01 3.085255463101866380e-01
1.699152055766727648e-02 3.292429718292957941e-02 -6.968583793923721625e-01 -8.773727865030266360e-01 -1.006011168683620949e-01 4.691443368396900904e-01
-2.009928179192680894e-02 1.987098568875903803e-01 -6.132508513464236533e-01 -7.349960177798470218e-01 -6.741772910158947418e-01 7.256606731962560175e-02
-2.704527297567602476e-03 -1.962948957204456724e-01 -8.526382225796991232e-01 -8.679357496647910342e-01 -1.140331008820354292e-01 4.834087156403414909e-01
-1.639348922530318997e-02 5.989221932595473197e-02 -8.375434021379692950e-01 -9.621430530979020457e-01 1.153893083868174213e-01 2.469130472159369039e-01
-1.879342669524240728e-02 -8.179485680793694216e-03 -8.978538798095453410e-01 -8.368840917611225505e-01 3.387245125981372396e-01 4.299892109371064031e-01
-1.241892188450934714e-02 1.700632036542936154e-01 -7.027491701443410177e-01 -9.664003660483205804e-01 -2.505031924090262430e-01 -5.760627652051604486e-02
2.211866453583410594e-02 -1.976439006624507166e-01 -7.944436078979618676e-01 -8.969575746191965626e-01 -2.482964661700745312e-01 3.658086579356776835e-01
1.241376162020029796e-02 6.402601424831289023e-02 -6.903685317222907347e-01 -9.743904958557335627e-01 2.179579627817151144e-01 5.529455711064384243e-02
6.211136320343346381e-03 -1.714503454335692123e-01 -8.253674112409687957e-01 -8.852462331276893526e-01 2.386218780798071010e-02 4.645101750513689343e-01
-1.585042079685378830e-02 5.564463471290519853e-02 -8.414064751813238319e-01 -9.898562928343451750e-01 -1.061298694155135142e-01 9.445088858286758426e-02
6.297570574748776080e-04 -1.995871797186263841e-01 -8.476262090205308741e-01 -9.133207108281641284e-01 -2.781674786671959887e-01 2.974359308897838172e-01
-1.310917493543259024e-02 6.913287454706631974e-02 -8.121802777567003195e-01 -9.664495485974063937e-01 -5.188010959455832682e-02 2.515625652682172975e-01
-1.175913192252359477e-02 1.295559341034357437e-01 -7.847100140384638545e-01 -9.914391224134508906e-01 5.420047649377767590e-02 1.187887827022978127e-01
1.412810497107631338e-03 1.205147109660523325e-01 -6.658019805038632999e-01 -9.430055997538908663e-01 -2.887392524153695184e-01 1.654390611295222246e-01
-2.186802468414520903e-02 -1.303329094058280069e-01 -9.275346582990141586e-01 -9.848992329549628444e-01 1.375188419436144116e-01 1.051763710878669683e-01
-9.735433593471147160e-03 9.630742007419082137e-03 -8.066046390744266992e-01 -9.666318084156541035e-01 -8.535504872377977503e-02 2.415314940467254423e-01
2.812426826577613115e-02 -5.276370573210977660e-02 -7.112509040121840487e-01 -8.310935073769530890e-01 -2.117443680068792633e-01 5.142449850151598056e-01
3.442188009767195578e-02 -1.352058413948313276e-01 -7.095671974957817874e-01 -9.622296766304312410e-01 2.266569048596129288e-01 1.508001886310365580e-01
3.471018247577705579e-02 -2.712237506663921910e-02 -6.545384775300732150e-01 -9.749430056684669221e-01 -1.947768789216038632e-01 -1.074621009272310745e-01
-4.189675109582538699e-03 -3.143410862907259490e-02 -7.886335845890164453e-01 -9.527236354834474064e-01 -2.487701382282626883e-01 1.744450994355937201e-01
2.801107715411597227e-02 3.865014925311176242e-02 -6.340157858843986638e-01 -9.674454144590565186e-01 2.857732915543521619e-03 2.530636350895323905e-01
-7.756798373694492529e-03 -1.609670260122935403e-01 -8.578882381521193423e-01 -8.853856899018273108e-01 -3.383907394042078853e-01 3.187222734647494060e-01
-1.921874042767527171e-02 -4.971483872515418401e-02 -9.023516118563844612e-01 -9.515417971533489672e-01 1.531424432413837529e-02 3.071378879118554783e-01
-1.212545844784579559e-02 -4.257429053509646788e-02 -8.658804296642316212e-01 -9.428390564738068358e-01 1.466084226616927166e-01 2.992665768044140973e-01
8.621135908269796436e-03 -2.161243785734245082e-01 -8.349711130221449951e-01 -7.930404117178792012e-01 -1.050391618240226893e-02 -6.090784622092377809e-01
-9.806701024816932497e-03 1.309985186036665694e-01 -7.700130083078754462e-01 -9.796479134893761875e-01 -1.881618655230558323e-01 6.989333272061913627e-02
-1.435499498111909855e-02 1.497993975725580018e-01 -6.802575812878933759e-01 -8.389861179000813740e-01 -1.703421562770827402e-01 -5.168034866037815034e-01
-2.011069013012773549e-02 -9.219343642619129420e-02 -9.088504703259105977e-01 -8.417682577164660174e-01 -2.239905209671384789e-01 4.911765943302420223e-01
-1.808834409157281456e-02 -1.428216484412835607e-01 -8.981508420735084819e-01 -8.396878067044966087e-01 -4.225960475051757093e-01 3.410820545041841068e-01
2.882698057536103864e-02 -1.337154625170696720e-01 -7.279317243494554113e-01 -9.402725611841272757e-01 -5.289556728510929479e-02 3.362879267024435626e-01
-1.770984867226987197e-02 8.308102706883252475e-02 -8.447529983422101818e-01 -9.921474524214809465e-01 -1.248302376555018994e-01 -7.800283356138255908e-03
-6.299568762767065837e-03 -8.137200922695551897e-02 -8.399471290476733243e-01 -9.754850940538126736e-01 -2.461558513501135165e-02 2.186844856117718394e-01
-1.926104873041975529e-02 2.163252904368241358e-01 -7.069687263714280467e-01 -9.835589220033955637e-01 1.803811910962084819e-01 -8.629765131881270840e-03
3.426259234999246700e-02 -2.655676116024717828e-02 -6.621549006450000441e-01 -9.830184871014657766e-01 -1.201874709643444145e-01 1.386709264407663122e-01
1.208945572127885677e-02 -1.821530605291767635e-01 -8.142041600890326247e-01 -9.693989228176344009e-01 -1.062089472051740979e-01 2.213264285474705328e-01
-1.607779557018790967e-02 -5.726378942685260431e-02 -8.898432915356843109e-01 -8.439566038730920150e-01 4.766078732915270955e-01 -2.461344874159746010e-01
1.177477770962128203e-02 2.412294673136375703e-02 -7.257983484561606469e-01 -9.028036069982821044e-01 6.804203656621619911e-02 4.246362307326269625e-01
-3.144504928341044017e-03 1.745573398670915433e-01 -6.127038287743143963e-01 -8.192868875602162815e-01 -4.777995338757725086e-01 3.169804430875634016e-01
-2.015908295555074448e-02 2.102403294016770008e-01 -6.944936602955500415e-01 -9.627262426547553709e-01 -2.704466446659037904e-01 4.098059639816907171e-03
9.637050997428651261e-03 8.400635657945902668e-02 -6.697984284275487754e-01 -9.475063542468447064e-01 -1.962522547152551200e-01 2.524217922070748910e-01
2.333511399239455303e-02 1.095579803611977515e-01 -6.111633422254362236e-01 -8.314322387660839642e-01 -2.549334363364824108e-01 -4.936895536448894228e-01
3.295426391219082041e-03 -2.464496379479521812e-02 -7.651027640066001556e-01 -8.147955100572769060e-01 -1.645000707384591254e-01 5.559208608404111462e-01
-6.082125330487997937e-03 1.192879021450716642e-01 -7.207185858946210111e-01 -9.895258790919144731e-01 1.442331842661098706e-01 5.943329355853406437e-03
-2.087401694621741910e-02 -5.818083000678989786e-02 -9.187607931288571672e-01 -9.880326155939194166e-01 -5.930302464449449529e-02 1.423892615004826168e-01
-2.345555497779981680e-02 -2.106254782774957535e-01 -9.110687049593932940e-01 -9.514613147142896299e-01 -1.401616089608885042e-02 3.074490426654319375e-01
-1.239163767470646653e-02 2.106029178120520651e-02 -8.320754570631148095e-01 -9.518549321372763439e-01 -2.546207394146167147e-01 1.707057914245873331e-01
-9.256719273037290752e-03 7.976286327408253773e-02 -7.801255379743400331e-01 -9.624537583927219586e-01 -3.191274836680582042e-03 2.714269307210335214e-01
-8.935227657185755915e-03 1.617677220020179163e-01 -7.284072901160912883e-01 -9.026222712304444729e-01 -1.543744167563506631e-01 -4.017979279811315085e-01
-6.618555868364712526e-03 -1.409228150921860434e-01 -8.513401870735438637e-01 -9.781530535104413504e-01 -1.915939378764607570e-01 8.067444996521762335e-02
9.296527720275267123e-03 9.289962698681454578e-02 -6.653370331430574769e-01 -8.212075514891259420e-01 -5.398637177847076529e-01 1.848386420554650744e-01
-1.354518163993980069e-02 -8.148185266676147287e-02 -8.856065332242553101e-01 -9.174969694014620814e-01 -2.711768312610537968e-01 2.909681036236556051e-01
-2.028954205748399048e-02 -7.961927638548783881e-02 -9.101030456730817564e-01 -8.669182610209885675e-01 1.924876616053862455e-01 4.597838936261638976e-01
-2.144051345658750003e-03 1.146641083804452871e-01 -6.840537867497490376e-01 -8.396589624670950380e-01 -5.015545209473614152e-01 2.083647985287924165e-01
-2.532236166096298730e-02 -7.563770699719193913e-02 -9.382451226145456236e-01 -9.185286289304280816e-01 3.237442129619523823e-01 -2.269247505426278122e-01
-1.397074403958867977e-02 -1.274005354437010573e-01 -8.836852696147582398e-01 -9.606108490528814103e-01 1.706707887373821453e-01 2.193131973996605422e-01
-1.485773976290057780e-02 -6.050911094659777159e-04 -8.855397508571585252e-01 -9.196468479184877198e-01 1.877519906634609881e-01 -3.449621212763764322e-01
-5.023200962803491681e-03 6.299733832252835120e-02 -7.519061405397495790e-01 -8.521270077423004352e-01 -2.729571498362909909e-01 -4.465131095829125152e-01
2.270752110859244541e-02 2.232315372766953063e-02 -6.762450983144335792e-01 -9.658778137786346862e-01 -2.426555435734127630e-01 9.054466314088617518e-02
-2.011311757669753328e-02 1.952308564584963324e-01 -6.824042331112202264e-01 -9.961395210249723853e-01 -4.652136849257496737e-02 7.444338067092551303e-02
1.708948470388371374e-02 -1.767543490293904673e-01 -7.975521443921729237e-01 -8.864883398287469740e-01 1.432278768786289236e-01 4.400274975868125882e-01
-9.361163995676796690e-03 3.819822295879367335e-02 -7.895677109842046404e-01 -9.724855690764298011e-01 -1.600009839661618305e-01 1.693266165372489807e-01
-1.343096588389510425e-02 -1.025034242713802890e-01 -8.802342273133293427e-01 -9.857026647156035271e-01 7.919557441573059353e-02 1.487222840246910649e-01
3.019368259558553175e-02 -1.104215137946058245e-01 -7.160186408162589888e-01 -9.479993487685596243e-01 -3.173237702859234566e-01 -2.455319828277163080e-02
-1.428300527335136898e-02 -1.730334516437755099e-01 -8.832170124168516878e-01 -9.863639794326622967e-01 4.463019956007396871e-02 1.584116326694174071e-01
1.346424969180504486e-02 -1.426692924902046578e-01 -7.880756275346229023e-01 -9.573140147885929041e-01 1.830850223389013029e-02 2.884695405676264146e-01
2.549331084850990289e-02 9.116643197887094874e-02 -6.163228699954760303e-01 -9.143131576913446912e-01 -2.198792717241279948e-01 3.401243236502637379e-01
2.805129432943121587e-02 3.078682382624019220e-02 -6.375454440095819075e-01 -8.819334885967206050e-01 -3.552585577674965966e-01 3.098139422695118661e-01
-3.340631611366273301e-03 -7.452166406312851765e-02 -8.130467456093541934e-01 -9.997292145088065851e-01 5.136079013592697272e-03 -2.269621884743381474e-02
-5.957189205242123531e-03 6.083001352241278192e-02 -7.603213472408960616e-01 -9.828573136424818557e-01 -9.481824977664034260e-02 -1.581170469265685552e-01
-1.067565843665583929e-02 4.925231570527157515e-02 -7.952687629508413680e-01 -9.340333768308868301e-01 3.340626359939552481e-01 -1.264270785815314324e-01
3.227100439028211115e-02 -1.472559291793613945e-01 -7.226049589457116396e-01 -9.887893366102934456e-01 1.188483589850450606e-01 9.039200944960434914e-02
-3.064955185862328416e-03 -7.924598703643374875e-02 -8.185841067413632821e-01 -9.558180652688479384e-01 -2.281187577868721561e-01 1.854013442548099189e-01
-7.166270143696866664e-03 1.266366634334228636e-01 -7.022645373984294226e-01 -9.779314292334897463e-01 -3.729497499262890425e-02 2.055704369739069226e-01
2.083821252970182933e-02 1.181353865698983874e-01 -6.116061254494867816e-01 -1.921951280420136909e-01 5.292905059465475848e-01 -8.263852570513112727e-01
-9.256849628187256707e-03 2.312760809176137369e-02 -7.976800716301952754e-01 -9.936123719765008744e-01 1.108921339394848549e-01 -2.091384435198249264e-02
1.864507690903105183e-02 1.223373294512362652e-01 -6.112274980969125693e-01 -1.219825263797505999e-01 -3.982209476682306293e-01 -9.091426401265259027e-01
-2.005843649770255172e-02 8.354086482490179211e-02 -8.611455574802493462e-01 -8.264294869157329249e-01 3.996117220021707661e-01 -3.966418722155519716e-01
-2.157627485443529974e-02 -2.265548704081581446e-02 -9.188973580525797713e-01 -9.586525109595346317e-01 1.038945363188109594e-01 2.649363858628684953e-01
1.852447631911894243e-03 -1.185708469031238055e-01 -8.204458229014481851e-01 -9.471764252322455446e-01 -3.176880982742822379e-01 -4.394418845688640579e-02
-1.930260440021775228e-02 1.757419365979510373e-01 -6.692044986069581869e-01 -9.434559589690856285e-01 -1.711624295668129903e-01 -2.838913105230747580e-01
-1.451435843367814352e-02 1.076945271782846041e-02 -8.775422876152416674e-01 -9.443941542140310563e-01 -1.949157875632705206e-01 2.648160063986969015e-01
1.773079349300034011e-02 6.463997808432356273e-02 -6.571221743591942888e-01 -8.742339255910284157e-01 -2.883507746174736597e-01 3.906006581192649763e-01
-6.334942366124477614e-03 -1.685167921853691908e-01 -8.530561744093921872e-01 -8.144908565373144560e-01 -9.430648223311328959e-02 5.724604196151270585e-01
-2.930498034149301920e-02 2.035853990138089542e-01 -6.323127041644615032e-01 -8.181809168882751004e-01 -5.493430034931794381e-01 1.697122616458644484e-01
1.719959343017512382e-02 -6.509512979170890834e-02 -7.437794673139335178e-01 -9.834367109129171780e-01 4.505675348376195904e-02 1.755623097201873817e-01
2.701038877859073418e-03 -1.163447170071257586e-01 -8.131453560564324556e-01 -9.935340658437400441e-01 -9.083936501267077246e-02 6.810484396943961016e-02
1.830369996564392907e-02 -1.629590609803884538e-01 -7.860882106234263755e-01 -9.502097943001180935e-01 -1.550355539463871835e-01 2.703059818588262053e-01
2.878724665805949823e-02 -2.348589631078470963e-02 -7.012935026504873992e-01 -9.721076328365393371e-01 1.408043568246278576e-01 -1.875656772443793363e-01
-7.616910387747451508e-03 5.776283159856242244e-02 -7.724312827214030452e-01 -9.736342475284522902e-01 2.467271630860189829e-02 2.267765620818428252e-01
4.058343937285283955e-03 6.643434541803203142e-02 -7.118540770361183601e-01 -9.733360059035748302e-01 -1.743655814272296045e-01 1.490424893284484631e-01
-9.429388365264591496e-03 6.270482670180572982e-02 -7.822188176600615162e-01 -9.938118123899730705e-01 4.808400969324923280e-02 1.001299633774828390e-01
-3.430283801236172492e-02 2.131735340981026905e-01 -6.472323361471062908e-01 -7.511214426089892759e-01 -6.343049510953562287e-01 1.829584856433523754e-01
2.649236301176884426e-02 -1.280535781279556473e-01 -7.359998181625774238e-01 -9.818743708011807847e-01 -4.227877847775396436e-02 1.847572051483087896e-01
-1.021709185547334600e-02 5.985334116527832315e-02 -7.886471512374939596e-01 -9.654742176460404668e-01 -1.053160351070809089e-02 2.602856515220524636e-01
-2.726429675785600922e-03 -6.967717919820144712e-02 -8.119129752320786153e-01 -9.890104555005286846e-01 8.723554040655422115e-02 1.193661568477968893e-01
-7.163343231463518458e-03 8.398640462250028804e-02 -7.648978204895097166e-01 -9.903243464565059107e-01 -1.005743777787867776e-01 -9.561633411663643389e-02
-1.526852037644169449e-02 3.036179045366671492e-02 -8.524638665727677367e-01 -9.255375983128080186e-01 -3.373993290886069252e-01 1.718774180627488934e-01
2.604834507608486463e-02 7.752968437700773208e-02 -6.192780091156258049e-01 -7.937264160462380591e-01 -1.205653938477173059e-01 5.962066439387766481e-01
-1.867051543710612077e-02 1.795074062725783570e-01 -6.776892898920591213e-01 -9.704884675674002592e-01 -1.536673781303468933e-01 -1.858452883912419251e-01
-1.922894254320250962e-02 -1.970675645403330567e-01 -8.953927074244989459e-01 -9.967174507627685198e-01 6.053864243164832487e-02 5.375310332902871746e-02
-1.931671479651075538e-02 3.774419356008647253e-02 -8.784339677657826417e-01 -9.903526452571570493e-01 8.125821841460977024e-02 1.122441088531385689e-01
-2.133749305359268836e-02 -6.766764173885606026e-02 -9.201386827762206844e-01 -9.460576439635827173e-01 -1.680720934774551298e-02 3.235621300647157361e-01
-1.503644200586959183e-02 -2.005718456825728371e-02 -8.829542841069326631e-01 -9.829294196721463095e-01 7.767946273857345707e-02 1.667802656540160466e-01
2.128873916976289221e-02 4.328141501437453298e-02 -6.597342834881981810e-01 -9.862719984569398024e-01 -1.067502255471550060e-01 1.259838656550341662e-01
2.202904382968354224e-02 -7.174469065732157202e-02 -7.304990435511000690e-01 -9.280021115347730776e-01 -1.781090773293750040e-01 3.272449198381562341e-01
-4.780799187396825127e-03 3.493122467340976922e-02 -7.624913283188728963e-01 -9.880029873044207100e-01 1.377797897412909867e-01 6.976264484941867294e-02
3.199699628063931017e-02 -1.422717056011681691e-01 -7.226843246969473222e-01 -9.832630270295169561e-01 -9.733994446583502103e-02 1.540089441822769245e-01
-2.273667142294152552e-02 -1.416303419318814538e-01 -9.209246551879858300e-01 -8.002989748655351399e-01 -5.989810059989364444e-01 -2.726362561501384160e-02
-1.582981611046987980e-02 4.582407412041774458e-02 -8.409935055698453121e-01 -9.732289268511601366e-01 2.856370841518667686e-03 2.298201407313007205e-01
-2.410412868819878859e-02 -9.182400007698071631e-02 -9.351892008027764547e-01 -7.927665199540556706e-01 -5.863626448613306064e-01 1.664334508179196315e-01
-2.013512905995757524e-02 -5.771144415745737416e-02 -9.150363365725702192e-01 -9.293128768038163567e-01 -1.303270416447623592e-01 -3.455321102629093089e-01
-7.889584167521475691e-03 1.408369629255682709e-01 -7.522752415233029399e-01 -9.546102501600505219e-01 -1.496581083644116794e-01 2.575300388113036520e-01
2.550684113981866938e-02 4.993735067066643746e-02 -6.368416991456929965e-01 -9.781369439388455378e-01 -1.944006183710173252e-01 -7.386825081820812267e-02
3.230321053911718032e-02 -3.334514426358596573e-02 -6.828208832060810307e-01 -9.901062998340773857e-01 -9.889878964114431903e-02 9.954167185851621469e-02
-1.083006827179202984e-02 1.519127402475961841e-01 -7.679391241746492680e-01 -9.808552294030056240e-01 -8.417884915217010988e-02 1.756044996809393854e-01
2.317320059253605638e-02 6.354536507903048304e-02 -6.372916992864650076e-01 -9.143675632738483827e-01 -1.664518809883364370e-01 3.690877003478840179e-01
-1.285966354784965834e-02 5.093416210724548837e-02 -8.158897736368385667e-01 -9.843135279658664638e-01 1.545039377872464703e-01 8.517870550568518162e-02
1.015727168850044486e-02 -4.765145902583721449e-02 -7.578972018259882981e-01 -9.656148575649834420e-01 -1.467042408245010365e-01 2.146294774113367831e-01
-5.697719506264721512e-03 3.894694984329828691e-02 -7.645397416676832369e-01 -9.879595931330678038e-01 -1.051174029611405547e-01 1.135172847237289201e-01
2.208015780095094749e-02 1.125455897050491455e-01 -6.117790187293687953e-01 -4.744515239130056572e-01 -6.749983375153633114e-01 -5.650424725700912143e-01
1.519959441178331434e-02 -1.500357516420944004e-01 -7.874826931943172958e-01 -9.886409131130986516e-01 -1.501967609106078516e-01 5.484335042658574494e-03
1.490082318542340807e-02 6.417792752312981297e-02 -6.740209452563075132e-01 -9.711394898934150310e-01 -1.668655016540691038e-01 1.704229900198137304e-01
-1.308141832285272289e-02 2.468506217572230890e-02 -8.294168811507416361e-01 -9.306983420180058308e-01 2.551483071411103642e-01 2.621067292687476180e-01
-1.779022449347197540e-02 -2.112849029208383744e-01 -8.885653937860698015e-01 -8.375650866814486895e-01 5.380241127863240047e-01 9.494619335595487486e-02
-1.866865071687926272e-02 -7.396960183018823354e-02 -9.106430557184013175e-01 -9.578323259064633888e-01 1.274224126174185456e-01 2.575281813925827112e-01
2.688063954533264494e-02 -6.902852063350001233e-02 -7.162053899470851581e-01 -9.384522816642205667e-01 6.666521190280846887e-02 3.389145387279394739e-01
1.949463626338779343e-02 3.843298992088423072e-02 -6.806747946042173147e-01 -9.579509290410126443e-01 -1.607452755514111598e-01 2.376782992562879726e-01
-1.708404535530244975e-02 -1.902356809071386323e-01 -8.888200770814951301e-01 -9.719538848844817558e-01 1.572870659184493758e-01 1.748325614773427461e-01
-1.257510987604972506e-02 -1.543123154574253808e-01 -8.752737293776532423e-01 -9.922504947189820790e-01 1.095885725534322258e-01 5.856022964125275065e-02
-1.289597635538628287e-02 -3.656128379428569275e-02 -8.739945819096202051e-01 -9.484692344198928371e-01 -1.227413775754946923e-01 2.921312471986050041e-01
-5.057048519684072437e-03 5.445076673092042602e-02 -7.514796925399409577e-01 -9.866871134074127747e-01 1.572449796788264742e-01 -4.150369383022096265e-02
-8.891654920352877814e-03 -8.517040896211786061e-02 -8.592894113666413869e-01 -9.699870334758156076e-01 7.414326112640096111e-02 2.315770535228592608e-01
-1.514771365668159293e-02 -3.849872221394962102e-02 -8.834745267764123611e-01 -9.770736746188874999e-01 1.765227261027007277e-01 1.190242056726924513e-01
3.197624508100551516e-02 -1.146641945038180260e-01 -7.118553673684201444e-01 -8.649196457228059964e-01 -3.373352585419443495e-01 3.716435520591940822e-01
