-1.184395814499456488e-02 4.421501777512003989e-02 -6.248882255781444961e-01 -8.183885884393045096e-01 -1.726431037374131783e-01 -5.481190354697011990e-01
-4.416909330647321268e-03 -1.474829619256758928e-01 -7.928191944213583975e-01 -8.861967318766102997e-01 3.810518250601018786e-01 2.635428978925078991e-01
1.851829917944747272e-02 1.397187818882260069e-01 -6.650064801574169238e-01 -9.602534603585569650e-01 1.375665382568552475e-01 -2.428759753895849971e-01
3.442462940770714408e-02 1.199509298577993432e-01 -7.093529896529977563e-01 -9.465610925968859224e-01 2.614601732841856374e-01 -1.888403446512248451e-01
-2.613955446774839445e-02 1.957041852521244074e-01 -6.000659184310637162e-01 2.749420614017352923e-02 3.568994060098565346e-01 -9.337381231472414722e-01
-3.750101816541997687e-03 -4.991066237038530723e-02 -7.166773916161448543e-01 -9.020474551448836031e-01 3.059412978658653248e-01 -3.044836792453561314e-01
4.201014158223267264e-02 -5.796719555172180627e-02 -8.389413357417904171e-01 -9.348502137714882476e-01 1.763503673902924451e-01 -3.081487071735192207e-01
3.521905961001534080e-02 8.112909185998376516e-02 -7.362126739517804719e-01 -8.799992356950775418e-01 2.652975981229689917e-01 -3.939778288257640426e-01
9.791613451853907815e-03 -1.729646483757946440e-01 -8.555788003978868073e-01 -9.299212495939599421e-01 3.488106850793248892e-02 -3.661007793126820342e-01
-6.863740498523063227e-04 1.879105054463300201e-02 -6.979726318247059247e-01 -8.102225233260936799e-01 1.980543490187605393e-01 -5.516465693991510211e-01
-2.382859015350319645e-02 -2.081565197107154708e-01 -7.399082968978448749e-01 -8.797702247671203013e-01 3.566386538674505835e-01 -3.143457048868699699e-01
1.476817623306446274e-02 -3.113066145146465430e-02 -7.540856934840624026e-01 -8.542336006156746597e-01 2.772225347017716612e-01 -4.398097564091831280e-01
-3.954405441224437961e-02 2.083659874843165893e-01 -5.632154722034073968e-01 -7.633123595239180714e-01 -4.274098347124198338e-01 -4.844327352575701906e-01
-5.188876020400338789e-03 1.114769536188224969e-01 -6.399826153825893815e-01 -9.894406827673215554e-01 -5.288728382743240058e-02 -1.349446942057863086e-01
-4.099218958914982447e-02 -6.320209693589758093e-02 -5.973083268502635823e-01 -6.513993282929723128e-01 2.943569438076235611e-01 -6.993088764857056105e-01
5.042724199224121046e-02 1.398107694750812258e-01 -7.307554114841529058e-01 -9.104395132897283860e-01 3.681180748840953143e-01 -1.886504057360869624e-01
6.089851088784529499e-03 -4.416407913695724607e-02 -7.452639035507134802e-01 -7.658350444398888124e-01 3.428572969894810307e-01 -5.440087854151075542e-01
1.388442297196264275e-02 6.310298761951664559e-02 -7.008123724062818027e-01 -8.868279198769264404e-01 2.811125371427544706e-01 -3.667587517536932129e-01
4.266267808313136539e-02 1.488831410232774322e-01 -7.080866080270761254e-01 -8.387174344090382316e-01 3.199970711627141418e-01 -4.406301620016560561e-01
5.558035368381099295e-03 1.656534827837670421e-01 -6.392276947231869677e-01 -7.053281797178723167e-01 9.537879350270386802e-02 -7.024350821576619275e-01
2.771615055404494030e-02 1.089524384238413218e-01 -7.042466246639478289e-01 -7.826663160313995782e-01 4.295909849638192557e-01 -4.504276006059718118e-01
-3.637220347302192684e-03 -1.361762378443009125e-01 -7.757984448832099256e-01 -9.504863308940071365e-01 1.557386454394600606e-01 -2.689260290494957517e-01
1.528110107269099044e-02 -7.448498597907002305e-02 -7.815254641320433793e-01 -8.602788314206381015e-01 3.689493963080586192e-01 -3.518475169351923948e-01
5.239331647446488632e-03 1.040073456595615731e-01 -6.628852448409241482e-01 -8.441292710389616261e-01 2.185361529724524632e-01 -4.895791290682559027e-01
-3.294621843683993162e-02 -2.424882706625342693e-02 -5.960618346476924678e-01 -8.857669573533621943e-01 1.980022250162302433e-01 -4.197761500485574504e-01
-1.315103934112250503e-02 -1.639849083307720334e-01 -7.514524926630005153e-01 -9.491102612897442947e-01 2.649247083241748069e-01 -1.703074009955657386e-01
-3.349458815366164466e-02 -2.493600175582206535e-01 -8.302950654817323750e-01 -7.505216306446141905e-01 5.932585570459394386e-01 2.911383973754050336e-01
3.479336596747449606e-02 1.299814839521771237e-01 -7.033347625391095370e-01 -7.691548371832797049e-01 4.467341880930765230e-01 -4.569785570750362069e-01
-2.597894806075580487e-02 -2.364677535809140418e-01 -8.500912051419643456e-01 -8.574903303482941386e-01 5.132608458608529656e-01 3.568805774170237533e-02
4.556329527370316795e-02 1.274578504591859784e-01 -7.285759901260027149e-01 -7.536506062737794442e-01 4.032613236803776480e-01 -5.190289669052337018e-01
-3.206786727961864064e-02 -1.156205659289140236e-01 -6.547108169438552450e-01 -9.230941159757829473e-01 2.251268370580592759e-01 -3.117934577362422299e-01
4.621971111984864850e-02 -6.811195487154465822e-02 -8.564070219726904742e-01 -7.868661369124828608e-01 2.695933626591640042e-01 -5.551226003240635753e-01
1.607854623767845589e-02 -1.143476148572158818e-01 -8.206829734564342615e-01 -7.388139265124248345e-01 4.249247054361284803e-01 -5.230611596183690759e-01
5.557253471215735548e-03 -1.504124716471189616e-01 -8.224005184179113970e-01 -9.202765799998150476e-01 3.075870734305981569e-01 -2.418288828122973633e-01
-2.341806183641980191e-02 1.447167380000730641e-01 -5.804617318488801692e-01 -9.944582361891424194e-01 -6.372197047618054222e-02 -8.362013486124282580e-02
-3.737272422274205697e-02 1.669041405821910032e-02 -5.724693019768609670e-01 -9.334346401615051247e-01 2.392721521055083123e-01 -2.672987275939783802e-01
5.177133241769917710e-02 1.045990668883331198e-01 -7.572987936264440334e-01 -8.820260162912032520e-01 2.399776867754366549e-01 -4.055130286875877621e-01
-2.677602909459759345e-02 -1.828906187743493117e-01 -7.088584040931875663e-01 -9.273970330256735561e-01 2.187382637148902742e-01 -3.034605660084566114e-01
4.244392169319624597e-02 -6.345094902831943662e-02 -8.443809763984237993e-01 -9.702460088711488684e-01 4.233010345118614487e-02 -2.383922075308220478e-01
-4.905682720624097472e-03 2.266987207831837672e-02 -6.494118541561774149e-01 -9.564484800600464576e-01 7.319055587139279562e-02 -2.825764454480656496e-01
2.745859090378906242e-02 5.594028755038515238e-02 -7.367152607796523256e-01 -8.709185275192642406e-01 2.265324356380788162e-01 -4.361008759765979681e-01
1.293483957518778461e-02 -1.522597771172718439e-01 -8.429967029585141436e-01 -9.713206610191169599e-01 2.085869710963991416e-02 -2.368566828955301629e-01
-3.763467507686234573e-03 -1.302960732188465642e-01 -7.652387397804066849e-01 -9.640912598777395814e-01 1.531530831546782379e-01 -2.169612309781841497e-01
1.334949645636891898e-02 1.277449873950697347e-02 -7.321422903451713093e-01 -8.515541533833377308e-01 1.913823645399679862e-01 -4.880863800585689138e-01
-2.806376279390271084e-03 -1.296831000453994021e-01 -7.688260202590092574e-01 -8.716926453645535977e-01 2.932811087554426099e-01 -3.926042832987496345e-01
-3.163065945976434312e-02 -1.146947592603540789e-01 -6.580500877908169732e-01 -9.094271259218834613e-01 3.069232594841307948e-01 -2.806072262524602068e-01
3.432973768076560961e-02 -8.197278214638632765e-02 -8.408896468227943233e-01 -8.836969119719961796e-01 3.221563129760580124e-01 -3.395512888811203500e-01
3.979047248067581893e-02 -8.252487518061304983e-02 -8.556041266383165311e-01 -9.028344400019242544e-01 3.951353430512699605e-01 -1.695819407194264217e-01
3.855224964486127920e-02 1.321096526651735145e-02 -7.801447531325187423e-01 -8.453889775858037803e-01 2.136545079624860843e-01 -4.895602391981370705e-01
4.049454658266690710e-02 1.406949211172340009e-01 -7.078573775013926594e-01 -9.312653711771621268e-01 1.505917434815937650e-01 -3.317633723626472464e-01
3.344272063682032087e-02 1.545968074309554512e-02 -7.698413460120718810e-01 -7.815665160571436676e-01 2.989051784898543174e-01 -5.475486053769533790e-01
-3.447954807054298687e-02 1.826519528919088586e-01 -5.542653311332307320e-01 -6.793426593102792899e-02 -1.418808501362102958e-01 -9.875498771591428859e-01
2.205140779288554398e-02 1.621118102759703805e-01 -6.647164202150999124e-01 -8.726389044107085713e-01 4.187990825604347850e-02 -4.865669694845135562e-01
-8.939076577775418447e-03 -1.823433070233051179e-01 -8.051374175382384202e-01 -6.305317209700811443e-01 4.660818958208112206e-01 -6.206427436445109969e-01
-3.090291872388671937e-02 -1.260480641952188285e-01 -6.689313907620126898e-01 -9.710549423966405858e-01 1.177181981748915973e-01 -2.078334060383794923e-01
3.536916960968575913e-02 8.431776919692099415e-02 -7.343277301541062396e-01 -9.055390368483130503e-01 2.611763734691650574e-01 -3.343440663228891552e-01
2.983263376701957015e-02 4.573500376318456739e-02 -7.487667058641352957e-01 -8.349804342336581975e-01 2.217037431994082763e-01 -5.036418615428452927e-01
-2.064256120823875287e-02 1.884646910906377093e-01 -6.035201373219113430e-01 -7.093486951489320624e-01 3.708951800801488924e-02 -7.038812373862797234e-01
3.876856842328239849e-02 -1.179515478080749302e-01 -8.760303888660335714e-01 -1.429316825346489683e-01 7.162052066582338394e-01 -6.830963592960008768e-01
5.117490645716121084e-02 -3.277888144951254107e-02 -8.459249467641033471e-01 -8.671692689747803051e-01 1.668153765457581761e-01 -4.692441678845269415e-01
2.348411656061330163e-02 1.258138920084226897e-01 -6.853279690768011578e-01 -9.085049487840960447e-01 2.253803266518003001e-01 -3.518841661586022407e-01
-6.010261562871727125e-04 -1.005741252586612317e-01 -7.614733034259876243e-01 -7.978056909995427937e-01 -8.464425385180356087e-02 -5.969434057752991407e-01
-1.566071039580587548e-02 -2.019630017100334241e-01 -7.756531724602332423e-01 -9.710549423966405858e-01 1.177181981748915973e-01 -2.078334060383794923e-01
-1.358793022427708455e-02 1.450228845573025283e-01 -6.169420111194886536e-01 -4.992953940096759302e-01 -1.346870557613125408e-01 -8.558992385386677837e-01
2.829338444747136680e-02 -7.525119427207448142e-02 -8.158079176586252590e-01 -9.098568184297265438e-01 1.581036456025721459e-01 -3.836193519676919239e-01
-1.485206648498389216e-02 4.038443343332573376e-02 -6.174133136939863320e-01 -9.193960414705666384e-01 1.243430274313872680e-01 -3.731618019806544617e-01
-1.250636241305806522e-02 1.222111019126367465e-01 -6.164772195504283347e-01 -9.914412059566930502e-01 4.343489922766055611e-02 -1.231167927628934039e-01
1.647358399877068766e-02 -1.477050780501860949e-01 -8.477965180358781883e-01 -8.625027787223422671e-01 3.516942787897918699e-01 -3.638682329673286198e-01
4.097522146274933282e-03 -1.277190280650870591e-01 -7.962953383432730403e-01 -4.645208374978896937e-01 7.374300706916989689e-01 -4.903236506328191302e-01
-2.320113011749977416e-02 7.373125094070517339e-03 -6.104278132337540574e-01 -9.175121004794295487e-01 7.900465979491949620e-02 -3.897817456019636029e-01
1.196595372155744540e-02 -7.630536912009544537e-02 -7.747722084385981756e-01 -8.897338717032433619e-01 3.743814518914708178e-01 -2.611745891613323489e-01
-1.573071700709933671e-02 1.557280264818732829e-01 -6.140784530811487230e-01 -8.930877379471983124e-01 -8.045442823569974589e-02 -4.426300682348897064e-01
-1.490566591164797262e-02 5.771644922558501895e-02 -6.142862657337787580e-01 -8.077579448076535051e-01 2.236760666112463658e-01 -5.454320487699975128e-01
-3.211084474410029390e-03 -2.925400706983933077e-03 -6.918623231991368749e-01 -9.372626706602273927e-01 1.940137123941046643e-03 -3.486185910917522501e-01
-2.608949411179661230e-03 1.953166455359874598e-01 -6.243260955654069688e-01 -6.632201171488683045e-01 1.016721389546712678e-01 -7.414862455699520183e-01
-3.207251377514056673e-02 2.685645504154037660e-02 -5.816271174252731768e-01 -9.791339398965513974e-01 1.799592798784609704e-01 -9.440013415394088447e-02
1.794514106998190348e-02 -4.826858578167567138e-02 -7.703975574174698471e-01 -6.636388578482553813e-01 4.380527762378090273e-01 -6.063771364293106814e-01
-3.924316553179601347e-02 -6.913063719357728787e-02 -6.021488814309455817e-01 -7.172326073379144962e-01 6.431084429745540509e-01 -2.683075055716886981e-01
-7.275660426625290417e-03 -2.061546100778685262e-02 -6.824169737500461741e-01 -9.796563682208569990e-01 3.486155328776409379e-02 -1.976311521665666537e-01
-3.101506018773765583e-02 2.179955642093590884e-01 -5.954923433806800226e-01 -9.425858369734020359e-01 1.740849307061978768e-01 -2.850024154953246791e-01
3.863288284430058117e-02 -1.060664001574384424e-02 -7.879231357276368364e-01 -7.981289099733014369e-01 2.661951486890044016e-01 -5.404908749269208279e-01
-1.195965210935507478e-02 5.711355254114491853e-02 -6.219222302842573047e-01 -8.677641466518202229e-01 -3.352453611855126490e-03 -4.969649352222130778e-01
-2.826214967384995183e-02 1.415385422279117483e-02 -5.968288540363231309e-01 -8.195513368973587065e-01 3.277856902906448600e-01 -4.699916461283513702e-01
4.163572093339239222e-02 1.630294824773810547e-01 -6.971771453893549353e-01 -8.838818620003838777e-01 6.712434984699927609e-02 -4.628684215674600533e-01
-3.777695188331969822e-02 -1.406355807026077598e-01 -6.553493158209314773e-01 -6.016046219111896853e-01 2.851282856030648571e-01 -7.461727277542055115e-01
5.117619269149166483e-02 1.228967958282344008e-01 -7.437484671638229239e-01 -9.241328716934016363e-01 1.897934384785452538e-02 -3.815995544583503651e-01
4.236032232445210294e-02 9.513253058760720582e-02 -7.443960358579737591e-01 -8.723546549369946002e-01 2.470659181775647917e-01 -4.218480627961135876e-01
-1.861566703428635741e-02 -2.283703961964103635e-01 -8.616850522000788493e-01 -7.649956416448721042e-01 6.440258004138038617e-01 -3.526565710401866408e-03
1.325180754480289463e-02 1.071052622527027959e-01 -6.748537313695174289e-01 -9.191279481316481093e-01 3.173093952945290064e-01 -2.334921039802561049e-01
-3.764751614079852454e-02 -4.841464624853180493e-02 -5.952687080875556092e-01 -9.422168326567140761e-01 5.112407038210065729e-02 -3.310797029204834985e-01
-2.217109448792909526e-02 -1.857651639596095972e-01 -7.280054658584516059e-01 -9.211916904802743833e-01 3.111055720688289394e-01 -2.337074932855618126e-01
-1.677202018977712664e-02 -1.808250197198211784e-01 -7.479078950992545938e-01 -5.902918160161566563e-01 9.239029466822989978e-02 -8.018850325298917392e-01
4.036928538306704811e-02 1.547380800234883329e-02 -7.817234833510824377e-01 -8.502581340322270531e-01 1.447188732338949568e-01 -5.060805797913484616e-01
-4.078506859775696963e-02 -8.291204772875452808e-03 -5.725374564141019196e-01 -5.683173021652389023e-01 3.117014627214105271e-01 -7.614838423741882023e-01
1.674952303046799498e-02 -1.390902339522392395e-01 -8.458079326463702197e-01 -8.903545425745488240e-01 3.653489445289716531e-01 -2.716411921053804024e-01
1.516117977485476921e-02 -6.830167541798031622e-03 -7.449489003770551898e-01 -8.515053885110438481e-01 2.201039041083527048e-01 -4.759126440145475256e-01
5.297249725482797850e-02 -5.424526449343594278e-03 -8.297387314054330831e-01 -8.174063030714643352e-01 3.693451434611082496e-01 -4.420758992534367660e-01
1.518422030330055482e-02 9.903470388499967594e-03 -7.376202227103094700e-01 -8.807416856305697594e-01 1.648901741769518148e-01 -4.439654419574987076e-01
4.016537709966860187e-02 5.926219422513086255e-02 -7.615701365687034263e-01 -9.085499288139398111e-01 1.986784379875429773e-01 -3.675104149966569311e-01
-3.419028048321610253e-02 6.215199480112017227e-02 -5.529345403794478919e-01 -5.639581500309870377e-01 1.807544271830411123e-02 -8.256055252868429450e-01
4.953464263093580039e-02 -6.220501859994060495e-02 -8.587152802523330131e-01 -8.555366384211932074e-01 3.542959292904556134e-01 -3.775333823745614104e-01
4.253868466322685560e-02 -4.385272995729903173e-02 -8.287753199951560790e-01 -9.161940072617515973e-01 3.478567219662722088e-01 -1.989578901188207849e-01
-1.006559951304174076e-02 1.163747519726674728e-01 -6.262607947676263054e-01 -7.220845436358879210e-01 -4.225917064517848987e-01 5.477318335465994892e-01
1.641602155408074248e-02 -1.518960382186042846e-01 -8.503336736387980821e-01 -8.704936230843726142e-01 4.103641044767595281e-01 -2.717391284420215825e-01
-3.480649741955695736e-02 -1.272797178394000778e-02 -5.889787359653769760e-01 -8.924927758018164070e-01 7.383585237379158839e-02 -4.449774286925172184e-01
-7.840985672245273305e-03 3.088848537183183293e-02 -6.395254726459549399e-01 -8.522669879319233477e-01 -5.160953041748185532e-02 -5.205549324053453386e-01
6.799025316598906153e-03 4.712620612132372572e-02 -6.971906957572092667e-01 -8.605626384634735837e-01 2.891356235281367093e-01 -4.193239040262081163e-01
-1.446288175080242188e-03 4.090154038551833959e-02 -6.607955477870273153e-01 -9.710549423966405858e-01 1.177181981748915973e-01 -2.078334060383794923e-01
-3.076779458508175844e-02 -1.379219096426615720e-01 -6.757055327472146766e-01 -8.832262905935857056e-01 9.606499556318053024e-02 -4.590020002480826866e-01
1.143067034590586513e-02 2.007265014825773963e-01 -6.382711003040035802e-01 -8.296461285646102857e-01 1.377914757463427065e-01 -5.410183089040511151e-01
-3.679164180809058049e-02 -1.160840287526601899e-01 -6.360860930100288302e-01 -9.346207734639907505e-01 1.845502497051851598e-01 -3.040151561079241227e-01
1.615318606052260075e-02 -7.844088437045494688e-02 -7.875960658797755976e-01 -8.653498262729575341e-01 2.974439262216113100e-01 -4.033569001805158982e-01
4.340000726823595167e-02 9.436829103392577189e-02 -7.472963421953136010e-01 -8.254696253503412962e-01 3.211222875346976258e-01 -4.641986364396710196e-01
-2.328390279575235852e-02 1.043664906925715619e-01 -5.770856852283651195e-01 -9.635572763098885218e-01 2.918220241394119119e-02 -2.659055740907675380e-01
-3.528169598702392273e-02 -1.494724134508028934e-01 -6.648925325913332962e-01 -9.672286580682046830e-01 2.498494909228055616e-01 4.521011941141849649e-02
5.252296919056262392e-02 1.194315189073786032e-01 -7.502477050819156279e-01 -9.710549423966405858e-01 1.177181981748915973e-01 -2.078334060383794923e-01
-3.495437882088384216e-03 -1.330855265115901964e-01 -7.692700498622886407e-01 -9.748353529032217635e-01 2.151106426916144232e-01 -5.851022244746318518e-02
-1.559500867173443939e-02 -5.363355907770796238e-02 -6.624209988732997489e-01 -9.402641512087108744e-01 3.256211661513050415e-01 -9.936891921534835026e-02
5.093934453003383378e-02 -4.184015136980002297e-02 -8.527282373258352477e-01 -8.644303832931929943e-01 3.813559240490817515e-01 -3.276091751344191727e-01
-1.270649077287245091e-02 8.334850816297102727e-02 -6.174584056736902582e-01 -8.792025470786822838e-01 3.221737617817554411e-01 -3.510084734443743026e-01
5.308361274169770549e-02 6.819747777662781008e-02 -7.854901467037345153e-01 -8.599503067106878396e-01 3.314001670676745004e-01 -3.881486818935643845e-01
-3.688476743489140647e-02 -2.508318191701490174e-01 -8.421888454764464571e-01 -7.418872329931555099e-01 6.556380163003135975e-01 1.405066728079108762e-01
-5.069311613542036576e-03 -5.728852202919758330e-02 -7.194869730721192846e-01 -9.507987161134788812e-01 2.275876215298132943e-01 -2.102038914087048793e-01
-2.582988915079333092e-02 -2.619013113472631882e-02 -6.116600378374444924e-01 -8.527588456138188722e-01 3.073828026716102224e-01 -4.222773541751116966e-01
-2.653174258964324794e-02 2.418938113535054057e-01 -5.990838405945035916e-01 -1.876548466168011520e-01 7.719060284748885392e-01 -6.074098630622895012e-01
3.346451988150851709e-02 -3.752597360811585347e-02 -8.010438105855155477e-01 -9.611374684496643006e-01 2.758417975853835746e-01 -1.122806515098843418e-02
-3.498018571311044267e-02 -1.055795361569097784e-01 -6.353385892324932005e-01 -8.973731193707542575e-01 1.503363879899910771e-01 -4.148740231406692902e-01
-3.010747686822336580e-02 1.673723708645448727e-01 -5.607758714379328380e-01 -9.496149763879381256e-01 -2.659698788042522688e-01 -1.658053683949556045e-01
3.948050473783825537e-02 -6.677736036372387829e-02 -8.367555775430368659e-01 -9.519790967111967372e-01 1.728080663045349907e-01 -2.527314219582156296e-01
4.147455271461334553e-02 2.279043329522560668e-02 -7.818348068362527270e-01 -8.959268204675737701e-01 1.756764134933964661e-01 -4.079864337315164402e-01
-8.942818757764480777e-05 1.040793786583977393e-01 -6.542610525807840416e-01 -8.324527195235500443e-01 3.294014298932284035e-01 -4.455526542869454598e-01
-4.154593869671014544e-02 -1.257358949959202859e-04 -5.682078740359327584e-01 -8.071922030946776516e-01 3.484425128194323928e-01 -4.764751436572955967e-01
4.875329813678153795e-02 -1.571858536598337922e-02 -8.236481109153234170e-01 -9.970767519926504452e-01 7.640585590757095757e-02 -3.095461482383074872e-04
-2.002602562187917254e-02 2.120442293219247099e-01 -6.050593903688352704e-01 -5.995962698107428768e-01 2.165424161757295296e-01 -7.704503197648892021e-01
-2.270741329169933403e-02 -1.630601479701181133e-01 -7.143185206528260833e-01 -8.854128802655633068e-01 2.079243879158267916e-01 -4.157060023257641013e-01
-6.579943921011847073e-03 -1.429603642317719796e-02 -6.732635733021301583e-01 -9.815747149760499779e-01 1.700847261070100591e-01 -8.707620148346764677e-02
-9.629698037467181171e-03 -1.034366656765194487e-01 -7.307933070856633684e-01 -9.238096559919476425e-01 2.188435628358939011e-01 -3.141388458967335207e-01
-5.407920871183999161e-03 2.177905768740610037e-01 -6.192284321381744672e-01 -6.344886825131206276e-01 9.169535977109330438e-02 -7.674738254554445138e-01
3.413165209158718072e-02 2.011449761899273062e-02 -7.706832236267072700e-01 -8.820076121754988341e-01 -2.207822988300542355e-01 -4.163144827985108543e-01
-5.637975182643486204e-03 7.567645856763750845e-02 -6.374453623289676463e-01 -8.989444100554304651e-01 -2.158953698212110195e-01 3.811668098350858291e-01
-3.666508476192384403e-02 3.353104573105217256e-02 -5.626879278619087987e-01 -9.508671466854629051e-01 1.589134189180147760e-01 -2.657032078128414576e-01
-3.051804527304304016e-02 1.666256033059765607e-01 -5.573927850831943420e-01 -9.752039750230585557e-01 -2.016989102892054742e-01 -9.107555482879468867e-02
-1.413293063914181080e-02 -2.100734344866665368e-02 -6.344535684329142278e-01 -9.331375772847814165e-01 7.337932799877265599e-02 -3.519513262960338174e-01
-2.238836866064019063e-02 9.467289073254110676e-02 -5.819373418525037867e-01 -9.506428158046670296e-01 2.330567233968603713e-01 -2.048482375772198716e-01
1.441221523644129442e-02 -1.455139150506122581e-02 -7.468200009342244039e-01 -8.749671886269613230e-01 1.689848722069933196e-01 -4.537361918465590005e-01
-1.896166590857396514e-02 -1.200698956155768216e-01 -7.060249356466482551e-01 -9.440868735752587781e-01 1.317061278467019092e-01 -3.022473672846821002e-01
3.713021017196731222e-02 -7.869315504201501721e-02 -8.406497797943323080e-01 -9.442650680101503102e-01 1.676713357011539729e-01 -2.832839644596514828e-01
-3.532620318965280087e-02 3.867364636982118659e-02 -5.632302562529297729e-01 -9.715603652429914971e-01 7.043010880189426448e-02 -2.260753336015634829e-01
6.002318879315503980e-02 3.247260608937759668e-02 -8.210545397964819081e-01 -9.976772590023500475e-01 5.310716197223658286e-02 -4.265813189548078865e-02
2.502007392432181038e-02 -1.313377706502149578e-01 -8.602485333888316710e-01 -9.612816355892915832e-01 2.610998499368476500e-01 -8.811631768141349463e-02
1.254393471160903523e-02 3.892418012737476618e-02 -7.152596769482431061e-01 -9.859078733003241446e-01 1.032218999455640912e-01 -1.316468941375367463e-01
1.084048157241972003e-02 8.276673327273226244e-02 -6.810917059304525401e-01 -9.547991690891503014e-01 1.053739634638030526e-01 -2.779476111259053805e-01
-1.432655094396415290e-03 -7.987478693864669133e-02 -7.439166176618866588e-01 -9.547909746180710533e-01 8.147716236826292591e-02 -2.858945029207270450e-01
-4.965841588078109999e-03 8.573656136325609467e-02 -6.401303934847283328e-01 -9.938998337809444861e-01 6.869769242073163473e-02 -8.627715495006399449e-02
-1.008467847579581737e-02 1.888084693543639336e-01 -6.163335423148089687e-01 -8.353430622954228779e-01 6.328076265028685643e-02 -5.460746408260536144e-01
-7.792370925549421679e-03 2.274092160965306836e-02 -6.409028090874295813e-01 -9.388798460232755660e-01 1.440217917690331528e-01 -3.126697270714702270e-01
1.806366348687959977e-02 -1.084799128860681888e-01 -8.201449433704522951e-01 -7.325992933986388289e-01 6.564049439536177033e-01 -1.800856042693667058e-01
-1.217069639347793941e-02 -1.518059266831258136e-01 -7.448225764171573227e-01 -9.895889654833429638e-01 -3.026518722670077169e-02 -1.407042921724126483e-01
-4.469195991795202848e-03 8.410922333782852589e-02 -6.441611552802021246e-01 -9.946718868219748266e-01 -9.927877060652003094e-02 -2.777702779043242365e-02
2.963186442255097766e-02 -6.227568192844377265e-02 -8.068935130902415986e-01 -8.879048924325702030e-01 3.503443629036867568e-01 -2.981337441081028938e-01
-2.734507771150872235e-02 -1.547743069199164212e-01 -6.916524565257552437e-01 -9.117686550230033049e-01 9.451488505483932046e-02 -3.996809430290794163e-01
-1.946309833062049785e-02 -4.158373593817620700e-02 -6.339013945292152341e-01 -7.996333626272590367e-01 1.435801648348219162e-01 -5.830705117217193090e-01
2.001445756976014470e-02 -6.494968755123523008e-02 -7.858855866240146426e-01 -9.039174599517706410e-01 1.324776431243358532e-01 -4.066729640221489750e-01
4.321523927600111337e-02 -1.036756843428001396e-01 -8.736988892990588118e-01 -5.885819297021777086e-01 4.333507548139647891e-01 -6.824796226483451633e-01
-2.633896832704095761e-02 -1.981237104690778406e-01 -7.236318234220378010e-01 -4.897697128614583728e-01 7.097697564705819362e-01 -5.063126713438006465e-01
2.309238508918468741e-02 4.277618706642344858e-03 -7.569618222503537996e-01 -9.376008308081990039e-01 1.908397391435836254e-01 -2.906628218940013886e-01
3.361485505171831617e-02 8.591749372294950338e-02 -7.309347833439790998e-01 -9.189247802047250113e-01 2.235039389894856454e-01 -3.249972885762003605e-01
-6.484827287824113801e-03 -8.581773985583773801e-02 -7.306453120966796000e-01 -9.421705597297358459e-01 4.695320335139687058e-03 -3.351008659277182611e-01
6.886763822652353963e-03 2.780583011082901276e-02 -7.075408920381851541e-01 -8.513457498709430249e-01 2.532636721958401727e-01 -4.594212952427866870e-01
-4.884773296739335167e-04 -1.821737252143530023e-02 -7.218616274580653691e-01 -8.866317292369005898e-01 1.203054643459492701e-01 -4.465543325944657527e-01
-1.022635277245624282e-03 -1.921749400421047249e-01 -8.496886706346611362e-01 -8.263031465220778138e-01 4.094801158498782567e-01 -3.867158449964051559e-01
-3.382472730985191384e-02 5.547943369043630696e-02 -5.610076882190487835e-01 -9.470669412187626701e-01 1.535106407408740048e-02 -3.206689159901998654e-01
4.128562170265069609e-02 -1.138283731597877074e-02 -7.976729104002380222e-01 -9.065180766356355502e-01 2.440560164217110417e-01 -3.444729852705341600e-01
-5.578780756113528323e-04 5.488743823559790597e-02 -6.784340381723021896e-01 -3.309697805809248550e-01 4.931997412619185117e-01 -8.044955062406446977e-01
-3.386459225663861899e-02 -2.471223018620865852e-01 -8.422319246167725426e-01 -7.696105438825138201e-01 6.346010578004362968e-01 7.057696638017602053e-02
-7.695287399745958865e-03 -6.795389390843781241e-02 -7.211370312601026455e-01 -9.381221824461775105e-01 3.215989661771542218e-01 -1.284557346178301640e-01
-3.278196892636153076e-02 -9.734861931441116112e-03 -5.929825107047511645e-01 -9.121408020850042542e-01 2.274119682504583406e-01 -3.410028648973168486e-01
2.592578631522792290e-02 -3.642800039749069518e-02 -7.802229888141531955e-01 -7.739680574719889350e-01 4.040238783858790539e-01 -4.875839945148613963e-01
-1.280397085287181790e-02 -2.013406534220421595e-01 -8.156373764328948006e-01 -8.445169088901419707e-01 2.396256919472910529e-01 4.789266314973740779e-01
-1.779848078592197180e-02 4.889229038357328916e-02 -6.090502293154864688e-01 -9.496146260435496256e-01 9.699003292798090425e-02 -2.980352252952638281e-01
5.742108568488393794e-02 7.076583711473752314e-02 -7.918356708619148643e-01 -9.271634449932885103e-01 2.476360027286997056e-01 -2.811482819096151609e-01
9.124977040192026184e-03 1.026592486274398447e-01 -6.708514495602484473e-01 -9.341079960371782009e-01 1.950943717825728008e-01 -2.989656131366453806e-01
4.998632399715199903e-02 1.278098512687814159e-01 -7.356472429801738100e-01 -9.606733213729122811e-01 2.553097861524928347e-01 1.091956166570136194e-01
1.347648447072092789e-02 6.687657300584158582e-02 -6.980618124583876094e-01 -9.002018831247496911e-01 2.427017230433779482e-01 -3.615694169180101447e-01
3.217773600549574120e-02 -7.811846036968557450e-02 -8.287052692818547284e-01 -9.312677903786417133e-01 3.122202710147037319e-01 -1.877732807690888628e-01
2.207390960580094626e-04 1.645412139940428675e-01 -6.322868468597728775e-01 -6.392033903395017980e-01 2.481141092407433968e-01 -7.279137411631678711e-01
1.777278863738041351e-02 -5.133899564156791523e-02 -7.735365595639398517e-01 -7.976010430931171902e-01 4.702915580732988099e-01 -3.777015044473088223e-01
3.432396551780463045e-02 6.151953800473384387e-02 -7.480901236099835039e-01 -9.292922059098099874e-01 1.622040262474009897e-01 -3.318220154004429268e-01
-2.042947579203490197e-02 -2.253644169947916498e-01 -7.753412785331585955e-01 -9.243729892706936679e-01 1.670668207749905210e-01 3.429624674842705057e-01
-3.125243267843429151e-02 -3.702842727320930505e-02 -6.038577701462766179e-01 -9.354804418159304857e-01 1.684489607345582285e-01 -3.106465686392155257e-01
-2.297079357233689292e-02 -2.341160809512874419e-01 -8.514510558964160092e-01 -9.535267907356566042e-01 2.988229329594481176e-01 -3.862012541243932395e-02
5.579283427577581139e-02 -3.487791285954849885e-02 -8.534841795101235640e-01 -9.089807412930154262e-01 3.459273079467222178e-01 -2.325689351034093411e-01
4.068966356073935170e-02 9.999460088517868328e-02 -7.381224263993866330e-01 -8.440567900955643355e-01 3.056084383090312273e-01 -4.406490866073449753e-01
1.919003970447163282e-02 -5.739681343761102172e-02 -7.794009164908721754e-01 -8.634512106304055301e-01 2.372197789981678739e-01 -4.451727567056942836e-01
-2.107000405643654622e-02 -1.655868117500801373e-01 -7.234968659620434339e-01 -9.205524504865125746e-01 5.718089096522798592e-02 -3.864110914708573374e-01
-2.793171974533757360e-02 1.962796083718993390e-01 -5.926922476489239200e-01 -9.418223748484977342e-01 -2.168162206857012497e-01 2.568293999570628872e-01
1.137337959334420827e-02 -1.101117623322072914e-01 -8.026051189512279915e-01 -9.444746604367449949e-01 2.262150831966933395e-01 -2.383156560681821690e-01
4.279058618922553653e-02 3.246878637595873585e-02 -7.842946127882244323e-01 -8.198329902617967901e-01 7.306133782529972143e-02 -5.679224498059378679e-01
-2.902067349009832681e-02 1.710728123630300967e-01 -5.685532650711873082e-01 -9.560191253327872118e-01 -1.795223171912113391e-01 -2.319464800945051919e-01
3.672331533328600500e-03 -3.044326786924275371e-02 -7.311779151318539283e-01 -8.943072733292688481e-01 2.482599932263391262e-01 -3.722653309584796344e-01
-4.899658477020917002e-03 1.483920649470174590e-03 -6.672662773442205042e-01 -9.663059625123145979e-01 2.304330454212716039e-01 1.146882661436103013e-01
1.159805694754560863e-02 -5.239658691472189739e-02 -7.577333087204520812e-01 -9.372183400817225563e-01 1.784962329127287306e-01 -2.996011980123332030e-01
1.356141174906154954e-02 -1.367286697851604338e-01 -8.352222750711157939e-01 -5.145843476847096198e-01 6.820359334816015195e-01 -5.196440460139830630e-01
-1.623692949492796384e-02 1.945855709871128769e-01 -6.092712504744451918e-01 -7.640802537074719014e-01 -4.022627358477772613e-02 -6.438658344778109832e-01
5.933134129355716740e-02 3.874828207125781410e-02 -8.154071161227239850e-01 -5.633317155902284323e-01 3.254616379623112010e-01 -7.594287987856790378e-01
-1.023679609420253406e-02 -2.215569885031348427e-02 -6.519210576185539008e-01 -9.633199801960264930e-01 2.239703720838815415e-01 -1.478238417297251805e-01
1.780289255161855710e-02 9.700663837796454081e-02 -6.916771735337570171e-01 -8.783895654888445037e-01 -3.827989868012094954e-01 -2.861760069332963674e-01
1.111325883623829475e-02 1.272166422378496753e-01 -6.589822668566934771e-01 -8.022516498730318801e-01 2.391550050208658962e-01 -5.469891898835553823e-01
-2.918103539871768487e-02 -1.849331232353118026e-01 -7.073848737882756366e-01 2.847474644764096396e-01 6.613938901210029142e-01 -6.938854398132755508e-01
-1.400483483226456528e-02 -6.449308413503260229e-02 -6.841391517734016769e-01 -6.677266199436675542e-01 5.827629015353424924e-01 -4.631722807041819823e-01
-3.082259656876552151e-02 -8.482955485945857521e-02 -6.334969122617785109e-01 -8.672532548902015526e-01 2.864525954507592398e-01 -4.072059705380983163e-01
-1.347358986102769295e-02 -1.677510792077649138e-01 -7.528924171615544170e-01 -9.693266056303386780e-01 2.313156920953240714e-01 -8.306011201308875769e-02
-1.219975054662889892e-02 1.377684027251577514e-01 -6.244421764053087465e-01 -9.110549052074042864e-01 1.729331385275751087e-01 3.742633956140117291e-01
-9.848743188870946741e-03 1.001033414589171666e-01 -6.243093033249164092e-01 -8.439122969620153070e-01 1.791432539741089625e-01 -5.056873832634772858e-01
-2.902054824289710538e-02 9.569552373965659053e-02 -5.491241703126562568e-01 -9.246780243573433644e-01 -2.100006253147082835e-01 -3.176008322376244752e-01
-4.210657049983913304e-03 2.056783688588306735e-01 -6.213736356516809112e-01 -8.320745491175586261e-01 2.011906899828101170e-01 -5.168890122405893628e-01
3.124889917093873117e-03 2.255726054187889851e-02 -7.029105130884322206e-01 -9.028597453398474748e-01 2.493207361523078203e-01 -3.502619744838668669e-01
-2.523691725148266216e-02 1.320816991770931703e-01 -5.660629509352228528e-01 -9.786243104112306579e-01 -1.041635049995841417e-01 -1.773257547519385968e-01
-3.081484854363689824e-02 8.523329989956619779e-02 -5.498846796799431447e-01 -9.618121617190016348e-01 2.436436913575392715e-01 -1.247201556729833766e-01
-1.332180129592399655e-02 3.154339477849055825e-03 -6.307490990003872255e-01 -8.599388712726039330e-01 2.725798937636011998e-01 -4.315151668136633645e-01
3.605709124645059549e-02 6.055589663211015383e-02 -7.514370917899140245e-01 -9.306165647192469192e-01 2.125968217790912274e-01 -2.979184466252077224e-01
1.730553421690307278e-02 1.762695034291534846e-01 -6.516585178123721622e-01 -6.913896279865326955e-01 1.498924265724223270e-01 -7.067620835676421409e-01
1.603233607014452333e-02 1.841444676266764391e-01 -6.476951562468336032e-01 1.651665660510673594e-01 6.329049853632205680e-02 -9.842328577394284794e-01
-2.094789374623292830e-02 -2.310690276932829690e-01 -8.534119371421173827e-01 -7.059189931205230861e-01 6.945841644046329977e-01 -1.386766516397929527e-01
-1.131750488849662256e-02 -1.795657265713400119e-01 -7.813248925030910064e-01 -8.782314476670054493e-01 1.937431684398986664e-01 -4.372334719707368089e-01
-1.523553604386025662e-02 7.837188079647069983e-02 -6.126315452993953414e-01 -9.168128330495697309e-01 7.538219112963402690e-02 -3.921374177710117426e-01
-2.034571038606678220e-02 1.448807433346410156e-01 -5.933444037402174631e-01 -6.476728517114824779e-01 -1.472396533137948493e-01 -7.475562598547010884e-01
-1.782313844978624870e-02 -1.721924384818586951e-01 -7.375431122061105738e-01 -9.482301164378162950e-01 -3.162627895162506420e-01 -2.893949287263468742e-02
1.719791671585558374e-02 -1.180004367554192829e-01 -8.264841521426395943e-01 -8.917633897860610670e-01 4.457567431053203189e-01 7.783946693940696493e-02
-1.260584217471907333e-02 -5.457694538975415427e-02 -6.785150077135432278e-01 -9.366482986198707561e-01 2.580453853083390925e-01 -2.368597555803268473e-01
2.811895149243516870e-02 -3.468930830704919366e-02 -7.833265491072374243e-01 -8.613911689948720030e-01 2.767042400045798267e-01 -4.259577649734015981e-01
-2.836861816821316384e-02 7.899769914334749121e-02 -5.657087709582657720e-01 -9.624173339908600466e-01 1.055837917942998999e-01 -2.502097882662927542e-01
-2.025763871130443344e-02 5.194772809844879630e-02 -6.029982248134505562e-01 -8.093788046159693383e-01 -6.080854647583217032e-02 -5.841303547273682950e-01
-1.888318785611634715e-02 -2.221167258062806127e-01 -7.767293043666547714e-01 -9.828034654970181361e-01 1.721993939020052544e-01 -6.666871040325723918e-02
-1.504187059306302462e-02 -1.716617226758608838e-01 -7.469268866923183259e-01 -9.208373072196511799e-01 3.278928972640301476e-01 -2.110566311591795252e-01
5.779457181362799775e-03 -1.327558247899196520e-01 -8.036664471245749120e-01 -8.840143766560216720e-01 4.561645000083319745e-01 -1.021397611002390904e-01
-3.273131856417602764e-02 -1.463846794272719021e-01 -6.678434813493323574e-01 -9.494780806749361091e-01 1.770343329760386553e-01 -2.591335934717239886e-01
-3.247776264381908862e-02 -3.412100354617534064e-03 -5.922731114929772334e-01 -9.305098629957326839e-01 1.075341063455405033e-01 -3.501254215850782003e-01
4.381326452094421592e-02 3.610122895527142356e-02 -7.830560288116807932e-01 -7.302984960117772095e-01 4.027310297112011717e-01 -5.517896559656512157e-01
1.907632066424065978e-02 -1.311880335627998440e-01 -8.445183417749926313e-01 -9.524296148149670183e-01 2.983877728591726730e-01 -6.198843304646757535e-02
4.126506305510087985e-02 -5.391948082034528356e-02 -8.345992643274743328e-01 -8.830249582235246697e-01 6.619228561843376601e-02 -4.646348076489213441e-01
5.600686647182712141e-02 -2.929599106326538985e-02 -8.511032041985523433e-01 -9.171483533751283446e-01 -1.552262286716532547e-01 -3.670745371633208354e-01
-1.757692401927114789e-02 -1.031811260768321636e-01 -7.038294297438107971e-01 -9.455404062739281024e-01 -6.864144273928611539e-02 -3.181849971981772218e-01
-2.798998049170054597e-02 1.645781886209484735e-01 -5.679386474724753553e-01 -9.684843918889167735e-01 -1.565935956548303032e-01 -1.936915807861727401e-01
-4.314349938432920223e-03 -1.001178469884527189e-01 -7.498105015395029049e-01 -9.223070107453892330e-01 1.271497575944762481e-01 -3.649420735864395415e-01
2.360559155565939565e-02 -2.167842088182939803e-02 -7.653791732270944781e-01 -8.363372610895332127e-01 -4.315619466037843854e-01 -3.380743586207183848e-01
-1.192502594920310903e-02 -2.988259975544658997e-02 -6.516483101166167247e-01 -9.635397274322745620e-01 1.757288724898381505e-01 -2.017685729572081255e-01
-3.523544936465864558e-02 2.030879829679375081e-01 -5.745523254421135428e-01 -9.182607789239889406e-01 -9.465501101721063293e-03 -3.958630396725640876e-01
2.480367227465121380e-02 1.634115796981436275e-01 -6.683467266089300196e-01 -7.877183793608213414e-01 -3.573475983063118672e-02 -6.149981965477687718e-01
9.306514992809820572e-03 2.468836533613989401e-02 -7.138648513211286462e-01 -8.729773368276000367e-01 2.017507476157914259e-01 -4.440801788211902190e-01
-3.142953174638671993e-02 3.180656854516086124e-02 -5.811957970256662609e-01 -9.884411390929161989e-01 1.198352567446925587e-01 -9.286347931039226622e-02
-6.772712613700657310e-03 -1.436689017849661631e-01 -7.623787383557537600e-01 -9.157232090141785852e-01 2.171756565940041184e-01 -3.380617379351561480e-01
2.621040624714666978e-02 1.506640308438375875e-01 -6.743799878289322702e-01 -8.727374586773707366e-01 1.905291420002202252e-01 -4.494752209744432014e-01
2.142453499451308155e-02 -7.337418197689797583e-02 -7.949729173764007450e-01 -9.203974800776025811e-01 2.183570054304005970e-01 -3.243280697785302369e-01
-2.673411271675107601e-02 -2.431896432187508617e-01 -8.110111611903163542e-01 -8.132225975757694236e-01 5.334277391319443007e-01 2.326453393401645420e-01
5.785360912060596300e-02 5.800727453950042800e-02 -8.008176188234334969e-01 -9.775714930148501347e-01 1.962103889734143347e-01 7.652097296570516127e-02
-1.752394664339520375e-02 -4.431746799301621714e-03 -6.245544695259118706e-01 -8.693561778498921644e-01 8.547118387927497840e-02 -4.867386493391517854e-01
-2.420603200256072132e-02 1.873321850716564152e-01 -6.017325945587025382e-01 -9.090316606346667827e-01 -2.436633370693629466e-02 -4.160140883978116211e-01
1.219607364711214077e-03 -1.624667032231238151e-01 -8.221485408026919517e-01 -9.728316305187615365e-01 -2.204388058816237894e-01 7.074850898564027935e-02
2.350728250208045794e-02 -1.081283177959950076e-01 -8.336645071985385735e-01 -8.962880338962496696e-01 2.185614774618054867e-01 -3.858738665213126140e-01
-1.574304305397440998e-02 -1.680597730385520461e-01 -7.418349373742045838e-01 -6.941740116295062046e-01 3.040669906086741481e-01 -6.524306145486911124e-01
-3.330694502474366298e-02 2.283517924980372482e-01 -5.918103563679051327e-01 -9.193535389371593203e-01 -1.408510519826531582e-01 -3.673554839649202375e-01
1.519040042245569343e-02 1.027968263784620473e-01 -6.831723964085446577e-01 -7.693348332350518071e-01 3.745411477652286214e-01 -5.175353543497297482e-01
2.530848296372624137e-02 2.051928793745181473e-02 -7.541355059524849080e-01 -7.962290676779384402e-01 3.947242005315493296e-01 -4.584889064082687815e-01
2.085081095076664337e-02 -8.409111048615708350e-02 -8.031361569924602151e-01 -7.760053308370096214e-01 2.635645281096613002e-01 -5.730178583908837053e-01
-2.618888906683208839e-02 -1.463391870226480318e-01 -6.925238988437126819e-01 -9.286636924653428604e-01 1.542894750145112643e-03 -3.709196217139569818e-01
4.398995565211801656e-02 -4.345094554316010493e-02 -8.355768108201260258e-01 -7.965349829981580587e-01 3.580303306496893101e-01 -4.871820021254871236e-01
-3.119270757079256953e-02 1.662484463601787144e-01 -5.521493798866965452e-01 -4.733810685162474496e-01 -1.819015939906806489e-01 -8.618713210648474288e-01
-2.793508748376009182e-02 9.638695935157673422e-02 -5.606288271001654833e-01 -9.917299670482552232e-01 8.160174609568716930e-02 -9.905971680053077266e-02
-2.763089497280795531e-02 -1.664927068988927839e-01 -6.944449097029861129e-01 -6.970034745539311904e-01 5.208988879959600693e-01 -4.927986454367742075e-01
1.473093400525483064e-02 9.928553488675551097e-02 -6.834569874819321766e-01 -9.830348470093428492e-01 5.508073638628238622e-02 -1.749531424252300515e-01
-4.990824338435249051e-03 1.048680871071174144e-02 -6.615885932020167948e-01 -9.818246169193375339e-01 8.864228861495482281e-02 -1.678182537160334553e-01
6.234553373714898233e-02 3.475493031865434235e-02 -8.199333875404175576e-01 -8.024819745470326282e-01 4.908580417400551510e-01 -3.392359995434062192e-01
2.702282384544602706e-02 -9.979173996447247841e-02 -8.349986459732210431e-01 -6.518575886832025379e-01 3.164287142276623888e-01 -6.891694660156884034e-01
8.163492528720785527e-03 1.648643292928284321e-01 -6.427255065554177138e-01 -7.932771292154935372e-01 1.341096628331523155e-01 -5.939073956421180300e-01
-3.605056385895404752e-02 2.280255477796280794e-01 -5.886911528707353680e-01 -8.861842655075267139e-01 -1.203367626837439086e-01 -4.474332476623544830e-01
1.000633451715770596e-02 1.668850077993279390e-01 -6.447288299380015131e-01 -7.465983679002416995e-01 7.964802568940868022e-02 -6.604900219174204556e-01
2.494018532979687484e-03 -1.889283951129925310e-01 -8.585855560321795643e-01 -8.126159906328096483e-01 5.782851648866770278e-01 -7.239834141640431875e-02
2.051460766149124787e-03 1.289670944787597029e-01 -6.447311280262399968e-01 -7.399345576812590419e-01 2.623304707728160157e-01 -6.194187391846909252e-01
-3.417796471431400890e-02 3.620247372824460935e-02 -5.681820575419236352e-01 -8.600448305813032102e-01 3.606633210948085311e-01 -3.608945250447014863e-01
1.488662652149261474e-02 1.576709417677164549e-01 -6.541597020374874116e-01 -7.196975903137577957e-01 1.381445849229875344e-01 -6.804053587039317064e-01
-1.945589651726553973e-02 3.261290009141021989e-02 -6.100226803421050503e-01 -9.385957389900504433e-01 9.561930008317888474e-02 -3.315041299913532580e-01
3.465575168620548679e-02 -1.201008844782860685e-01 -8.682136380833777034e-01 -8.285334953182157403e-01 2.807466341710249114e-01 -4.844724703607223293e-01
-2.751337635084730865e-03 2.036547396517020617e-02 -6.682991349382385593e-01 -9.668848660993466515e-01 8.380356031590660559e-02 -2.410614423470218148e-01
9.720626507188906765e-03 2.164934071174304531e-01 -6.341836289165514451e-01 -6.542786779461067237e-01 1.797588801910356693e-01 -7.345788974491165302e-01
-1.816645268011989403e-02 -2.215364321001196124e-01 -8.145335380047139529e-01 -9.715577642966033434e-01 1.601887409829365061e-01 1.743991912174120695e-01
-9.332402921024263859e-03 -6.069331528458698360e-02 -7.030700375755821740e-01 -9.800669442385483432e-01 6.230746679005019079e-02 -1.886440149941714384e-01
-3.134362859458504386e-04 -1.333533544611053001e-01 -7.900295366952837517e-01 -9.029940420898698861e-01 2.368445508132217547e-01 -3.584779194040845773e-01
2.443208519280423707e-02 4.401496055684599173e-02 -7.393688263951512241e-01 -7.982899370838176800e-01 1.935118410989181137e-01 -5.703387972996588617e-01
2.531976012161775424e-02 -9.767192856186882044e-02 -8.256705807048662082e-01 -9.144101902375009194e-01 2.742688636833609528e-01 -2.977089088415989515e-01
-2.521844532174432815e-02 -7.111202624563585373e-02 -6.393349324292131319e-01 -9.367004813771179217e-01 2.913210707121332566e-01 -1.942272945469089573e-01
-2.592513350797944621e-02 -1.361821708713885082e-01 -6.904538776514221876e-01 -9.824546917713188332e-01 -4.535843581526063234e-02 -1.809016056228240354e-01
4.827490105568241208e-02 -3.200470526376979208e-02 -8.373114487727948418e-01 -9.660082242968166533e-01 1.785598965658050374e-01 -1.869344107683762468e-01
3.947275259115981538e-02 1.680162339347860134e-01 -6.911810814889396415e-01 -7.785595572382164598e-01 2.513083535915662248e-01 -5.750557601208151626e-01
-2.026675966179879509e-02 -1.158232960648891280e-01 -6.999589039901601417e-01 -8.928347033885465356e-01 1.151257747666692005e-01 -4.354219199919317496e-01
4.559649442563919186e-02 7.411823036586191737e-02 -7.628549250073620724e-01 -8.969248663800974963e-01 2.970342789698383057e-01 -3.275613243133452257e-01
-3.557013191379271300e-03 1.784138426784540044e-01 -6.274321568285208262e-01 -6.898079357451064597e-01 1.196142197087056852e-01 -7.140430310748453469e-01
-1.038542765117876458e-02 1.078613418434566096e-01 -6.238119252534013448e-01 -9.566535902154369442e-01 -9.025670086810698434e-02 -2.768892130010122687e-01
-3.005515716157467366e-03 9.815428910437615229e-02 -6.499314122040258379e-01 -9.659925704398620860e-01 -1.730512725730671553e-01 1.921239467526885680e-01
-9.094908401178013191e-03 -1.311689563814797711e-02 -6.476139792161791364e-01 -9.797635107139526234e-01 1.264632622197758016e-01 -1.551467253350926612e-01
4.886532813577391249e-02 5.340765621183805184e-02 -7.843172564467441044e-01 -5.943302241469330394e-01 5.831484315521929807e-01 -5.538135890745853329e-01
2.889365254539687927e-02 1.007476018992541911e-01 -7.148753264098947069e-01 -8.413206503787959978e-01 1.752774485015935746e-01 -5.113290323196707510e-01
-3.080938738287137407e-02 -4.403599567151616351e-02 -6.093589307596514182e-01 -9.292151257660468122e-01 3.032973719363847853e-01 -2.111159733986791576e-01
3.341089117098901967e-02 1.060168995136991227e-01 -7.188783016931981074e-01 -8.336312284389204574e-01 3.610575364491193096e-01 -4.179670206424299095e-01
-5.030812724480646439e-03 -4.855001512606697128e-02 -7.097963150228990825e-01 -9.406355303989577532e-01 2.779624561915569059e-01 -1.947862210194251376e-01
-2.358148214192074335e-02 6.626096039856710362e-02 -5.893476721114346839e-01 -9.768181677639486971e-01 1.709547544745158298e-01 -1.288438553010579357e-01
-4.251679409873500293e-02 2.310778493359244290e-01 -5.805348170293507248e-01 -8.078255987745630584e-01 -2.262553856415645270e-01 -5.442667566852724681e-01
-6.440754416600249881e-03 3.107872054037475688e-03 -6.585982387253848103e-01 -9.755037406743316541e-01 8.535385042940075995e-02 -2.027490373522441713e-01
9.215889411833714379e-03 -1.579311290252883859e-01 -8.389319028007042878e-01 -8.989985856941136166e-01 2.581857694370746636e-01 -3.537536591756601512e-01
-2.068946129779054149e-02 -4.439487884708941817e-02 -6.329402392245357944e-01 -9.205558264540695257e-01 8.582681104076196610e-02 -3.810652554196437003e-01
-2.181820617550861083e-02 1.031066990754513218e-01 -5.826295117012768587e-01 -9.842475361933848976e-01 9.532531521865615642e-02 -1.488955062307627253e-01
