1.702107640650275810e-02 -1.290889526775852725e-01 -9.259109479517075858e-01 9.643488552818076931e-01 6.496547320171423834e-02 -2.565361039080935601e-01
1.016684410368278932e-02 -9.564021663798082107e-02 -9.281002868090315605e-01 9.444210880580508061e-01 2.498118529782399067e-01 -2.136886673242768542e-01
-4.469615416226577903e-02 -7.179111849983823949e-03 -9.868807998307637108e-01 8.478308199910008502e-01 3.617437129243108451e-01 -3.877168900539680330e-01
4.301428105719262707e-02 -7.279286722054714720e-02 -8.188551718312584438e-01 9.229399198183800834e-01 2.088832601944576595e-01 -3.233414418477412733e-01
4.285147715055460937e-02 -3.784667802631191263e-02 -8.036591101096397516e-01 6.927453080793336548e-01 -2.624885838814328132e-02 -7.207044717270653100e-01
6.874497303625061104e-03 -1.005159369996037610e-01 -9.388600563472057070e-01 8.109715222705584647e-01 1.060732749307195383e-01 -5.753899985328601030e-01
4.040323692703751135e-02 -1.170795008386961572e-01 -8.519140461628859073e-01 7.705207504112440153e-01 3.762790188857248475e-01 -5.145015773854240138e-01
-4.333386082324730201e-03 -1.209198652343638769e-01 -9.719251087505598186e-01 8.450978197098270028e-01 2.856430022166286942e-01 -4.519045810858388079e-01
4.779822549796165776e-02 -8.005417985838002293e-02 -8.093097888557911901e-01 8.439031403973477063e-01 1.577176547951273100e-01 -5.127890706649460562e-01
-3.879439877140439252e-02 1.304989420376434506e-01 -9.137008654001179675e-01 8.657201746598632841e-01 1.584843707033933569e-01 -4.747749818910482200e-01
3.238499412381726922e-02 -1.803090389552060857e-01 -9.232423240974203527e-01 8.569723035652975218e-01 4.001502581791888669e-01 -3.247741396741984365e-01
2.317136035779873010e-02 3.379612691869903623e-02 -8.222568390756995749e-01 9.919478754398949327e-01 2.709565019238247344e-02 -1.237143409267106031e-01
8.473586933055813133e-03 6.506579705535346647e-02 -8.508348310938964598e-01 9.561136938053231837e-01 9.488841419950570788e-02 -2.772053270928309110e-01
2.549963200568518620e-02 1.873916702162185255e-01 -7.914396572237932803e-01 7.168780076656017242e-01 -4.529308393845164482e-01 -5.300373353451950376e-01
-3.766148299099510849e-02 6.685337792412730795e-02 -9.326722127197116796e-01 8.762872588761295711e-01 2.149464830937983795e-01 -4.311828490756171584e-01
2.265027555499692438e-02 -2.172300283266284313e-02 -8.585701818501724203e-01 9.519798587614765051e-01 2.650970232552198325e-01 1.531597753122549699e-01
-4.972984912069437768e-02 -6.908783447174596769e-03 -9.972491184679079801e-01 6.187407043784978189e-01 4.659795236185749756e-01 -6.324737340897297333e-01
-1.377881818386541939e-02 1.082095507176659560e-01 -8.761736974292078095e-01 8.063070692844336307e-01 1.921383199644486617e-01 -5.594209291965991371e-01
2.852118865484123619e-02 -1.328400804268349000e-01 -8.928546059650588340e-01 9.225550051227709991e-01 3.432705192276097050e-01 -1.762317030279489105e-01
-2.835572508891759380e-02 -1.723722782800365116e-01 -1.048151007403257173e+00 8.681672653266050421e-01 3.568580671302404306e-01 -3.448737730523916967e-01
2.880816991355761997e-02 -2.147233765620914225e-01 -9.714525374239091349e-01 7.756198532319892314e-01 3.960446408884964464e-01 -4.914900667316575711e-01
3.647079242041493391e-02 -5.132828245450050779e-03 -8.027293151330017196e-01 9.092200133921199967e-01 1.585294979341582422e-01 -3.849511209646969134e-01
-8.942331979089408051e-03 -1.690097367488494207e-01 -1.014497507915916197e+00 8.264894117332017842e-01 3.068523360736913341e-01 -4.719712874095461919e-01
4.919619051350393457e-02 -1.705200816913265971e-01 -8.666350532848148269e-01 9.380314028866468812e-01 -1.848235220682242219e-01 2.931507340751605128e-01
1.690555884960732308e-02 -2.011862041751566743e-01 -9.919508983997452622e-01 8.436431101361393514e-01 4.032488674524883354e-01 -3.544808226379915772e-01
1.338053829812983764e-02 -1.928880868259182438e-03 -8.707701797671804078e-01 8.635187219828339700e-01 1.189877830499670858e-01 -4.900788959647079390e-01
-4.706016840614581087e-02 -8.129926018175229196e-02 -1.031888329233350277e+00 7.457827636750571365e-01 2.061500588176983506e-01 -6.334905071543323052e-01
-2.872110382782752311e-02 1.467234546197934975e-01 -8.895246664250157087e-01 8.153301572020129617e-01 2.051907455704352623e-01 -5.414180387548881423e-01
-2.521069324816194862e-02 1.275411993599325500e-01 -8.916649035773596133e-01 8.222197445713135266e-01 2.564841172811271885e-01 -5.081048998185362375e-01
3.568775952336485091e-02 -2.335463548405253553e-01 -9.613893717659737215e-01 9.018863941305654830e-01 4.244320658850336270e-01 -8.036388200384848857e-02
3.873327813938446523e-02 -2.181446902642701913e-01 -9.365863268830837418e-01 9.356435488371592779e-01 4.797360804281158159e-02 -3.496708201305349650e-01
2.443757532455797729e-02 5.527046440738601907e-02 -8.103656194379490474e-01 9.231461885526300870e-01 2.861395650412068004e-01 -2.567591553942735749e-01
-8.156887591800167717e-03 -9.824381292913249297e-02 -9.718326653845292817e-01 7.834522631489242439e-01 2.606195354712163015e-01 -5.641631050481730192e-01
-3.257886545341220214e-02 -9.260451897745364258e-02 -1.012128649592324514e+00 7.973475569600674273e-01 3.382846837303407073e-01 -4.998003062856957168e-01
2.163417596353452502e-02 7.877975574368319134e-03 -8.452482604233819696e-01 9.584372885926963903e-01 1.770834562085099040e-01 -2.236949113688749824e-01
-4.411162297475833619e-03 -1.305413759519951644e-01 -9.792412377180317318e-01 8.113619703284352669e-01 3.851773090461542148e-01 -4.396932950372597348e-01
3.975620537697741735e-02 -1.996173528067619329e-01 -9.208390410449350805e-01 9.519909322407865693e-01 2.904444543326497596e-01 9.672271645651404903e-02
-4.754234444713833357e-02 1.007045925437292933e-01 -9.458110217651639617e-01 8.355755134436343434e-01 1.131148303194223631e-01 -5.376044982096177538e-01
1.548698567067024502e-02 5.276597746042264309e-02 -8.342430134161683553e-01 9.619664839545137847e-01 -2.204137705839713177e-02 -2.722768103338208956e-01
-2.811285582638381811e-02 -1.043959518236487888e-01 -1.010183416950224622e+00 7.259698322159392481e-01 4.987118894442106320e-01 -4.735549113242796260e-01
-3.132085842967079897e-02 -2.137871570138651089e-03 -9.542580520092766028e-01 7.907705685202218726e-01 4.448207749297681812e-01 -4.204954056266078100e-01
2.875871934270584837e-02 7.973703774125188992e-02 -7.736788837407641006e-01 9.753805405735952450e-01 1.334167701553985175e-01 -1.755926151968311977e-01
2.378972323592951424e-02 -9.892875691491531676e-02 -8.887780094019566146e-01 9.681601074730742384e-01 2.075284339712554216e-01 -1.399926976351382191e-01
2.191890295821837670e-02 -1.752920277103003077e-01 -9.537020660095479885e-01 9.144603093064538335e-01 3.405574378233087174e-01 -2.185931706306669664e-01
4.320877855389299027e-02 -1.998724401907877313e-01 -9.017551503277803082e-01 9.261246796656097402e-01 -5.152698842613433888e-02 3.736817458453173812e-01
-6.402195302362477351e-03 1.236353265049808664e-01 -8.618647073288088212e-01 8.866531560199945039e-01 5.790123625405771760e-03 -4.623988055652670792e-01
-2.102379753342175500e-02 -1.927153976214239506e-01 -1.052284134709737806e+00 9.122810113864604498e-01 3.031093281322984057e-01 -2.754416298653546979e-01
-4.012947279795837235e-02 1.335904585778912301e-01 -9.161214837129926236e-01 8.701509349396348014e-01 1.207214582984212498e-01 -4.777694840924666120e-01
2.518710728489727269e-03 -1.291987525183086460e-01 -9.662028314868179590e-01 6.684149379574455541e-01 4.559012429266895983e-01 -5.876865894447852456e-01
-5.656016985410023540e-02 3.087944329697561024e-02 -9.908137622673771627e-01 8.710669875258134631e-01 1.529116784263055695e-01 -4.667550983583940716e-01
3.356862053133712054e-02 -7.508796134213591156e-02 -8.378028958016286998e-01 8.960593832625022293e-01 1.021763915235800457e-01 -4.320157018933967752e-01
1.704405769163981968e-02 6.885314095111863542e-02 -8.264646513256460603e-01 9.247624170714850989e-01 7.983539743592320270e-02 -3.720763111088269404e-01
8.944043361809737164e-03 -2.051398706784067216e-01 -1.017324194370563539e+00 6.981497100023611457e-01 5.429946102441832734e-01 -4.666302987048592810e-01
3.877616099617167342e-03 1.399775393057375028e-01 -8.445854029506649763e-01 5.854882367491460737e-01 1.636027485649570457e-01 -7.940010486708232174e-01
4.522221300045981864e-03 1.909082207577797730e-01 -8.358001990979094797e-01 6.942568497789146642e-01 1.349906063400770628e-01 -7.069547105260673980e-01
3.719050887943078226e-02 -4.655216432338905169e-02 -8.213994946347404902e-01 8.837196791703751941e-01 3.551645067577596238e-01 -3.047912429623366726e-01
-4.950857583261063059e-03 2.036577333192975403e-01 -8.448887155609897670e-01 6.290753011888053914e-01 -2.195578534293615991e-01 -7.456933782941246314e-01
2.530558634463100573e-02 -6.257057705507597378e-02 -8.592917959173539399e-01 9.680473617297362665e-01 -4.248260278945770185e-02 -2.471427399466350205e-01
2.457377607036341158e-02 -9.756011610861520245e-02 -8.848133471600372335e-01 8.282173353462229937e-01 -7.201812061654093433e-02 -5.557602322358656810e-01
-2.348399632878763604e-02 -1.714844877859413863e-01 -1.038865612274297412e+00 8.801214625254645263e-01 2.139350836430247149e-01 -4.238136278940177193e-01
7.048246896180081732e-03 -6.955234977756802328e-02 -9.177389193296225933e-01 8.767979950610695905e-01 1.972775056542898364e-03 -4.808548471373295663e-01
-1.209231838498734182e-02 -1.640624062905891856e-01 -1.016181745216257148e+00 7.837632784281471920e-01 2.388220345914667531e-01 -5.733054676009593509e-01
-5.498054491606434169e-02 -5.806390255602614410e-03 -1.007395046156261076e+00 8.833495556489806555e-01 2.881301455839451187e-01 -3.696952552312822160e-01
3.741358496941676881e-02 -6.195364877147441912e-02 -8.271558717370639524e-01 8.264966928811003921e-01 -7.894480835536149543e-02 -5.573786270483818139e-01
-4.171362273203219756e-02 2.835814123672554532e-02 -9.497264556869070562e-01 4.917390631220033281e-01 4.239648194992202690e-01 -7.605567208478851704e-01
-1.412961427022616824e-02 1.960501850101541155e-01 -8.560222897529082831e-01 6.264461500515393633e-01 1.126754140026915291e-01 -7.712778177576004035e-01
2.012827849957422865e-02 -1.274625252374155804e-01 -9.155830435790178745e-01 9.116869762800268173e-01 1.597612956454964039e-01 -3.785540723530178009e-01
-8.485090026007667194e-03 8.647017422623927072e-03 -9.114881734244747458e-01 7.718000020732382893e-01 3.496486643674174277e-01 -5.311031616417192236e-01
8.510967068018356063e-03 -2.111643058519518112e-01 -1.024001032780532672e+00 6.513347487270945146e-01 5.073976880215755880e-01 -5.641902438814166976e-01
3.996882003669360861e-02 -2.324501634481875023e-01 -9.433274568301061036e-01 9.366197281351910098e-01 1.160115884432627170e-01 3.305825104491033617e-01
8.922085654642226667e-04 -9.300206052080910168e-02 -9.486446431581664340e-01 8.558455956472379444e-01 2.575190500218730860e-01 -4.485668905381407501e-01
-1.807752615977436389e-02 -2.364544843079620373e-02 -9.452151293903686691e-01 7.694324013841151721e-01 2.864007513740786659e-01 -5.709188990676670183e-01
4.055085783354856616e-02 -5.542219238437285679e-03 -7.914317347938922831e-01 9.360129224192185182e-01 1.383807403699593153e-01 -3.236210434426284310e-01
2.593586874965340267e-02 -3.179891423686961871e-02 -8.513987447791281360e-01 9.127773320777008426e-01 2.457869227658138478e-01 -3.262304869910634952e-01
4.015826959395652623e-02 2.412347953856546767e-01 -7.966965010286037874e-01 7.542309955476675931e-01 2.958865915268912294e-01 -5.861627165811322815e-01
4.588336639108639425e-02 -4.319980751500798397e-03 -7.738650399375638367e-01 9.346392902919600232e-01 2.822758905849626632e-01 -2.162630773780103433e-01
-5.238033522749457188e-02 5.547358027812702291e-02 -9.667014756730398783e-01 8.980874636612687922e-01 1.353054937618792253e-01 -4.184869543633625288e-01
-5.683860260736148945e-02 9.118264209361726796e-03 -1.001965599396138273e+00 8.726437030590867838e-01 3.160951519974484758e-01 -3.722590796676880642e-01
4.468826772958232885e-02 -3.947961304509194774e-02 -7.988883193293014884e-01 9.000527598384007177e-01 7.799834308553875439e-02 -4.287438489158630905e-01
7.536287592667492360e-03 -2.078039039801428400e-01 -1.021784522564948894e+00 6.026043387287127739e-01 5.077287839667022906e-01 -6.156943177235149056e-01
-2.931653173139498175e-03 1.548668765985725115e-01 -8.500823695195960372e-01 8.076962621437603351e-01 1.937434211855238175e-01 -5.568574636891623353e-01
3.016655354297187973e-03 2.088858486862248953e-01 -8.358784331133600753e-01 7.287425902985249504e-01 5.439908320664566671e-02 -6.826235982086119591e-01
-4.429996885552085067e-02 1.193514098315883870e-01 -9.302492528779822134e-01 7.333661236575536035e-01 1.221826409728433288e-01 -6.687641818431925289e-01
-4.925687810024408086e-02 -3.959179920429497374e-02 -1.018056941290720774e+00 8.241729349635641411e-01 3.148149012054528018e-01 -4.707765406777884576e-01
-8.374012206530292990e-03 2.195675279084200737e-01 -8.461509205293960001e-01 6.716620084219491194e-01 1.971395766422697760e-01 -7.141471373350873897e-01
1.008172325016190758e-02 1.374278190573882397e-01 -8.316377841164116491e-01 9.946326468731538917e-01 -9.897098094936844503e-02 3.017685709320067425e-02
-4.465525885684113599e-02 -1.198354999210001770e-01 -1.047307641290317282e+00 8.427937459084691163e-01 -5.026209624941041509e-02 -5.358847110509737943e-01
-1.307914269512272499e-04 2.144858072113740299e-01 -8.386322152061383983e-01 8.104927741036486166e-01 -2.993960278778206446e-02 -5.849829769409377045e-01
-4.304514841762192845e-02 2.345183601108484506e-02 -9.574051153029072836e-01 8.630978611585593541e-01 3.758701689814382130e-01 -3.373183928180986113e-01
2.004277401481960319e-02 -2.396876805226561546e-01 -1.049351193969552565e+00 8.217190544634684901e-01 5.698923992628687207e-01 -6.699209461247099999e-04
3.644957273051161600e-02 -2.192568639124212737e-01 -9.514255953722098313e-01 8.791196845381957781e-01 4.609185425848792983e-01 -1.212545972691103091e-01
-1.247402563655015950e-02 1.412842258925220973e-01 -8.658243751230823015e-01 7.653488838172113340e-01 8.538206021531151435e-02 -6.379271038552425388e-01
3.407203281233124603e-02 2.012753168513854440e-01 -7.695604252150470836e-01 9.996455883834369782e-01 1.554854985449240050e-02 2.160879966481717152e-02
4.430652896299982352e-02 -6.381864860843451670e-02 -8.118368948482090897e-01 8.969247127044531753e-01 1.817339921203571518e-01 -4.031114186525011633e-01
-5.688435138021118859e-02 5.883468189870127985e-02 -9.761798407845397874e-01 1.520583184907927099e-01 5.193200477162989159e-01 -8.409428968828345230e-01
-2.764832431806048957e-02 1.374524184024922824e-01 -8.913152537412394327e-01 7.416006089937597912e-01 3.967346082734962143e-01 -5.409530361668745124e-01
3.546792644004889000e-02 2.108120786229487897e-01 -7.779969647875569772e-01 9.667414392792857969e-01 -2.107935069368425396e-01 -1.448346885710806442e-01
-2.973161319831179109e-02 1.146391118082707578e-01 -9.047759753104043234e-01 9.118374193991675147e-01 4.428837385567047091e-02 -4.081556817253519931e-01
-4.027716004557427287e-02 -7.907091287836878757e-02 -1.019638776123458879e+00 8.642681435567539650e-01 1.792772452246445547e-01 -4.700002610399536818e-01
3.483048572845719865e-02 -2.308137609045790850e-01 -9.703652151665810299e-01 9.946468348276890081e-01 -4.656468481827303468e-02 9.224643134037567582e-02
-1.475274978005598238e-02 3.202856811667606496e-02 -9.065213496976179952e-01 9.330089076737572151e-01 2.154474247739757986e-01 -2.882304379479798118e-01
7.676217002290119419e-03 1.325502352484146107e-01 -8.392562765315871864e-01 7.443576506599091092e-01 8.628046212729666153e-02 -6.621837885052461736e-01
-2.524294268217481749e-02 4.239787193242155333e-02 -9.145893496207189166e-01 8.453918152895483207e-01 2.011106170389082570e-01 -4.948405787278075119e-01
1.416297441659454190e-02 -2.264540313061618737e-01 -1.033424457608858038e+00 4.951191936852107900e-01 6.236773789320538830e-01 -6.048830556834516869e-01
-3.198576223495547960e-02 -6.434661168371508255e-02 -9.978489453205491300e-01 8.323857033230619429e-01 2.803332037544575273e-01 -4.780662462213089436e-01
2.907992487487944325e-02 1.833739693927131098e-01 -7.732293650471302460e-01 8.970809309404191856e-01 -2.875487362060141772e-01 -3.355019040920556028e-01
-5.546583569450693092e-03 7.219265512276888674e-02 -8.753164762242295893e-01 7.421086039430101478e-01 2.443377748718130460e-01 -6.241585309233923518e-01
-5.721602982593154002e-02 -2.405615617771885220e-02 -1.023008511413389554e+00 9.978027422461132057e-01 1.325981215300224385e-02 -6.491428924207019724e-02
2.499546781988907715e-02 1.803616475867217683e-01 -7.886458360782045984e-01 9.646215681387445562e-01 -2.319853954882047584e-02 -2.626157993045176720e-01
2.573931030710594967e-02 -7.413280878122815998e-02 -8.591335969021097752e-01 9.418316082575833859e-01 1.912848911046959310e-01 -2.763391252103082896e-01
-2.804213471983717232e-02 1.085253114941894803e-01 -9.016055873177610813e-01 8.032707362633023651e-01 1.876566314185899309e-01 -5.652796767509330467e-01
-5.259052753128243968e-02 -6.419074140658551086e-02 -1.036098768653512359e+00 9.711172613717382607e-01 1.707718503205523652e-01 -1.666380502884907133e-01
4.049478375002982938e-02 -1.274794411747605105e-01 -8.563448120819132647e-01 8.244104971450717523e-01 4.467044932239931931e-01 -3.475664367146388267e-01
-4.660529042753104589e-02 5.261915347645468310e-02 -9.534740547574240832e-01 8.791360215708462489e-01 6.518941508688556874e-02 -4.720913002134375369e-01
1.415969789979616353e-02 1.010990356357894110e-01 -8.128538127217502796e-01 9.067223958058198141e-01 2.864819333497634068e-01 -3.094876391850501229e-01
2.287650518933397395e-02 -2.062757685459844503e-01 -9.809927435671461637e-01 6.474973526752685338e-01 3.977608132683647657e-01 -6.500257792631056741e-01
-2.240911990479546936e-02 -9.077373293134619048e-02 -9.924511996634231004e-01 8.510785316676435786e-01 3.344844242040302951e-01 -4.047042165574089023e-01
-7.412433763823125799e-03 -9.140599632213074199e-02 -9.648478350836464656e-01 8.315211857979831755e-01 3.488606689368445313e-01 -4.322831840796643732e-01
2.258623607623235288e-02 1.112787571411591042e-01 -7.841822586855204946e-01 9.026415830197587198e-01 1.347153797573955869e-01 -4.087663624375231786e-01
9.872884578361239283e-03 2.260146461917394989e-01 -8.287445607615346876e-01 9.821457881416714164e-01 -1.118579132778238366e-01 -1.512529605419526968e-01
3.581737069944411489e-02 -1.568493442332419274e-01 -8.948023056245693052e-01 8.568494903945232943e-01 2.718663885817778625e-01 -4.380612029958223519e-01
-4.821252066379954487e-02 1.314237176921724537e-01 -9.325755258533794390e-01 8.931484643864358031e-01 1.305507741744047490e-01 -4.303978577161080010e-01
-1.385264441976481742e-02 2.826286413017218418e-02 -9.059896685749451173e-01 5.327631425545411581e-01 3.277523010954936922e-01 -7.802191122127284384e-01
-2.606277211349519382e-02 -8.354968637118462271e-02 -9.952197475722704967e-01 9.357076139548239357e-01 1.589270068290097038e-01 -3.149499447330355584e-01
3.615145507950687231e-02 2.083019959299929613e-01 -7.702735582904522982e-01 5.774972657079748828e-01 -6.466492280185521802e-01 -4.983389248321097864e-01
3.043892424005542260e-02 5.463225720161900278e-02 -7.867943206642968867e-01 9.601420846093215999e-01 2.349780328290950737e-01 -1.513687598212879459e-01
6.329526591193416520e-03 3.784184861327635069e-02 -8.724556123802568175e-01 8.969214711783131122e-01 3.997209764422439138e-01 -1.890899667655296101e-01
-5.104837422568210548e-02 -1.416971042035139417e-03 -9.945828325752210652e-01 8.756292117696814481e-01 3.541307272975089959e-01 -3.284279395534789869e-01
3.146832685298493748e-02 -4.095345619899203038e-02 -8.378808575666625291e-01 9.278386000974535586e-01 1.818170046967234887e-01 -3.256656398398653507e-01
2.501500093207723735e-02 1.673007817599150571e-01 -7.786598693970311347e-01 9.558411880274139127e-01 -1.389830437106059913e-01 -2.589427288635030022e-01
-1.275761546951172283e-02 -2.027427416086234058e-01 -1.051939675559849130e+00 8.437547530991867939e-01 5.263878892428057732e-01 1.048508783035878300e-01
-5.319672229871100916e-02 1.466861883790720467e-01 -9.323638235485959269e-01 8.846647015594768515e-01 3.197377959690731464e-01 -3.393171195850879229e-01
2.907936751214915128e-02 1.879140226585524487e-01 -7.741432105661079088e-01 9.963102430326348236e-01 -6.484081170413467932e-02 -5.622782910446320198e-02
-9.616759839533533735e-03 -1.771851510628321968e-01 -1.021580806537432551e+00 7.673354142479051898e-01 4.258633523720102287e-01 -4.794129401126638323e-01
2.330719997000415405e-02 2.364252544577229165e-02 -8.287790848904136309e-01 9.720842767052561006e-01 8.284286038257089591e-02 -2.195204306347189604e-01
4.057003693697890795e-02 6.948300421804991245e-03 -7.821004953719414843e-01 9.159603328072429829e-01 2.636472198670936073e-01 -3.025009292217084034e-01
4.909991968230318499e-02 -7.586026299085021907e-02 -7.986722017420794240e-01 9.977523740123115381e-01 5.909048996054100389e-02 -3.159927450147084066e-02
2.163681108765555874e-02 -1.890863156655605559e-01 -9.667274430092988036e-01 9.085491985307629914e-01 3.032517450900089617e-01 -2.873616762008674996e-01
3.835415229664177004e-03 4.097782424122263251e-04 -8.967990071774150085e-01 3.909236985763054895e-01 3.294886585529839818e-01 -8.594276501116174805e-01
-4.826810229609858338e-02 1.388128438251701735e-01 -9.295597624131628489e-01 8.485641169329601885e-01 2.544176323458479660e-01 -4.639079734228742091e-01
-1.667150674419435111e-02 -3.708068129423342657e-02 -9.524518231905454435e-01 8.585853924507963475e-01 5.511244295127298159e-02 -5.096996591151053968e-01
3.096721222069670487e-02 2.170179187361895856e-01 -8.050694698443230379e-01 5.224828493471306290e-01 3.935167787315566046e-01 -7.564100852016995002e-01
4.249680713708767904e-02 -2.256675679028987691e-01 -9.363801768111404966e-01 8.369180179256898722e-01 5.362325918691105420e-01 -1.096487058230528333e-01
2.874830325609185888e-02 -1.880497951469656537e-01 -9.435195695464493326e-01 8.958024399969487517e-01 3.196372518683871511e-01 -3.088203615591723072e-01
4.647133489219345062e-03 -2.226015022436860225e-01 -1.046265595129704629e+00 7.113283611862060152e-01 6.526733086280296359e-01 -2.608246820695602763e-01
2.340696992599832285e-02 1.622105363701628611e-01 -7.863941447217978054e-01 9.826833832036069305e-01 -3.084321428691038161e-02 -1.827075929127321141e-01
2.236144390844097777e-03 -2.587522717958082308e-02 -9.135151192981627588e-01 5.025763471973100360e-01 3.980098645408920444e-01 -7.674667178229618303e-01
1.009791472905364161e-02 -2.217315084138576919e-02 -8.916094516213264320e-01 9.527517175287590900e-01 1.505648943707621756e-01 -2.638074626107473342e-01
-2.546315389090972325e-02 6.256986023435100186e-02 -9.070671179124112360e-01 9.712400723972537397e-01 2.299476168297279466e-01 -6.178037944287480959e-02
2.870986970336011565e-02 6.947835133617620562e-02 -7.805688459280721858e-01 9.659151283823477208e-01 1.415619096624433637e-01 -2.167214583165097130e-01
1.970191461130920210e-02 8.003894262267804982e-02 -8.072526786024613044e-01 9.480066046009280045e-01 2.039617351326944994e-01 -2.443012243822781371e-01
-1.520586339568821312e-02 -1.030904061151529105e-01 -9.881323562927962767e-01 9.268227380080445998e-01 -2.339008631837574941e-03 -3.754918658904498607e-01
-4.136597466251218380e-02 -1.298544379421337769e-01 -1.044572724849705203e+00 8.548394444191794728e-01 4.770788857178290265e-01 -2.040717057000877299e-01
4.068110992960859151e-02 -8.477872824548030040e-02 -8.264350045913737564e-01 8.597835415488248589e-01 9.571411262005891096e-02 -5.016084831092021412e-01
3.446649907593192508e-02 -2.332053328755691601e-01 -9.745766080291063949e-01 9.904213107540383865e-01 6.701555773313142006e-02 1.207250687552912094e-01
3.057327826033379506e-02 -4.812892611138287063e-02 -8.408212485127347646e-01 9.450940886716946432e-01 2.066823639909827568e-03 -3.267918172137424526e-01
-3.776021134693981207e-02 -1.388265337167974567e-01 -1.044122667405962490e+00 8.924675071418238792e-01 3.169501841991085311e-01 -3.210051859895872162e-01
-3.469640918495112830e-02 -7.184826258035618973e-02 -1.006321366323991606e+00 6.589458694086998136e-01 1.575365847914780293e-01 -7.355083722442934402e-01
4.482195212316422706e-03 -2.411901007392518864e-02 -9.101676526240487508e-01 6.834558769345815410e-01 2.380687463360907918e-01 -6.900806737632521060e-01
-3.978288043637926569e-02 1.400377906029219854e-01 -9.118682844714769420e-01 7.532452298170477789e-01 3.444303761415936083e-01 -5.603475169471379136e-01
-2.673280441222998516e-02 1.271294982224268899e-01 -8.945515446482109612e-01 7.946325985507078915e-01 1.751307039346056138e-01 -5.812815753659485996e-01
-2.988079185666242532e-02 -2.070010926259855180e-02 -9.651280871155502039e-01 7.636533356777009951e-01 3.911028097951794180e-01 -5.136848986281727925e-01
4.792641241659592599e-02 -1.154914987879125943e-01 -8.230077062012867151e-01 9.276533665957683583e-01 1.945868534579008324e-01 -3.187400004782741658e-01
-5.397758301978757001e-03 9.304142214883737161e-03 -9.070891571056155511e-01 7.073972899902818412e-01 4.876740703904184904e-01 -5.116278678719977657e-01
3.187703573567710058e-02 -1.778447850836155919e-01 -9.251640175729645144e-01 8.653755705637681261e-01 3.378912313007434998e-01 -3.700738273392219502e-01
-2.157204091978068630e-02 1.752104949542704904e-01 -8.720093963546435845e-01 7.165023328737727404e-01 2.351428799054510466e-01 -6.567588849922106897e-01
-1.159866459298221353e-02 -1.330715887115193063e-01 -9.935010930016104913e-01 8.905033231680012928e-01 1.993456041955090352e-01 -4.089806370901604149e-01
-1.095455837454621488e-02 -1.372718611415472412e-01 -9.954593294173956775e-01 9.873513730656597875e-01 -2.005524358205886676e-02 -1.572738163529460997e-01
-5.102878423995384910e-02 -3.658366206128114972e-02 -1.017984243497365160e+00 9.646734626850723693e-01 1.635539401823207506e-01 -2.065313996515536765e-01
2.531962054786349170e-02 -1.544947913414008722e-01 -9.253775502760513971e-01 8.082834369287047460e-01 5.200033455656141168e-01 -2.761782145414247158e-01
-2.181096300871316479e-02 5.473997291528408943e-02 -9.026660492570639516e-01 9.225296682505514934e-01 2.019076383864531338e-02 -3.853976443274391150e-01
2.271161213703308188e-02 6.374665086172278360e-03 -8.422023863114049824e-01 9.904332131309596665e-01 8.530785748421895742e-02 -1.084648319896124036e-01
-2.238318963701694739e-02 -1.236873349198586020e-01 -1.008232891879591753e+00 8.077556740481016684e-01 2.104711663528789911e-01 -5.506656509871988847e-01
-1.650062070594681546e-02 6.696653008274121299e-02 -8.923636660320373171e-01 9.048956221022518287e-01 9.457888672762106153e-02 -4.149924665407098145e-01
4.539393655782411607e-02 -1.053851111352873821e-01 -8.256035684611360281e-01 9.655706001847332853e-01 2.087490472584662138e-01 1.552328938323849494e-01
9.035147094898821757e-03 1.277939779990721059e-01 -8.297452547144129609e-01 9.793260717968671480e-01 -5.397909100242342939e-02 -1.949530785431954627e-01
-3.314403534060981343e-02 -3.626204887274445815e-02 -9.836111359355264039e-01 8.530541173567187663e-01 4.137785374840896591e-01 -3.179402377464626839e-01
-1.414608778064422451e-02 1.317303490330631321e-01 -8.716883999997377952e-01 9.036834167278702257e-01 5.015969282817701186e-02 -4.252532040401637570e-01
1.012364184192629524e-02 1.511263831864332469e-02 -8.734062087552676434e-01 9.294298074860884995e-01 1.191453362527053472e-01 -3.492343365214851114e-01
-2.001542336285740478e-02 -1.265981759557882336e-01 -1.004124498868018245e+00 9.831117200644937659e-01 8.737910342965871102e-02 -1.607987504791659750e-01
3.243922797562635157e-02 2.178944615837814236e-01 -7.978359937257344381e-01 8.755591430633267169e-01 -3.394587780289354817e-01 -3.437498000251262842e-01
2.136483592677340324e-02 -2.121151692482825535e-01 -9.905195150094813217e-01 8.860619570033821946e-01 4.079488877941790381e-01 -2.201633786505570733e-01
-1.429339212215672769e-02 4.087652014688317875e-02 -8.992705782630265876e-01 7.357477926201541063e-01 3.232550955537029647e-01 -5.951313542850326099e-01
1.152710001393882945e-02 -2.888611754328858014e-02 -8.903392085263596156e-01 9.475936374304317900e-01 1.997955390447593016e-01 -2.492950879563756994e-01
2.857202166864527063e-02 -3.486080459340762383e-02 -8.449929467244937653e-01 9.768969287876955176e-01 8.484449544844391289e-02 -1.961473989561598463e-01
-3.346474086229396516e-02 7.927322324831062583e-02 -9.206267923362380090e-01 9.195468981319642188e-01 1.012664521827340985e-01 -3.797085827291829530e-01
1.821031472389856480e-03 -9.889214918602820537e-02 -9.510584165250507427e-01 7.682602064303091227e-01 3.906162142863733866e-01 -5.071441889169595596e-01
-4.288301401368453669e-03 1.524444747621453711e-01 -8.518694394264992864e-01 8.909130812810778233e-01 7.674936927610923054e-02 -4.476420622751784428e-01
2.752121588844961761e-02 1.532915501062235286e-01 -7.646732053989310218e-01 9.662752039081596855e-01 -1.251495176364713670e-03 -2.575085708710825316e-01
1.184139688361800571e-02 1.009395599487855344e-01 -8.229856489092692851e-01 9.699866839016977327e-01 1.503330626307526063e-01 -1.911172502246873961e-01
-4.249790189459003859e-02 -1.137228553917574575e-01 -1.040166789246247392e+00 4.115793293817781029e-01 6.441341333659260648e-01 -6.447431068717006664e-01
-2.409697823440219364e-03 8.547558066657741371e-02 -8.673251858249405588e-01 8.692805331890849363e-01 1.238320434435222772e-01 -4.785571853343148496e-01
9.207683277327721044e-03 -5.777563174457705369e-02 -9.069029084311213129e-01 9.916398300135396138e-01 -4.391336244424653176e-04 -1.290358659147836928e-01
3.710402365150894388e-02 5.119625357931758061e-04 -7.978135497004298360e-01 8.900789819277721282e-01 1.242501410377717247e-01 -4.385445340926212299e-01
7.038660680491090312e-04 -1.724570413858126927e-01 -1.001871903525495267e+00 9.268400812594914662e-01 2.271838408708287960e-01 -2.989230105195601617e-01
4.305651984030882395e-02 -2.103138876576663707e-01 -9.128809833018032283e-01 9.367534215045301149e-01 3.061183112412844132e-01 -1.696602688384640234e-01
1.235675595381223284e-02 1.215263844740986227e-01 -8.153450709316568679e-01 9.832672347351002484e-01 1.061722370191228171e-01 -1.480304062777115792e-01
3.337961921267918602e-02 -9.175283075467598193e-02 -8.492488117774144030e-01 8.903982796610193651e-01 2.557211812139957297e-01 -3.765601957924065712e-01
2.869560702573522443e-02 -2.424658699587407262e-01 -1.015442998026822696e+00 7.820569438143474272e-01 6.229132748479894177e-01 1.913082982821089073e-02
-5.647597932169773349e-02 2.700143262919118409e-02 -9.915151350945209385e-01 9.926208154041358256e-01 1.178970349826174574e-01 -2.835852550355271243e-02
-3.058053447243058373e-02 -8.182612756756937888e-02 -1.003149454613489366e+00 9.088249005470155906e-01 1.135991107083154927e-01 -4.014131813879397992e-01
3.656673007044508594e-02 4.843409609058970527e-02 -7.659399523879329985e-01 8.675008010961070548e-01 2.564026042330160848e-01 -4.262629055408641565e-01
-5.222131506644325100e-02 -4.597292791200519035e-02 -1.024187740287012316e+00 7.931453678099590343e-01 3.210052157831205788e-01 -5.175674612662939378e-01
-4.404934806570523498e-02 9.877258410485742490e-02 -9.381730634832177174e-01 9.302487405294823652e-01 1.096930032492977464e-01 -3.501495762977032133e-01
2.233105714106388764e-02 4.506770228561328417e-02 -8.202873414317479739e-01 8.251344131072455568e-01 -9.201344804747166317e-02 -5.573927929966233652e-01
2.246217658251744437e-02 -2.288861897484127661e-01 -1.011565786183631133e+00 7.571316223486759256e-01 5.606005369258154625e-01 -3.353785092073567897e-01
3.110099245772807511e-02 -2.067693885112867891e-01 -9.546066076600399075e-01 7.290357644530673920e-01 5.616313581851074543e-01 -3.912506506722805422e-01
1.434364681829308937e-02 -2.098697908544488455e-01 -1.011453577664696901e+00 5.317434974619691390e-01 6.888329552438180459e-01 -4.927047926263564692e-01
2.894858041610799595e-03 6.874538137286514972e-02 -8.656779912546085365e-01 6.396489858181171329e-01 3.976557008532758952e-01 -6.578138935297308532e-01
-4.269822667410916317e-02 4.214410487557818802e-02 -9.456562239907563283e-01 9.468309613220573517e-01 -5.862925120878404589e-02 -3.163443402127590343e-01
4.019889556074880384e-04 -2.657609045769257841e-02 -9.165909416008197752e-01 8.369470679324068074e-01 2.740653581751188450e-01 -4.737169882194335324e-01
1.904804333487562090e-02 1.728166028731080162e-01 -8.089808720867952552e-01 9.798896670775698592e-01 8.978972233764991040e-02 -1.781966501288300975e-01
-1.552828753905221779e-02 -1.066083914354338802e-01 -9.878845744164665987e-01 9.970307944326163296e-01 -7.598285556677679409e-02 -1.249802436323131476e-02
-5.316453696400751106e-02 -4.268365897287989402e-02 -1.025625020339736793e+00 9.033945597794196258e-01 2.851897134148506097e-01 -3.202266333759632433e-01
3.195325583512181183e-02 -1.871162871106293313e-01 -9.321197480147342951e-01 8.905033966886838348e-01 2.740067632571451806e-01 -3.632134278564862484e-01
1.851790337639412642e-02 9.982015969886977313e-02 -8.004610343683796758e-01 9.256023098893422230e-01 2.429882745892029128e-01 -2.902017614344816754e-01
-1.775576450456628139e-02 2.158793251983096850e-01 -8.552157403438157557e-01 8.748542615893690755e-01 -2.530342841285767586e-01 -4.130419736957230414e-01
-3.959244108228968106e-02 1.786029775816344867e-01 -8.936467939876748812e-01 8.020523703188732201e-01 -8.265771552843441394e-02 -5.915062952577067046e-01
2.747964540888702192e-02 5.135309195061114190e-02 -7.992067162866345331e-01 9.657060521156022315e-01 2.100085769374339106e-01 -1.526702935086313440e-01
-4.441565744559031886e-02 1.741632987440066074e-02 -9.642587278888857805e-01 9.161206965023829252e-01 3.235609049907240409e-01 -2.367091257251654479e-01
2.124233330736599243e-02 2.514388988771563277e-02 -8.343917386106914913e-01 9.348368520446400654e-01 1.444646992171776390e-01 -3.243609266532543334e-01
2.933109511248672627e-02 -5.815828861577811149e-02 -8.462144885309312858e-01 9.215887992160797237e-01 -9.772053727069301629e-03 -3.880445749207419581e-01
-2.828633342425759811e-02 -3.049739923788698931e-02 -9.697814765862413644e-01 8.293172570493226869e-01 3.190599763010091294e-01 -4.587304422893546674e-01
-4.004116835154260257e-02 -2.978399485566356891e-02 -9.927178721475478085e-01 8.420002826219776804e-01 3.635304448141710165e-01 -3.985989710946583053e-01
-2.552312443179884788e-02 8.518403871091397017e-02 -9.014533357981129313e-01 8.356835003277118812e-01 -2.159773751466463609e-01 -5.049622369096404828e-01
8.242042075130845760e-03 -1.555281911198905520e-01 -9.784054164244295748e-01 5.559804662602436665e-01 7.234759041341403130e-01 -4.092289545893963987e-01
1.576988691843384319e-02 1.069962788195157749e-01 -8.041320977502491862e-01 8.452323138768036426e-01 2.408152635441912215e-01 -4.770642979961988717e-01
2.683935259501724416e-02 5.815018718487353216e-02 -7.940366293943968978e-01 8.466805484964060602e-01 3.520113209572385826e-01 -3.990239074488708959e-01
2.369519263408090617e-02 2.027617839327432725e-01 -8.147209314560440729e-01 7.221530350986481439e-01 -4.379185510010425997e-01 5.354645988176600646e-01
-5.806726564710669621e-03 -4.104002587717519440e-02 -9.335337714104885443e-01 9.089890029622129664e-01 2.840743721252722565e-01 -3.050258080808801453e-01
4.059524895376043913e-02 -1.471100997249314424e-01 -8.726784040392302488e-01 8.852661627380780107e-01 2.109873037507192794e-01 -4.144733752208941135e-01
2.948779460745077491e-02 1.464402377216245457e-02 -8.121862400105644975e-01 9.377097125673724554e-01 1.884200700949328622e-01 -2.918876018988068033e-01
3.032839212782286603e-02 -2.202828358679224108e-01 -9.679653143541293581e-01 8.675459535292590063e-01 7.969869570735578501e-02 -4.909298691438064854e-01
5.335352822034049140e-03 1.427114124906810055e-02 -8.899940345921101281e-01 9.694275440466953997e-01 1.220329601849009377e-02 -2.450741039152794232e-01
-3.578493251966019528e-02 -1.501551906143526183e-01 -1.048336907306605115e+00 9.193755358043941284e-01 3.015748329661052107e-01 -2.525890818817165817e-01
1.324125492853446551e-02 -6.164178019212699505e-02 -8.973711079956099290e-01 9.549162537164938014e-01 1.551615029168192106e-01 -2.531004867649419010e-01
1.323081864860287810e-02 2.410439669682231112e-01 -8.258082476703763053e-01 6.636315238800271077e-01 -3.504173439798577427e-01 -6.609091356236311832e-01
4.738390800465654140e-03 1.147264248316859775e-01 -8.466100421950240040e-01 7.239068425358721193e-01 2.062722754936649749e-01 -6.583392983047642311e-01
-6.384613243476752742e-02 4.668754493504782832e-02 -1.002438848459936027e+00 9.960106164178649246e-01 -8.409550614589698936e-02 -2.984623642890064932e-02
3.751998064279575551e-02 5.027716508847598909e-02 -7.634997630363667964e-01 8.620033686000733164e-01 4.071069738868610122e-01 -3.020167285678210800e-01
8.428691073954568472e-03 -6.074588585159063081e-02 -9.146639933528508681e-01 9.885024143733159852e-01 9.373771878229869570e-02 -1.186432335011811251e-01
1.389269883114875939e-02 3.526611275396422662e-02 -8.491295876909354945e-01 9.303308180216489642e-01 2.197285950857135461e-01 -2.936050298288975235e-01
3.123769770874987306e-02 7.447230587962308523e-02 -7.691210717466147040e-01 9.609635467364086026e-01 1.762823177071303204e-01 -2.132454133330526358e-01
1.712778768511372812e-02 1.457385739292705595e-01 -8.026110447616249255e-01 9.603155232782002448e-01 -1.933631092882822922e-01 -2.010094617605950040e-01
2.389477828526717987e-02 5.706265112016480762e-02 -8.075344889727372744e-01 9.706772821908941085e-01 2.195108124618766754e-01 -9.798273853503927655e-02
8.057007207584488155e-04 -1.367624707110833004e-01 -9.751336578753920792e-01 8.624499940837517808e-01 2.307323884890052634e-01 -4.504914789505958805e-01
1.478097425163684212e-02 -1.083126460271926217e-01 -9.186375394536894223e-01 9.354514767943195030e-01 2.765058667548711546e-01 -2.201704798865283530e-01
1.000020501868666145e-02 9.047769362437438345e-02 -8.380435177946002900e-01 9.589959781032193487e-01 7.997483293169196927e-02 -2.719020781079051208e-01
-5.560798963236061876e-02 6.937023156645918953e-02 -9.707958814928430158e-01 9.335016974933629808e-01 1.299436420753831145e-01 -3.341993875835114758e-01
-1.902670377059392792e-02 -1.340250511977478243e-01 -1.007625850200324802e+00 8.375686461005823480e-01 3.680210970011686955e-01 -4.037811724576739758e-01
1.432065526624069600e-02 -2.360810930018591991e-01 -1.056528186740718134e+00 5.264558281160323094e-01 8.306001212663001176e-01 -1.815150120377658494e-01
2.637551426225272916e-02 6.855241672935706576e-02 -7.886938291744729490e-01 9.723251599244203680e-01 2.211600664862785615e-01 -7.531273710160110713e-02
2.700438699833230052e-02 -2.443523600062180168e-01 -1.036899341807686836e+00 7.342872371762994010e-01 6.375950897200007850e-01 -2.330123492112403660e-01
3.476119780331801690e-02 4.566614724069466280e-02 -7.758338659629054890e-01 9.864488826651619524e-01 1.451363376912229997e-01 -7.651173354612009203e-02
-5.169545779957539222e-02 -2.949532626671910393e-02 -1.015512353367412635e+00 8.978610888303839577e-01 2.351801665876489811e-01 -3.722039150897297755e-01
4.544533628232467343e-02 -1.671397076776699464e-01 -8.716893281926456627e-01 9.826311550556174890e-01 4.693060166535500261e-02 -1.795369926822613926e-01
2.505884831846800359e-02 -1.610801845913494845e-01 -9.338995122915734193e-01 9.872458998370829963e-01 1.509467661645091940e-01 -5.060244104136920468e-02
1.983391202800965231e-02 -1.814382496300640524e-01 -9.650855778672218221e-01 8.808347243275873595e-01 3.351048602233451801e-01 -3.344172858472410081e-01
-9.709257117790543595e-03 1.834568851583541493e-01 -8.534883669020140173e-01 6.897777311027547542e-01 2.370568870109790727e-01 -6.841130856776527214e-01
-5.293906668846629776e-02 1.131495462335594393e-01 -9.526720995270621106e-01 8.809320942540026511e-01 2.787110098945628223e-01 -3.824641398573332407e-01
4.093091917528973028e-02 9.079862585366381411e-03 -7.789065627843978490e-01 9.372233500828505148e-01 1.650904210321873233e-01 -3.071767324243381281e-01
-4.474282870323030570e-02 -1.115256281633354163e-01 -1.042119030625147325e+00 8.929217597598552159e-01 2.384408576850179651e-01 -3.818857006144589228e-01
4.182891736580827274e-02 -1.545155362638033492e-01 -8.745457496869128988e-01 8.137700668757755773e-01 1.873611779614319239e-01 -5.501582201966087604e-01
-2.208919823580400912e-02 5.211661913788078609e-02 -9.043679955133429038e-01 8.448218102520741457e-01 1.712180224558668695e-01 -5.069127121198585550e-01
2.565722460613006906e-02 1.052129861116815179e-03 -8.344469786322497029e-01 9.448382566249453607e-01 1.314723936761404421e-01 -2.999927974452044621e-01
2.768899198394365879e-02 -1.995033272370797806e-01 -9.553904852018303417e-01 8.055543009548677968e-01 1.752791447674786063e-01 -5.660030826971662599e-01
-3.822587852570719438e-03 -1.256286372790015593e-01 -9.742872866715071023e-01 8.366378854843742330e-01 2.700577117260026250e-01 -4.765562725529380317e-01
1.608743891029255219e-02 -1.816425886450423813e-02 -8.747261734413289691e-01 9.529171050503369989e-01 6.642860479192699841e-02 -2.958652250060538891e-01
-1.892160342251629967e-03 -1.280758535650548813e-01 -9.721789880590024913e-01 9.416425593120568704e-01 2.041966979425031969e-01 -2.676060519525246817e-01
-4.946678208732942228e-02 -3.139654124722333212e-02 -1.013610411038578185e+00 8.986777702115162914e-01 3.038905690841717799e-01 -3.162732795374200712e-01
3.809077720497219821e-02 -1.609956228392011024e-01 -8.936539273226806745e-01 9.256755057113159602e-01 2.635520532071348176e-01 -2.714132888721602077e-01
4.386021319619366060e-02 -1.734825850823407400e-01 -8.860756867751390375e-01 8.545107579623414384e-01 4.348935126279914187e-01 -2.840404851437761669e-01
3.084028938581203499e-02 -5.998517302008359031e-02 -8.435337024427279617e-01 9.580159720880080387e-01 7.733960414204138489e-02 -2.760869117785575422e-01
2.950167163973509490e-02 7.020895685591788116e-02 -7.762351672377303391e-01 8.887736438433254671e-01 1.770349198404492508e-01 -4.227765925007477832e-01
2.833966962891538294e-02 -4.963502067125288852e-02 -8.484271116281222325e-01 9.850049899836863521e-01 6.889719380083435263e-02 -1.581718887590578826e-01
-5.451074611023331087e-03 2.294064316553299232e-01 -8.426165926441635534e-01 6.363054991861849530e-01 -7.574102696598402629e-01 1.464410977807389103e-01
2.150733488634402890e-02 1.201061224351550188e-01 -7.865472064282130749e-01 9.107012689079043710e-01 -1.952340839341445977e-02 -4.126039691207979421e-01
6.397021023869499390e-03 -1.845704215156045436e-01 -1.001655728866560624e+00 9.943098394882993185e-01 7.202938623149511554e-02 7.848382391210544096e-02
-4.704793066680677122e-02 -4.640454481692848215e-02 -1.017701728739611289e+00 8.222197445713135266e-01 2.564841172811271885e-01 -5.081048998185362375e-01
2.933695303783161873e-02 1.792000058950337510e-02 -8.104575318210172075e-01 9.142385708482859696e-01 2.361733455126329151e-01 -3.292263453046455068e-01
2.817197075658096905e-02 -1.460753287001894697e-02 -8.363103734545916934e-01 9.632705861613932719e-01 6.904101225548098242e-02 -2.595055229913695305e-01
1.963235447901978334e-02 1.939309658128065827e-01 -8.149832980193857379e-01 9.424022805825463811e-01 -2.297190364477751101e-01 -2.431195299566055179e-01
4.477207811795232834e-02 -2.097363041453476629e-01 -9.050008543151205620e-01 8.043369646343437873e-01 2.122236919148660569e-02 5.937942896060136588e-01
4.837480478384813959e-02 -1.392307917493273983e-01 -8.472892346485749737e-01 9.419107138918499933e-01 6.941559006588964020e-02 -3.286117510247461015e-01
2.059221210875223848e-02 8.234560525025932942e-02 -8.043722832493693797e-01 9.144207296148078035e-01 2.023627793612563786e-01 -3.505481918080734505e-01
2.600881293638433647e-03 -1.053473084918803843e-01 -9.529570151414826773e-01 8.863589857840841191e-01 -2.016812426576123640e-01 -4.167642315265200903e-01
-1.561102449488183976e-02 -1.740240687536652175e-01 -1.028185973201456882e+00 8.222197445713135266e-01 2.564841172811271885e-01 -5.081048998185362375e-01
7.669282940088669592e-03 1.548054029903440099e-01 -8.360351464564620416e-01 8.389160984101311502e-01 -5.151518866891084958e-01 -1.756084094483373326e-01
2.822300510776167351e-02 -1.371756289923587446e-01 -9.004322315905518570e-01 9.111638657630810600e-01 1.382533618772214534e-01 -3.881577226557831883e-01
-2.981663686412136180e-02 8.901791745146966917e-02 -9.082697516199983445e-01 8.982033439720253920e-01 1.275337857307106415e-01 -4.206731348382782287e-01
-1.771858232763719610e-03 1.404023496825148876e-01 -8.510411504657416915e-01 7.530831096236926259e-01 2.758719750453667574e-01 -5.972943021526975205e-01
3.015468651285782564e-02 -2.011885778646814449e-01 -9.485066998132311022e-01 9.383895604295772186e-01 2.579809549031158444e-01 -2.299366429781491694e-01
1.216369251783397908e-02 -1.483905115958571441e-01 -9.581849715627496211e-01 8.995677521021834266e-01 2.780289619117838895e-01 3.368645955218211863e-01
-4.102590607618077090e-02 7.593892276540636921e-02 -9.384615177197578317e-01 8.910500163465721046e-01 8.672173931187530938e-02 -4.455437220963799350e-01
1.190336742064002605e-02 -1.036143798532252469e-01 -9.240740947128273097e-01 8.978697635912196162e-01 3.533146135976050206e-01 -2.626759818617265263e-01
1.117450036538740130e-02 1.642727839137458345e-01 -8.309879974876510644e-01 8.504465797989188003e-01 -5.890360993263776823e-02 -5.227532684213698211e-01
-2.542066813542845707e-02 1.021369781529777726e-01 -8.973726979579480512e-01 9.732032955376646033e-01 3.185220480067964960e-02 -2.277296261006991618e-01
-4.992082707133975623e-03 5.725368278194146315e-03 -9.083141909482274068e-01 8.488534361209219004e-01 7.366861638014583769e-02 -5.234699408240540697e-01
2.377646384060028151e-02 1.775994479544640570e-01 -7.921544519110041982e-01 9.601969332943548485e-01 -2.309394589136618825e-01 -1.571267501375275266e-01
-4.672816285522829460e-02 1.113534331568285657e-01 -9.394999753536240616e-01 7.766147676323351678e-01 3.777722016624248669e-01 -5.041405224205826041e-01
1.544160996698849299e-02 -8.491863733722213037e-02 -9.021903216302842310e-01 9.965962571364360700e-01 7.553874483014944019e-02 3.301209310437057398e-02
-6.403846334815711805e-02 3.897727209542300314e-02 -1.003905935692172680e+00 8.874509311359074504e-01 4.592949657827533616e-01 3.845749904284132686e-02
-1.498669934085010078e-02 2.568159385735383719e-03 -9.258872756998364206e-01 7.906790224372062248e-01 2.143565796337489060e-01 -5.734788054021383585e-01
3.217359727526292873e-02 2.216432991601351155e-01 -8.040814409588284972e-01 8.744677751430073309e-01 2.283680595710927685e-01 -4.279651149383236763e-01
2.706377290904032895e-02 -8.045157019636964280e-02 -8.574854969084468870e-01 9.793009586841572300e-01 5.883092894575840670e-02 -1.936712526929827705e-01
-2.261780501904997118e-02 9.541987664253885615e-02 -8.935812678846279944e-01 8.975502894635510875e-01 -5.692464694408742171e-02 -4.372219830408646812e-01
-4.403355375247100523e-02 9.143219580856762341e-02 -9.411885020588379724e-01 9.702796719671351600e-01 1.541718050438499188e-01 -1.865165212437479014e-01
3.002985107596782555e-02 9.135962097937670723e-02 -7.633288625134606598e-01 9.120225636968104510e-01 1.674899470169774821e-02 -4.097978946802674494e-01
-5.673226291770776253e-02 -4.376536131043779615e-02 -1.036242741352429775e+00 9.901616922974901813e-01 -1.395065099981733781e-01 1.085157936430516251e-02
3.924831724870561644e-02 3.028315339655640245e-02 -7.707602917093488992e-01 8.679427379892397099e-01 5.688762358177622269e-02 -4.933955835381583777e-01
3.526060631303657572e-02 1.532446412783537541e-02 -7.954448844090349358e-01 9.440803051173368710e-01 1.548588296075302795e-01 -2.910861047562074422e-01
3.267264261052110069e-02 -2.498519470142964161e-01 -1.023049149940800762e+00 7.468481244463630597e-01 6.612680035838811587e-01 -7.030296186603943176e-02
1.363687609161686083e-02 8.134897974233064322e-02 -8.270670550958985068e-01 8.782292124710122661e-01 3.466720904731692698e-01 -3.294418189142176434e-01
