-5.605008682003212450e-02 1.928639859595985828e-01 -5.870924370437498041e-01 -3.418325280475904004e-01 -2.711421345301338603e-01 8.997957910831968498e-01
1.079338381093581517e-01 2.602828804887597977e-02 -6.826951168500191569e-01 -7.767987592862174440e-02 -4.753791111577076456e-01 8.763449877477602623e-01
4.506628701400769432e-02 -1.645793235128996668e-01 -7.695124140708414773e-01 -1.047061503282431701e-02 -4.305352434550868135e-01 9.025130305784528906e-01
-8.408418640291494273e-02 -9.641339603114486290e-02 -7.414845023661288392e-01 -6.447988732698705094e-01 -4.044138479766178074e-02 7.632816697822323304e-01
2.472040082903026112e-02 3.810043124223676247e-02 -6.753187855611908486e-01 9.864842690484511289e-02 -1.883419621507407549e-01 9.771365273913407146e-01
4.742188485891302846e-02 1.956709648474565799e-01 -5.738316850172255901e-01 2.808392008606034884e-01 -6.477021688941539956e-01 7.082451861253886705e-01
-4.287281211227109146e-02 1.914714830897191467e-01 -5.828638608176581748e-01 -1.173303190307020683e-01 -6.375898992962450995e-01 7.613886764009285546e-01
4.405250298272948145e-02 1.060693558902046918e-01 -6.336885225034138980e-01 6.314435185014849461e-02 -4.867347070045847657e-01 8.712646646264187167e-01
8.553405624489035519e-02 1.527686601203761818e-01 -6.142707094184360894e-01 -5.137086818752567563e-01 -7.326006072538872038e-01 4.465419805765433736e-01
1.171798451756552416e-02 -1.954020602406151413e-02 -6.977584754705533632e-01 3.400908207852030851e-01 -3.032258131129040857e-01 8.901642207366374793e-01
-1.951074265281738454e-02 1.122652717010584056e-01 -6.312254289327343670e-01 -3.142725570823619585e-01 -2.993176745435784381e-01 9.009115880988201042e-01
-1.094422658656418884e-01 -1.087705071534714046e-01 -7.495054880896412364e-01 -1.039434600654625673e-01 -4.250372467459763715e-01 8.991880203762836476e-01
-3.310864960231432036e-02 -2.356772206094950306e-01 -7.865604264022101333e-01 2.463458684302816809e-02 -3.168561657079131400e-01 9.481536306864796204e-01
-7.028707581581501718e-02 -9.848726081940515492e-03 -6.990395991055522451e-01 1.961729046619390196e-02 -5.646795371850741319e-01 8.250770765202577461e-01
-5.250226901955053899e-02 5.804285366099344590e-02 -6.639818217398930633e-01 -1.376610798036977806e-02 -3.243177570573123614e-01 9.458480251754967094e-01
-4.640295505384420260e-02 1.442739991196360094e-01 -6.200880261030023988e-01 -5.003280933685314569e-01 -6.480491679422822893e-01 5.741986371592375793e-01
-1.030384485024467799e-02 -1.501064269035413123e-01 -7.571151927008251681e-01 -9.268503169665034958e-02 -5.525422942146541727e-01 8.283154580251399501e-01
4.364376168437272829e-02 1.148822352976197475e-01 -6.290758931419230260e-01 1.968176171453866752e-01 -7.443502788231519673e-01 6.381265454415042671e-01
-6.864591756844599935e-02 -1.143231244055072926e-01 -7.486803571695970216e-01 1.381713385817183171e-01 -5.242815043603897829e-01 8.402604271177732675e-01
-9.203176960700600040e-02 -1.237144032572490976e-01 -7.524140572057831378e-01 8.013986978396170358e-02 -5.665304172035950242e-02 9.951723640329050991e-01
1.476838217317375836e-02 1.221459175561536575e-01 -6.208086237376708727e-01 1.943786701189773591e-01 -7.122221745293859652e-01 6.745046380206816128e-01
-1.190559089136571658e-01 -1.317928126959940494e-01 -7.585454402641929050e-01 -5.768718269366951423e-01 -1.946554993025866598e-01 7.933020432836287439e-01
-4.589921482698745142e-02 -1.525294992401753924e-01 -7.603104139866095901e-01 -1.379112819116281863e-01 -1.943446868365351909e-01 9.711903114322655295e-01
-1.063058777937650190e-01 -4.677301700804995660e-02 -7.249846146168575922e-01 -6.145409435498702111e-01 -3.485483245507109418e-01 7.077100353631615715e-01
-1.970776072748709265e-02 5.504271957506019775e-02 -6.606864739427954492e-01 -4.705988427517533434e-01 -7.410573111216131048e-01 4.789267071629179084e-01
7.042533601138503685e-02 5.759680307285400258e-02 -6.648670336452902063e-01 -5.756795993979033771e-02 -5.870315354322843682e-01 8.075146477906052223e-01
-2.565705676587422615e-02 1.828416678612097279e-01 -5.820992056874654264e-01 -1.696221271238224082e-01 -4.401464336661841670e-01 8.817592930731884548e-01
5.798886193418959639e-02 -1.524069378120037621e-01 -7.654780508950496110e-01 8.113358716025485806e-02 -1.129990934234594013e-01 9.902770046406135229e-01
-4.133608940181882074e-02 1.989188946878180098e-02 -6.793637991269776411e-01 -3.055513398300198358e-02 -4.942885592768344605e-01 8.687607288288947682e-01
-5.433823628365867797e-02 -1.302003969412843243e-01 -7.524198306412532844e-01 -1.619849917445999599e-01 -3.053538413883624125e-01 9.383602154817054508e-01
9.991535425101051582e-02 -6.407701703061868814e-02 -7.247414386795585362e-01 -1.162345600879094026e-01 -6.802123576862516563e-01 7.237407515761986598e-01
-2.448958768945120462e-02 -1.909260549530632234e-01 -7.725583602643860681e-01 -1.379492101729317688e-01 -3.315410583657780741e-01 9.333008850474556750e-01
4.935664380772101373e-02 -1.221348259363633643e-01 -7.489304881521711144e-01 -7.918131647330158354e-03 -2.984016648954591067e-01 9.544075385173955706e-01
9.020417342261857763e-02 1.365055878595588246e-01 -6.233937614606391842e-01 1.570187877335892934e-01 -4.635244807892618391e-01 8.720608671461638206e-01
1.007423422609232955e-01 7.976709106458736154e-02 -6.511845510665590364e-01 2.021188774701954682e-01 -5.736616482632030944e-01 7.937633606322058721e-01
-7.638192320981177647e-03 -8.017599678198374102e-02 -7.256688170082776779e-01 -2.769078477174135577e-01 -4.302243991019611413e-01 8.592025432282345276e-01
-2.609085243232470500e-02 5.004399342260736766e-02 -6.639505529537337303e-01 -3.414027952818436962e-01 -5.518251218506826650e-01 7.608765775526428188e-01
-5.162240871698825506e-02 2.675656349320900892e-02 -6.774954466189857527e-01 -5.002552050857218546e-01 -1.594504430392352512e-01 8.510700828951950347e-01
1.118775240768665469e-01 -9.637189380254074234e-02 -7.395203573281451392e-01 -2.306360163708506550e-01 -2.925251664966972420e-01 9.280280464073615843e-01
-1.008664312770842994e-02 -8.586163578404257257e-02 -7.295075917007113331e-01 1.883583293765614397e-02 -5.392147321177073183e-01 8.419576498047712798e-01
-7.512631360209651686e-03 1.240745999698071728e-01 -6.206274734883998612e-01 -5.788181001268050130e-02 -3.813585502594008525e-01 9.226133275721222216e-01
8.055599554710836385e-02 1.587771907110807346e-01 -6.098981880638032482e-01 -9.954960228127099908e-01 9.097906749500873913e-02 -2.665479022267649295e-02
-4.123294088074212771e-02 4.573513027155667009e-03 -6.869980255307155392e-01 -3.227132528504411124e-01 -3.379893901303095416e-01 8.840923755999871014e-01
7.837540884738411484e-02 1.615027343698743623e-01 -6.066692594628901869e-01 -6.191487142670755173e-01 -6.871749939595525047e-01 -3.800597285929097624e-01
-1.258102989493046220e-01 2.989097029033925546e-02 -6.869730844707855333e-01 -7.325496876976451688e-01 -1.474092552452825888e-01 6.645611081925526520e-01
-1.261574915685712284e-01 -7.920734539112286865e-02 -7.390564448170983125e-01 -6.780289963198224412e-02 -2.346806121335795470e-01 9.697049948773616146e-01
7.764001512533784920e-03 -1.174819034807772500e-01 -7.454952306065165679e-01 -1.323232694490380501e-01 -6.865621761041702520e-01 7.149286193078465690e-01
-5.232777898969841364e-03 1.711334307105039920e-01 -5.827876354317137464e-01 -4.028659618256651975e-01 -6.407435582410010433e-01 6.535646175971757676e-01
-1.046839520789373534e-01 -3.441294417934480376e-02 -7.188156979399363822e-01 7.384668293626230062e-02 -4.801928077567479414e-01 8.740489315810654469e-01
6.583521220722829415e-02 9.740290016096955772e-02 -6.408759298761094181e-01 2.417654796071793122e-01 -4.874027081700620379e-01 8.390399590834752841e-01
1.065357406582011397e-03 -1.737820641877071137e-01 -7.657556822822405573e-01 3.217705972034242135e-01 -2.385465658968043134e-01 9.162746415099533026e-01
1.067322878678677277e-02 2.024674956256476421e-01 -5.511413758080621061e-01 1.891261388361787088e-01 -7.560260915492645895e-01 6.266225758027409443e-01
5.207251102206855720e-02 -4.062308843805204073e-02 -7.122928840166128373e-01 -1.228342481523318069e-01 -3.242756437171194217e-01 9.379536525717565576e-01
1.315144942170046877e-02 -1.128377617080174589e-01 -7.426004197677480434e-01 -1.538557496132832991e-01 -4.784342917929386152e-01 8.645397832069523503e-01
6.165805641779605745e-02 -1.364937290900057887e-01 -7.579605467532062324e-01 5.859118734000778178e-02 -4.472921853357368915e-01 8.924666793240344509e-01
7.187916955323410406e-02 1.336777225703179861e-02 -6.932313402486699472e-01 -4.725721023449753755e-01 -3.585777537251864100e-01 8.050450935311944667e-01
-3.538096557618622406e-02 4.275925124668036870e-02 -6.683595376332506222e-01 -6.741764313450261670e-02 -3.203601118045894536e-01 9.448937824743794955e-01
1.503544237645365947e-02 7.502383252632627286e-02 -6.510885455333491612e-01 -4.135859425205062195e-02 -5.134343265447685045e-01 8.571316462522047264e-01
-4.643972396424246585e-02 4.291791156764643983e-02 -6.694471598158456827e-01 -1.909411888642809085e-01 -3.510346594567348433e-01 9.166875859610998933e-01
-7.704592649727232644e-03 2.034845050417137258e-01 -5.502883193704662945e-01 2.567670537420241317e-01 -7.945394418197255781e-01 5.502524470690153269e-01
9.015148740327409704e-02 -8.709154327577824095e-02 -7.346830378141289142e-01 -7.426004043003557598e-02 -3.941023242937848337e-01 9.160615723746772243e-01
-5.078195063572325807e-02 3.806090977711281548e-02 -6.722093184420822043e-01 -2.060599030638957802e-02 -3.354618316990446436e-01 9.418284093382482958e-01
-8.757686992064217871e-03 -7.546124488165749378e-02 -7.243844653849468296e-01 -1.914754830546527287e-01 -3.096790197717189663e-01 9.313624665522090007e-01
-4.098822157093236912e-02 6.751452536973144569e-02 -6.583410725907202776e-01 -2.875719775775911757e-01 -5.392497990578406508e-01 7.915251176862247995e-01
-9.263506245439540043e-02 -9.970451507757450635e-03 -7.023613832781320232e-01 6.559240859455887918e-02 -6.227408411271716515e-01 7.796739579638319873e-01
9.413928139586201504e-02 1.242876128552943965e-01 -6.288926529311291702e-01 3.593750989237190496e-01 -2.439524855926508973e-01 9.007423177839124495e-01
-1.401725692898706313e-02 1.717754730575446198e-01 -5.857860835762283003e-01 -3.345917660863740317e-01 -6.052295307959496551e-01 7.223195727098330465e-01
-2.498361814514756668e-02 -2.172879925680787638e-01 -7.799848403331598456e-01 -2.368238234516876484e-01 -3.570843981047722715e-01 9.035514425177332276e-01
-1.191351908197893356e-01 -1.404888489468995687e-02 -7.075037064291787026e-01 -1.951036291972337855e-01 -3.176332442800115508e-01 9.279244020943855364e-01
-1.063458968335195820e-01 -1.174096728539547607e-01 -7.523144561632572058e-01 4.098789185470699120e-02 -3.115838976074207789e-01 9.493342232707485673e-01
-9.516504551716019333e-02 -6.237312633469667411e-02 -7.291821088597300049e-01 -1.452409478205431148e-01 -2.994905149040890668e-01 9.429795854411027189e-01
7.439741022879214905e-02 8.007996308813111752e-02 -6.509890364296674337e-01 -9.549544383555896854e-02 -4.696402091479345842e-01 8.776780128031771433e-01
6.765706467315274475e-02 -3.977866915496940797e-02 -7.128572861410461536e-01 1.232798132493380799e-01 -4.384537827652911224e-01 8.902585961528343139e-01
-1.566276137182374961e-02 2.802716725696221753e-02 -6.730804082441405045e-01 -2.567042879192060201e-01 -2.830542176105805829e-01 9.241121243965774168e-01
1.094364362542818159e-01 -9.231898333772192711e-02 -7.379269738053775285e-01 -7.527717197529308624e-02 -4.511905558486141721e-01 8.892471139635038657e-01
-7.318477700097952843e-02 -1.805345163721286672e-01 -7.720286828750163588e-01 4.935889569594913151e-02 -8.551340999967252943e-01 5.160517129498429778e-01
-9.018424081121120817e-02 6.589830458168054357e-03 -6.928368368263675414e-01 -5.464588898461916061e-02 -3.375500893364195565e-01 9.397200455487028092e-01
-1.086683437148268511e-01 -1.438916141626437606e-01 -7.628508236003245235e-01 2.099413543408160387e-01 -7.774170602735540614e-01 5.929142789081480736e-01
-1.063076747418468249e-01 -1.068314746865802189e-01 -7.484796486272250471e-01 -4.704756991035495828e-01 -6.206507959492607585e-01 6.272521072428337563e-01
-5.673084249502968746e-02 1.192284077005374976e-01 -6.366688053871814024e-01 4.413256001233530068e-02 -4.488579550607687541e-01 8.925126628375770199e-01
9.183885941437514022e-02 9.503473503536148670e-02 -6.433526152860780112e-01 -2.226244339223542312e-01 -6.058623820852765407e-01 7.637860534172549176e-01
9.302119842407920169e-02 1.266116369566321932e-02 -6.914093191426090579e-01 -1.225586583515424488e-01 -4.733880846017680666e-01 8.722861323098856090e-01
-7.590298323691414828e-02 1.221312716546381627e-01 -6.374927653419862894e-01 -6.240611788538331928e-02 -4.319602500617570340e-01 8.997309702444724611e-01
8.457118945005345778e-02 1.053458116267227962e-01 -6.377233073991672718e-01 1.569068410842977268e-01 -4.090167507791731549e-01 8.989357823576691331e-01
-7.046918169841712154e-02 2.043925864800890876e-02 -6.836367310967526034e-01 -2.504005960848169621e-01 -2.623145713078431362e-01 9.319284345699250238e-01
3.022280841271096641e-02 -3.360154451668714154e-02 -7.071475181503957819e-01 3.525455584581897468e-03 -4.652195500054644439e-01 8.851883084720643113e-01
-1.949251463365584899e-02 3.034073682964418678e-02 -6.720112148356964799e-01 -1.072679038975304089e-01 -4.730976159240472545e-01 8.744553977192963679e-01
8.330990055295056651e-02 1.545447528417244754e-01 -6.126038536074581708e-01 -2.889999388482797915e-01 -9.572816387967156837e-01 -9.534116024309912188e-03
5.370806412706125021e-02 -1.273996861528669533e-01 -7.522432062160336885e-01 -1.783497746466961298e-01 -5.469666069538247077e-01 8.179357485529611393e-01
5.097542369637959869e-02 9.023223723742525293e-02 -6.455190924993371437e-01 -2.610757298649830221e-02 -4.991311088312446187e-01 8.661330907139196400e-01
-6.988086292204719052e-02 -6.215025473565129709e-03 -6.963351593094014857e-01 -1.329784449843876282e-01 -9.633431139619119676e-02 9.864260913101172701e-01
-1.224707299124298994e-02 -2.263912728506194405e-01 -7.823776498554464442e-01 -3.819011646489291478e-01 1.264735739244530199e-01 9.155085666112402487e-01
-9.468779699323408294e-02 -1.184437069795635789e-01 -7.524688426043076861e-01 -8.475935068080278634e-02 -2.169655523078163062e-01 9.724925714800772836e-01
7.977885231221061579e-02 -3.070580263860949941e-02 -7.104140400323052384e-01 1.738607334103224947e-02 -2.329982027782167286e-01 9.723217378809863032e-01
5.839718007745733908e-02 6.832612821512197565e-02 -6.594194004673775700e-01 3.154562064402953447e-02 -4.661656992920348297e-01 8.841348396154011802e-01
-2.201207562016944605e-02 -2.084526102363167543e-01 -7.772315438319126191e-01 -1.723953331982539250e-01 -2.251262599183854185e-01 9.589567332192953097e-01
-2.596089512402707106e-02 -1.718159846921686607e-01 -7.655487909984862727e-01 -2.542720311680999323e-01 -3.122966345823450784e-01 9.153231922081893623e-01
-7.938150721437903234e-02 -7.239861484158428839e-02 -7.319412113897058036e-01 6.264356951983292288e-02 -4.121633391897448484e-01 9.089538849830466338e-01
-1.540399768704101696e-02 4.797367725195579580e-02 -6.628620552099461216e-01 -3.598548055455829675e-01 -3.027973673491284878e-01 8.825068120146085660e-01
-4.340384307424316468e-02 -1.067618799565032556e-01 -7.428909773276842765e-01 -8.527519888056078745e-02 -2.755706047904900036e-01 9.574909828459401417e-01
-8.711150987918089839e-02 -7.811784116296843772e-02 -7.344373789057986324e-01 -2.299869369547143938e-01 -2.295232622760741970e-01 9.457404934253037521e-01
1.058670125252527405e-01 -6.551444749370444187e-02 -7.257525132894003805e-01 2.506857390974003286e-01 -5.309145999668648530e-01 8.094975897155060052e-01
1.132980075190995152e-03 -1.227478271352477474e-01 -7.468401924271770298e-01 1.232798132493380799e-01 -4.384537827652911224e-01 8.902585961528343139e-01
-1.956442990782472982e-02 1.753405897660330615e-01 -5.850112829755315103e-01 -3.545337500649805018e-01 -7.278320822080549535e-01 5.869976832778383002e-01
-5.696191805087698519e-03 1.744487706159261464e-01 -5.788713180366423794e-01 -5.529360577144303290e-01 -6.098926087695606402e-01 5.677083070094041117e-01
-1.108720381068903638e-01 -1.492454665441520223e-01 -7.649925957600005599e-01 -7.903918390652819870e-02 -1.659589156494645501e-01 9.829600427910810678e-01
4.421037445446161090e-02 -8.376621192696460938e-02 -7.294562140100462333e-01 1.820650002082842278e-01 -5.499978145065288482e-01 8.150795910444571524e-01
6.915813525403771700e-02 1.510682905230359592e-02 -6.925414604116125750e-01 -3.059022178206551035e-02 -3.703739380898856681e-01 9.283789012655950801e-01
2.120455715784278633e-02 -2.920726663601790063e-02 -7.033589459020117562e-01 1.537338916682096657e-01 -4.899039394949714077e-01 8.581142235272963825e-01
-8.121285470794051276e-02 6.204948119884215463e-02 -6.655861874179183069e-01 -1.302457069424909908e-01 -4.522573474408958516e-01 8.823261004349671754e-01
-6.203336099520793262e-02 -1.881165026195912304e-01 -7.743910680361109078e-01 7.756905457145443772e-02 -2.184022610764287109e-01 9.727710389036026140e-01
-4.724035029294382584e-03 1.606096747963350890e-01 -5.919059538792993402e-01 -4.620509120237262790e-01 -5.361000652969890590e-01 7.064741146613986444e-01
-1.237536976701701374e-01 2.693321627789584116e-02 -6.894768481693922535e-01 2.379289028902690367e-02 -4.416989621535050703e-01 8.968477714775293652e-01
-1.456084233472917065e-02 5.657048851094328284e-02 -6.586324546955176773e-01 -1.973845342464345398e-01 -5.174940150557169050e-01 8.326099266894622097e-01
-5.737257729001868367e-02 1.577694695372574840e-01 -6.156340498045820286e-01 -2.136872790281212631e-01 -4.237842360849686796e-01 8.801958123210069651e-01
-3.192027906311751834e-03 -2.379631274134522689e-01 -7.835776759863117835e-01 -1.416976837386824395e-01 -1.967656538351237050e-01 9.701572263782445305e-01
6.754193807421292328e-02 1.070126357209528339e-01 -6.361092208128260594e-01 -4.567201950074505079e-02 -5.892323032556621154e-01 8.066717792477624549e-01
8.135568738732816552e-02 -2.083363685447511132e-02 -7.072651309285269416e-01 4.848799691839164594e-02 -3.486123373167784867e-01 9.360119403220102940e-01
-6.551445461300152429e-02 1.116224806423323085e-01 -6.410103705443632727e-01 -8.247118227933042389e-02 -3.083660371460034688e-01 9.476860720873335753e-01
-8.021670144477252573e-02 -1.442669749460285256e-01 -7.597369346302106363e-01 -4.175588795522703345e-01 -2.793185794919350040e-01 8.646535220871190974e-01
-1.039817110151672191e-01 1.448365385624581468e-02 -6.919617872305543482e-01 -1.428485863697659675e-01 -4.035038736034586293e-01 9.037582117796570946e-01
-4.966664415582661835e-02 -1.542703855641904265e-01 -7.607816713369754957e-01 5.230851660517216867e-02 -3.193747255982929967e-01 9.461837050697826657e-01
-1.923380403099993891e-02 6.698649860503244624e-02 -6.552948767671247232e-01 -3.822823633209980199e-01 -3.264474433424865984e-01 8.644606766237933337e-01
-2.117728302536678320e-02 8.182100846320640442e-02 -6.486371475473894366e-01 1.232798132493380799e-01 -4.384537827652911224e-01 8.902585961528343139e-01
2.741267820685281895e-02 -1.991210015216325069e-01 -7.802156203734855744e-01 9.834064834638657493e-02 -3.280933933974469752e-01 9.395125555796264294e-01
1.178755678652150529e-01 2.884331717782319393e-02 -6.798643443045950807e-01 -1.237197930140581797e-01 -4.971356034607768426e-01 8.588070822881281874e-01
-2.885594515766828905e-02 2.139693457419077627e-01 -5.504085471900410642e-01 -5.407339210401269636e-01 -1.296844108828016651e-01 8.311370405718604415e-01
2.500284155530237140e-02 -6.827465921337888544e-02 -7.203938462369303686e-01 7.794518969149685783e-02 -3.992246515224100456e-01 9.135339211111795921e-01
-1.047711557429423374e-01 -1.348168533365385335e-01 -7.583778154002991378e-01 3.910372009526537351e-02 -1.047344421979190809e-01 9.937311485971455083e-01
-1.199017168958353419e-01 -9.925000404675535237e-02 -7.475379162515779496e-01 -1.851776597083555909e-01 -2.365734973802368635e-01 9.538040756267607279e-01
-2.133519833059247320e-02 1.088703652612386524e-01 -6.336609590950089688e-01 -2.077773148950354531e-01 -3.629033619791956489e-01 9.083665214434127888e-01
2.628526900860184146e-02 -2.299031764521063670e-01 -7.879539317384854913e-01 1.334972174463449901e-01 -1.775437571615109955e-01 9.750162599808568364e-01
9.385437292611904792e-02 -4.859242491635335642e-02 -7.174905596293497112e-01 -1.005168157821350744e-01 -5.219143468699922739e-01 8.470547705292083007e-01
-1.144921807608749453e-01 -9.035481393686195517e-02 -7.414893537480140573e-01 -3.821908968925624150e-01 -1.601783681594785014e-01 9.100950547641851740e-01
3.441435887198165261e-03 -6.455468984652426578e-02 -7.188265905357382746e-01 3.938501984396293454e-02 -4.219396962453869637e-01 9.057680238031374786e-01
-5.515879830114998883e-02 -2.316747358557043057e-01 -7.886109010497370786e-01 -1.826980647550603600e-03 -3.037400033454965009e-01 9.527532065070111189e-01
-9.878079621244890973e-02 -1.525248361125168817e-01 -7.639434874479639204e-01 2.805542778093427989e-02 -4.260605748620176492e-01 9.042595200053333837e-01
7.016339823763678707e-02 -2.076350552322417387e-02 -7.067577728861381692e-01 -5.074950175763751764e-02 -2.017347705542064940e-01 9.781245168284012914e-01
7.117947762242057830e-02 7.897266085999442298e-02 -6.520022580895130648e-01 -8.381344520651591579e-02 -5.378128615847926897e-01 8.388877352283743427e-01
-4.828830398172514332e-02 -2.236087287073086627e-01 -7.838119430491272688e-01 1.065878310649077815e-01 -3.238432902552974557e-01 9.400875265769151889e-01
1.130338314950153078e-01 5.668724507411355973e-02 -6.624877729806681881e-01 -7.249694799324986338e-02 -5.174290264544325613e-01 8.526496320963741216e-01
-1.007594175849427232e-01 -8.993644715415755053e-02 -7.397428790038190760e-01 -1.420578651999407083e-01 -1.857219440380800946e-01 9.722792409784092316e-01
7.818396921643049058e-02 -7.939973693488169837e-02 -7.305644718103845303e-01 1.803524862699919240e-01 -3.126701246754504671e-01 9.325826364626731424e-01
-2.538991206348153659e-02 -2.399042648881286599e-01 -7.859838953269165929e-01 -2.077581592430487178e-01 -2.035284696310742381e-01 9.567720257812585283e-01
1.063813264635075362e-01 -1.861565883551283274e-02 -7.053775662476315933e-01 -2.129903049370356349e-01 -4.780791232668841206e-01 8.521006289747685702e-01
2.503472092028231552e-02 -2.080979360079310836e-01 -7.827380586102037352e-01 6.030608231895090432e-01 -3.794589520794038051e-02 7.967921639743075213e-01
7.861874040117619589e-02 -1.504690895376070703e-01 -7.666177024535070217e-01 2.350696504998185943e-01 -4.734604534479527893e-01 8.488683398706492467e-01
3.487129440063915092e-02 2.043326424561525134e-01 -5.597619395044205470e-01 3.097032837943805017e-01 -7.875130123724926046e-01 5.328293641973761430e-01
-1.258987505170167942e-01 -5.717725740285500759e-04 -7.009191391521799597e-01 -1.109740752803368286e-01 -5.511836237630904911e-01 8.269712011376587624e-01
-1.242246684964732478e-01 -7.580362915711151561e-02 -7.375027263998026328e-01 -6.911124940220417789e-01 -2.340036056993831728e-02 7.223682881548928458e-01
7.812819677714612221e-03 1.929795838382196149e-01 -5.605969526140750503e-01 3.258675783255398084e-01 -7.709981354695188971e-01 5.471491537951728157e-01
3.621480658814891368e-02 5.952803919774364572e-02 -6.638910016911586665e-01 1.220577788383590961e-01 -6.182191121366392705e-01 7.764708803387488922e-01
5.453762592048036484e-02 -1.878456047052797229e-01 -7.811643777211573214e-01 2.956446026127432583e-02 -4.877469476121091274e-01 8.724843023141047871e-01
7.165592736527266748e-02 -7.540869028401576968e-02 -7.281788870271150849e-01 -2.652305164957892425e-02 -5.630379869046058250e-01 8.260052984294972145e-01
6.181409982037892881e-02 -1.445708973667854114e-01 -7.622798821749189324e-01 3.243150207157679404e-02 -5.080240912308403578e-01 8.607320839857546257e-01
-3.896337228744727304e-03 6.483446796631740783e-02 -6.530894216446615497e-01 1.861275496675761365e-01 -5.183590447447854466e-01 8.346618692536622586e-01
2.073861226340269204e-02 1.193101681891171363e-02 -6.860678306111450686e-01 2.091798437503011587e-01 -5.655836795735754707e-01 7.977210630092543830e-01
6.774425557855723312e-02 -1.021919995508247941e-01 -7.406569748186748736e-01 4.698768426939491094e-02 -4.214703219254621325e-01 9.056240529397654448e-01
-1.335002868703342180e-03 -2.054726781069254882e-01 -7.742811965153216791e-01 2.681588721609454717e-01 -1.456935728521878415e-01 9.522941783456067011e-01
-1.989610358537562823e-02 -2.362583373207925025e-02 -6.984203761934868471e-01 -2.689104937237709811e-02 -4.931962166472311782e-01 8.695023653495773663e-01
-1.568963427123209325e-02 -1.608557540697594934e-01 -7.607452287348555053e-01 1.417482049737934791e-01 -3.127403770691215001e-01 9.392022694485842038e-01
5.185997485468819834e-02 3.470411163196884807e-02 -6.816778710904353167e-01 2.473662561477616428e-01 -3.802976054610984757e-01 8.911698303914887820e-01
-1.182521105459879152e-01 6.470743901034707590e-02 -6.705332077831784865e-01 3.332582523821855935e-02 -2.109104110358735740e-01 9.769371463348451856e-01
-3.764642720962629776e-03 -1.757967953191925115e-01 -7.648120333103561874e-01 -4.133132868820418304e-01 -3.374520084196573344e-01 8.457530779727039372e-01
-6.979718859108570428e-02 -1.860780023636058600e-01 -7.736283176264092676e-01 -1.942679512941694886e-01 -2.999258713068113646e-01 9.339723951064166085e-01
-9.329808427260967429e-02 -6.539609930998993570e-02 -7.303992058698191014e-01 -1.622639825502626976e-01 -6.322907607434552490e-01 7.575478822129929624e-01
-5.536643602405886405e-02 5.523111265270130160e-02 -6.659419286081649236e-01 -1.829569846496884589e-01 -5.783877792153827579e-01 7.949807033017791680e-01
4.518728030386457567e-02 -6.035336529602400302e-02 -7.193024032622483688e-01 1.132064655184528562e-01 -4.058609440127664003e-01 9.068964606226477265e-01
1.265088024070917978e-02 2.115950234474454350e-01 -5.406337458031931220e-01 4.070462692841722019e-01 -5.059137054997251415e-01 7.605028975943318725e-01
4.788117094613984076e-02 8.860555837120909217e-02 -6.459395089492929731e-01 -1.097565442333543195e-01 -6.078519323047626433e-01 7.864283370983766730e-01
-4.262041399664681825e-03 1.488299378117495797e-01 -6.011574723332003822e-01 -3.538926741281343546e-01 -2.631452052498484684e-01 8.975046385130570625e-01
5.181483920722472492e-02 1.349597654762946519e-01 -6.182497571572231898e-01 5.427717473314896957e-02 -6.105429842964614773e-01 7.901210366958710818e-01
2.439443916990841066e-02 -2.304999677014643242e-02 -7.016704802426019238e-01 -3.556123289826937928e-01 -5.688701266985761729e-01 7.415703947876089996e-01
-4.487308144486108763e-02 8.585555472033049029e-02 -6.483054575783041562e-01 -5.181513616397200039e-02 -3.974020643590954749e-01 9.161805449295671311e-01
1.022701530830412014e-01 -1.145853122163006665e-01 -7.502228046460700517e-01 -1.954800022064184795e-01 -3.823298914203533405e-01 9.031120765795791483e-01
6.176733102883105037e-03 8.893517499537319237e-02 -6.413654728120565807e-01 2.212218755113352364e-01 -4.308771867712383186e-01 8.748746948651280331e-01
-9.489459213887291994e-03 -4.870294478442900588e-02 -7.107718311714047443e-01 1.058044538174901083e-03 -4.491318422627742502e-01 8.934648671365884587e-01
-1.045252300017957686e-01 1.054253798225270877e-01 -6.501546509220027525e-01 1.758806202054510326e-01 -2.953280921458512065e-01 9.390672635256953615e-01
5.105444335609024553e-02 -8.506903651443276093e-02 -7.308232736701613108e-01 1.232798132493380799e-01 -4.384537827652911224e-01 8.902585961528343139e-01
-1.055598238539811468e-01 -2.892870304011530350e-02 -7.160396166227588344e-01 2.227882380213466740e-01 -4.843276024625697840e-01 8.460450191876331960e-01
2.227846493217772519e-02 1.031042082358980122e-01 -6.348781895189200553e-01 2.536898730212863023e-02 -5.412298344040132880e-01 8.404919278816833650e-01
2.199210231495094328e-02 1.157399205511509405e-01 -6.259455660451472836e-01 1.602505941292582670e-01 -5.546572659299396912e-01 8.165017234717535377e-01
8.701006942188642401e-02 7.291404773618241110e-03 -6.949642619524795117e-01 -1.495344999172931733e-01 -4.455253482202001791e-01 8.826928103410349724e-01
-1.529623514223648825e-02 1.170884143391376225e-01 -6.274436252567718864e-01 -3.637647555927791543e-01 -4.600325312987668114e-01 8.099662170333865596e-01
-4.005592844403767921e-02 -1.729525560791014133e-02 -6.977083166943328640e-01 -1.063641754112518156e-01 -2.566379357360366043e-01 9.606370969987733099e-01
-4.063073740619556340e-02 1.597939707424521627e-01 -6.072884448759153786e-01 -4.829720006491204920e-01 -6.551385544352051893e-01 5.809746303252282251e-01
-5.548108116958514434e-03 -1.478654863000557207e-01 -7.550007681801269577e-01 -2.599894034328452674e-01 -3.700831976070883544e-01 8.918766377428809511e-01
-1.021606658096134990e-01 -7.683977607620308924e-03 -7.025939482181471352e-01 3.478303885855353883e-01 -3.662834502536996967e-02 9.368417076097421692e-01
-5.749465570023010869e-02 -6.848473560996394538e-02 -7.269076496566456713e-01 -2.934760100221680545e-01 -2.259459412078637097e-01 9.288811889543039380e-01
-2.834532554639774063e-02 -1.688930252096348950e-01 -7.646073881619651624e-01 -5.061864069514379061e-01 -3.494386513162989205e-01 7.884592255683483542e-01
1.678880923854057447e-02 -1.597704592066089835e-01 -7.639975583703245698e-01 2.438492472821628398e-01 -1.764566218524328545e-01 9.536249814284177839e-01
-4.532178181378607174e-02 -2.409560869156057439e-01 -7.898964207020862105e-01 -4.950346783744491996e-01 -3.676083338894343688e-01 7.872768128566596246e-01
-5.617437200742243786e-02 1.241068229948779911e-01 -6.338073648596402876e-01 -9.837139377410025753e-02 -3.928179199129963051e-01 9.143397348262668478e-01
-5.855019951739347250e-02 -3.190603126700333053e-02 -7.103971680828643498e-01 -1.877141278359917564e-01 -5.431299148022871170e-01 8.183967875411251036e-01
1.023405910830746252e-01 -1.062532067056460167e-01 -7.450729585071944605e-01 1.471934652346229833e-01 -6.073202833007597112e-01 7.807023487115360982e-01
-1.265628917352875360e-01 1.362121978867945025e-02 -6.947367105631369055e-01 -6.510160094458158908e-02 -2.517163016845956891e-01 9.656089710750839217e-01
-8.093396306627200290e-03 2.218512323485156701e-01 -5.277536647650105106e-01 5.328713383749943411e-01 -7.663786919450216173e-01 3.587643199526397431e-01
-1.154485342356327132e-01 1.254908965369837086e-02 -6.950135215027399838e-01 -6.575739282545428610e-02 -5.287971688292433248e-01 8.461970926013488992e-01
2.515039858765243108e-02 -3.421870178148470054e-02 -7.072748834961913866e-01 2.721264577605947421e-01 -4.610551140518902580e-01 8.446155177317486995e-01
7.007340911498496916e-02 6.211284972309508157e-02 -6.619239170187286581e-01 1.905979459960999156e-02 -5.824620535727728088e-01 8.126344075767458763e-01
4.299054583364142652e-03 -1.151441114683749434e-01 -7.443611141657071606e-01 -3.116382183538630168e-01 -2.681164115500911937e-01 9.115893871248897939e-01
-1.292128354162618564e-01 -9.237167915253433059e-02 -7.434089585124541433e-01 -9.227877680626765666e-02 -5.272069430715965455e-01 8.447114693954625997e-01
-1.301821524225078019e-01 -4.507557103733534493e-02 -7.243412617600207826e-01 1.905990798997535263e-01 -5.417958041468516894e-01 8.186142543043297692e-01
-8.294878073265073148e-02 -4.185729545151638947e-02 -7.206801071217691090e-01 -2.918149626223838777e-01 -5.326943723687509458e-01 7.944058995478063823e-01
-1.335502262885826796e-01 -6.775360513554147535e-02 -7.357341127879434284e-01 2.395543019450829467e-02 -2.989910344414556942e-01 9.539551869390010541e-01
-9.184498481047100038e-02 1.010180906391473371e-01 -6.500122044607092864e-01 -1.192159187420161609e-01 -3.794770623882600113e-01 9.174882690474432945e-01
-3.399663514339902604e-02 1.307740233230140769e-01 -6.257324641828375666e-01 -2.175787600105588693e-01 -4.611805677355437227e-01 8.602162327783573481e-01
-7.303379574881739555e-02 1.043933344034164018e-02 -6.873635527107084808e-01 -1.719004385513475952e-01 -2.941125036813425075e-01 9.401851277297182952e-01
1.208903414175717256e-01 6.892577342023600839e-02 -6.556839859581681251e-01 -2.838946191299314692e-01 -4.743086749659911616e-01 8.333277422965570391e-01
3.174602538392449352e-02 -5.371579798975938819e-03 -6.948058004284262124e-01 3.974099631197436922e-01 -3.261774430976223660e-01 8.577141696552887939e-01
6.588276787869534745e-02 -7.272055337909502648e-02 -7.263948501281224379e-01 2.777834780235592313e-02 -4.683204638109896289e-01 8.831219092340713006e-01
-9.029664609537298853e-03 1.181641691272689726e-01 -6.243654755779206589e-01 1.672248731432414148e-01 -6.377958234096908763e-01 7.518326472316703146e-01
-9.020100312285447841e-02 -2.945671828004196163e-02 -7.154642221362428334e-01 2.336693653591375569e-02 -3.595310482109009276e-01 9.328405070800139809e-01
4.838859039261413780e-02 -1.294627403626907591e-01 -7.530198858605740009e-01 2.393403589996691561e-01 -4.692766292300376563e-01 8.499974340034229803e-01
-4.520979727382144764e-02 -2.079580032329396699e-01 -7.792869234223580577e-01 -3.206696134940948961e-01 -1.536761817122827278e-01 9.346414447026631933e-01
1.130635061946284464e-01 9.782192636956001108e-02 -6.426454736661306733e-01 -5.492744312403213813e-01 -4.580576639228013391e-01 6.989139973610537515e-01
-8.303887609485614829e-02 -1.271831596526148134e-01 -7.538328973679317979e-01 2.327568195539631291e-01 -7.283845056615846636e-02 9.698034971427176298e-01
-3.751224800592438402e-02 3.510599493005759492e-02 -6.719415664220323992e-01 1.038186518201597158e-01 -2.484426873570149408e-01 9.630669336204360498e-01
1.799517663073193705e-02 9.726704256517568203e-02 -6.389728095186193446e-01 2.560633769027697432e-02 -5.741906542422325899e-01 8.183210910461543586e-01
-1.303047503527749451e-01 -7.407094189467001251e-04 -7.041103545161486732e-01 -2.321840547740645355e-01 -6.486286153933497056e-01 7.248251402935610432e-01
-1.297976745168637897e-02 1.658325142957177423e-01 -5.903313528035437630e-01 -1.038701604844664284e-01 -7.386709518599955393e-01 6.660151759826343776e-01
-5.624358103464519032e-02 -2.213160371904212553e-01 -7.861706481849409789e-01 -3.325574583422834934e-02 -2.836989471756357073e-01 9.583365602649444037e-01
-5.537485146109867584e-02 6.215173231404198806e-02 -6.618412708721107540e-01 -2.535601951706554780e-01 -4.785085669841794287e-01 8.406763816997395722e-01
7.198452698340973566e-02 -1.353130787660388260e-02 -7.041724096886928796e-01 2.654477134271521557e-02 -4.139243127131749800e-01 9.099241937981914496e-01
-4.833641121679162211e-02 -2.382387297546075255e-01 -7.894808465188321023e-01 -7.181784061610303749e-02 -5.343422244966969936e-01 8.422117221276141930e-01
-7.992621402160959843e-02 -1.991636346741432750e-01 -7.801206365014784483e-01 5.804171256223679132e-01 -2.738160852306820714e-01 7.669033262108153615e-01
-2.951515601110923578e-02 7.328430629015232622e-02 -6.541640892482643022e-01 1.277631666533041721e-01 -5.535674211009985468e-01 8.229457354785368883e-01
-3.394792747374012626e-02 -8.297025740389316062e-02 -7.314836906064337008e-01 -1.834371680236394353e-01 -2.273545241692842001e-01 9.563789655399294043e-01
4.841416003637286081e-02 9.647117824777293182e-02 -6.405019031844430000e-01 -8.867186321108021241e-02 -6.741711303485262707e-01 7.332329695801097502e-01
9.219432156406894008e-02 -6.473345106779097857e-02 -7.247084048168714876e-01 7.228370699230789176e-02 -4.087079614569914532e-01 9.097982567278970478e-01
-2.827902124307246981e-02 -2.224022069988581748e-02 -6.999652901835556884e-01 -1.471176718320365839e-01 -4.037031059447456216e-01 9.029840490757777838e-01
-3.540851229776592612e-02 7.980094604219609145e-02 -6.513889322276171789e-01 -4.531205167983021198e-02 -5.599013613648610166e-01 8.273193358760204674e-01
-3.812584323897155736e-02 2.086223753334969788e-01 -5.634380616961590649e-01 -8.443946144821792288e-01 -5.357159312705425114e-01 -2.485159235777977243e-03
-7.600055538078116790e-02 1.475541733851566950e-01 -6.249644294510321441e-01 -9.329008199260101220e-02 -3.209750381720964940e-01 9.424818223563969921e-01
-9.219390106391674817e-05 -2.325286782055299983e-01 -7.815371983199103090e-01 3.180241815908377290e-01 -1.109609432657260170e-01 9.415669328269010707e-01
-8.205416799747268508e-03 -2.964983898435051557e-02 -6.999544340948975485e-01 -2.161543297896780236e-01 -4.062509593494506577e-01 8.878273839777788279e-01
5.623992226775617609e-02 1.422934531945755920e-01 -6.137283399145233576e-01 2.197324156953213148e-01 -5.764251030508329432e-01 7.870525815125284375e-01
1.031052232674053437e-01 6.515368901822901626e-02 -6.584222797839804908e-01 -1.115435720505481565e-01 -6.509549856051927152e-01 7.508765799050783896e-01
9.424563176386600155e-03 1.959402676059212867e-01 -5.581859554513556310e-01 3.642950545841913135e-01 -6.302605738924900169e-01 6.856097448273399397e-01
-1.227240305731496089e-01 -1.172712460324279310e-01 -7.536238751616916032e-01 -4.421856483932845028e-01 -2.501199812827121019e-02 8.965747332513012147e-01
7.695345537601101793e-02 -6.149132756235678454e-02 -7.221850630086980027e-01 1.392245535248178845e-01 -4.198851011643486286e-01 8.968350046223775296e-01
-2.250936871603289799e-02 -1.757205305010201557e-01 -7.667027544418791862e-01 -9.058035343541049646e-04 -3.278557208843392301e-01 9.447273711517877315e-01
9.764978156086172312e-03 2.315503303213295103e-02 -6.792698915508957880e-01 1.991731157604526570e-01 -3.045532258954252169e-01 9.314383514516479945e-01
7.748161527999433695e-02 -9.906810560706258428e-02 -7.392823213807391269e-01 -1.993917812630072450e-01 -7.356528966293600647e-01 6.473466870584858590e-01
3.654996301863146224e-02 2.078218455285832100e-01 -5.550633377288487491e-01 -6.628786842833429560e-01 -7.487268192142896295e-01 1.058473125528782269e-05
-7.374303886723203305e-02 6.199233120269262431e-02 -6.645635203052433493e-01 -4.969315259480739516e-02 -4.500468205580645531e-01 8.916212480031903143e-01
5.048812614597317922e-02 -2.218695869299614626e-02 -7.050562667880639900e-01 1.463565039609411866e-01 -3.515494878662153155e-01 9.246581699900416895e-01
-1.266963761209388140e-01 -4.739546919401500802e-02 -7.246304028120795770e-01 -2.534636881099479044e-01 -2.655613281061678377e-01 9.301791976948267093e-01
1.215507453295338186e-01 4.037588075188665998e-03 -6.930660035218216830e-01 3.619240831814421466e-01 -7.058468437902132298e-02 9.295314735630992864e-01
9.314948296979194686e-02 -4.586746078860100273e-02 -7.159898888774227643e-01 9.958660276622866014e-02 -5.097378298109879191e-01 8.545465776709108008e-01
2.583684116512605447e-02 -5.053609610379812545e-02 -7.137396168089132908e-01 -1.008943293409353230e-02 -4.132952677330348767e-01 9.105411715087613489e-01
-9.631469360792420387e-03 1.053110514351742882e-01 -6.323080102588165552e-01 -6.183512330013322122e-01 -4.719055699494513756e-01 6.284479976071335461e-01
1.166473649787205455e-02 2.999713311996408949e-02 -6.766525644738229373e-01 5.917988406784471245e-01 -2.515045130701985543e-01 7.658456842451801805e-01
-1.101034259625345742e-02 1.547740126877440725e-01 -5.992883737014559342e-01 -3.610748421881945780e-01 -7.189860704548560744e-01 5.938720306856143383e-01
-1.052871000252589978e-01 7.367240280584538836e-02 -6.646975159770318609e-01 -2.670657634590021257e-01 -3.509876947917675016e-01 8.974873347812889479e-01
2.413010758560994382e-02 -8.569165284415054817e-02 -7.301582794213719030e-01 2.435605781980555024e-02 -4.314925281977745053e-01 9.017876582416568532e-01
1.263513139229604509e-01 3.293193924360681563e-02 -6.757105799198066531e-01 -1.661559993220179388e-01 -3.624333034940943610e-01 9.170792138128851523e-01
-8.131228751932771670e-02 -1.023655100309501936e-01 -7.440454510909688679e-01 -4.319553766426296737e-01 -5.538037247467362256e-01 7.118398605347731056e-01
-9.099317780007669387e-02 -8.247128748225900086e-02 -7.364553425351917371e-01 -2.115723540316356288e-01 -1.289925099560850774e-01 9.688127122332476082e-01
-7.804307649210524833e-02 4.093351434747409534e-02 -6.761364287870129663e-01 -4.402517744461884736e-02 -3.551432585886208915e-01 9.337746246445262077e-01
-2.518140561720676879e-02 -6.133995519360502247e-02 -7.204895312590111622e-01 -1.968620640013556689e-01 -4.330846260022154781e-01 8.795925388938036216e-01
-3.318287586463461187e-03 -1.542229143417688242e-01 -7.578174151871029940e-01 -9.124455769411781159e-01 -4.064594374690450596e-01 4.726303854840130381e-02
5.667980185245820313e-02 1.159437178091565490e-01 -6.304179089824751836e-01 -3.094211897959484592e-01 -4.956083219567479214e-01 8.115607916308402725e-01
-3.850156088793458414e-02 -2.669983534409886561e-02 -7.028793915506678092e-01 -1.247186801203803430e-01 -2.536915988156503987e-01 9.592110422213609988e-01
-5.440332852536067937e-02 1.035339050896539291e-02 -6.854771868386665412e-01 -2.539816854413140881e-02 -3.715051440722990650e-01 9.280834342678594417e-01
-6.975838065736614246e-02 -6.726488988545833991e-02 -7.286426813766434529e-01 -2.081359037996580175e-01 -2.634231363948743576e-01 9.419594984718755448e-01
-4.274401624131178752e-03 2.112344889885146570e-01 -5.396030980661055132e-01 -3.295372988820720050e-01 -7.198638362794115286e-01 6.109019772947184013e-01
1.200526875874260296e-01 4.440885498429380379e-02 -6.700646432479555603e-01 -9.101955198163889926e-03 -3.704881546249396140e-01 9.287925934750865808e-01
-2.655170569967268274e-02 -1.985181137508255922e-01 -7.750412162014995721e-01 -1.117027066395554491e-01 -1.588823159774579719e-01 9.809581616965308282e-01
9.908117704916404034e-03 2.077521558824473868e-01 -5.452261660422742517e-01 -1.514781596616037070e-02 -7.511986199175257894e-01 6.599023996815436277e-01
-3.588346256185830085e-02 -2.283051012485511622e-01 -7.853824381397814802e-01 -8.808761114772088729e-02 -3.010980667979562542e-01 9.495159434853220892e-01
9.292116581585305526e-03 1.095397178864527948e-01 -6.298475744099717444e-01 9.526653039157802205e-02 -6.288483986966628692e-01 7.716696052351638135e-01
-1.063994108839621394e-01 1.703641727952251092e-02 -6.908054410007262724e-01 -1.923437491443633907e-01 -3.622717678092097215e-01 9.120104431493536445e-01
6.774265740754030485e-02 -1.532266215719366165e-01 -7.664591881057337686e-01 1.162043788013600032e-01 -4.791827792783400763e-01 8.699887392319948232e-01
-9.053700094929474640e-02 -1.170447340161375194e-01 -7.500176134878154821e-01 1.855973174369107692e-01 -2.500785148541851965e-01 9.502706836310103045e-01
-4.612153138661365288e-03 -1.966362021853673009e-02 -6.948855496477538418e-01 3.172417192893462468e-01 -3.404187342017397366e-01 8.851399759059720429e-01
-1.257450111122535713e-02 2.194079328024766684e-01 -5.330311821645878911e-01 1.081257319318271737e-01 -9.930974780551913295e-01 4.545574963220335579e-02
4.878646659588445345e-02 -1.345124574636771819e-01 -7.562726726698014712e-01 1.670050373254896581e-01 -6.156186854895663307e-01 7.701447601483828453e-01
-1.869896028948610928e-02 -1.603992882929805922e-02 -6.943146057253993808e-01 -1.131520407423009800e-01 -1.487402705509854317e-01 9.823812638646324258e-01
3.236992096079750747e-02 1.161559906773426826e-01 -6.268978777338213293e-01 1.594672721651418379e-01 -3.662933018206676605e-01 9.167330070143224763e-01
-8.399766344301837218e-02 -1.791100874282592903e-01 -7.734678276692088517e-01 5.542498719837440913e-01 -3.677523862619447304e-01 7.467029274113290427e-01
-9.182675423179099961e-02 -3.879945079848128725e-02 -7.200192209898979012e-01 -3.453902937450949173e-02 -6.071886456091116768e-01 7.938066540998756082e-01
5.174371903568882047e-02 -1.458285080335601780e-01 -7.617078822991787401e-01 1.438453069151640618e-01 -2.648606312265472940e-01 9.534974429461032797e-01
-1.334770328655373872e-01 -1.730385493484613846e-02 -7.111730384513280656e-01 1.567371339570722555e-01 -6.235522579895911299e-01 7.659086449407692676e-01
7.638137490944078845e-02 3.915284147668263159e-02 -6.763164782519571760e-01 -3.672350682737879901e-01 -5.667580054065919359e-01 7.375118764721608766e-01
-6.807559865603836358e-02 -1.284066878543518586e-01 -7.531744978444998573e-01 -1.896127636467519889e-02 -2.417135708399965333e-01 9.701623676840904764e-01
4.320131367249832599e-02 2.016856714286445473e-01 -5.657232242709439030e-01 2.775270220414361583e-02 -6.536127951596349961e-01 7.563201051961909727e-01
-1.895279183892837954e-03 1.766211968044409664e-01 -5.774830145016706107e-01 -2.546682761503289445e-03 -6.546955904143406668e-01 7.558883504188500524e-01
-8.817676375715988168e-02 6.724854111353260888e-02 -6.642490692565417021e-01 -2.219359761629462469e-01 -3.329031875968781473e-01 9.164714344552360448e-01
-2.176717558870538971e-02 1.507742898305291235e-01 -6.072785859737052094e-01 -3.710421156169084189e-01 -2.893814109674830992e-01 8.823752871794391384e-01
1.530467127267595533e-02 -2.444508751477585395e-01 -7.873289033276046345e-01 2.808428727236618183e-01 -1.819176865063083515e-01 9.423551539502044161e-01
1.628771380208199338e-02 -1.165376855304467441e-01 -7.448734989303398280e-01 -5.144385900524810207e-02 -4.711140458772448136e-01 8.805708859301569769e-01
8.491216091416954950e-03 -8.693375927461213792e-02 -7.304287339638514398e-01 1.563984254163983401e-01 -3.383227020758120540e-01 9.279424991815994339e-01
2.356574518273964192e-02 1.092020375504849788e-01 -6.309042361294809886e-01 -3.012578643492691555e-01 -7.693600485344306295e-01 5.633194607740938942e-01
-3.730895218868553881e-02 2.013034419575674971e-01 -5.716716268523310829e-01 -2.098154765735979754e-01 -2.672239369377579221e-01 9.405151956867465746e-01
7.825667250354037541e-02 -1.807016004235398668e-02 -7.062460220845931946e-01 -1.551495658187379556e-02 -3.174286975452992321e-01 9.481552130832575642e-01
1.342384243704783896e-02 1.618369753936413358e-01 -5.902594629714496000e-01 2.703317540450251300e-01 -6.825230808803418592e-01 6.790309174261116576e-01
-1.170592575454732914e-01 -1.215614743923408431e-01 -7.562339538431116504e-01 1.103830328431169502e-02 -4.656190049318436608e-01 8.849164356632118755e-01
2.111587631171475687e-02 -1.669748106048048464e-01 -7.669279502153228956e-01 1.572768174226245042e-01 -2.734864360905795988e-01 9.489305411756352449e-01
1.835714480774723600e-02 -1.648611682193185449e-02 -6.978128850583715792e-01 2.100874117609587144e-01 -4.113705617622708255e-01 8.869258933727073302e-01
-7.792947622392326634e-02 1.057416087256894122e-01 -6.457578564418600120e-01 -1.563288869566944739e-01 -3.074670211086752425e-01 9.386294849584891908e-01
-1.167278555929449346e-01 -1.019875774839271443e-01 -7.486023352518964558e-01 -1.762524468515668657e-02 -6.906744464080247781e-01 7.229510079035486037e-01
-1.035523236900899452e-01 -3.814813254635462947e-02 -7.195554614879153821e-01 5.709175485285668782e-03 -4.538423299260296861e-01 8.910637153888554263e-01
-3.411786435517231292e-02 8.217957247602582227e-02 -6.491559642371080852e-01 -1.401019082601762944e-01 -4.907430178374336815e-01 8.599667119985897612e-01
7.809773600333355659e-02 -1.415022594770411479e-01 -7.617631544885589134e-01 1.577905557067295350e-01 -5.099250529942656041e-01 8.456231908235234407e-01
2.277897287875177770e-02 -4.295547185834629189e-02 -7.103457893437471471e-01 1.232798132493380799e-01 -4.384537827652911224e-01 8.902585961528343139e-01
1.702736032479009592e-02 -1.021014676962362505e-01 -7.373571937204583815e-01 1.881215205133013046e-01 -3.821460854748957026e-01 9.047511607486211638e-01
5.120308962480318166e-02 -1.704997489432811542e-01 -7.729983577968243535e-01 3.903155604283801150e-01 -3.293566580310487990e-01 8.597545900418898102e-01
-4.711282951111300105e-02 4.898954905052757547e-02 -6.666411207415393614e-01 -3.633305234610968021e-02 -3.834339653343444843e-01 9.228533488779220306e-01
-7.412617932752423033e-02 -1.269060229966369746e-01 -7.536741311989063608e-01 5.217829411393181127e-01 -2.237609153365752723e-01 8.232093385668927121e-01
-4.401256556530948327e-02 4.746251250667833654e-02 -6.673623000516507586e-01 -1.161799346487144696e-02 -4.478385015536998637e-01 8.940389805562098946e-01
3.896475289067804354e-03 -2.554653704793036773e-01 -7.853375233317457793e-01 -2.505397651462148989e-01 -5.098706069249713674e-02 9.667627142801997753e-01
