-1.021938108125067593e-02 8.920501671308506131e-02 -8.356478504181265032e-01 1.442946402448881393e-01 4.263256482633037692e-01 -8.929868411289563213e-01
-1.951301101071042238e-02 -1.273087184916122938e-01 -9.651156356061721953e-01 2.495340509453459754e-01 4.729217216221858755e-01 -8.450312435861252469e-01
-1.964042567240900650e-02 9.860787576010061894e-03 -8.829470366597221842e-01 6.049619444230189824e-01 5.003643283764251937e-01 -6.194001813757639141e-01
3.965643621038147937e-02 -2.211634616088016259e-01 -9.972289319146995235e-01 5.262005519571792966e-01 5.774462347294339049e-01 -6.242345914131637308e-01
9.191364190873384243e-02 -1.615633344722497977e-01 -8.999516029459868616e-01 5.212058919927839984e-01 1.496905839971569840e-01 -8.402006588991683955e-01
9.272935622975948811e-02 2.571776681075949034e-02 -7.826459684879281120e-01 3.777622935270024129e-01 4.094383628577604739e-01 -8.304552225192973758e-01
1.622200412632498340e-02 2.357735036137244278e-01 -7.855941403655405386e-01 1.581385683467388392e-01 -2.413460244705976920e-01 -9.574676441914271585e-01
6.156074907342021924e-03 -7.684737384053880356e-03 -8.827579150774864658e-01 4.045762191087478588e-01 3.954467802433083712e-01 -8.245846996681849284e-01
2.963754550775416288e-02 -1.678517868389065026e-01 -9.629906138196079324e-01 4.378626180228082365e-01 5.315101397439253583e-01 -7.251022680199016301e-01
5.688641469055975147e-02 1.093053552840526910e-01 -7.652586306037469921e-01 6.949452628644263719e-01 3.005251902217840332e-01 -6.532500988629500460e-01
-2.130546433096215664e-03 6.188624482875729887e-02 -8.458054589227089748e-01 3.479614862630611705e-01 3.099952921370131009e-01 -8.847743909779992588e-01
-5.962693740513286961e-02 2.570033558890482545e-02 -8.909351686016635519e-01 5.715705164793639659e-01 4.525655266749720185e-01 -6.844644539761859381e-01
-5.523843368185914898e-02 -7.406872170339350026e-02 -9.576045888208979395e-01 4.934253948734513839e-01 3.723199312598979849e-01 -7.860720377170298256e-01
7.871184847072182356e-02 -8.588885211511002038e-02 -8.576931455437569740e-01 6.028556392316972712e-01 5.007137462220538904e-01 -6.211689163108682354e-01
6.405980510408994244e-02 -5.532204530693653199e-02 -8.527271794760302726e-01 5.512955861529935664e-01 2.841167836201748398e-01 -7.844430061856334513e-01
1.749449693263817329e-02 1.107928726998276270e-01 -8.046378737387370750e-01 7.164833978381326407e-01 2.353513630974579107e-01 -6.567048625604141598e-01
4.482022549140912693e-02 1.160545149158923595e-01 -7.745449890071902654e-01 6.706945668626406176e-01 3.092273823330839444e-01 -6.742011747218804585e-01
4.196048355185225814e-02 -1.451166817208523196e-01 -9.350412394959389806e-01 5.599553316806670233e-01 4.392816489765463128e-01 -7.024824975718898523e-01
9.007059956967745917e-02 -1.621972417262898536e-01 -9.027353694345565671e-01 5.503141606938727337e-01 7.398575443505597260e-01 -3.869950110884607386e-01
7.044707933051738702e-02 3.302676273494547371e-02 -8.005465769965338652e-01 7.049672041279276824e-01 3.953146669755513432e-01 -5.888527449015262816e-01
-3.943347863079064292e-02 3.760792434229533188e-02 -8.734002892093323256e-01 4.027281490637960037e-01 3.508487756543374747e-01 -8.454082886827531951e-01
8.440081965662418750e-02 -1.292304550090243864e-01 -8.864546893125474503e-01 7.918948049605689654e-01 3.830932887486230287e-01 -4.755440568361953280e-01
2.583421135465467644e-02 9.734936333542180964e-02 -8.029733075252390995e-01 5.862379427539378129e-01 4.599735237516041630e-01 -6.668953680474645207e-01
-6.886650687090878353e-02 5.435847013074341684e-04 -9.139849512740805260e-01 5.085317796788566547e-01 3.479881589533975195e-01 -7.875910552341738313e-01
5.632545752510207532e-02 2.056656098710532912e-02 -8.198398330644619536e-01 6.568933472721403266e-01 4.186749450598702404e-01 -6.270585464601512449e-01
-1.096851390296587616e-03 -5.602674816841678174e-02 -9.144477796191893271e-01 4.349068432585726507e-01 5.138964387009204993e-01 -7.394366017295697091e-01
3.874679946144552606e-02 -1.805387642851647434e-01 -9.649014177703446604e-01 4.931911569603932843e-01 6.311578812579966558e-01 -5.986670290086011370e-01
1.635107544243167774e-02 -8.096105925287747085e-02 -9.136031130188819738e-01 6.681573157288535070e-01 3.602297856576255897e-01 -6.509994646411580987e-01
6.685023583663678159e-02 9.511613434507355802e-02 -7.631102832650893397e-01 6.700825682291302599e-01 4.185306933222662229e-01 -6.130427476959792177e-01
4.415752923579093631e-02 -1.887754101822551045e-01 -9.649360695456535852e-01 7.952857429552456781e-01 5.427393466923310372e-01 -2.701010710902585488e-01
-4.782913604570676602e-02 1.665256380242379763e-01 -8.225792771350771693e-01 2.311786443173936556e-01 4.162972291177683970e-01 -8.793480832073498066e-01
2.093213649735410978e-02 -8.320605538529425582e-02 -9.102054268592350006e-01 5.938396013007135599e-01 4.008782089997523501e-01 -6.976038915288249598e-01
-3.835498573373428283e-02 -1.295566674647787575e-01 -9.774141154772635343e-01 8.114828614510345706e-02 -1.076287535036144216e-01 -9.908738603247996268e-01
1.068060638564843207e-01 -9.063522474059969303e-02 -8.376596373178271104e-01 5.662255440613974677e-01 5.926773631762584094e-01 -5.728194972509331739e-01
1.811315595520974694e-02 -2.113427261287133610e-03 -8.681845874807535557e-01 6.388450635773588182e-01 4.275455546444411614e-01 -6.395950151827463070e-01
9.330189635288609062e-03 -1.632141359403485037e-01 -9.753860200826793836e-01 5.760257830296782178e-01 6.109404055590742511e-01 -5.430894200224860580e-01
-5.552045878511788213e-02 1.898269141627962342e-01 -8.146732626448754955e-01 3.242814277652393273e-01 3.794589300259967879e-02 -9.451992725403320916e-01
-5.388753189145464514e-03 -1.027381160150604711e-01 -9.431508497142976344e-01 5.169753251632369651e-01 4.233808973615184601e-01 -7.439658116618804717e-01
-2.134287649142601467e-02 -1.545134132503324931e-01 -9.864830329354234983e-01 5.145735218227168728e-01 5.546506346848432134e-01 -6.538935418572860980e-01
6.288874814553983839e-02 -1.485442518938619727e-01 -9.181007700359130608e-01 6.617006659296457149e-01 5.258278964922694643e-01 -5.344691309877293017e-01
6.278918166979093052e-02 -2.185562430831619329e-01 -9.741292090386455271e-01 9.516639772875890024e-01 -2.942755672947002243e-01 8.796342891537128894e-02
4.431089215100244422e-02 2.317632019695407136e-02 -8.303139472623455308e-01 6.875383327194245497e-01 4.589730361983972440e-01 -5.627031127372751351e-01
5.844636685714241914e-02 -1.293462246149337525e-01 -9.078082390982562533e-01 5.514960202541612233e-01 7.762578212873703087e-01 -3.054110910461614870e-01
2.315686911674290707e-02 7.829110291196909877e-02 -8.170163403215305875e-01 5.933589224825777109e-01 2.620916832208616820e-01 -7.610736749466308071e-01
2.447759292444874266e-02 -1.512690952193284644e-01 -9.544618583330507500e-01 4.176207649760060869e-01 4.919215760188949127e-01 -7.639411362846891818e-01
4.502821351312619874e-02 1.659594749497840527e-01 -7.570866883473850173e-01 8.758133229253888263e-01 5.722726059159643358e-02 -4.792453067392209443e-01
2.258077886694804040e-02 1.888301421537687819e-01 -7.805923489735857590e-01 7.653932131576787201e-01 -3.583684512390008375e-02 -6.425643545853829686e-01
-6.730265367153333289e-02 -7.002648371596667531e-02 -9.621333898446688959e-01 4.042462800861928995e-01 5.698258418846062767e-01 -7.154603098404375139e-01
7.300963700509503773e-02 1.256053586239999111e-02 -8.091045914379253468e-01 6.044186790204983950e-01 3.542728892977948241e-01 -7.135606353770561627e-01
7.877413680368984539e-02 -1.549115336143372379e-01 -9.098026434691294240e-01 4.172922909311018169e-01 3.650034061666147522e-01 -8.322497566333328933e-01
3.657334629390888991e-02 -3.390281616271271625e-03 -8.538519038945302508e-01 4.959975469434111384e-01 1.030117784189652913e-01 -8.621919780032060165e-01
-3.460768984021973804e-02 7.952684941172348532e-02 -8.517293147809767984e-01 6.186176791330960656e-01 2.679467976800763429e-01 -7.385910104225301698e-01
3.109331756454282794e-02 -1.625002310268432726e-01 -9.576809902337893865e-01 9.478187808656556301e-01 2.088125271513981973e-01 -2.409084621655887826e-01
1.587561770146358325e-02 1.489954529161088281e-01 -7.939694088995687959e-01 6.424596562983803105e-01 8.979388595173543042e-02 -7.610405035703775578e-01
-2.662176416789826736e-02 -1.043426299912611210e-01 -9.573017538423376216e-01 3.909547850548316661e-01 5.258518711134451129e-01 -7.554033132633315439e-01
1.013735369421639998e-01 -5.489060364415842587e-03 -7.948323292753721736e-01 3.970652873371961489e-01 7.923066026804073125e-01 -4.632379571460664147e-01
8.951404799627396547e-02 -1.525860286706426927e-01 -8.965932835292135250e-01 6.888196588204669180e-01 5.191994323633110087e-01 -5.059243293774980943e-01
7.658223663612288845e-02 -1.525123397949478821e-01 -9.104572397485688473e-01 5.958008628219215730e-01 6.582696933515943538e-01 -4.601112285909262911e-01
-1.017693567751345451e-01 3.328656960883341620e-02 -9.212259676075548187e-01 4.682941696344788407e-01 3.132029195622315632e-01 -8.261988270773860110e-01
-4.865560185827794148e-02 8.278315235880778777e-02 -8.592995282730045981e-01 6.013773394388318705e-01 3.891357906103867226e-01 -6.977955517739428126e-01
-1.025887347594128668e-01 -3.321726742589783260e-02 -9.604251485505295172e-01 6.045197815441987199e-01 4.534732856748689422e-01 -6.549181726757877797e-01
-9.741394757978434626e-02 -3.022751614003442444e-02 -9.561159804320534805e-01 6.077697894270294166e-01 2.235504197138406812e-01 -7.619980924553485524e-01
6.883202142585448380e-02 -5.279159273615584465e-03 -8.233876693509989408e-01 6.775113685055204060e-01 4.335101874232199504e-01 -5.941778041513008368e-01
-1.232075818916370663e-02 1.171059767774240701e-01 -8.258832867525004451e-01 4.854151505009651202e-01 3.584854020409212194e-01 -7.974085202627850810e-01
-9.474712835648229151e-03 -4.446088429415403359e-02 -9.105766301307274269e-01 4.418471675244990404e-01 6.274666873346487206e-01 -6.411369875743088143e-01
1.954148722686999129e-02 1.363506911498521268e-01 -7.932021080289005655e-01 6.451409236483049980e-01 1.514476568577637072e-01 -7.489037293714760901e-01
4.722953130238077835e-02 7.925778723953495752e-02 -7.927664101610665259e-01 6.240757591206305133e-01 3.583176498567570700e-01 -6.943615115191360543e-01
-1.340812268869256453e-02 1.107511175304911610e-01 -8.286904852274571409e-01 6.165281448666646291e-01 2.391049912141250122e-01 -7.501478852624743343e-01
-7.776345353772741442e-02 -1.396544074090446015e-02 -9.318776176913793341e-01 5.637286089232310671e-01 4.624986380898576388e-01 -6.843281853369083123e-01
3.566657994913582930e-02 -7.227432337066780343e-02 -8.899059691590550658e-01 6.372888009852688551e-01 5.520269229908906228e-01 -5.377074115464353099e-01
-7.322663399678679130e-02 2.678004772315024581e-02 -9.008478565981959951e-01 7.436767281697788112e-01 2.449703688684072567e-01 -6.220405471954135734e-01
-3.590165690086413730e-02 1.913678188340926511e-01 -8.081535577976206586e-01 2.497274335725739036e-01 4.826187789349683510e-01 -8.394732414678718335e-01
-5.973055123547993395e-02 -1.044750196326656583e-01 -9.768399573567908556e-01 3.842290547356209673e-01 3.359180745117172906e-01 -8.599576040208678496e-01
-1.227431677290793596e-02 2.475407978584177535e-02 -8.687656008519052397e-01 4.285704138921994089e-01 4.919424259577643843e-01 -7.578390659493995374e-01
8.000217615384500047e-02 -1.806004090633218928e-01 -9.249306754578738854e-01 7.144492940941067349e-01 6.033696245646673617e-01 -3.542700979776943759e-01
2.681507068987717263e-02 1.737454723038820981e-01 -7.769843779477874079e-01 7.770307501395001815e-01 1.251793499270956456e-01 -6.168900580245038068e-01
4.031755185605397779e-02 -1.883751476569680561e-01 -9.695529124188262404e-01 7.819974752297880194e-01 7.732808572447048834e-02 -6.184660992264863211e-01
-4.123036648560098744e-02 -5.887361384071548159e-02 -9.399703585426525398e-01 2.411951790954092734e-01 4.184011565704492952e-01 -8.756513905440018730e-01
2.888851552165247472e-02 -1.466554200579151535e-01 -9.471544502003605981e-01 6.788863763203424953e-03 7.757131381842885531e-01 -6.310491570211365087e-01
4.415938243653288325e-02 1.272273686696812900e-01 -7.715003143562989552e-01 7.879914958523258628e-01 2.932516134744383440e-01 -5.413620726085754953e-01
9.171777228149732841e-02 -1.060498745532562626e-01 -8.640508743177797157e-01 5.741557581022361800e-01 5.938557335303221718e-01 -5.636315580157035265e-01
6.175617757423342014e-02 -1.766042525317811918e-01 -9.416738937031465806e-01 1.295908004555751669e-01 6.594079912238181018e-01 -7.405317856428933476e-01
-1.624682650094421907e-02 -1.573245140437151413e-01 -9.857162187952518417e-01 2.251208400612621507e-01 6.239197429935782191e-01 -7.483613844079201050e-01
-8.159737721222491691e-02 -5.675902952180746780e-02 -9.628550547644832980e-01 3.813642754197563156e-01 4.618548485504873624e-01 -8.007817357457466256e-01
-3.332551861675053795e-02 -3.954551323690994741e-02 -9.217177789353291351e-01 6.599987377278103695e-01 1.478692150819104489e-01 -7.365706764654406102e-01
5.841520901252653802e-02 -1.342801120325926856e-01 -9.108057537818828875e-01 6.310610615859731931e-01 4.099307596633307016e-01 -6.585732372575044957e-01
-5.132270193880088954e-02 4.487475352089325548e-02 -8.765153659556098598e-01 5.250822891103191781e-01 5.287051188210244446e-01 -6.669029067226452945e-01
-1.004610541154216663e-01 5.468612528647235488e-02 -9.101913938863672726e-01 8.959249195592502435e-01 2.109590120496133148e-01 -3.909153792674343042e-01
7.582044980943963841e-02 -1.725768487454328315e-01 -9.255918590468349416e-01 1.284196110011401604e-01 2.339305347770578025e-01 -9.637348745423895968e-01
-2.546271382861816160e-02 -2.109541042323559434e-01 -1.034430190021029761e+00 1.488463533851528964e-01 7.342290571097199736e-01 -6.623839179657923237e-01
2.507353206073285531e-02 -8.415295617954716978e-02 -9.079089898567304084e-01 6.833917532707464160e-01 5.754094916206091703e-01 -4.493101696094221054e-01
1.060741940434509339e-01 -7.240206666857003370e-02 -8.298847095303143462e-01 7.003308651324174905e-01 3.556551326841971283e-01 -6.189071868529769649e-01
9.900099181220865796e-02 -2.257227915044947991e-02 -8.058740486338723530e-01 4.861948192371142730e-01 1.718512936580733341e-01 -8.567856970182429199e-01
3.836879763427812617e-02 -6.319190943079308620e-02 -8.808338860903613954e-01 6.104903021004423058e-01 4.770612587056272669e-01 -6.322295045974313243e-01
3.577717888230561721e-02 -2.146561544123375964e-01 -9.954802279543164545e-01 3.916487064455995704e-01 5.623096493981087907e-01 -7.282988047039927748e-01
-9.429415818596054155e-02 5.440758853693072883e-02 -9.054771589086392236e-01 5.334549233949825719e-01 2.250271145541015150e-01 -8.153457195699923554e-01
5.814123763466889222e-02 -7.437743532216746500e-02 -8.687222599724255812e-01 5.119278334328034585e-01 5.304546152986057139e-01 -6.756832057001297409e-01
3.354361553174534799e-02 1.234670918914806785e-02 -8.475709111052716072e-01 5.134114622437000452e-01 3.082920490994650042e-01 -8.008524726182960629e-01
1.091984504710884381e-02 1.485390695686079898e-01 -8.003809445819866086e-01 8.501316512900136679e-01 1.066523399367473590e-01 -5.156563330949512913e-01
1.423962509184150543e-02 2.090126297819298318e-01 -7.902795989390155595e-01 8.558960955495324985e-01 4.083222839229425083e-01 -3.173559296358233195e-01
8.364227176055692714e-03 -1.804233898065275288e-01 -9.922902246326619213e-01 5.892285544225037697e-01 2.830541419227561306e-01 -7.567628845242998503e-01
1.056505186247641975e-01 -1.382417384190075538e-01 -8.703852512391243579e-01 7.732282902479985509e-01 2.778807597585116751e-01 -5.700002583474759188e-01
-4.793028943689855992e-02 -2.213172047960179894e-03 -9.035982440761537449e-01 4.470873899603265977e-01 5.201478041551089726e-01 -7.277081335062024481e-01
7.452136428884797992e-02 1.785937516371981226e-02 -8.049203997898386476e-01 4.347462578687096291e-01 5.820902941087543470e-01 -6.871437846430230589e-01
-1.804336701418128228e-02 1.352290732661450834e-01 -8.210697821719549205e-01 4.055142068602807792e-01 4.554384728357014356e-01 -7.925490681942420901e-01
1.571348778882577331e-03 -1.341899855777458350e-01 -9.591719126300136677e-01 3.299360028260577837e-01 6.050247972382026829e-01 -7.246290283766138041e-01
-5.315356494139429622e-02 -3.479830175016161015e-02 -9.311104969284381694e-01 2.453501708073443921e-01 4.693086455864606821e-01 -8.482645158572936772e-01
-3.924107738419876923e-02 1.940155918435987337e-01 -8.089284416510355014e-01 2.693550478570372331e-01 5.962392453626582656e-01 -7.562715256330234670e-01
1.812487321854759983e-02 -2.277179012747570508e-01 -1.032338465507217640e+00 1.280161589358281282e-01 7.865769907382953452e-01 -6.040765685675983931e-01
-5.929122794442378414e-04 -1.656175424457762696e-02 -8.914681485877595790e-01 5.312372202400234000e-01 2.673654902493017294e-01 -8.039295432159485610e-01
1.026907222240514145e-01 -1.716960383409980861e-02 -8.009112942890660447e-01 3.650302782781969513e-01 2.628287995652393572e-01 -8.931259250851680820e-01
6.360677717156447419e-02 1.083413124829007007e-01 -7.588278280393083719e-01 4.055142068602807792e-01 4.554384728357014356e-01 -7.925490681942420901e-01
7.228486277822321338e-02 -2.061672414549337307e-01 -9.504458666539175038e-01 4.545536303003555045e-01 6.806669887405473185e-01 -5.745201890444262549e-01
-6.471107886742048787e-02 -7.167072782916419915e-02 -9.613194527430070080e-01 3.906832870515457024e-01 4.753936456845850311e-01 -7.882686413027722994e-01
-3.450676605602959884e-02 -6.032986322626972264e-02 -9.381246843868754626e-01 2.931914788802246763e-01 4.336443758763486311e-01 -8.520512378858672298e-01
7.608990508659436991e-02 -1.816409710366121144e-01 -9.286197096792386807e-01 6.380970012906717059e-01 3.757687423593912279e-01 -6.720342768114538901e-01
-7.364588278769879093e-02 -9.063020051313400161e-02 -9.764203531136105285e-01 3.499968721206977995e-01 4.911946788093956018e-01 -7.976402553877673940e-01
1.656674945477552277e-03 -2.208356251763623490e-01 -1.035092274251374844e+00 3.958997354556219039e-01 7.832177460369919020e-01 -4.794093884759690893e-01
2.414485115155028463e-02 4.487786357288130190e-02 -8.347392261806158009e-01 5.427553133285164533e-01 3.825981658187599943e-01 -7.476866411577680616e-01
-5.435132563871596795e-02 1.180690802863182398e-01 -8.481084847074877864e-01 3.480399649434690601e-01 4.427101239516619824e-01 -8.263630733236165815e-01
-6.081353633933342384e-02 -1.224087662538809185e-01 -9.878484855452461799e-01 9.382992067451423335e-01 1.063769847445587835e-01 -3.290570402500042069e-01
4.503572492422756868e-02 -6.631262258241600593e-02 -8.759321912000738175e-01 4.618732542072803704e-01 2.749285802676344481e-01 -8.432599675070551193e-01
3.563318535158870037e-02 -3.357160067257177610e-02 -8.708267100197168986e-01 5.534195317300346639e-01 5.483006327868266139e-01 -6.269714809983583104e-01
1.043662474461467399e-01 -6.515982358381065820e-02 -8.249296486485941937e-01 5.607245715266437891e-01 3.512302631347594128e-01 -7.498168157253806143e-01
-7.937169633179119721e-02 -4.746412471245453624e-02 -9.557724619734847549e-01 5.008112121787747784e-01 3.325605364895968252e-01 -7.991192772832962365e-01
7.022180416350240137e-03 -1.512474739442392635e-01 -9.710659523376293789e-01 -8.789585727295949613e-02 6.143028475107159547e-01 -7.841596328646848191e-01
-1.994174407364721416e-02 -4.891482415067543998e-02 -9.212418624065255024e-01 4.476778521907648356e-01 5.833108148397218029e-01 -6.777411260569065066e-01
3.942642858527855426e-02 8.424244641289481417e-02 -7.977348748816216473e-01 6.724578940181245024e-01 4.444911048169175594e-01 -5.918006746459021361e-01
4.851680845498293482e-02 -1.459079213622558602e-01 -9.293942669456374261e-01 6.732818743446603582e-01 6.617486665256129275e-01 -3.298184652661430016e-01
6.828751190574715302e-02 9.477286040235894174e-03 -8.152777474718654327e-01 6.907420444840680629e-01 3.830302241879383618e-01 -6.133215105803051514e-01
-6.358673928251019902e-02 -4.541699777473662270e-02 -9.447910484373301943e-01 3.323929538708542131e-01 6.473331661331310771e-01 -6.859115804832748298e-01
3.595440040835594375e-02 -8.680428618506856597e-02 -8.991846141569181938e-01 6.170180402975320444e-01 4.225433640974439742e-01 -6.638869206458343220e-01
5.774559399757184242e-02 1.779244653780409635e-02 -8.204024691704486782e-01 6.556558807280972179e-01 3.329699926543959743e-01 -6.776771724489430992e-01
1.075155879343674264e-01 -1.301770971631693863e-01 -8.634322377975681695e-01 7.832892979266697919e-01 4.187982476084409211e-01 -4.594190935884616689e-01
-7.448516780127535653e-02 1.151454179006657086e-01 -8.618636070149807704e-01 3.057265468322447610e-01 3.811350813423117212e-01 -8.725063485913558958e-01
2.018754835044583862e-02 2.246758666932030246e-01 -7.797303500862297065e-01 -4.185107387504099496e-01 2.151467784091099233e-01 -8.823608248844502233e-01
-6.120226081676434157e-03 1.363881913230670095e-01 -8.158536715250698235e-01 2.555344061230279129e-01 3.331780561609167246e-01 -9.075761952476412153e-01
-9.831423123233543060e-02 7.142776706550224564e-02 -9.016749947036503121e-01 5.590629222760918893e-01 2.885740510194301778e-01 -7.772860901973944747e-01
-1.035168913354964949e-02 1.482317393927386207e-01 -8.132112930135285689e-01 3.704658275913074172e-01 2.529014336886806213e-01 -8.937538449849027344e-01
-2.765772902575301326e-02 -4.495811204422724139e-02 -9.227676152445820623e-01 3.019365692620419317e-01 4.749891737151753501e-01 -8.265709848498452583e-01
-1.109170629558382803e-01 4.870453165681358498e-02 -9.206609974333951341e-01 4.415641565490433518e-01 3.710304611856188317e-01 -8.169195141037572938e-01
4.447719224169423280e-02 2.643118995874660371e-02 -8.283483052498111787e-01 5.614248346961651093e-01 4.767985531076698869e-01 -6.763618075710782218e-01
3.656904188866483274e-02 -4.748560474092863165e-02 -8.763850859109418856e-01 6.131420798493670832e-01 4.023127435523726758e-01 -6.798538418611422829e-01
1.065654394058212218e-01 -1.207545308889580032e-01 -8.588814287197876762e-01 4.625416545473046703e-01 6.456633696057335614e-01 -6.075969313270200844e-01
-4.195883855931982487e-02 1.341891942549854333e-01 -8.334235842047653664e-01 3.784473064428728883e-01 3.433291722185751738e-01 -8.595945065842627297e-01
1.615390346837476893e-03 -1.309970132324182190e-01 -9.567931602965452642e-01 4.055142068602807792e-01 4.554384728357014356e-01 -7.925490681942420901e-01
2.827996693722776081e-02 -1.102680322563603238e-01 -9.205403379278223053e-01 1.915120694361604758e-01 4.274731518945351083e-01 -8.835099499550815860e-01
3.933263353073272045e-02 -1.305985408211697840e-01 -9.255527858334416935e-01 5.146046034818710924e-01 4.702096428762816971e-01 -7.169972062856491135e-01
-7.123515452273215809e-03 -7.137146487164883202e-02 -9.262378271371117799e-01 4.190349297597286693e-01 5.447659539807703233e-01 -7.263881765452135930e-01
7.038275337496216477e-02 -1.138333309665306853e-01 -8.880546118356582586e-01 3.019365692620409325e-01 4.749891737151755167e-01 -8.265709848498454804e-01
2.267090776490593776e-02 -1.213261838200672543e-01 -9.333967959786951818e-01 3.294194870622657034e-01 5.850139334695355631e-01 -7.411082911357390612e-01
6.694544210124407646e-02 -1.111050901332711477e-01 -8.890005900873987343e-01 4.744414350809416647e-01 5.642988176068461925e-01 -6.756272412550071715e-01
-9.656486349738765962e-02 1.080712215710317031e-01 -8.811032633509555678e-01 4.208879467036240607e-01 4.166436319156294199e-01 -8.057675969556982176e-01
2.620059374536849728e-02 2.536107839984999557e-01 -7.763766819126518559e-01 2.868870026766331405e-01 -6.405720679459315364e-03 -9.579430121034310242e-01
-1.116296952019014688e-01 5.304686148144837493e-02 -9.197306993714847723e-01 8.393896402072238416e-01 4.021337252986365574e-01 -3.656685642630880251e-01
-3.210379490619685167e-02 1.227129580648397139e-01 -8.336951885592861489e-01 5.133169270759362357e-01 5.182971830644580447e-01 -6.840129840907740455e-01
-1.020189525705660627e-01 1.979542533607950294e-02 -9.287613667667310446e-01 4.920867037994451909e-01 3.154106030652862325e-01 -8.113980696413995997e-01
-6.716189012861896457e-02 8.531964384350709807e-02 -8.715390937889174738e-01 4.881581280312400906e-01 3.375339597287153048e-01 -8.048431325835423422e-01
5.705003326172812528e-02 -2.158193931313388825e-01 -9.771455618593725134e-01 5.326916268500162532e-01 7.517712037122593616e-01 -3.886897065178130939e-01
1.014870906069209322e-01 -1.346339835084983949e-01 -8.723919395792957276e-01 4.352782243294887055e-01 3.189542287939771126e-01 -8.419032410906888142e-01
-6.906376489919173467e-02 3.185554976778568609e-02 -8.947601454689574352e-01 6.634012444213025494e-01 2.474156117679371658e-01 -7.061758307629654174e-01
7.801389402413141938e-02 -5.970358109641274620e-03 -8.157032467698219769e-01 5.876025186024347313e-01 5.056193694468515965e-01 -6.317217214662192992e-01
7.643409020825586708e-02 -1.917291853129957924e-01 -9.355642701891109247e-01 3.143269716751052045e-01 4.302373517901105227e-01 -8.462235969306162175e-01
5.033510902608633389e-03 1.881273103525021861e-01 -7.966295639778082638e-01 5.795045669749459005e-01 8.344578765063898063e-02 -8.106856711318787267e-01
8.639290081192649295e-02 -8.777671915232916622e-02 -8.548067496407635302e-01 4.353115021240070992e-01 4.635798515669641295e-01 -7.717497115902874905e-01
-4.262719926593215580e-02 6.280445183565346035e-02 -8.654205049950650652e-01 3.081571157379126569e-01 5.869756014508085151e-01 -7.486647015330375465e-01
-1.198086290002648054e-02 2.345182873014276803e-01 -7.917593962031174160e-01 2.577724625902756972e-01 -9.014191185181490151e-02 -9.619915765004621866e-01
-9.509907795708667094e-03 -1.792163952828030316e-01 -9.978058773199545151e-01 2.881800473517032724e-01 5.861493655762367583e-01 -7.572193747804826236e-01
7.644501603776648890e-02 -1.211450616593335791e-02 -8.224896233074427965e-01 5.770025147700803547e-01 5.821973133640996334e-01 -5.728126973633069774e-01
9.240987788089187471e-02 -9.541618511522817481e-02 -8.553959131304781360e-01 4.495323530299943915e-01 8.039499208951864651e-01 -3.893394255298836537e-01
2.777130119094076144e-02 1.497522638189961453e-01 -7.806214228465975236e-01 6.445830209385152720e-01 1.457534944626797113e-01 -7.505122570416122851e-01
-6.339132963758235817e-02 -1.462582320067203068e-01 -1.001701477254805850e+00 3.362508202316499828e-01 4.312705904579335336e-01 -8.372222307724562773e-01
-3.295369161789320211e-02 8.749541009729593088e-02 -8.473326462497425826e-01 7.373086043800234357e-01 5.075100857424954537e-01 -4.458806283937742920e-01
-2.432066041580931148e-02 -1.477764308220294309e-01 -9.825543813504120649e-01 3.581218828838025336e-01 6.598684718876326460e-01 -6.605469830439320011e-01
7.700563060640853996e-02 -1.762574726374930081e-02 -8.240934202298917377e-01 6.164019204079317360e-01 3.499265279708956844e-01 -7.054077526790076824e-01
-1.606668671743451127e-02 -1.786698920554569137e-01 -9.997518604638585549e-01 3.798947177719704249e-01 3.695171416747877746e-01 -8.480195076868514148e-01
6.163884357092615229e-02 1.067369556708185063e-02 -8.215202800723536702e-01 5.214930270719670968e-01 4.882568730602009355e-01 -6.997501329937646508e-01
6.398765782966972515e-02 6.590664865591663868e-02 -7.847617695516155845e-01 6.560697114737269464e-01 4.629221463429566419e-01 -5.960500147739373755e-01
-2.128379420884284404e-02 1.425798146744584050e-01 -8.200373886380115662e-01 4.784823620382572806e-01 2.774613550459600342e-01 -8.331085317498252429e-01
7.207678743756701367e-02 -1.881298986207057822e-01 -9.378737492643743900e-01 6.874864876045421180e-01 4.999618765483400673e-01 -5.266881917789992817e-01
3.597434750153184757e-02 -2.159166409859596125e-02 -8.649167529851604641e-01 5.166094553738797002e-01 4.612385547273429309e-01 -7.213692994932173752e-01
-7.035370646906606573e-02 -2.167742862508604314e-03 -9.172217732657432787e-01 2.103189348182733509e-01 5.380792759519806845e-01 -8.162332010203329213e-01
-1.033767071176312918e-01 -5.183580085488296435e-02 -9.745084729305012461e-01 6.730055162100732069e-01 5.779734112254489853e-01 -4.615304010216780828e-01
-1.012578027000675673e-01 5.199197842085362398e-02 -9.118540131723869013e-01 6.998102831195819329e-01 1.453382808909934598e-01 -6.993871258092625443e-01
7.307221849613671980e-03 -3.469234460483658355e-02 -8.972680168152973312e-01 4.932554549017915679e-01 3.110090460268396528e-01 -8.123868718160711655e-01
-8.710128291387085608e-02 1.081221146503742875e-01 -8.738923931557851521e-01 5.395314208723072102e-01 5.220348437679448450e-01 -6.605947833458019058e-01
9.101414253002912402e-03 -1.604129159491354539e-01 -9.732866126245977023e-01 3.267615603166225124e-01 3.397345848799859236e-01 -8.819338379583072651e-01
8.162564453067489012e-02 -1.230826964589710609e-01 -8.847874169873828354e-01 4.991687435028770992e-01 5.632471668428186140e-01 -6.584703444752063595e-01
5.658672820521255808e-02 -9.476933663307207656e-02 -8.864772491709983493e-01 5.415092945878392516e-01 6.320602764760342440e-01 -5.543171391685630667e-01
-3.505685679911479252e-02 -1.820003978143650836e-01 -1.010966748260317294e+00 9.379969664966792964e-01 -1.742645492642909411e-01 -2.996557319871273606e-01
5.406883460324157786e-02 7.678323906416906208e-02 -7.870446932887474878e-01 5.967813229107266082e-01 2.800330924636446617e-01 -7.519531366715421772e-01
8.632379611671410491e-03 1.548316513545849316e-01 -8.036027911323843087e-01 8.611558239709912188e-01 -1.855405168790264236e-01 -4.732709197036167881e-01
7.208698277509738295e-02 -1.526016218693853066e-01 -9.145381980334709171e-01 2.280162704832660592e-01 5.177537120538540094e-01 -8.245845463318827173e-01
4.721112605999256556e-02 -1.754235124917945809e-01 -9.538082991435107294e-01 2.522441210711058868e-01 2.903948987194484022e-01 -9.230621356023582802e-01
-8.762325348999862318e-02 -6.238505026973237971e-02 -9.711436531717830833e-01 4.505057120832103301e-01 5.402618305859815395e-01 -7.107473234506646032e-01
8.953225186452994089e-02 -3.207482608175947318e-03 -8.040282833258974859e-01 6.744269520865111556e-01 2.652137755148539777e-01 -6.890645394855662298e-01
2.359858286654568926e-02 -1.008297102093425879e-01 -9.194438108117755082e-01 5.571909568659902945e-01 4.835611440679621342e-01 -6.750606324875164654e-01
5.067900994917274443e-02 1.763877798098268390e-01 -7.494671904639228499e-01 7.705024031208353996e-01 4.419442465996375469e-01 -4.593596953178371578e-01
-9.608437362497614098e-02 4.693525131795751870e-02 -9.093649772768580553e-01 5.797358386322133406e-01 3.714476439053853718e-01 -7.252123862997256198e-01
-3.893786856276713199e-02 -1.480123060075657360e-01 -9.903005103555165833e-01 5.240156319647489847e-01 4.351657862412122157e-01 -7.321464033522613324e-01
6.919826645914295415e-02 -1.195249578234535426e-01 -8.922849524896824258e-01 9.145935876385389296e-01 3.955064352398652283e-01 -8.422131045240600911e-02
-2.409894116015488807e-02 3.834235892052145767e-02 -8.661344005785376332e-01 4.098507550480464112e-01 6.630320262792595010e-01 -6.264270833182146170e-01
-3.252029728682306192e-02 2.147578082108060338e-01 -7.994250906787307986e-01 2.339791679200607932e-01 2.331430898711399358e-01 -9.438739580181102484e-01
4.165541340359808081e-02 1.821892471542911063e-01 -7.583203352102882988e-01 5.975164255546818737e-01 1.776285145380271380e-01 -7.819349282487452202e-01
-3.690027163235833768e-02 1.152436738042325187e-01 -8.406609359331530529e-01 4.592687180919509116e-01 3.970076619862341061e-01 -7.946427882428684919e-01
-7.411022916023154994e-02 1.682799454058361843e-01 -8.316515687521832678e-01 8.133927746688709437e-01 -2.213089277468717475e-01 -5.379726318466445667e-01
-1.020545685649361725e-02 -1.614602460183603774e-02 -8.949967070119182466e-01 1.888603723793440547e-01 5.906784677798239125e-01 -7.844939180427180636e-01
1.730942627438483011e-02 1.044676193480809784e-01 -8.085684492483278252e-01 7.538081076071250219e-01 4.332731709683549925e-01 -4.940118381423582727e-01
9.003907728349641593e-02 -1.394587420999110206e-01 -8.869584667901372343e-01 6.013456966483422539e-01 4.118674752201572087e-01 -6.846521277103382319e-01
3.637080073283335130e-02 -2.230243214334554913e-01 -1.002896870212494074e+00 4.891449203369596099e-01 5.461174884174946342e-01 -6.800683316793373345e-01
5.728539678262773577e-02 -3.246458722280027437e-02 -8.502855767358176164e-01 4.929725648293422080e-01 3.045277589800746698e-01 -8.150097510681411084e-01
4.279071025712131993e-02 3.895826897451178106e-02 -8.212460625915156687e-01 5.226918231817403449e-01 5.300995228518258218e-01 -6.676733886049486255e-01
3.822125678531489157e-02 1.249566378269214018e-01 -7.767142983880971352e-01 8.416719421665959100e-01 -7.025305473950398116e-02 -5.353997105614448637e-01
1.095618975881977770e-02 -1.441978854332514604e-01 -9.598860322815564450e-01 5.879638015208351609e-01 2.853371018770902712e-01 -7.568892299362904863e-01
-3.642411100605164043e-02 1.238649179553999446e-01 -8.357053650408109435e-01 2.955898162658329720e-01 1.009157257725556978e-01 -9.499698294218240635e-01
5.671654104842871469e-02 -1.316274096852296793e-01 -9.098524233123790328e-01 3.891792213839669334e-01 3.703879561388753738e-01 -8.434170353924774766e-01
7.717309979800716924e-02 -1.460228613933397812e-01 -9.050218038650071906e-01 4.040785597602563062e-01 7.496835100757740511e-01 -5.241136825752059636e-01
-9.507094212434367628e-03 1.270676664905090736e-01 -8.208691602018309830e-01 3.071788570875856883e-01 1.470901875809323134e-01 -9.402157340077705872e-01
9.934134688788819056e-02 -1.624157020498538662e-01 -8.964776679399201198e-01 9.053415038822286709e-01 3.450880068103669984e-01 -2.475298545709443410e-01
4.054077842388179032e-02 -1.572091026441246875e-01 -9.444402748509397316e-01 6.112301991802360224e-01 5.942266496713396462e-01 -5.227736914100252763e-01
8.457216588408826563e-02 -8.334110629206491205e-02 -8.512412051170149541e-01 9.331001935290686999e-01 1.791764663311194161e-01 -3.118009344904337232e-01
1.688733294210240793e-02 4.813235023447273025e-02 -8.396903346689663650e-01 7.933320938143089140e-01 -1.904140674833199320e-01 -5.782444741012769951e-01
-6.288107441994916780e-02 6.956659380629569289e-02 -8.760984373262634683e-01 5.561012628931846224e-01 2.580936150132451812e-01 -7.900247282826025064e-01
2.921676321209134772e-02 1.821093969857539574e-01 -7.730415527501947048e-01 6.530252310074599054e-01 3.727559426496654393e-01 -6.592503734447275887e-01
-5.092010597107908543e-02 -1.344334346192311846e-01 -9.884360423447431376e-01 4.137883213251475345e-01 7.129922269629725973e-01 -5.660576908984606970e-01
3.479450077560048565e-02 7.562393527474101443e-03 -8.489434361715028077e-01 5.401429070239920360e-01 3.665909569830544390e-01 -7.575333063634360764e-01
4.633852114859300653e-02 -1.401743838734132164e-01 -9.268826060463590810e-01 6.419577161477989513e-01 4.974944205359400629e-01 -5.834291664066094674e-01
-8.813451324984931945e-02 -4.042256510075746545e-02 -9.568683129157229406e-01 5.888802542057359757e-01 1.239537780953189200e-01 -7.986585672879770170e-01
2.526880839720429400e-02 -1.837194197249692740e-01 -9.783024932156876297e-01 6.249780091979224572e-01 4.843589302369300520e-01 -6.122082282350820304e-01
-4.276406207809261423e-02 -1.061358803977916487e-01 -9.684995142361659815e-01 5.157365939740617966e-01 5.534267537479328203e-01 -6.540142153440233752e-01
-7.862763773243131027e-02 1.529073540000729647e-01 -8.422724936479866198e-01 3.738922220353472214e-01 4.353845664478169231e-01 -8.189291090201379353e-01
-8.758945126419240279e-02 1.008921783607204387e-01 -8.785594804251682932e-01 3.241199892085290246e-01 3.220827852753728182e-01 -8.894992479056522683e-01
7.287631041311859459e-03 -7.822121894141906284e-02 -9.209005675523606049e-01 7.323006930342804699e-01 3.337837391635677387e-01 -5.935689601482713185e-01
2.198773555909947289e-02 4.104828879671409275e-02 -8.392575514208844289e-01 7.698187308850907851e-01 1.702551810633381735e-01 -6.151359970767100727e-01
4.291221540731565004e-02 1.039815903380975244e-02 -8.398613659911692286e-01 8.583542349017690976e-01 4.297535974534358871e-01 -2.802496260515415227e-01
-9.786708250390972752e-02 -6.770205421697267356e-02 -9.806501458633957169e-01 6.931059738610805265e-01 4.795165777878989677e-01 -5.382081015970168192e-01
8.906320111612343188e-03 -8.514046774076503010e-02 -9.225010159584032809e-01 4.956475014537942703e-01 3.322631973245814274e-01 -8.024554330342945629e-01
9.235270139701774739e-03 1.226243015105031170e-01 -8.095035770013702114e-01 5.627493662912222971e-01 4.673701819326939733e-01 -6.818198176784158182e-01
-6.919031346828874440e-02 1.738923603703302345e-01 -8.267222991290592571e-01 8.202407855206097498e-01 -2.223174304608011576e-01 5.270483980450373362e-01
3.466454567188590602e-02 -7.285029800163163316e-03 -8.574570629785249753e-01 7.620717897901445603e-01 3.954372035817448339e-01 -5.127143505203414220e-01
-6.644947370713093215e-02 1.774124073459494300e-01 -8.250771264348143452e-01 5.114522902406778426e-01 -8.549429091902900346e-01 -8.654003023346337753e-02
1.014074362578492872e-01 -1.405723683225113159e-02 -8.000651861113925456e-01 9.685321905315431579e-01 2.343276805282543118e-01 -8.388047473887522143e-02
1.024664511125001065e-01 -1.183259894544104462e-01 -8.612382616133424929e-01 5.596321918762744430e-01 5.873185355017109810e-01 -5.846954315469569119e-01
-6.585493420379313380e-03 -1.114373540486505582e-01 -9.478499592316036448e-01 6.000432826222614757e-01 1.093319250000487353e-01 -7.924610963042190148e-01
1.405714196677463126e-02 1.799260613785423624e-01 -7.909336417631588345e-01 7.931475861235001146e-01 1.987408418014666167e-02 -6.087051235240800162e-01
8.321966374391598364e-02 -7.091649587247604580e-02 -8.451373235483422564e-01 4.498932591087695942e-01 4.057417681914534668e-01 -7.955939120891776239e-01
-5.691972371667632785e-02 1.102215473293811088e-01 -8.538992320743197251e-01 2.914290148303362860e-01 4.177669263065993399e-01 -8.605462942801832549e-01
2.606836814047728060e-03 -1.618484385995814512e-01 -9.794614990525110088e-01 2.019086481697933144e-01 6.440870863509593480e-01 -7.378243171583450666e-01
7.916383538066257275e-03 2.267154673961961076e-01 -7.878753756863228208e-01 2.995235917105305568e-01 8.324881940032642647e-02 -9.504500260809483070e-01
-4.671252900965694455e-02 -2.934587822208618163e-02 -9.228754142860415843e-01 6.125191584906107822e-01 4.960834153096868038e-01 -6.154035468996185143e-01
-1.092244738903018139e-02 -1.051006531150041057e-01 -9.479480873267455143e-01 6.402681011814596035e-01 3.410521573220213765e-01 -6.882878646289527502e-01
-5.421283237068196675e-02 -1.183568339019806931e-01 -9.810939084079035588e-01 4.639922813859496675e-01 4.353209306867660833e-01 -7.714965003940519317e-01
-6.716851076575396096e-02 2.215028993046618683e-02 -8.983732370851963411e-01 8.586769118561158320e-01 2.842812777890549869e-01 -4.264482572878759981e-01
2.957101883997412597e-02 3.099414793803827173e-02 -8.387875695322922764e-01 5.673361854950770278e-01 5.179303274952422598e-01 -6.402170167127445577e-01
-1.300411115611982762e-02 7.617464534655384034e-02 -8.440015434339875888e-01 5.483862930526990365e-01 3.436286743396999022e-01 -7.623593691714295462e-01
3.851104391822399858e-02 2.741606570974353119e-02 -8.332398212176378438e-01 6.671581277888923855e-01 4.465451876274955101e-01 -5.962360505135063660e-01
2.383120440881992749e-02 2.232515642458914318e-01 -7.792599136669290383e-01 2.150210142465186214e-01 1.940511359534086502e-02 -9.764166144626741373e-01
-7.912190987174871903e-02 -6.410433060409231887e-02 -9.659117564222676755e-01 5.766602697882932116e-01 4.506389882162231131e-01 -6.814597827804305119e-01
4.206185704520899044e-02 2.132385386695952179e-02 -8.338327800156433156e-01 5.292332206542862405e-01 5.186988888978683043e-01 -6.714638194363182766e-01
7.767663322724788905e-03 -7.474684401163199376e-02 -9.173186685101436533e-01 6.649853912349028562e-01 4.820159564242174066e-01 -5.704866757397668575e-01
3.337272572903480367e-02 5.181534995769706414e-02 -8.215637740826056135e-01 7.349799040562869923e-01 2.149620724374193825e-01 -6.431141796343949890e-01
7.493308718307178928e-02 -4.081702837691430358e-02 -8.389155580786740174e-01 4.457991772321955315e-01 2.473337499579005005e-01 -8.602843191125013611e-01
-8.176092151524014251e-02 1.425060377307630632e-01 -8.510472841282383794e-01 1.637296611880197927e-01 6.386527236312521394e-01 -7.518745218755850113e-01
2.005481143844890096e-02 1.757523933157948415e-01 -7.851735690821853852e-01 7.583176118837181567e-01 1.109986936196432628e-01 -6.423656976533749230e-01
2.826009058402948262e-02 -2.050671054569485341e-01 -9.952044745163650674e-01 7.017918090352135430e-01 4.211404981772957079e-01 -5.745684794400590656e-01
9.619889621423095838e-02 -5.396103932782003731e-02 -8.279458610893978276e-01 6.683166987590870578e-01 4.737644520094714262e-01 -5.734980681501210542e-01
8.805323267420778199e-02 -1.459059169488667040e-01 -8.937851310177699071e-01 4.744737596780994604e-01 5.543252088702509406e-01 -6.838115341143946591e-01
7.663379627173272368e-02 -9.288849606219379273e-02 -8.664375911746468040e-01 6.284062047036088616e-01 5.087853983847425710e-01 -5.884242179588505817e-01
-6.498942695210900566e-02 9.446488158965676840e-02 -8.666380578605629159e-01 5.943158893869350257e-01 3.712776319983461248e-01 -7.134013902424897191e-01
-6.052342182167357726e-02 -2.528106609650011133e-02 -9.289290452878373738e-01 4.055142068602807792e-01 4.554384728357014356e-01 -7.925490681942420901e-01
1.384136801471152339e-02 2.375851893607787077e-02 -8.569080621555935640e-01 7.114846806699748338e-01 4.754055018826539580e-01 -5.174738234458298169e-01
-9.596084814873401259e-02 -6.472000377334280463e-02 -9.771291360964635686e-01 5.781335487499301706e-01 3.962001609252379097e-01 -7.132930900356653225e-01
6.488641847239472182e-02 -1.896891593417552313e-01 -9.487340425437401636e-01 3.907818394066936429e-01 -9.572900188902568053e-02 -9.154919509134157307e-01
7.346485752927994772e-02 -2.313413052560895494e-02 -8.314238375891265243e-01 5.579106203824921728e-01 5.071168752060720708e-01 -6.569385165642609437e-01
9.120190964597596484e-02 -1.701763315354475614e-01 -9.085748173864922617e-01 2.709738911241138526e-01 5.016184050836420411e-02 -9.612788045545735960e-01
8.738508916209110355e-02 -1.367259052313689605e-01 -8.873131564080570799e-01 8.343655061677731632e-01 -5.800962400200142775e-03 -5.511810509738404029e-01
4.511153843093210908e-02 9.484666148150941445e-02 -7.841158180647366249e-01 4.767627217309717835e-01 4.307229055559130271e-01 -7.662735058692474732e-01
-7.981360693101025028e-02 1.136025919851482713e-01 -8.662430764171491493e-01 6.816536168134478268e-01 1.711334970325606442e-01 -7.113801184166955727e-01
-8.428707582878948446e-02 2.855611521843844439e-02 -9.091771518344051728e-01 6.158737804143138428e-01 3.579926403945947189e-01 -7.018124792432005599e-01
6.050303330645338817e-02 9.100500825503353430e-02 -7.729345795039118672e-01 5.675695222240764171e-01 4.188654339872733834e-01 -7.088135055520502492e-01
-7.332965023885373856e-02 1.221251063016273036e-01 -8.575165943190464768e-01 3.740019315726099136e-01 4.880596686534172668e-01 -7.886192459063329219e-01
5.766606157354792206e-02 -2.866016407521267476e-03 -8.335995579038584236e-01 7.049735041619368259e-01 4.952306210891617155e-01 -5.076997049095881565e-01
-2.720493246576991681e-02 -2.687461755371683969e-02 -9.099706507917284526e-01 5.119071316266697869e-01 4.050500246160362305e-01 -7.575523520842000202e-01
1.709148280906988560e-02 2.495782892813101783e-02 -8.538813150361156401e-01 6.037040258651209523e-01 3.637502074652101958e-01 -7.093851110104171243e-01
-7.183780467951822457e-02 1.700326078029830990e-01 -8.300255171870453141e-01 4.611687356162873508e-01 -6.454467211425348738e-01 -6.088693845616032219e-01
-4.682637820840249848e-02 -1.106589871755105231e-01 -9.730455900824654947e-01 6.553236537227582481e-01 2.586832629442312181e-01 -7.096716693964753020e-01
-4.469671428609820613e-02 9.862573342846925328e-02 -8.507487049864503881e-01 5.362186529911516786e-01 3.628662255408831583e-01 -7.621008191480099780e-01
5.735997299090657420e-02 -2.814746827579744926e-02 -8.488573939660145617e-01 5.917367191766543799e-01 6.649077105816536548e-01 -4.557909516292673047e-01
1.830935272196124869e-02 -2.089947007230789633e-01 -1.006882301505825028e+00 7.216146810202078710e-01 6.779497258431521622e-01 -1.402013600693611528e-01
7.822478257512656408e-02 -1.436413445997136995e-01 -8.997246288380819079e-01 5.714224017582976156e-01 5.955390769869828294e-01 -5.646323109336476298e-01
-7.184913650917967853e-02 -1.495285733956634028e-02 -9.283995317106903400e-01 4.874409681123121341e-01 6.121783666082771802e-01 -6.226065772721595115e-01
-5.249593066244065409e-02 7.697453828767499007e-02 -8.648404264843267963e-01 4.876188849857533980e-01 4.108768259277779111e-01 -7.703298364471968807e-01
2.497459801013971956e-02 -1.969896586215814094e-01 -9.909108654611903377e-01 6.421396221527156944e-01 5.578685048372848954e-01 -5.257750821141866648e-01
2.541984483546400747e-02 -1.674679138932676503e-01 -9.659591007147055874e-01 7.119937360092626344e-01 4.520679520764644965e-01 -5.373076275179459182e-01
6.411202375723429325e-02 -9.685803831129309593e-02 -8.800277013786069746e-01 4.601428211015338721e-01 4.696890221669741683e-01 -7.534326822248644806e-01
1.380195230448604503e-02 4.340536577628630044e-02 -8.461217368315755438e-01 7.851647441820851503e-01 4.054229060553357633e-01 -4.681330919077683617e-01
3.603540383679926934e-02 -1.162586564487108620e-01 -9.178489005949812540e-01 5.782700233069965057e-01 5.493862022535015432e-01 -6.031405979686663699e-01
7.088572985887507671e-02 -1.041238906965009370e-01 -8.798948934480472772e-01 6.863961899250096144e-01 5.303710291494477813e-01 -4.975608926507246732e-01
-9.337590596901197693e-02 -4.051659248400419494e-02 -9.601894084625174353e-01 2.800343216329942431e-01 3.717867516097390634e-01 -8.850736636207330310e-01
-3.249382632772527938e-04 -1.172720523770567902e-01 -9.483705973762130981e-01 4.055142068602807792e-01 4.554384728357014356e-01 -7.925490681942420901e-01
2.435609095183812606e-02 1.770226993584730346e-01 -7.802779773632239069e-01 7.407801972290560810e-01 -7.003150815333442081e-02 -6.680870356914960784e-01
1.550956704146754482e-02 1.847609622959718589e-01 -7.899050662448572346e-01 8.750803209369121261e-01 -6.624827412830697204e-02 -4.794221501807897634e-01
9.331949604169692547e-02 -1.755370679592038463e-01 -9.107851397910814439e-01 5.597480974664217346e-01 6.350771323166849447e-01 -5.323148536262508612e-01
-3.808612471700102003e-02 -6.993128975745774301e-02 -9.451494285568219356e-01 3.457734070115495717e-01 3.472095015058093703e-01 -8.717145823420144879e-01
-6.491323681818153557e-02 2.300505916104480034e-02 -8.961177128960066129e-01 5.395214233095619871e-01 4.852635348940445570e-01 -6.880668103405079838e-01
-1.872453321062593837e-02 -2.369754928434776586e-02 -9.042277526422904943e-01 3.762666056560932670e-01 4.083145930833505521e-01 -8.316866203944968117e-01
6.574600510229745842e-02 3.272090343897262471e-02 -8.046005078163406266e-01 6.222929652274392653e-01 3.761611908045314756e-01 -6.864795874321086844e-01
5.596216463455690182e-02 -1.931040163754648153e-01 -9.585380163766821227e-01 4.327424379153721468e-01 6.365675783684782152e-01 -6.383695642785232049e-01
1.180253746854396761e-02 1.668703240156719780e-01 -7.952483224730536593e-01 8.445106440691942939e-01 1.068723992530535155e-01 -5.247666741817078595e-01
9.916081851519244206e-02 -1.719029358461984444e-02 -8.021588466337169487e-01 4.945703261583274113e-01 4.330418804830074575e-01 -7.535747622043789118e-01
1.307725652847388509e-02 5.192714206007917332e-02 -8.417217663448955944e-01 6.717122280619324259e-01 2.824046094658829720e-01 -6.848724839154340938e-01
4.661039009608169276e-02 1.335045623163799156e-01 -7.633406800340070131e-01 6.863482138866303650e-01 3.698882784620117214e-01 -6.261859074995551611e-01
1.262712752296023602e-02 -2.144075809246228648e-01 -1.019362476462123857e+00 6.145492042972529045e-01 5.910370487424555508e-01 -5.224983086206319571e-01
