1.413145823317306198e-02 6.316649928047780860e-02 -8.475487060053076283e-01 6.814794746097084799e-01 -1.921167305070026199e-01 -7.061705796370840726e-01
9.721820892411877843e-03 1.076922815390832511e-01 -8.426128911927007747e-01 9.912767170484875212e-01 -6.088944302830743768e-03 -1.316563518970886582e-01
-3.741476129446205667e-02 -1.133891066702888278e-01 -1.066900833351375866e+00 4.291037500828466245e-01 -1.596068218457846466e-01 8.890419754348644066e-01
-2.168006162619282029e-02 -2.470824549133484802e-02 -9.822568272965390701e-01 9.592554514661725262e-01 2.328767628240259457e-01 1.599918503206708142e-01
-4.645955756697255773e-02 3.520796099345758264e-03 -1.025270120194156975e+00 9.713263538915837270e-01 1.429022391950983684e-01 -1.900106951429542390e-01
-1.594990314723220698e-02 -1.396227091263592679e-01 -1.028639352028104303e+00 8.339799406505129520e-01 3.695996790307687907e-01 -4.097237311322345366e-01
9.693599235808585124e-03 1.458978456847968563e-01 -8.623153777388924413e-01 4.993329063129445800e-01 6.428697697332163008e-01 -5.808486100837548793e-01
-4.809764395615916989e-03 1.213965234464543380e-01 -8.870851048869448086e-01 9.767782256410441066e-01 -2.500595976328736161e-03 -2.142382900727518580e-01
-3.712109395433995512e-02 1.779882642235922907e-01 -9.294306365297028139e-01 7.922511732872707935e-01 -9.142887163823924801e-02 -6.033065886064075123e-01
2.496057193260825535e-02 1.888813815096335169e-01 -8.112826406948971947e-01 9.822654291699517426e-01 3.336654664422126110e-05 -1.874956680679427390e-01
6.397059221030659999e-03 1.213523393221753802e-02 -9.042966625142991877e-01 9.508172122974395402e-01 1.704484468790225249e-01 -2.586386586638871887e-01
-1.750704255606780682e-02 1.878640396269329882e-01 -8.956230935348139521e-01 7.837061361527364323e-01 9.186021248326835253e-02 -6.143015493380082903e-01
-3.889100253817395075e-02 1.713243063296698288e-01 -9.375371218679995344e-01 8.574852634012810615e-01 3.454231942120939980e-01 -3.813159319382677381e-01
-3.115912734985340146e-02 5.624983946877623597e-02 -9.542733681827043624e-01 9.757977522156043859e-01 1.145679707130066310e-01 -1.862603738256681241e-01
2.413252360176313532e-02 -8.057943555384633819e-03 -8.397912832367521174e-01 9.274660206636292648e-01 1.926759558369179615e-01 -3.204415025503130066e-01
1.739929461924616394e-02 1.422726962466567269e-01 -8.073507857346667871e-01 9.755528312676433611e-01 -2.093791890756814267e-01 -6.676098102705585458e-02
1.862333961963535955e-02 1.504793528518370282e-01 -8.041109044507246395e-01 4.874020443852798423e-01 -7.123022238375290582e-01 5.050393935577304205e-01
2.801973314203597826e-02 -2.495848883148654163e-01 -1.040647347231727915e+00 8.314885249432414360e-01 5.472222424797320572e-01 9.578439446572598048e-02
-4.568002515016678436e-03 -1.680996760557041392e-01 -1.025152958291753347e+00 9.659310966797811648e-01 6.575065876976010637e-02 -2.503077452623829191e-01
-1.517537195319947421e-02 1.175259075786496826e-01 -9.097834851167035941e-01 9.272367432262701437e-01 3.411453935352706107e-02 -3.729185168583568077e-01
-4.978677901399776798e-04 1.750408024402029528e-01 -8.737537162018106374e-01 8.677251510896157871e-01 -4.399386580350109210e-01 -2.313158864688224237e-01
-2.342408997487470043e-02 -1.301908534091859027e-01 -1.040015732680081406e+00 6.015684472439272179e-01 5.455635541046649495e-02 -7.969560887306511576e-01
2.233309763793853153e-02 -1.696356066337828816e-01 -9.482325797279135271e-01 7.539551405372973969e-01 5.983122967655979396e-01 -2.712453531333930967e-01
-2.270414068940668564e-02 -1.479506877269813267e-02 -9.765473462435109164e-01 9.108200884243631279e-01 2.669840332231047109e-01 -3.148432824860004087e-01
1.677534416222127567e-02 -8.903697992946382755e-02 -8.992880746903261224e-01 9.749368593955431983e-01 1.215864832256416533e-01 -1.863192080510637505e-01
-3.334997691933686004e-02 1.553283903108119424e-01 -9.345881677424962009e-01 8.861030385677145516e-01 1.681399942199830466e-01 -4.319147455051370876e-01
-2.617230861518920690e-02 1.091067563746786206e-01 -9.347723526711270159e-01 9.173712625949764776e-01 -2.210298435113602356e-01 -3.310223177404242323e-01
-1.615201781090633629e-02 -1.896220262728061379e-01 -1.061091037758180144e+00 8.140855656107482963e-01 3.477236449724138145e-01 -4.651375695332799487e-01
-1.968100197348256891e-02 -1.373794230431304164e-01 -1.034503374509811335e+00 9.074949921647038620e-01 3.251912819325830095e-01 -2.659012398448482029e-01
1.208021341436099107e-02 -1.593487793082229154e-01 -9.738803848026752474e-01 8.590532216884142480e-01 4.738556816973230612e-01 -1.936190983088227069e-01
-4.537753024907695970e-02 -5.958360891341791393e-02 -1.056718914657050146e+00 9.061023902519862450e-01 2.033474731490799714e-01 -3.709828345672098182e-01
-4.233885586142745877e-02 8.519441774938968370e-02 -9.847314649792997532e-01 9.230381221202798026e-01 8.858125077772095735e-02 -3.743714560744743070e-01
2.906606391391795829e-02 -4.847033971283894183e-02 -8.404580592383879001e-01 9.969005124605541113e-01 7.337599150554126315e-02 2.837837427449710695e-02
2.725865288301141179e-02 -1.914614818392630091e-01 -9.496619794919947122e-01 8.317457959478301577e-01 4.223425462013547516e-01 -3.603133422332112645e-01
3.125377768545869323e-02 -1.417675714170932577e-01 -8.858206772341494784e-01 9.427059106885173900e-01 -3.344130977061908483e-02 -3.319446410981183315e-01
3.865305287737437479e-02 -1.422383880271032852e-01 -8.535554311415405326e-01 8.347252198101545728e-01 -9.425443659330014212e-02 -5.425402368445760848e-01
-2.040119077826582986e-02 -6.232177834013723217e-02 -1.004184391980943447e+00 8.555078501460945395e-01 3.969631713135621243e-03 -5.177746231348823169e-01
-3.416514808302883229e-03 2.079537865210405734e-01 -8.740597329804091764e-01 7.683736491641792732e-01 4.390981877047987758e-02 -6.384934322964225251e-01
-1.637072938781663134e-03 -9.714594264769627063e-02 -9.770785996942438212e-01 9.325075876049068180e-01 8.804235711810308451e-02 -3.502543967066872876e-01
1.376219365968192436e-02 -6.661832942450326978e-02 -8.995829375046053844e-01 6.652978662581683356e-01 -2.724594342179936790e-01 -6.950860420537438022e-01
-3.087411791035924585e-02 1.991220182272672445e-02 -9.687530857378989779e-01 8.817311823241197333e-01 2.476675352732204127e-01 -4.015107895050869513e-01
1.880024524081547535e-02 2.297780718769026620e-01 -8.493745560973428033e-01 9.018782090256304285e-01 -2.199658778557926977e-02 -4.314300015188006765e-01
1.753858409544040500e-02 1.199833885459929278e-01 -8.055585941963603336e-01 9.284384501646557597e-01 -2.335089515921111303e-01 -2.889214664613983796e-01
9.137858381433825936e-03 3.848741881382710013e-03 -8.949921640436162562e-01 9.688836247789017753e-01 6.440468039685992574e-02 -2.389907085605522674e-01
-3.781751099378387326e-02 1.151759822714513853e-01 -9.636406244960109557e-01 8.161299635206403780e-01 2.973739039690325159e-01 -4.954802154294506433e-01
-7.054360249114452995e-03 -1.330739032703495694e-01 -1.004291338279248880e+00 9.420749060896050908e-01 1.625172030435283743e-01 -2.933990968479119332e-01
1.580613387198354786e-02 1.071630613772484447e-01 -8.113479785091066709e-01 9.681362641446855655e-01 5.334957095520984072e-02 -2.446752895714373599e-01
1.553815820757693117e-02 -1.199826316812992177e-01 -9.260800243306294144e-01 9.376974758878792171e-01 1.744569325070707555e-01 -3.004799867108017275e-01
2.883558471422174776e-03 -2.252497374328730206e-01 -1.068109841774010471e+00 6.340675183981253626e-01 7.418980934838294017e-01 -2.180495379437938086e-01
3.680881451429453971e-02 -5.136221901663547834e-02 -8.100579435051574739e-01 7.330619546669907560e-01 4.639225888598141889e-01 -4.973891858147084788e-01
-3.434755705064955478e-02 5.709047560098115537e-02 -9.644078347097594373e-01 9.524200186880631414e-01 -4.100056385690598049e-02 -3.020183136262524215e-01
2.163930672346728659e-02 1.971119983956010902e-01 -8.435842523783713132e-01 9.021297564953044690e-01 -4.856507654381493622e-02 -4.287229125974214017e-01
1.638862361507954779e-02 -1.901108467205112340e-01 -9.906210276939719783e-01 5.924403919612364344e-01 1.938981228928678413e-01 -7.819321581259071063e-01
2.534458875720931037e-02 -1.703438596146187589e-01 -9.348440164347191494e-01 9.568653970248248708e-01 1.235206568181203141e-01 -2.629662703004786994e-01
-2.098827559982272342e-02 -1.312443438144850205e-01 -1.034290136633232216e+00 9.972401551014552501e-01 -7.180540776605323638e-02 1.886945862436009702e-02
3.620303349183578989e-02 2.329043021897707899e-01 -8.243308247955009049e-01 8.413509023816165833e-01 -8.468732413181515040e-02 -5.338133720627764589e-01
1.292219710813523846e-02 7.368973105520815192e-02 -8.482429010084268084e-01 9.954273468901158051e-01 9.135895201571850310e-02 -2.789155696433671255e-02
2.006253284824625546e-02 -3.227759093008077118e-02 -8.732963263062525350e-01 9.866582419400611315e-01 1.542603921837084058e-01 -5.205040840451095885e-02
1.720336662711750841e-02 -1.324616388251069476e-01 -9.309092746455780443e-01 9.958943884072989361e-01 -1.686150086485891167e-02 -8.893850081621851311e-02
-3.542539742703460642e-02 -7.912273646039821862e-02 -1.043638165138051743e+00 8.983131914600585022e-01 5.872290446057280150e-03 -4.393164306667362573e-01
3.338316345731971724e-02 -1.366144198615868444e-01 -8.764996465539712789e-01 9.915937039398340369e-01 1.105188554859237310e-01 -6.728676607596992265e-02
-9.926134546105627385e-03 2.212466647646877116e-01 -8.806379114078092263e-01 7.971165596234083273e-01 -5.944975537248062825e-01 -1.057253469578725708e-01
-3.082425085453338251e-02 1.698775341011887763e-01 -9.240846791859340659e-01 8.093159258884701224e-01 2.696239331268592276e-01 -5.218339456076915850e-01
-4.003113552615795295e-02 -9.287240940046974369e-02 -1.057839140377796916e+00 9.773663649852211144e-01 1.809218771395703362e-01 1.096460804947887724e-01
1.224165602187877663e-02 7.139064072382601822e-02 -8.508644114290392357e-01 8.392469610026104254e-01 1.959398329470606048e-01 -5.072199920276813101e-01
-1.638169570775240350e-02 3.640827798257997155e-02 -9.327748883159335813e-01 8.454399470252980109e-01 2.220006721255404492e-01 -4.857437570876950161e-01
3.707754294034989323e-02 -8.111270587523451703e-02 -8.164687023429243462e-01 9.526056432374327976e-01 3.024594840474857382e-01 -3.256914155954404588e-02
2.639075165546115806e-02 -1.670295815717888210e-01 -9.263847852998469135e-01 9.924616365480860569e-01 -1.025700654020410135e-01 6.707668494876463383e-02
1.489060604268051605e-02 1.440866755109675990e-01 -8.241992151653199095e-01 9.772408614403029770e-01 -1.089691463106946256e-01 -1.820055600352168679e-01
3.623399432973854750e-02 2.357282714524296108e-01 -8.273947355987967267e-01 8.718116150321244540e-01 -1.386302695731823909e-01 -4.698150234434248507e-01
1.542308662401181175e-02 1.433992845188836185e-01 -8.209225597286452514e-01 9.645134469766739604e-01 -2.047858580632414272e-01 -1.666630221089149266e-01
2.823931162449928520e-02 -2.333586593016614696e-01 -9.949441331730425331e-01 8.305110465844818268e-01 5.518848878170721228e-01 -7.532909199164967984e-02
8.425693138701279353e-03 1.216409592217079366e-01 -8.522061007196496396e-01 9.968361543217912901e-01 -6.135427034282793513e-02 -5.053053480462186414e-02
-4.208470654414196710e-02 1.280806068778050366e-01 -9.670313452767108631e-01 9.635240958082367246e-01 2.210613699406618060e-01 -1.508415974354486988e-01
1.437593072798555409e-02 1.293793783910807960e-01 -8.208650433279370828e-01 9.765151290845599519e-01 -1.897332819847968310e-01 -1.020758755840132231e-01
-2.909629603533946812e-02 9.157118284259274654e-02 -9.451538409338531288e-01 9.138153723260266093e-01 9.669795581168945386e-02 -3.944502131353030960e-01
3.376404308455657061e-02 -2.059165475432532810e-01 -9.236650260791132716e-01 9.872184430162506130e-01 7.270925179953172113e-02 -1.418206983177080216e-01
-1.068185031438687385e-02 3.722524731466642783e-02 -9.220754013235651358e-01 8.765580745602088442e-01 1.621605408085890765e-01 -4.531554931013913601e-01
2.608972185454881687e-02 1.825238067342214998e-01 -7.904632289606481343e-01 9.751594716778223537e-01 -2.211300384548023912e-01 -1.286510357548570523e-02
6.045548569358426272e-03 -2.165181454406283901e-01 -1.046466491557941136e+00 6.582063615389387445e-01 5.093530372839615294e-01 -5.543679906337264374e-01
-1.252376848665345474e-02 -3.720469701001630214e-02 -9.698210202893013943e-01 8.476799401590048300e-01 1.898654334174915692e-01 -4.953683843819813304e-01
8.193984239364448044e-03 -1.481946428421953565e-01 -9.830416173106444333e-01 9.515998792862182531e-01 1.566869133850229412e-01 -2.643990940157115443e-01
1.983220521051674845e-02 -6.537753403214673770e-03 -8.628906911353732001e-01 9.868981874075394289e-01 -5.293016865986230335e-02 -1.524151073133883649e-01
2.278955027972645597e-02 -1.585120602997089900e-01 -9.293663969633253474e-01 9.363426754467846225e-01 2.272609244602052103e-01 -2.676095408438396439e-01
-4.243618208560907823e-02 6.419824547709156864e-03 -1.010135138669970845e+00 8.966868777336312046e-01 3.186359299626229657e-01 -3.072845382331598207e-01
-3.342326844310498229e-02 -7.126977202450909821e-02 -1.037169628910382002e+00 8.084731129921250981e-01 1.277490459258110445e-01 -5.745010068171052531e-01
3.515663463376302034e-02 -1.318365664111398328e-01 -8.652562903440008668e-01 8.756472505329662148e-01 2.608000327564962695e-01 -4.064790714763394930e-01
2.200682137800260077e-02 1.022940392110864988e-01 -7.849451447894366662e-01 9.948339789871925021e-01 -2.535734175372543475e-02 -9.829730144665689562e-02
-2.501332286994832274e-02 -6.679462890064900848e-02 -1.016048728997086092e+00 9.489633879405020567e-01 2.138754600347847826e-02 -3.146602313995738309e-01
2.856007533811918270e-02 -1.039645797377203133e-02 -8.202917406616271334e-01 9.490686061007380658e-01 2.152585119732379204e-01 -2.300707585441262304e-01
1.889297102301389780e-02 1.670459886033720809e-01 -8.276193219005653079e-01 9.685201890559519411e-01 -2.342728882145126978e-01 -8.417159401278789810e-02
-2.096888633657717754e-03 1.268339624669004295e-01 -8.822069344180362149e-01 8.317080922234623142e-01 2.303699573540136936e-02 -5.547350233737688985e-01
4.811120675538287962e-03 9.982962025243954929e-02 -8.748610185078072865e-01 5.311315467175997673e-01 3.088579101947948602e-01 -7.889905394816051354e-01
-2.968243297607895195e-02 3.261945009463864537e-02 -9.568165890126419937e-01 8.491514774329674831e-01 2.544804152114493179e-01 -4.627974574770447047e-01
3.197604551838952730e-02 -3.985660856681248060e-02 -8.248387727915562628e-01 9.599002713744554383e-01 1.468837720731375196e-01 2.387815455951600441e-01
2.113280344560040241e-02 4.571018966511235238e-02 -8.296207255836094419e-01 9.769462238359453155e-01 -9.746954775391086789e-03 -2.132629189645816048e-01
-4.708420340350638611e-02 4.669024876233463656e-02 -1.005705740033859374e+00 9.053357247898180526e-01 3.119730922132391004e-01 -2.881666447634151917e-01
2.200394600065309902e-02 4.487552066531688005e-02 -8.216999180756320298e-01 9.784115865640934384e-01 1.727762333174376330e-01 -1.133981502396408103e-01
-7.553130374903333118e-03 -3.556158882692802420e-02 -9.562637647588527745e-01 8.953795640451026605e-01 3.109006606864933575e-01 -3.188043529738953108e-01
-2.705277463992624906e-02 1.289307525953866662e-01 -9.318589188689693215e-01 8.463480204978961474e-01 3.006933008516674000e-01 -4.396345835147882908e-01
3.711692722341003448e-02 2.453858641739515845e-01 -8.322533182102546112e-01 8.366549370870994817e-01 -2.979876472713122726e-01 -4.595779349810972803e-01
-1.959685587334104168e-02 3.428594942621372016e-02 -9.398918883805068569e-01 8.605356978728703199e-01 1.930734508369261748e-01 -4.713819632403993820e-01
2.209134641913572741e-02 -2.015708622310823650e-01 -9.763963942380584626e-01 9.530753157465209346e-01 1.724534825151851358e-01 -2.488116534309723626e-01
-4.053061672098546425e-02 2.663952846542866001e-02 -9.910893476202997654e-01 9.268924340115228810e-01 4.975922568939881302e-02 -3.720140255836952292e-01
-1.990623587884550807e-02 1.566173368200202143e-01 -9.076054383396882086e-01 8.381867199310765182e-01 2.404915111001074135e-01 -4.894965327966785407e-01
-2.320691281264079516e-04 -7.961940248226068856e-03 -9.295635580330567915e-01 6.791989409712340109e-01 3.226430855462184555e-01 -6.592345849034089156e-01
1.929970410164698683e-02 1.046086064630561280e-01 -7.994221370812562011e-01 9.842388379957204281e-01 5.521765851652558899e-02 -1.680027379800294596e-01
3.270871581354693053e-02 -1.314412971944320940e-01 -8.740686374048008966e-01 9.369286887373189376e-01 3.172006112735937799e-01 -1.467937479207702678e-01
1.580636173849916601e-02 -5.171499553199402494e-02 -8.910430407385491192e-01 7.827612676364951172e-01 5.212742152703839782e-01 -3.399382155368131375e-01
2.585999737303239145e-03 -1.040705310046685234e-01 -9.693266963194369090e-01 6.124264237011575185e-01 1.203364294756816139e-01 -7.813149296497889917e-01
2.873026324761083702e-02 -1.844044349859913501e-01 -9.360274996033629558e-01 9.440115469059956466e-01 3.116173069504263315e-01 -1.083367588453396785e-01
-4.766197785528702296e-02 4.777093675680983004e-02 -1.009606301886723623e+00 6.679302504793718231e-01 6.121793426892168100e-01 -4.232087344079304980e-01
2.339507774311017432e-02 4.101508620192344245e-02 -8.204694854210052846e-01 9.505633146857802585e-01 2.850358311493723096e-01 -1.232232110219856902e-01
-2.349345269225365171e-02 4.976668150625041670e-02 -9.374301258343149534e-01 7.624721741522525464e-01 2.808181886580508602e-01 -5.829042190294630998e-01
1.333517586128533418e-02 -6.437676191854042884e-02 -9.032475816564001780e-01 9.155367631902303627e-01 -1.027911560031780497e-01 -3.888784045105693754e-01
-3.519172249722513079e-02 1.254787682212000766e-01 -9.522406845821680399e-01 8.903633428501889213e-01 6.529080206458789948e-02 -4.505443694847375835e-01
1.272092273065247511e-02 1.805005322964077230e-01 -8.549714903381778752e-01 6.896872678756538200e-01 1.088834798625116090e-01 -7.158741930976740830e-01
-5.036948938622889255e-02 -1.015705520056613652e-02 -1.047071168353657988e+00 9.283718607684882107e-01 3.010374996589142427e-01 -2.179497922283109290e-01
3.898809391735748309e-02 -2.111130663144619168e-01 -9.146399686723082345e-01 9.397310131901808194e-01 2.461877321791175188e-01 -2.372703592382734150e-01
3.472522744820159823e-02 2.290635608022660308e-01 -8.264624666442353940e-01 2.655200744780771283e-01 -3.407541599784119080e-01 -9.018789788583405631e-01
-3.622531741132231642e-02 -1.080352949069855045e-01 -1.058227802150470076e+00 9.679030685579699256e-01 4.164172009965447230e-02 -2.478499889513971211e-01
2.938809447197794980e-02 -1.337082365626573142e-02 -8.197223656184363660e-01 9.566692151104778663e-01 1.848900307576237523e-01 -2.249437471599224636e-01
-1.732487958610065895e-02 2.508649872945067569e-02 -9.402839034628976966e-01 8.275528926251395356e-01 3.292723579227131436e-01 -4.546822233338148611e-01
-2.589532895834351870e-03 1.223774400990264299e-02 -9.226415865481867318e-01 7.846167456961909981e-01 1.991366214283625535e-01 -5.871296010074913418e-01
9.736606894038426704e-03 -2.657088947817740077e-02 -9.067637570307010009e-01 9.418701801562832099e-01 1.840895209438454111e-02 -3.354723151247462343e-01
1.965830891164492555e-02 7.934268111622089226e-02 -8.083380208526017574e-01 9.876550438478888250e-01 1.521930621019630323e-02 -1.559034543565507025e-01
-1.705649841617651666e-02 4.567283089199951351e-02 -9.279351504563090325e-01 7.820940327038367057e-01 4.052217321124614857e-01 -4.734176505294522275e-01
3.989085860361548524e-02 -1.048631589539840980e-01 -8.266929251521399902e-01 8.443185809598292568e-01 1.745567377176760748e-01 -5.066123559126273213e-01
6.269441828548561087e-03 -2.367312739341605621e-03 -9.161284313523730960e-01 9.807742629658469102e-01 -3.853633013741226271e-02 1.913028916753225783e-01
8.385777263696908568e-03 -1.429378096360691408e-01 -9.749392174525451926e-01 9.424085374843045315e-01 3.344259629951261692e-01 -5.042197088266195566e-03
-3.325364120609464614e-03 -1.782548511127712010e-01 -1.028634321290538445e+00 9.044100346354587705e-01 4.223899123546866474e-01 -6.024326677470855790e-02
3.029662788139609805e-02 4.448007903456069854e-03 -8.081445625579346537e-01 9.092047846552681056e-01 3.395783570911454219e-01 -2.409008072947166901e-01
3.657938122024109034e-02 -9.276209543592087159e-02 -8.309200025782998988e-01 9.702737226493134415e-01 1.607178611077008934e-01 -1.809383106398663177e-01
2.324802375797967863e-02 -2.301504914978134975e-01 -1.014029027197252963e+00 9.178609892213561716e-01 3.876344000781761223e-01 8.526884742757022406e-02
-4.953770999275559223e-02 2.958602062375662728e-02 -1.021577530102157017e+00 9.443666143194754392e-01 1.268907807937183496e-01 -3.034310918616144326e-01
2.700952196298334052e-02 1.863695019270896203e-01 -7.878108533929849555e-01 9.507719594656883766e-01 -2.377619573194970637e-01 1.987509314327281229e-01
2.089962398495746280e-03 1.701314529393642416e-01 -8.701228437159179707e-01 8.201213924196962823e-01 5.815618047035942678e-02 -5.692264578958690091e-01
-1.730736234849274136e-02 -1.563545301158846546e-01 -1.040804688284147295e+00 9.122335498563868272e-01 -1.777750914155089013e-01 -3.690880211936203859e-01
1.080244250121102645e-02 1.147284408680227796e-01 -8.339849602434916687e-01 9.956721211018001449e-01 3.125644316021004843e-02 -8.752178026991296045e-02
-1.504771292853178735e-04 -1.092666966299042502e-01 -9.788592310955156472e-01 9.338541521913646948e-01 2.618438075740966986e-01 -2.436272621650686643e-01
1.390501513627732076e-02 -1.846404706004183341e-02 -8.906624037099752922e-01 9.613112751939626444e-01 7.579903350740233026e-02 -2.648303961109850224e-01
3.510095464559809253e-02 -5.042085637845684920e-02 -8.186821875522687364e-01 8.730833873304721937e-01 1.707582857700527812e-01 -4.566913690977988938e-01
-3.552544292424834188e-02 -7.284250181341923869e-02 -1.042259596470827443e+00 9.466935088639726326e-01 2.826387831760680536e-01 -1.545532869905112683e-01
-7.110068510839125111e-03 9.087507181943210721e-02 -8.975737227886076974e-01 8.468500017934336155e-01 3.986178816013263848e-01 -3.520637143048581108e-01
-5.945347066428842593e-03 -1.460814854719542089e-01 -1.011686080625613160e+00 8.552743642587208317e-01 1.266150421512158564e-01 -5.024683004358456717e-01
1.133098120948940191e-02 -1.216033243679890130e-01 -9.459452726512111997e-01 9.278185764245261424e-01 2.448849843645639068e-01 -2.813965772256891151e-01
6.027922463275735276e-03 1.896409306151684571e-01 -8.635229376268143131e-01 7.339239021115268047e-01 4.424642215606706258e-02 -6.777890232482208788e-01
1.447114177859639556e-03 -2.065856899664834656e-01 -1.045624664943247906e+00 8.851778812833811516e-01 3.831544918495385366e-01 -2.639180817264822343e-01
5.701053199500530008e-03 -9.489993407936192504e-02 -9.518504132820421182e-01 6.743821740937518960e-01 4.559150569285183030e-01 -5.808185122139706280e-01
2.160996441329813070e-02 1.862990128145260438e-01 -8.268816284171868203e-01 9.144973621738274883e-01 -2.471433219350246124e-01 -3.203353758173334009e-01
2.619997898002304759e-02 1.940200154845609926e-01 -8.109395370397393110e-01 9.697133862176821051e-01 -1.797929665743127070e-01 -1.653191996128838548e-01
-3.388064913681536339e-02 -1.265261301680545847e-01 -1.060949241804636678e+00 9.219050516516799076e-01 -5.642583497864747666e-02 -3.832847517004506765e-01
-2.258988121444251498e-02 -8.174129129207152733e-02 -1.015777840913648866e+00 9.117801123870927782e-01 2.688898326746052558e-01 -3.104114761725207394e-01
2.582304300969549826e-02 2.322381538865563033e-01 -8.416813993472065381e-01 7.393552557380445034e-01 -7.679225500660710746e-02 -6.689220846881428484e-01
1.150237345737920198e-02 1.095011836847561842e-01 -8.305969946486216893e-01 9.615126405794404141e-01 -1.172878319286492499e-01 -2.484693270555322075e-01
-3.872710093693997047e-02 -1.049324284657117932e-02 -1.014372976461828557e+00 9.422379960095760287e-01 -1.825960889377456209e-01 -2.807957036361085068e-01
-4.743075846912450655e-02 -4.802083203281764384e-02 -1.056377766759084569e+00 9.445274836979155042e-01 2.253693272382270019e-01 -2.389068832819031540e-01
1.395146918799855182e-02 -1.691215531407088968e-01 -9.814960634622293956e-01 9.899788677103449341e-01 -5.517809607656965626e-02 -1.299893041765661228e-01
2.891153714589055068e-02 -1.667741675313483829e-01 -9.117505827580354438e-01 8.263795638176888447e-01 1.220070407723887612e-01 -5.497372995408362772e-01
-3.511770762725501677e-02 -1.381691558778551931e-01 -1.069757904431043682e+00 8.478575327373625292e-01 -2.884875088792130185e-02 5.294387157667246324e-01
-5.043762217173978352e-02 -4.612664813640365846e-03 -1.039901128926812968e+00 9.066542502463561526e-01 2.684779570567601414e-01 -3.254192020837835542e-01
1.424826712954127030e-02 1.567448970413402309e-01 -8.384648374912083701e-01 9.887211814080474337e-01 1.155011553401820434e-02 -1.493218680107699925e-01
3.126970407913794506e-03 3.436627035830872728e-02 -9.021705275237159594e-01 6.709193677907624442e-01 3.485752924919247597e-01 -6.544940545088341333e-01
-4.255949215297005067e-02 -8.636617882117222922e-02 -1.062368561727021765e+00 9.649581439248837711e-01 1.327155765991245850e-01 -2.263677454961399715e-01
-3.443284673964489007e-02 1.224824230953027449e-01 -9.516466062503883272e-01 9.310322977618267215e-01 8.249167766931174428e-02 -3.554911864443835445e-01
-4.314199263551329183e-02 -8.295456613488225162e-02 -1.065502453256755411e+00 8.772124384561954535e-01 1.257243146995627170e-01 4.633483943115166426e-01
3.005721642367205002e-02 -2.501631972459635866e-01 -1.009964180654636667e+00 9.187283215031378791e-01 2.467107327028183195e-01 -3.083376163189716079e-01
2.289836721516236295e-02 2.661610887633896610e-02 -8.294958786401409601e-01 9.209931878220600776e-01 -1.078178855729323288e-01 -3.743619258631165625e-01
4.130406887744876403e-03 -1.209602779340044204e-01 -9.754702766348574139e-01 7.163981174303829524e-01 -8.256886934737517336e-02 -6.927886540330314702e-01
2.269065128237603493e-03 -3.301398010126745108e-02 -9.376312387991337927e-01 5.242355970969317935e-01 5.192838510028471161e-02 -8.499885184855733300e-01
2.785249696174264822e-02 -2.293014927527962377e-01 -9.804999636368542104e-01 8.764020312660387724e-01 4.037420727307973189e-01 -2.625106060710707401e-01
-2.072326979103523287e-02 1.747416852926265973e-01 -9.061110540626603482e-01 7.533787136118796912e-01 4.187065670779041571e-01 -5.070555438631412226e-01
-3.354988746096587010e-02 1.470655852692174560e-02 -9.790417221175630180e-01 8.008477884424840543e-01 2.202584822975281187e-01 -5.568922882593830836e-01
1.744826785404366559e-02 -1.195920635310511043e-01 -9.172576723171339541e-01 9.166920731542800294e-01 2.839733767354902794e-01 -2.811312226017443905e-01
3.481314589131127152e-02 -1.951095691419613698e-01 -9.193049621675436489e-01 8.054774068277444909e-01 5.832327345622656534e-01 -1.050986414045112505e-01
2.943803856628963642e-02 -2.233228512105960017e-01 -9.728334294085164702e-01 9.266101864678377709e-01 3.743483589130190969e-01 3.545234143421957529e-02
2.046854601845250060e-02 -5.117126330712090145e-03 -8.566607641053426425e-01 9.690346674113470282e-01 7.156025064543422576e-02 -2.363280429456961762e-01
1.232150753029146936e-02 5.841487765267545235e-02 -8.533620892339427444e-01 9.885742187238293344e-01 9.629846578172560068e-02 -1.159638717991790385e-01
-3.385870287310852045e-02 2.144955146156780207e-02 -9.746879513636748094e-01 9.137152058617965533e-01 1.816112518574252710e-01 -3.635132401656282486e-01
-3.059448484401504006e-02 1.222083829560973722e-01 -9.419071284227626961e-01 9.366517919273662507e-01 2.124656658786535368e-01 -2.784632139116299254e-01
2.500618161065186820e-02 -6.457623188479225118e-02 -8.545064944607202451e-01 9.561938169498677142e-01 1.056400365101224648e-01 -2.730083645476509280e-01
-7.705715734933338279e-03 -4.604556811956356244e-02 -9.636579031930470052e-01 8.760953645551908808e-01 3.208728878633433368e-01 -3.598576135628446804e-01
-3.755684869715962462e-03 1.997642725074643411e-01 -8.763549267890912153e-01 6.226078905876698544e-01 3.140193318041631376e-01 -7.167644479403530999e-01
-3.751517179124598533e-02 9.553492446804498495e-02 -9.685886079867919163e-01 9.047956175236548937e-01 1.058044587945768111e-01 -4.124927963118565355e-01
3.376296000159478838e-02 -2.257264234637389455e-01 -9.534216531221457736e-01 9.503186009807866874e-01 4.717509837835442282e-02 -3.076833871415757260e-01
2.052685423134775408e-02 -2.324963827765135771e-01 -1.031550427800493663e+00 9.230009997751159601e-01 2.998653882550967875e-01 -2.411429106168304359e-01
2.317846221915457333e-02 -2.412739328772260661e-01 -1.036885075317490079e+00 8.751949548121569222e-01 4.628253818625106542e-01 -1.408064521787544265e-01
3.085399074863375696e-02 -2.081331874171698515e-01 -9.513416726742952578e-01 9.412334102999088126e-01 1.675591196615573153e-01 -2.932637187813172952e-01
6.281297497670686701e-03 2.009510291463167397e-01 -8.623498954528255878e-01 7.261810271881504741e-01 -7.874453818237771296e-02 -6.829790724893456400e-01
-2.285647445105545156e-02 1.162331986241416371e-01 -9.266449131306001563e-01 8.657976719905122742e-01 2.118864382236699054e-02 -4.999454295708464779e-01
1.702150974665551236e-02 6.823212171843394402e-02 -8.290474359795803050e-01 9.710593001680071223e-01 6.739711587413420302e-02 -2.291319801535106615e-01
3.487700969887654046e-02 -1.775945029378059314e-01 -9.029045386675713658e-01 9.595326086846606151e-01 1.694346396795841092e-01 -2.249201541602257326e-01
-3.703865268224939417e-02 4.646240821021720840e-02 -9.698502548103412613e-01 9.839133018595436209e-01 -1.017289733226057775e-03 -1.786437223790671713e-01
-2.126035272513022642e-02 9.467987471964227353e-02 -9.241791251352931003e-01 8.997777637444688281e-01 6.033081483826293473e-02 -4.321575738685528578e-01
3.204081396581859309e-02 2.200030671404642757e-01 -8.267304861654783954e-01 8.889416759044242999e-01 -3.957432700591833052e-01 -2.305861250012625763e-01
-1.221387430023243917e-02 9.588187047982081601e-02 -9.052728262990397123e-01 9.116659218585606572e-01 2.265822056132142312e-02 -4.103070215860012970e-01
-5.477996273909736639e-04 -2.216672638136009399e-01 -1.068758348908878997e+00 6.088400654538993484e-01 5.911802347207574249e-01 -5.289798718038353220e-01
-9.448226843479363285e-03 4.960451479365998034e-02 -9.127867266856191097e-01 8.455846536287099369e-01 2.977891589085556179e-01 -4.430668238360324085e-01
-3.159629606639436511e-02 -9.820622341733016569e-02 -1.044096057358758989e+00 9.091232310954314721e-01 7.258706685243958290e-02 -4.101537131471104103e-01
1.163918471428833194e-02 -1.152719401399317639e-01 -9.431562920097993352e-01 9.421840679992598000e-01 2.633566037258202597e-01 -2.072015474902813570e-01
7.919233748892412841e-03 -6.195664723615643132e-02 -9.257464373220920528e-01 9.912708679899687736e-01 4.419323843444095123e-02 -1.242136222444641808e-01
1.941289899019537496e-02 1.040773625738407177e-01 -7.955399729709007328e-01 9.896534090859280264e-01 1.305350152692823784e-01 -5.955451009998544154e-02
1.948570253708037728e-02 -1.717150302924476957e-01 -9.600663580905296479e-01 9.341666312400929151e-01 3.399045634442494079e-01 1.086167244364819179e-01
-2.471925829537040611e-02 -1.187719645492791576e-01 -1.038601162773163944e+00 9.336700780326787630e-01 1.791004444041561228e-01 -3.101341906347726551e-01
4.006621967970478565e-02 -1.637742547176345709e-01 -8.693902649837685903e-01 9.317239347117775017e-01 1.609753636015430200e-01 -3.255417665961685136e-01
8.451918840706821104e-03 -1.534781190410285934e-01 -9.822697175601839970e-01 9.450310126670991018e-01 2.471113304046032022e-01 -2.141316779065264297e-01
-4.149322764585090979e-03 -1.480532037088272967e-01 -1.008948950408992573e+00 8.076153094910779595e-01 3.840209774089935468e-01 -4.475325695248016933e-01
2.427194487951789964e-02 -1.810341402039767345e-01 -9.492803028145576638e-01 9.614090643909192213e-01 2.467220028486841465e-01 -1.217409718102805682e-01
2.390539822006302814e-02 -1.631395186384352047e-01 -9.297643513801707726e-01 8.989003989844012166e-01 2.223680373856296855e-01 -3.775321557893416835e-01
3.445247294694183532e-02 -2.037960319810832033e-01 -9.203900608777668690e-01 9.806961625819544670e-01 1.364440941602871327e-01 -1.400644346927779338e-01
2.309535687573600893e-02 2.895395483696303063e-02 -8.266141991434560188e-01 9.586539066606947213e-01 2.784170840104320185e-02 -2.832093333869830087e-01
-1.736389913548852873e-02 -1.593880030021846113e-03 -9.588958838880446978e-01 8.756193882769455206e-01 2.643883032926986898e-01 -4.042146854773041031e-01
1.468480194794280318e-02 -9.308766995011381884e-02 -9.157359476309914204e-01 9.202643399100155497e-01 1.990630275615392908e-01 -3.368789927377744409e-01
3.450899499682426319e-02 2.417351886944988926e-01 -8.337244643571569691e-01 5.873718570585204635e-01 -4.455429065464282766e-03 -8.093049182400090524e-01
1.676077303778782807e-02 -1.937573667962342039e-01 -9.921493911042501557e-01 8.461079822697233910e-01 4.075214776510380776e-01 -3.435513463699014780e-01
3.129535646216243666e-02 -2.359272152996375327e-01 -9.696124064402237286e-01 9.777237947747754454e-01 1.432468175287501533e-01 -1.534161999239241625e-01
2.271969619343490107e-02 2.470526350455908571e-01 -8.482658209472738742e-01 2.866296130327758429e-01 -9.492979692909839784e-01 1.291388029706617702e-01
-9.883674702487660335e-03 -6.953021700208968092e-02 -9.816701334451262140e-01 8.871792516258222294e-01 6.126302005580314819e-02 -4.573399368722220193e-01
-2.753851137316923325e-02 1.693251980922127380e-03 -9.758592455506861496e-01 8.063320266723766894e-01 3.534004385512742319e-01 -4.742750181004526389e-01
1.395494903415495959e-02 -1.491041858086367827e-02 -8.885392675922155759e-01 9.721706335912753127e-01 6.084582342637356867e-02 -2.262344910801735165e-01
-3.368461511554205617e-02 1.079840133693227983e-01 -9.550480397135808763e-01 9.510021128344257058e-01 -8.276635604051233580e-03 -3.090735813484162819e-01
1.989665279179231652e-02 1.745686540005348120e-01 -8.253263510920496593e-01 9.033971853406014274e-01 -4.256936460862312810e-01 5.156011249492600812e-02
3.588011171464305926e-02 -8.649416511847790590e-02 -8.329140567472993473e-01 9.515123854607917542e-01 1.795121802778593678e-01 -2.497990341186345498e-01
-1.046312369503113286e-02 6.336349287649938045e-02 -9.100374824162291709e-01 8.480633600548083129e-01 4.150939910431056257e-03 -5.298785776292608274e-01
2.286269535597308666e-02 -6.621740200253473096e-02 -8.613045823222539310e-01 9.372526404556242863e-01 1.249008493747794379e-01 -3.255107767561913334e-01
4.031564058316464139e-02 -1.900757395278004913e-01 -8.894797229632376290e-01 8.591635836670492576e-01 1.263128638974103657e-01 -4.958659061827375703e-01
-2.578468688660229269e-02 1.568213888989621052e-01 -9.190838593625042519e-01 9.393362371292641733e-01 6.549589333426339421e-02 -3.366863845957857593e-01
-7.866078836303978415e-04 -2.170567868934820399e-01 -1.060500156096304325e+00 7.331084945640233830e-01 5.733289620347999938e-01 -3.658494724475771509e-01
3.376822384522273901e-02 -1.654622542170399791e-04 -7.935728607296781423e-01 9.774889085648510445e-01 -1.696527632965237273e-02 -2.103036210619179391e-01
6.289631375088268125e-03 -1.052749443685367936e-01 -9.559118550303378203e-01 9.621836814442367158e-01 1.439283320721228276e-01 -2.312729953741951006e-01
3.746774735232309694e-02 -8.247776610717025281e-02 -8.243060440647069775e-01 9.422379122810988772e-01 1.880342892924468379e-01 -2.771837345704847855e-01
2.550831146885623041e-02 -1.453833288811740843e-01 -9.071669801916398823e-01 6.712822072498840775e-01 3.152846522071348634e-01 -6.708023451899595146e-01
6.900140919338482864e-03 -1.093977408883962665e-01 -9.561744497750368499e-01 9.800435157719885604e-01 8.451340451177020985e-02 -1.799227380047059566e-01
-4.750188471713789884e-02 6.116463070033812538e-02 -1.001308365647302745e+00 9.565438887979759164e-01 1.263162390815233127e-01 -2.628079080764980091e-01
3.716791923320060531e-02 -1.974990822008533542e-01 -8.974493600994667419e-01 8.719311378091328946e-01 4.113880318433184025e-01 2.655107873043046629e-01
4.979355775255073224e-03 -4.203050569739856523e-02 -9.370846219684592082e-01 6.841631454837328041e-01 4.315669232181575943e-01 -5.879377357729452802e-01
3.403769075095338520e-02 -5.131627418086284753e-02 -8.232030157508860579e-01 9.978237506932821077e-01 -2.550192874583897748e-02 -6.080636630019163602e-02
-4.406194354738026536e-02 9.110949087046665840e-02 -9.880661433839590391e-01 9.087660243789227321e-01 1.460461988053183002e-01 -3.909153626413835458e-01
-4.620904410928333705e-02 2.275939523129920372e-02 -1.016440653644207215e+00 8.525417544131123071e-01 3.598551518826099138e-01 -3.790472617573649727e-01
-5.146767865188538182e-02 -1.279706041360013577e-02 -1.049150104306752596e+00 9.392021216649911741e-01 2.406204797363086789e-01 -2.449513408647681079e-01
9.426445304850787285e-03 2.668450285980126721e-02 -8.850151868933201493e-01 8.881662705052482121e-01 2.370184462360164779e-01 -3.936787168245991508e-01
2.545483003604015124e-02 -2.247336398164222204e-01 -9.911492183345205209e-01 9.526080509332747193e-01 2.279981802682636005e-01 -2.013820525555043983e-01
2.855977186547386387e-02 -1.938799178460822170e-01 -9.475366841396677398e-01 9.498545330796993591e-01 2.288894960254179434e-01 -2.130398192760602771e-01
3.569506590226331766e-02 -8.622209742408674937e-02 -8.265805789777100898e-01 8.365613396379253386e-01 2.765949618013547467e-02 -5.471746314425228741e-01
3.593141287551811225e-02 -1.202872082142426580e-01 -8.442311338593596615e-01 9.839751381894356053e-01 7.368598764668005119e-02 1.623678005320463580e-01
1.281053424452719162e-03 6.282360298895152406e-02 -8.931838885054209642e-01 6.561072028956939084e-01 2.359259577274326891e-01 -7.168418799001509134e-01
-6.703819391141459900e-04 -1.839922972978815241e-01 -1.027958746215508645e+00 9.767058977581088985e-01 -3.589283383799861393e-02 -2.115591968305899906e-01
3.891829465343143307e-02 -1.228889480589821781e-01 -8.415305981195586593e-01 9.585555850758821217e-01 2.830849211439943058e-01 3.215770111080486909e-02
-2.172019698666866061e-02 -1.729785751086848899e-01 -1.059413053269781191e+00 6.050406365892710969e-01 2.220823196635784147e-01 -7.645948413169512126e-01
2.068341345369997808e-02 1.905410595706123755e-01 -8.431670821997987453e-01 8.384023008232472929e-01 -3.922534958269892069e-01 -3.784425676186433662e-01
-3.014569434296993089e-02 1.114056750169107046e-01 -9.447586878310197944e-01 9.160999965593734640e-01 2.419197061852818575e-01 -3.197431032299882792e-01
2.846483155690674588e-02 -2.500727840175362982e-01 -1.025551637123795157e+00 9.062527233881741973e-01 2.764551689745130547e-01 3.198101638453518247e-01
-9.170807638880340562e-03 3.546266748367581795e-02 -9.191780916486528286e-01 8.739740454590222418e-01 1.242567610739461065e-01 -4.698187152417441781e-01
1.628465739197501941e-02 -1.566324149166788970e-01 -9.573427323439165360e-01 9.195200411638440041e-01 1.294044068099855782e-01 -3.711298875005870634e-01
-1.458682185505626346e-02 -9.184922391614343262e-02 -1.003478371107811462e+00 8.695701602183374401e-01 2.855619927273077008e-01 -4.028673289899096233e-01
-5.719680548495590516e-03 -6.078853490205227833e-02 -9.672868257567761585e-01 9.256378250847488998e-01 -3.396709669555935535e-02 -3.768830761847103972e-01
3.256801461051110624e-02 2.393223470372153605e-01 -8.355340208661615753e-01 6.267413969715242006e-01 -8.142027951627145432e-02 -7.749619083578718204e-01
1.709934468832652321e-02 -1.687562873712698808e-01 -9.657752821258350773e-01 9.525627369793804311e-01 1.958377867276347162e-01 -2.329630730565969421e-01
3.933301622623775612e-02 2.307190908844463650e-01 -8.094919602355783450e-01 9.338717353299915702e-01 -3.528793022896336007e-01 -5.796360899160376418e-02
2.081585926151746299e-02 -3.439040602145584241e-02 -8.694182510821164556e-01 8.864291000439896706e-01 3.175060500492440929e-01 -3.367986917690291016e-01
-4.150997545726782534e-02 2.826114581421394420e-02 -9.939887043462516392e-01 9.553008324857295008e-01 8.649113172253293513e-02 -2.827005546252566726e-01
2.278796680812347070e-02 1.451210351766788476e-01 -7.834170438827384730e-01 8.712447822969227040e-01 2.086862970306696541e-01 -4.442775694900823469e-01
3.298448867361592624e-02 -1.403182879271216432e-01 -8.804392128536763229e-01 9.301210296128958888e-01 3.664151004636423958e-01 -2.479605662328667609e-02
2.099209201486415544e-02 -9.809674122819496411e-02 -8.867167081665483508e-01 9.909938094842153378e-01 1.320089279245011682e-01 -2.247025839163218144e-02
-2.780874790726264520e-02 -4.290154366067144842e-02 -1.010618654976525699e+00 6.928718867606628029e-01 4.320638855369474118e-01 -5.772775306136858076e-01
2.455083907512823141e-02 1.722834536745068978e-01 -7.908632772366891439e-01 9.506217172549770167e-01 -2.662272393656013314e-01 -1.595036291216267166e-01
2.054139985897359202e-02 1.553143211033422844e-01 -8.001338402241232606e-01 9.730286297354121539e-01 -3.433494259576985730e-02 -2.281148777089546942e-01
-4.769900181874889289e-02 1.075342297479601611e-01 -9.938578789678144121e-01 9.597009122670719927e-01 8.102068683294910700e-02 -2.690907045939471831e-01
-2.351533442281656186e-02 2.986516302555794478e-03 -9.658604601714334548e-01 3.966928469053283557e-01 6.663974789519914177e-01 -6.313075203580074124e-01
8.541420250738484751e-03 4.497938768775266993e-02 -8.759246416011841063e-01 9.209856680825452280e-01 2.164757112433983166e-01 -3.239192270122492889e-01
2.370515414401655474e-02 -2.167649115049555264e-01 -9.882052914415659917e-01 9.364573143216017304e-01 3.500023705797335460e-01 -2.336747830083377511e-02
-2.929497424919508264e-02 -9.341073467954476295e-02 -1.037434229027366817e+00 9.666687524250872077e-01 2.153084829552333324e-01 -1.385416192067991104e-01
1.769275724225282884e-02 -1.007641399590592929e-01 -9.086396675602759210e-01 8.672718220624865415e-01 3.133014634769127338e-01 -3.868872957847538374e-01
7.189675749986352074e-03 1.445201185777818531e-01 -8.653842826818843870e-01 8.234274638404170954e-01 1.173558723334569703e-01 -5.551529618242093678e-01
-2.407498998866039117e-02 -3.145176383059050153e-03 -9.728265503042773377e-01 8.837179703210871207e-01 2.521563845947792926e-01 -3.942837894710709556e-01
-2.126043621280390705e-02 1.319189953242314584e-01 -9.190476806522835940e-01 8.938591239238492525e-01 1.198989314889324503e-01 -4.320186486783889057e-01
1.268609260129982541e-02 -1.994122378618255476e-01 -1.014448915171058063e+00 8.817667021279465001e-01 3.591209347037522814e-01 3.058098057222961019e-01
3.132699003281333439e-02 2.104604329770331239e-01 -8.105350402658918485e-01 8.320539905111081769e-01 -4.938363538336485448e-01 -2.526100008052497015e-01
-7.198846467441778925e-03 -9.681911173820509364e-02 -9.900628974046473685e-01 8.625373129257433158e-01 4.447326107173414367e-01 -2.413343920276928567e-01
2.764308325533300706e-02 -9.231130593840673748e-02 -8.539315195259411517e-01 8.665330776375381738e-01 2.866004370159944692e-01 -4.086326160039814304e-01
-1.354617376688135692e-02 1.385518092515634209e-02 -9.401314773345456066e-01 8.069640220765106342e-01 1.689665108435926544e-01 -5.659146448780443261e-01
-3.723385973792905923e-02 1.654335553973679263e-01 -9.382742888624497901e-01 7.830085395762547140e-01 2.512817521803918930e-01 -5.689948224472812788e-01
-3.413106656608114187e-02 -1.599260379702257401e-02 -1.006769654020561955e+00 9.513415607299342547e-01 2.569200066941522420e-02 -3.070653935720138450e-01
1.869297300224977837e-02 1.626735171017318071e-01 -8.251507351993522255e-01 9.724270229150356881e-01 -1.593706134756513459e-01 -1.702547874950807727e-01
4.255749493527674621e-02 2.546341776982810612e-01 -8.252671980606235413e-01 7.821032755033123784e-01 -2.873099386111619413e-01 -5.529624450378526346e-01
1.917881736103858523e-02 4.663213263392021468e-02 -8.371942822685080055e-01 9.414235874825186423e-01 4.608039337971583937e-02 -3.340632070095648776e-01
8.807809055397965506e-03 1.036583870183668543e-01 -8.498780286590970068e-01 9.956652927241899098e-01 2.352564940343249492e-02 8.998426909521584083e-02
-2.177825070179083278e-02 5.087432511549958708e-02 -9.347838532990516702e-01 8.675749181567913304e-01 1.399716193780145279e-01 -4.772019563601277437e-01
1.888346009622952557e-02 -1.664029027403950423e-01 -9.571939222250754886e-01 9.595808847096066740e-01 1.950501681393916331e-01 -2.028791699724830921e-01
2.209428004199511658e-02 5.269254962015115090e-02 -8.165908650441836558e-01 9.330575228408843902e-01 2.734275345625385434e-01 -2.337542350698370575e-01
1.960788556523217555e-02 1.076267299039369504e-02 -8.503887985993349163e-01 9.329047029389012646e-01 1.374013643282179509e-01 -3.328808800685689184e-01
1.991191855140640385e-02 2.146305834374686028e-01 -8.457615136387368615e-01 9.049467591989724946e-01 -4.161270028048494329e-02 -4.234852372759215777e-01
2.080511153507570016e-02 -1.773922410383540205e-01 -9.625484081238764311e-01 7.905802813196105561e-01 1.768126560445345552e-01 -5.862764735609664601e-01
2.992348968468705808e-02 5.985407153365635176e-03 -8.052310996431509826e-01 9.727613348810689731e-01 3.497221544545395244e-02 2.291556883588915794e-01
1.915859456008387265e-02 7.695518024378722455e-02 -8.112093374070701302e-01 9.534873246120620927e-01 -3.782027447500844325e-02 -2.990510803236912651e-01
2.301170566729125733e-02 -1.622711317176779855e-01 -9.354536716757893000e-01 9.787454610056463000e-01 2.050330559710739076e-01 -4.332264997348339933e-03
4.741065922378468779e-03 1.358007373515396909e-01 -8.691836178134476620e-01 8.974603870121389271e-01 -1.427424212623132904e-01 -4.173601022093441637e-01
3.283037476849561681e-02 -3.273793445694195281e-02 -8.207429551924771971e-01 8.455844160160385092e-01 1.624681910062831525e-01 -5.085185171672326199e-01
-4.750542474097518841e-02 9.190252371284403365e-02 -9.986252329458565891e-01 8.421719148445313552e-01 1.279017349739975384e-01 -5.238202096499682270e-01
-7.988248571884248167e-03 -7.983047547829069668e-02 -9.804275119141903083e-01 8.593580146258371633e-01 2.821602079624960235e-02 -5.105953964429813530e-01
-4.258236882503589615e-02 2.001643508788410533e-02 -1.002711009178981705e+00 9.215691794165004058e-01 3.259295435747764924e-01 -2.109032483740733155e-01
-8.795997960121386752e-03 1.576493121119471597e-01 -8.878581898726961574e-01 8.209522814256335899e-01 1.039593180887718044e-01 -5.614533033161039910e-01
5.704034350902762764e-03 -1.504240718300947632e-01 -9.926180153357784253e-01 7.593674500132134852e-01 4.634559197016426824e-01 -4.566943029576069901e-01
-1.438533103828233206e-03 -5.147010327554955161e-02 -9.535053097970919156e-01 9.154653293326695529e-01 3.076811917122327378e-01 -2.593366828205512786e-01
3.730121539786709906e-02 -1.129894532451048428e-01 -8.407445349367734799e-01 9.879079123550783548e-01 1.539276269886654114e-01 1.855376931701760782e-02
-2.984777688977938853e-02 4.455303465620810005e-03 -9.774509659804208050e-01 7.732487569455765986e-01 5.306775438359444541e-01 -3.470845780935384872e-01
-5.343809793599764435e-02 2.367818546130009971e-02 -1.037510445600890563e+00 9.956788998037781058e-01 5.012861362124542558e-02 -7.817065038714841874e-02
-2.541776916435829065e-02 8.027409992949013917e-02 -9.381159913267836936e-01 9.164179770979674622e-01 5.172578573112711353e-02 -3.968658896178490214e-01
-2.735107768530750660e-02 -6.992791449429550110e-02 -1.022988868468523327e+00 9.453922209869682902e-01 1.430225437372256714e-01 -2.928789860680695578e-01
3.303823870335765439e-02 -1.195713199024746598e-01 -8.589162788429344220e-01 9.039298275230107649e-01 1.816499176934948112e-01 -3.871875182856061581e-01
2.542946086067656569e-02 -2.314090286993972234e-01 -9.987904791396550186e-01 9.818680367648321416e-01 9.591497411496216485e-02 -1.635098655130650114e-01
3.047864773758397414e-02 2.505840719510674663e-01 -8.398183238108312132e-01 1.948326499705129444e-01 -9.806352294346882825e-01 1.986920474110937321e-02
2.325837478350696944e-02 -1.382952422864514863e-01 -9.122825565410349613e-01 8.563418324756844058e-01 1.548979294868210732e-01 -4.926309951605590265e-01
