-2.792894673447707254e-02 -7.304389020939448807e-02 -9.953764839863725733e-01 9.124018010190965144e-01 -5.692559937974006612e-02 -4.053176897599786721e-01
1.574444746929328648e-02 -1.030724205515433922e-01 -8.597931758526279333e-01 9.768415020745060406e-01 1.528269876155970708e-01 1.497484279756050862e-01
-1.018347830590291686e-02 5.357111235037358143e-02 -8.618840231459534706e-01 7.621460703209466114e-01 2.638541543038014914e-01 -5.911973889920052461e-01
6.626814745054159829e-03 9.874877876507609509e-02 -8.020470116471799527e-01 9.994280239632183926e-01 -1.463495147252875592e-02 3.048676946435867688e-02
2.962853073525184913e-02 -2.384277409545738080e-01 -9.320076829462005108e-01 9.352782441106820555e-01 2.765854282363718331e-01 2.208055863888903625e-01
-1.694895029497740097e-02 -9.426080914931024568e-02 -9.785607574893649963e-01 8.906628709926334153e-01 2.554712578638431708e-01 -3.761038242834355283e-01
-3.366037247178300940e-02 -9.035014342242241037e-02 -1.018087215784323263e+00 9.649709441946350275e-01 9.178488567427067757e-02 -2.457775653347458455e-01
1.262387995137680997e-02 -1.987508833414069753e-01 -9.825204220198042737e-01 9.388659291106505878e-01 3.321574822623775680e-01 -9.056585522321802806e-02
-2.597466977863226688e-03 -6.160096426924752122e-02 -9.189998489620631039e-01 8.864975179646460424e-01 3.271967070072134276e-01 -3.272070683315960737e-01
2.988284547927624185e-02 -1.890485433969464057e-01 -8.637185697171054777e-01 9.788087113462442534e-01 -1.094122080791534307e-01 -1.730967224298268770e-01
2.489679274494693492e-02 -1.923035901694993000e-01 -9.003369046836827705e-01 9.794841958695372774e-01 1.769290240014236848e-01 -9.647191564237418693e-02
-1.403205490708170702e-02 -4.409544096527941159e-02 -9.418803477963259008e-01 9.362050613368956276e-01 2.595173936271868431e-01 -2.370038091089061438e-01
2.910292320887781017e-02 -1.513218145219054067e-01 -8.364308619302672776e-01 9.607182935522725620e-01 2.248575101790971087e-01 -1.626636423730468684e-01
2.862672020838678485e-02 -1.647069464728881383e-01 -8.461239229067960554e-01 9.501478833896037646e-01 2.112547471655858433e-01 2.293260375322876132e-01
1.541147103811267224e-02 1.086958694610663800e-01 -7.427186841498246705e-01 9.845002610505106944e-01 5.490701442370660851e-02 -1.665666706113535789e-01
4.379677736841166430e-02 2.425154490949730790e-01 -7.573669230174499001e-01 8.647810862551723599e-01 -4.378123375751888924e-01 -2.459146801682914329e-01
-8.901214226284035955e-03 -1.682568369716984369e-01 -1.005370500164053160e+00 9.446583246801322220e-01 2.872715418289027989e-01 -1.584162582179318712e-01
1.846163818974009413e-02 4.061586973562918840e-02 -7.620065215391499391e-01 9.914295568703036521e-01 1.176413519831528420e-01 -5.681501621516398676e-02
3.330071490719921368e-02 -2.014295563427974944e-01 -8.639500238547357380e-01 4.563894146938440866e-01 2.442917543974464645e-01 -8.555876582144158471e-01
1.837629185522416525e-02 6.155025126543135078e-02 -7.360770785977640562e-01 9.987899941238950197e-01 4.144337217603617091e-02 2.647630149149063708e-02
1.243074641769011460e-02 8.532838212792270838e-02 -7.659819329444234048e-01 9.713150177971267007e-01 4.083277744896035566e-02 -2.342644242892442108e-01
2.995209965565890156e-02 -1.149721008040226200e-01 -7.949022804842357237e-01 9.542206212632454720e-01 -2.957515742397247016e-01 4.465436474422147806e-02
-3.600760201583558945e-02 8.898106702776960308e-02 -9.292977697356143985e-01 9.391719305772581183e-01 7.357517906372401661e-02 -3.354739600051343529e-01
-2.390202720772881609e-03 1.538547202071581244e-01 -8.227158381937098586e-01 8.446214355788546069e-01 -1.762471914561601193e-03 -5.353611157466191539e-01
2.768508586480548234e-02 -2.224372528111894232e-01 -9.221695501866813416e-01 9.385068018047988403e-01 3.219601887575885280e-01 -1.246860851150034255e-01
-2.144883291808371423e-02 -9.585435831901652215e-02 -9.914609955686654041e-01 9.163853117025213546e-01 2.103861035474187957e-01 -3.405519753723471044e-01
-4.055277335269966837e-02 1.182889347553739562e-01 -9.364061516420582043e-01 6.992648984626652631e-01 4.110902957761840976e-02 -7.136796546526914531e-01
5.306638970181003050e-03 -1.778964763395307069e-01 -9.821281981502062441e-01 8.119746553122290100e-01 4.647859235892449203e-01 -3.530880971710595451e-01
1.629399265154358317e-02 -1.508773320551969055e-01 -9.061985127275514751e-01 9.361482396828300079e-01 3.504549951446750966e-01 -2.842128985257887791e-02
-3.638617125455799461e-02 1.613224461263678411e-01 -8.947650573772434335e-01 9.855230454315838662e-01 -1.183734948407470788e-01 -1.213756262288425702e-01
2.150509539148302493e-02 -1.397295003573329752e-01 -8.566960012998027230e-01 9.571117851752818373e-01 2.385080273992966904e-01 -1.644717347895416903e-01
3.002666671300113083e-02 -2.444463023691605119e-01 -1.004339029893103863e+00 9.228896341164979367e-01 3.090324920902557879e-02 3.838225012015856752e-01
1.491900778537739135e-02 4.714168362512981790e-03 -8.084697401334622890e-01 9.725813871891344498e-01 2.163872619628373073e-01 -8.521735828741307250e-02
1.965324372756754520e-02 4.098439750309803425e-02 -7.498614063347924796e-01 9.858542343054634838e-01 6.466078430479668682e-02 -1.546299184345529820e-01
-1.140689554185131058e-02 1.714527694650823941e-01 -8.364788647777450237e-01 8.947180729243741082e-01 6.052861556256820125e-02 -4.425108548731580549e-01
2.905222049260400632e-02 -3.202214672026681974e-02 -7.521165006202863434e-01 9.269337140969768907e-01 3.504897467523842569e-01 -1.339806967134936910e-01
-3.362443130918919137e-02 6.803472411778277440e-02 -9.227663430038971493e-01 9.434330214062444098e-01 -2.814635442161813467e-02 -3.303663373484915788e-01
7.074673322738233780e-03 9.278835132463553181e-02 -8.109638137218445619e-01 9.764750388840908180e-01 -3.378034284251292541e-02 -2.129680419071257602e-01
3.194090619166711775e-02 -1.638786509997281760e-01 -8.324880482510572666e-01 8.403564873412880942e-01 2.650751796757728207e-01 -4.727960694668136843e-01
4.472994435985807454e-03 3.342595742208209764e-02 -8.484374678655558499e-01 8.980948356106899233e-01 2.123777484501228607e-01 -3.851251202046733213e-01
-4.442002390480606633e-02 6.975186584920668731e-02 -9.619303918041328672e-01 9.497726253748752789e-01 1.838738792157138327e-02 -3.124001665395496063e-01
7.286620532745359709e-03 3.401317340703930575e-02 -8.313463555593935128e-01 9.885433396071398038e-01 1.442911628120138179e-01 -4.429589205242311090e-02
6.328022956985838651e-03 -4.285494218950346851e-02 -8.808852541099271294e-01 9.636581774567626324e-01 1.382860301524180269e-01 -2.285604753350741758e-01
1.534743808624076597e-02 -1.807831052305299557e-01 -9.460202446564974776e-01 8.584112707745452653e-01 2.379390518145618749e-01 -4.544393224940130316e-01
4.036675552464909743e-03 -7.340703051570549031e-02 -9.003527712090849677e-01 9.301260076215162043e-01 1.282168274755862182e-02 -3.670166404913818292e-01
2.484631197865055929e-02 -2.331354470832915637e-01 -9.795058197441750547e-01 9.822473184211173436e-01 1.851345493938095221e-01 -3.025564534553809928e-02
-5.812804873956859547e-03 -1.224405292882700252e-01 -9.598215962483656050e-01 8.353692234717702281e-01 3.285283828408707141e-01 -4.407123349126205736e-01
1.724010172856357478e-02 1.968052625246345111e-01 -7.879250447955820080e-01 7.889756439742529048e-01 1.704598263725464746e-01 -5.903057519696499611e-01
2.402364176416149980e-02 -2.346207605133791285e-01 -1.006727150193285958e+00 8.423335824324946763e-01 5.389225094797670534e-01 -6.055136866329174222e-03
9.232587787458798254e-03 1.559761280922195709e-02 -8.353842434608315104e-01 9.991837500343817569e-01 -3.330012031784502363e-02 -2.286778638274807041e-02
-3.492783307476842597e-02 4.691852743989980562e-02 -9.279354145762876982e-01 9.890751422758797817e-01 6.065823415625253012e-02 -1.343537925069223926e-01
-3.870613739418709426e-02 3.821397800463930544e-02 -9.501287636604051068e-01 9.850056501961219624e-01 1.193853581148543730e-01 -1.245431866843897811e-01
2.211433742305992517e-02 1.798553454031520948e-01 -7.617669414058479971e-01 9.271918886385120961e-01 -3.562116910697233352e-01 -1.158811148902041260e-01
3.105018542136519372e-02 -2.298778729197524240e-01 -9.182890348970594863e-01 8.898467501065285834e-01 3.046881603591901078e-01 -3.396143198715005362e-01
-1.619453595586984110e-02 3.664236521422555015e-02 -8.864198251132329176e-01 7.650442010825920791e-01 2.560806724182096983e-01 -5.908722870500324742e-01
-3.401573432259507451e-02 9.657354159887955591e-02 -9.204064648830394546e-01 9.414597558310819903e-01 1.068893133931492628e-01 -3.197314542437456053e-01
-4.236143972686196718e-02 7.123315535058761909e-03 -9.862278257020349326e-01 9.089941932766384403e-01 3.263474810426837958e-01 -2.592814652196496206e-01
-3.150442240638806624e-02 1.723335320603402998e-02 -9.375186736385844322e-01 9.301452560154370719e-01 3.223082364440693071e-01 -1.759181725470425062e-01
1.426345653027049666e-02 2.923111253170278950e-02 -7.949402888197114603e-01 9.690996872016517383e-01 3.869737201838027024e-02 -2.436150850512582844e-01
-1.010244545043025716e-02 -1.642097005146179456e-01 -1.004495488004564896e+00 8.445008019647265440e-01 2.812639830701172405e-01 -4.557509926576862602e-01
2.579012283656404586e-02 -1.640748429392004798e-02 -7.594817669162094997e-01 9.990511154645326242e-01 1.375629437470263748e-02 -4.132351696249543516e-02
-2.994908895785276109e-02 8.336843339393042174e-02 -9.106942092599331628e-01 9.855099387645782638e-01 -6.878957386382231198e-02 -1.550424300759971896e-01
8.452631211433997427e-03 -1.599063544801501424e-01 -9.567034613513036856e-01 8.358211974248277443e-01 5.308183574297706819e-01 -1.401242211428382900e-01
3.215027178464060359e-02 -2.054229450660245981e-01 -8.771367275130069752e-01 9.604878203198938813e-01 2.731886246637054150e-01 -5.320829231888705296e-02
-1.311005577648970480e-02 -1.160424876247548726e-01 -9.757611843585703992e-01 9.521832043541530455e-01 -7.707846559086566074e-02 -2.956451513013784171e-01
-1.387276862848516598e-03 -8.159011019700872225e-02 -9.246672279281349383e-01 9.229730192813989653e-01 1.162644054800007071e-01 -3.668833516214117241e-01
9.962681856024680968e-03 -7.457011963167074244e-03 -8.416549222723952450e-01 9.312785886568418769e-01 2.137493868203912961e-01 -2.950108302134475946e-01
2.505958060417201594e-02 -1.784647171597969137e-02 -7.636100802491488926e-01 9.502795534018702028e-01 2.033149386741334996e-01 -2.358639567595583741e-01
1.066405592366523672e-02 1.640670452390445566e-02 -8.284482681771053736e-01 9.778172908445361688e-01 1.547670003021420493e-01 -1.411400770260830828e-01
1.367353210263292339e-02 1.560595531622817889e-01 -7.944266648879876325e-01 7.834445172632851229e-01 1.854418029600587436e-01 -5.931492443601533715e-01
-1.332478356560352212e-02 1.664935778072568484e-01 -8.410424430029015408e-01 8.887777044246298885e-01 1.124191791130332851e-01 -4.443378447591840308e-01
-5.759259609705300650e-04 1.310641648233524248e-01 -8.241711962493355470e-01 8.659979528634135226e-01 8.268683126381913551e-02 -4.931636985544716190e-01
5.395343863964361568e-04 -1.928243135107950701e-01 -1.008735298401061131e+00 5.447624622097940739e-01 7.322224089891182786e-01 -4.087593467326404162e-01
2.557754606219478453e-03 2.109964725183582912e-02 -8.585933449093581249e-01 7.098509494391875840e-01 3.786203355548867222e-01 -5.939345680161990382e-01
-3.547664752124981419e-02 -5.877580219745419388e-02 -1.008624970648482444e+00 9.342647368507619454e-01 5.315918845931101588e-02 -3.525953802299792716e-01
-4.216767696500883789e-02 3.118970459307728385e-02 -9.719590914697510131e-01 9.894914259207874263e-01 3.550706386312844909e-02 -1.401640697363850663e-01
-2.207541986841378889e-04 -1.321877781809603358e-01 -9.545794373755902562e-01 7.579020518770200887e-01 3.768877602484254630e-01 -5.324848316483091759e-01
2.943746000888076628e-02 -2.401944139450104820e-01 -9.565919603136688876e-01 9.629615228474853739e-01 1.388508827544140262e-02 -2.692810981833564932e-01
8.041840622887504349e-04 1.586518403476911976e-01 -8.160179538416943990e-01 8.938292370268769993e-01 1.181843334424936415e-01 -4.325526076267536268e-01
5.423182297765658834e-03 2.230863846145463292e-01 -8.026000057076633221e-01 7.752517540419157083e-01 3.995751230954519562e-02 -6.303872738761195915e-01
-6.308409875068978281e-03 1.439614025018056132e-01 -8.317146807860114066e-01 9.044416287139473987e-01 2.955470425735876039e-01 -3.076317374317353859e-01
3.149249008283749873e-02 -9.526883179697327730e-02 -7.753452071321598194e-01 9.216631838257641762e-01 3.818350326566932740e-01 6.884027466692267672e-02
-8.302586897412065486e-03 -1.905246699163147261e-01 -1.028756476615504178e+00 7.565271044559569447e-01 4.561403379831738270e-01 -4.686178958256732585e-01
1.079824435669297575e-02 -1.337761420430497450e-01 -9.132599742350144822e-01 9.726431552213490317e-01 2.290331561020375051e-01 -3.884721363236179337e-02
-1.985973462364276285e-02 -1.077895818078720702e-01 -9.912019661232631673e-01 9.887541603054227357e-01 -1.405112704143570701e-01 5.120345071635017120e-02
2.185097211553599719e-02 2.335015652325690971e-01 -7.842962892771142558e-01 8.980948356106899233e-01 2.123777484501228607e-01 -3.851251202046733213e-01
-3.527119775593048207e-02 -3.059220721072865995e-02 -9.949425748953441007e-01 9.643033188327854166e-01 1.662543438041224342e-01 -2.061033780759933820e-01
-3.524030023473726653e-02 9.931708988438740782e-02 -9.241735632064348449e-01 9.401248423601198390e-01 2.580360248602210985e-02 -3.398521073586319718e-01
2.400459554654740119e-02 -2.356512675412236191e-01 -1.009996025478303139e+00 8.322158515558520930e-01 5.431845851998026165e-01 1.112082857546420611e-01
-2.756642101207977882e-02 1.199512921360761444e-02 -9.293448123046673670e-01 9.420994156056522462e-01 3.327466554839959567e-01 -4.157348168848878228e-02
2.265992046513890315e-02 -1.726927575303660312e-01 -8.949677151190055246e-01 9.783122961835492015e-01 2.021056539360464310e-01 -4.536910604314637468e-02
1.994370586765801742e-02 1.381277682540402174e-01 -7.230020034138183727e-01 9.133287032753909518e-01 -4.916127015868231726e-02 -4.042447888219187768e-01
-2.333690991081355942e-02 1.070147357212005435e-01 -8.819878839611621224e-01 9.243764571696968524e-01 -9.272275701243287357e-03 -3.813688376542054836e-01
-2.503277330687453395e-02 1.586643505847689373e-01 -8.684657694509442249e-01 8.497194986228755464e-01 2.518159470363113273e-01 -4.632121570925082366e-01
-2.036345206430331678e-02 -1.140235877667561959e-01 -9.934219725142490187e-01 6.085396526360655756e-01 4.590726672459324309e-01 -6.472493934777241442e-01
-1.323094101330728363e-02 3.698981130105509496e-02 -8.799568049535240188e-01 8.737425714275304234e-01 2.079900027540635410e-01 -4.396749681634960494e-01
-3.363228246778339481e-02 -4.269695415031487390e-02 -9.951576850437503508e-01 9.167493199264366011e-01 2.449394216523206047e-01 -3.155556434846991665e-01
4.507157428132430900e-03 -4.482274717131442404e-02 -8.853428154322602328e-01 9.451935648211320373e-01 5.570708247561081267e-02 -3.217232443930274632e-01
3.133142920073477000e-02 2.008759765687739562e-01 -7.390445882263446675e-01 8.518669223995243289e-01 -4.619382649120130080e-01 -2.468517488932197579e-01
1.381685418707109814e-02 3.847929299968071148e-02 -7.914532743696186534e-01 9.681968866846311084e-01 6.229301652113115179e-02 -2.423104799774153384e-01
-4.375309041962725798e-02 7.289511409627519312e-02 -9.580586652782528967e-01 9.754249270789234760e-01 -1.163429550238393728e-01 -1.871110056875261163e-01
-1.794070983601884703e-02 -1.676307553393978078e-01 -1.028677407292866608e+00 9.100794929607316508e-01 3.421524354671505175e-01 -2.338525762018343612e-01
-4.015289889606860063e-02 6.523251113737379980e-02 -9.462582183136004632e-01 9.067834725225238923e-01 -5.667588220045566283e-03 -4.215585515723301868e-01
-2.206058973812342547e-02 -8.339317236357593477e-02 -9.852471237854055763e-01 9.938356130442494996e-01 -7.886351275427631218e-04 1.108609593120872677e-01
-2.103205201901681490e-02 -1.000279377501102213e-01 -9.928339675369564077e-01 8.663220119635444139e-01 2.286803273659241131e-01 -4.440624724779728139e-01
1.319085926278930170e-02 -1.028734949298074214e-01 -8.717104648532016942e-01 9.599881565993656496e-01 4.046339720951411256e-02 -2.771018813996340424e-01
-2.757446456150870404e-02 1.037871023373898027e-01 -8.955040826098514817e-01 8.884020125016184322e-01 8.177906786348193569e-02 -4.517234200730068094e-01
1.006914739103443451e-02 -3.491354762850792243e-02 -8.562887989911283082e-01 9.813469659865483585e-01 1.033337465841460828e-01 -1.621119032208298560e-01
-3.926399124590393419e-02 1.540950408352737833e-01 -9.064634873655299518e-01 8.981169341839568832e-01 -4.396570928598148020e-01 -9.360193911785878729e-03
1.169021582569732508e-02 8.409258814661546566e-02 -7.702198082807852897e-01 9.964784262107024837e-01 4.547427689021419500e-02 -7.044740050529682551e-02
2.922229601986292905e-02 -6.183713148754807487e-02 -7.689076640994089162e-01 9.577044931150276996e-01 4.637465551637478395e-02 -2.839920688910611002e-01
6.582431773609980462e-03 -1.315312491874550370e-02 -8.613027993258318693e-01 9.634705459534179672e-01 -8.030225570348938427e-03 -2.676938971241442089e-01
1.264654487120532925e-02 -1.305038047500190201e-01 -8.962066201811572652e-01 9.538562833384405248e-01 2.002271966331682085e-01 -2.237571461745955503e-01
3.059115536019794274e-02 -1.592499869372969445e-01 -8.390914120647965380e-01 7.157278947545189229e-01 -1.800119352438328546e-01 6.747809154385107089e-01
-3.951935680948130691e-02 1.249745324558800275e-01 -9.289332135031028725e-01 9.132829086680044339e-01 -1.848060367839088336e-01 -3.629890597568112276e-01
2.792645407920619702e-02 -1.441132608019448647e-01 -8.366281101289985145e-01 9.858611190547459380e-01 1.574930868341749002e-01 -5.721696894774174619e-02
-2.562079695821525838e-02 -6.108087763105413126e-02 -9.842725080123574388e-01 9.377608827509885669e-01 2.486759371708551214e-01 -2.424145314420804720e-01
1.883868953763352325e-02 -8.919151597249168339e-02 -8.242652873306097749e-01 8.061841277736072620e-01 3.159813445852979186e-01 -5.002228923189893095e-01
1.889515809787670891e-02 2.331264860815104589e-01 -7.873147137477075619e-01 7.166147232050672500e-01 5.807775524221332752e-02 -6.950469860604753247e-01
2.616096574236637454e-02 -1.944821564188710938e-01 -8.914037901373922379e-01 9.614248866615209277e-01 2.541448932886367085e-01 -1.052262349568239691e-01
7.109104634390492165e-03 -9.991003874225662384e-02 -9.024123339013989664e-01 9.908169208885735380e-01 -1.270129206291033819e-01 4.636321035208048474e-02
2.751942087948921686e-02 -1.093460809471751977e-01 -8.002333591923277423e-01 9.113599373186446195e-01 2.506695899519754689e-01 -3.264779032704424044e-01
1.900975524476215470e-02 -9.259850987952514267e-02 -8.228535231665382588e-01 9.452602722498714138e-01 3.044149536227129804e-01 -1.175353296544498910e-01
-3.507729952515925564e-02 -5.620309031369260383e-02 -1.005294708607429754e+00 9.550123788972773031e-01 2.094559541631803579e-01 -2.099513263081587977e-01
-1.750447183743353979e-02 -1.548604518396630714e-01 -1.015983159834843441e+00 9.302259887409127792e-01 2.469091336860868846e-01 -2.715059659996020835e-01
-4.261060362360416520e-03 -1.473284137641774905e-01 -9.782931696353792672e-01 8.918809846237331085e-01 3.525935368503542167e-01 -2.832421349975284275e-01
-1.812942932025918968e-02 -7.651276786859641243e-02 -9.707254126876883049e-01 8.675605729652904330e-01 2.658879225607372887e-01 -4.202883116058218071e-01
1.424766877953846482e-02 5.449760085657697622e-02 -7.830155819920975313e-01 9.942903145497040684e-01 4.006370686708605626e-05 -1.067088037021762803e-01
6.168659602039122496e-03 1.568209314209576266e-01 -8.075630849992481153e-01 8.055613150797970023e-01 -1.304586446300093627e-01 -5.779718935105832012e-01
2.577745622199018039e-02 -2.250556202936819516e-01 -9.539423538067358654e-01 8.628761296790086188e-01 3.629287534559463846e-01 -3.517492071705174972e-01
-4.664696757422123752e-02 2.878443192976508358e-02 -9.917786576734948234e-01 9.802891585316833023e-01 5.570679712665008859e-02 1.895518884610083721e-01
2.781928390665243736e-02 -2.731148725332202196e-02 -7.534855724413376254e-01 9.960170922949341810e-01 -8.401465525901025133e-02 -2.985782239303759120e-02
3.080715855305482878e-02 -1.548757109959737477e-01 -8.298049364864631405e-01 9.600749425043840768e-01 6.975510012772316581e-02 -2.709064982265556587e-01
-4.395687639622016495e-03 -1.817120598108789564e-01 -1.007206492611193216e+00 6.465237092468312241e-01 4.770569918332804860e-01 -5.953349644735307367e-01
1.431797734509569764e-02 6.421349304754628284e-02 -7.724203766560318041e-01 9.881919318303988842e-01 1.103598211546707036e-01 -1.062893020958048385e-01
-1.269303009399172164e-02 1.056568977298441014e-01 -8.528846667671053927e-01 9.521256201365797533e-01 1.101649994611261923e-01 -2.851674532152349562e-01
1.382462439926223328e-02 3.416111037544840301e-02 -7.910076930099730896e-01 9.412241305148336679e-01 1.631132846772804512e-01 -2.957891013854017093e-01
2.322532517494840451e-02 -1.844289428829721800e-01 -9.081041658628575819e-01 9.247153407997420471e-01 3.359755414641847904e-01 -1.789468469335645795e-01
-4.372392347458509826e-02 9.051115189325981136e-02 -9.574907756566969352e-01 9.666072880578681081e-01 8.155478939584520637e-02 -2.429386074711318566e-01
-2.437926623419915065e-03 -1.350369628530727617e-01 -9.624845954318821395e-01 8.041187929417235036e-01 1.197249506776579403e-01 -5.822876462910557827e-01
1.083722315581590705e-02 -8.332755673364530824e-02 -8.669536596386696603e-01 9.832089644393674499e-01 1.688862163326740606e-01 -6.912002733578663516e-02
8.035570820102401479e-03 4.763148996192122231e-02 -8.156817630334013414e-01 9.569620809992741561e-01 2.377701529038622752e-01 -1.663999096081864304e-01
-2.880711733286839271e-02 9.911418487692325030e-02 -9.018883660553352888e-01 9.324438512120416522e-01 7.207397841553771223e-02 -3.540533942390783340e-01
8.663417895985970826e-03 1.717265558809863701e-01 -8.024431671753281536e-01 9.635132788709074303e-01 -1.210190916342496481e-01 2.387394833274418815e-01
8.514818875012953106e-03 -8.579772417731609813e-02 -8.810266354273588174e-01 9.380615753288906733e-01 1.109871687051539463e-01 -3.282108000573619178e-01
-3.444014285122878188e-02 7.452813606025049387e-02 -9.255064641795459623e-01 9.611942499192436262e-01 -6.629141333251863111e-02 -2.677892127038717374e-01
2.600814053524743222e-02 -5.730725634621634812e-02 -7.851010111603070607e-01 9.355105895544344463e-01 2.579966016125032624e-01 -2.413662991967054916e-01
-3.030313091892657476e-02 5.846428070450142116e-03 -9.460761136400719362e-01 8.810538108390616463e-01 4.224365968013324979e-01 -2.128180069657526208e-01
1.024722451661801668e-02 1.323502279645437651e-01 -7.893181544927087012e-01 9.615819797196785146e-01 -2.228727251250471608e-01 -1.602742795139593113e-01
-3.836796378528559842e-02 -7.191359800684583338e-03 -9.864024601126141212e-01 9.655029471776572780e-01 -1.469273094935797108e-01 -2.149800565546390041e-01
2.436735708992791155e-02 -1.459458306489560264e-01 -8.557689410670559216e-01 9.377592337807187928e-01 3.205816644714418739e-01 -1.335478036649009048e-01
1.662329090240161067e-02 -2.089045549560557546e-01 -9.825160659902694160e-01 7.273215921164865039e-01 5.191583362282710112e-01 -4.488629229128117681e-01
-3.795177819655429219e-02 3.134914766853188345e-02 -9.499609567009936750e-01 9.259368343697746973e-01 6.188746222803104963e-02 -3.725733763653203967e-01
-3.119896128290586528e-03 -6.574888992870575599e-02 -9.212889964776869167e-01 9.003777701223621976e-01 3.478482921022967855e-01 -2.613836964139071295e-01
5.469699861341499603e-03 7.002131726318759630e-02 -8.175622045645606351e-01 9.860598646779121790e-01 -4.458601562100181041e-03 -1.663311881262437841e-01
-1.279093535610068867e-02 -1.460854964207510265e-01 -9.982988423335011907e-01 6.362516109750653293e-01 6.034430690760680394e-01 -4.806665683357743690e-01
-2.517994471039350368e-02 -5.644568570559648640e-02 -9.796162041706728552e-01 9.002434328618291737e-01 3.139024433162547201e-01 -3.017068406072926368e-01
2.419889197075110812e-02 -2.994849291266648422e-02 -7.744054622120786213e-01 9.774274543369929624e-01 2.084687678762993102e-01 -3.429787644217986708e-02
1.936419217435909543e-02 2.207420996351566189e-01 -7.867207086763335910e-01 8.206909686834423789e-01 -2.348821098004807983e-01 -5.208615251841011151e-01
-2.280838716659568804e-02 6.667725786638568908e-02 -8.898400668542169045e-01 9.333855869655068860e-01 -1.754846055253987402e-01 -3.130439254619889478e-01
3.094322007086261136e-02 -2.174965141871406105e-01 -9.040593481857313041e-01 9.930836258422374163e-01 1.133546373254466361e-01 -3.058820493019247244e-02
-1.870393662037112686e-02 1.720879725024015705e-01 -8.506984634233946130e-01 8.221321742690321788e-01 2.799448500373111770e-01 -4.957111749489426789e-01
-1.634545639673052816e-02 -1.545534500704169867e-01 -1.011622948182185011e+00 6.701925129496588696e-01 5.477115086261630239e-01 -5.008533706631851379e-01
-2.654262660617005137e-02 -1.378081448418708166e-01 -1.028535211134901761e+00 8.869081645134631042e-01 1.273828087009812662e-02 -4.617701202111655356e-01
-9.975114998393083687e-03 3.018473573487511635e-02 -8.765268795426400805e-01 9.598768219676954150e-01 2.034783581045473688e-01 -1.929586599048468964e-01
-2.283993672713350784e-02 1.385615200407742109e-01 -8.711203218297829398e-01 9.112811203141683025e-01 2.244176518613085480e-01 -3.452585079212537322e-01
-1.845874110260626103e-02 -1.718480178442332029e-01 -1.031028842569916115e+00 9.100888192293887791e-01 4.051134698373451415e-01 -8.730073121116044277e-02
1.701481298727242769e-02 -7.525557934970099339e-02 -8.212172103208946750e-01 9.934379320197230800e-01 -1.084781274994690986e-01 -3.624322113975082110e-02
1.957605494542423788e-02 1.487288577738310469e-01 -7.221416473527493274e-01 9.295412993044251948e-01 -4.374167517179142206e-02 -3.661142427448111358e-01
1.696834414171497982e-02 7.983022159616326441e-02 -7.373616771557436333e-01 9.846551685610397397e-01 8.695999566356053812e-02 -1.513015471838389803e-01
1.185222966018066419e-02 -7.937610023678867699e-02 -8.533934431976502033e-01 9.907744907568751813e-01 1.347215062902012428e-01 -1.469776201854434451e-02
2.784928663029755114e-02 -2.405799095861466952e-01 -1.002384630312000313e+00 8.032804410668067385e-01 5.815718620062259037e-01 -1.285095417551848918e-01
1.321121993722095163e-02 2.484990605273784681e-02 -8.042023374188456142e-01 9.881852191351978565e-01 1.473992839369620000e-01 -4.199313964913440472e-02
4.011417915154297589e-03 -6.102946910410382564e-02 -9.006178351360956125e-01 9.342305093618326062e-01 2.399914676398665347e-01 -2.638511907071741658e-01
-1.605163933440938856e-02 1.326175047165318310e-01 -8.572545640938751266e-01 8.661358955399093285e-01 1.082313219697164652e-01 -4.879493738104052070e-01
1.745825224394490990e-02 1.443671270512917049e-01 -7.435940462115003813e-01 9.946490148211787341e-01 -3.190045703484286482e-02 -9.826341209334606142e-02
2.761112955143569039e-02 -1.220708105633661472e-01 -8.088349987393428364e-01 9.765033904955309207e-01 1.253187875055719047e-01 -1.753177967260191317e-01
-1.942987188625353023e-02 -5.666284792542773674e-02 -9.663956939419460213e-01 9.900088946693649250e-01 2.966251266108745413e-02 -1.378496420676264544e-01
2.641627595661395420e-02 -2.199837099460780765e-01 -9.411535223223431723e-01 8.927833296339282576e-01 3.647753327386015210e-01 -2.643423593622463152e-01
1.810105112908068359e-02 1.393569889220913072e-01 -7.348465447452885435e-01 9.792871285954174443e-01 -1.956325991204307946e-01 -5.219775788984622189e-02
9.448742899482574786e-03 2.224461839960261145e-01 -7.978149666213869562e-01 7.102655765704485313e-01 5.503945249217024466e-02 -7.017787895116313068e-01
8.947809073502274724e-03 -1.646274318842326778e-01 -9.633661094001959579e-01 6.490458597703087085e-01 -5.413856796106256697e-01 5.344539435981005004e-01
-2.422734836083346652e-02 1.361458495585084472e-01 -8.759855961298418370e-01 9.275082972774965073e-01 2.044927355623130660e-01 -3.129074616937742581e-01
-4.651128313366660605e-02 4.059936087014209827e-02 -9.832402490735570044e-01 9.578269034721169639e-01 7.427950195985572046e-02 -2.775791392983474326e-01
-3.773784092876122931e-02 -1.153206025941724833e-02 -9.884878492089546054e-01 8.710156131550169656e-01 4.450127438525103840e-01 -2.080756099331435849e-01
-1.843730210972071779e-02 8.536102252753687003e-02 -8.709760765696177298e-01 8.815477586786484299e-01 1.347654402771966131e-01 -4.524509092438034896e-01
6.223438886722622819e-03 -1.381680158236139044e-01 -9.453025383559890971e-01 7.952375833370912694e-01 5.968864668828652853e-01 -1.064130241101763352e-01
5.558394230356706288e-03 -1.083782490025422818e-01 -9.216435815051431391e-01 9.002207503308088388e-01 8.045533983293565172e-02 -4.279363725674672492e-01
-1.292204713368870321e-02 -7.379473331048838625e-02 -9.548320525985094509e-01 8.907915229548509783e-01 1.166239002392725904e-01 -4.391916762926605378e-01
7.903373269078920599e-03 -1.762649059257442030e-01 -9.755605562527811525e-01 9.112640448216482447e-01 3.258544739237512755e-01 -2.518267309861368930e-01
1.042525931950300661e-02 1.135025819766024568e-01 -7.681110353903800592e-01 9.677909650048581724e-01 -1.868351382029151408e-02 -2.510608977246205908e-01
-1.547862642519218929e-02 -2.467607724853858320e-02 -9.289352081432373787e-01 9.056623916832704513e-01 2.696799056084521751e-01 -3.271824885313310283e-01
-4.231584002077375811e-02 1.079591654753461749e-01 -9.489243770696423885e-01 9.856944642414242619e-01 -1.685344880768048781e-01 -1.596713030213283086e-03
-2.475444654092310431e-02 1.876699023550043310e-01 -8.555596810658432361e-01 9.604187518319208250e-01 1.589202676027191841e-01 -2.287797405250200922e-01
-1.342835203079662497e-02 4.934999825151858283e-02 -8.694638259374294353e-01 8.786230541835747809e-01 3.759482215554429962e-01 -2.944222535176754252e-01
2.079847893361260955e-02 5.397075483693360154e-02 -7.290526051154727627e-01 9.344333960350000856e-01 3.171583760245014760e-01 -1.620024471790398046e-01
1.194803373380614979e-02 -1.125506953999693277e-01 -8.824155659480206193e-01 9.670981988691595976e-01 1.092683888361948991e-01 -2.297422315230036316e-01
1.879458941625479843e-02 -2.079609177820012644e-01 -9.654628826364217709e-01 6.649581194441880339e-01 3.464881234791197806e-01 -6.616469448831204803e-01
-4.330962989691044401e-02 -2.468866794469950707e-02 -1.010545715472235262e+00 9.789239831251784763e-01 1.785918988409851693e-01 -9.905942121124244881e-02
-2.098320223459212985e-02 8.009493890868049637e-02 -8.801266470943611697e-01 8.999839908818515477e-01 2.955651250395193164e-01 -3.204217112131270140e-01
-2.394904782711669913e-02 -1.007705004241617186e-01 -9.998432859409790430e-01 8.678583846838867633e-01 2.373667013425003747e-01 -4.364388539390767763e-01
-2.459180035268284867e-02 3.524524300934914200e-02 -9.028267533310202486e-01 9.349289119074237764e-01 2.344228058061129105e-01 -2.663716910589219999e-01
-6.398559899462958819e-03 -2.413610596560183605e-02 -9.046955685062206820e-01 8.794191569133472663e-01 1.389430865370661350e-01 -4.553205081669075005e-01
1.103671577421907503e-02 8.649136702875630245e-02 -7.730373374403756159e-01 9.911125335301773642e-01 6.435155219342901523e-02 -1.164251846023426906e-01
-7.546724062663922976e-03 -1.357455828099428038e-02 -9.012140736283937859e-01 8.136060693984490388e-01 2.809069595523002727e-01 -5.090544606553294438e-01
2.466695749447135252e-02 -1.263855674797816353e-01 -8.285184853927707316e-01 9.741673767256113781e-01 1.782931035008283038e-01 -1.385983093965562907e-01
-4.378565549858210240e-03 -1.900676444355761108e-01 -1.016805300353446073e+00 8.532228658481518790e-01 3.509591075653272774e-01 -3.857958605413172593e-01
1.800388520686195884e-02 2.145915365051722090e-01 -7.870437178634850373e-01 6.311876444627185778e-01 5.109625634074450168e-02 -7.739453017271734625e-01
2.485808391315704607e-02 -3.327838616262166621e-02 -7.758671029032535582e-01 9.598092137253654288e-01 2.781208190621370369e-01 3.761759232196527913e-02
4.865941065350968923e-03 -1.010441814602559829e-02 -8.653408582035604368e-01 9.898364517378456240e-01 -1.420423057037931702e-01 -6.912467098057843359e-03
1.117625969898148643e-02 1.454219385605149129e-01 -7.998480584236312696e-01 7.999252078090954843e-01 1.299540977455155288e-01 -5.858597053823758616e-01
6.145678563044181496e-03 -2.715773221912810061e-03 -8.585107360772781249e-01 9.606054815716512651e-01 2.621505976319962739e-01 -9.227227609462625157e-02
1.440996537844078072e-02 1.850673347360640847e-02 -8.015180582684702237e-01 9.969185350985905192e-01 2.370152017936764249e-02 -7.477748536870493234e-02
1.454674335763442121e-02 -3.656097395202449057e-02 -8.397528246956210696e-01 9.099347888797733042e-01 2.248411442583178599e-01 -3.485184928162813334e-01
2.878870448628447626e-02 -2.336263330742175681e-01 -9.445114459612673485e-01 9.865689433500387517e-01 7.880323415262299735e-02 -1.430795942972815094e-01
-2.341758105963234401e-02 -1.586971297026086580e-01 -1.032586701864000922e+00 9.504440138070547883e-01 -2.533835900836471922e-01 -1.801469758132424881e-01
-5.781820830131124446e-03 1.400357361164394909e-01 -8.317881740806402080e-01 8.826379614385033712e-01 3.271495535839757940e-02 -4.689135962238472066e-01
9.740295538115145701e-03 -1.750872669017561334e-01 -9.666255446576985655e-01 9.134703232192730171e-01 1.524532953641139221e-01 -3.772664328167816272e-01
1.840776520924749388e-02 -2.231730342244541143e-01 -1.009384386556301694e+00 6.584119285102260077e-01 6.247975617940381143e-01 -4.196686063689661905e-01
3.015073192333822538e-02 2.031481298179724226e-01 -7.569670771931013009e-01 9.449833781635251784e-01 -2.024598006711492149e-01 -2.569366538796098443e-01
-2.304744743611870234e-02 -8.430379780167213122e-02 -9.895972770952471409e-01 9.488345215190117088e-01 -2.936431151439682918e-01 1.161325609049170260e-01
1.567658909500725672e-02 -8.680050308203524079e-02 -8.357860250199690144e-01 9.779475840049030033e-01 1.008044284711840793e-01 -1.829125204560116957e-01
-1.788278086110932016e-02 -8.099539226050267438e-02 -9.713988153565672468e-01 7.507131479399177243e-01 3.190135609887349011e-01 -5.784981567951843484e-01
2.147242227022962829e-02 -1.203881009273795322e-01 -8.369693333764285370e-01 9.186516785711006383e-01 3.292470734898416684e-01 -2.183471045305474534e-01
-1.248202220698401733e-03 9.872550411780561808e-02 -8.297106969992047443e-01 8.816154036898203872e-01 1.498253365480756993e-01 -4.475563076363584525e-01
2.240910394305957454e-02 -1.504027405259178163e-01 -8.673794094786595466e-01 7.070796303168566110e-01 5.321487568774946331e-01 -4.656781044291373184e-01
2.559354509553570314e-02 -2.379536507875312512e-01 -9.999141530278017331e-01 9.060912767979129034e-01 3.855977383335308373e-01 1.741062385521947864e-01
1.977687238622627061e-02 1.652486474454902543e-01 -7.450639141361156126e-01 9.427791012941459936e-01 -5.575395979703225147e-02 -3.287233823900476692e-01
1.690955564225587668e-02 5.877831714423324694e-02 -7.502182394769076890e-01 9.711055271568137526e-01 1.901399815875410015e-01 1.442249719271125885e-01
-6.465492976385346473e-03 1.013762599121396518e-01 -8.407505804409299843e-01 8.825569923098308678e-01 -2.057929033399978277e-02 -4.697548809053228580e-01
3.064449796114349089e-02 -2.175679565817757732e-01 -8.894351830512711166e-01 9.899831847266288287e-01 1.139909505443078563e-01 -8.330280398958167520e-02
1.038108697824421554e-03 2.235737022531439633e-01 -8.065461092525342268e-01 5.835297722058714331e-01 2.275803107791736501e-01 -7.795512857375186400e-01
1.894387797518811214e-02 -4.137131692477555300e-02 -8.143234332329959413e-01 9.927069181360365091e-01 -1.118153401405853203e-01 -4.505889916650799437e-02
2.034040981274112467e-02 1.646149286015587687e-01 -7.419999511414183679e-01 9.783120982544910582e-01 -2.001281611947593464e-01 -5.342431567834415862e-02
5.245221993658532623e-03 1.974313094742224384e-01 -8.047185231533395822e-01 7.855818472183523360e-01 8.885522135242310271e-02 -6.123446014781326330e-01
2.952695840836973978e-02 -8.986757381345507334e-02 -7.832848564950261050e-01 9.581442876347895377e-01 1.382457138754374648e-01 -2.506943291498480719e-01
4.138193344778082899e-03 1.481138170870160142e-01 -8.111581946775182628e-01 8.689822254710031224e-01 2.409419997907428709e-02 -4.942563720811612438e-01
-3.068740090847826146e-02 -4.749644031327765817e-03 -9.597117776476487006e-01 9.330589266627915546e-01 2.601111524663373697e-01 -2.484818458912303463e-01
-2.389606906952881568e-02 -6.785175793380356091e-02 -9.829039607810757806e-01 9.242970938174798201e-01 2.402254606442916912e-02 -3.809170508669085797e-01
1.809724775234723693e-02 1.428255615444285476e-01 -7.351598079608351322e-01 9.994211423571615072e-01 -2.580751862730818955e-02 -2.216646547844674381e-02
3.167325872224314304e-02 -1.508236431476774886e-01 -8.124415689108162031e-01 9.208562218641401786e-01 2.948090403412636507e-01 -2.551694503406793935e-01
-3.721600375867482186e-02 -5.579658524548093690e-02 -1.010027296832704202e+00 9.248186153757447237e-01 3.056680251547080340e-01 -2.264455498624580176e-01
-4.433714268327293428e-02 2.009179884407273284e-02 -9.846488020367174521e-01 9.578594583618308400e-01 2.506202823181788095e-02 -2.861418402954863938e-01
1.024078751990783846e-02 3.084672556586721959e-02 -8.165905225963567826e-01 9.537198806176405697e-01 2.391689182316135143e-01 -1.822542670737588022e-01
1.719237896605241636e-02 -2.166681435457458449e-01 -9.967721556636485181e-01 9.097038921386991772e-01 3.651992369595713495e-01 -1.976571424255869902e-01
-7.076935819902331268e-03 1.808938444163671888e-01 -8.261604989856377035e-01 7.699439073644664955e-01 2.700161339182267639e-01 -5.781675076793854062e-01
-3.382890931742820861e-03 1.435720662653731106e-01 -8.261991275876559016e-01 9.218946119084976409e-01 1.938166065333889534e-02 -3.869556509012360146e-01
1.010023025142823584e-02 -1.922319593024746920e-01 -9.857434917760857784e-01 8.166201394559801097e-01 5.034098523969861017e-01 -2.823297156597939228e-01
4.546153546334862593e-03 2.094434465762011477e-01 -8.049924555659743186e-01 7.167937769777770196e-01 -7.688045079619790223e-02 -6.930339656692924288e-01
2.677312389696045666e-02 -2.107716567540371122e-01 -9.213448507450436864e-01 8.906112663484886394e-01 3.967962062220963815e-01 -2.221808789722751754e-01
-2.783719303183563795e-03 2.213181210096672735e-01 -8.129077879494560621e-01 7.621858751246012309e-01 -5.056423043755049473e-01 -4.042258672900271299e-01
-3.909984480386190925e-02 -5.962733188449925031e-02 -1.022472957187234632e+00 9.390885098868997360e-01 2.548522010190344966e-01 -2.305713040127836955e-01
-5.201773258297667790e-03 -2.324937293345550812e-02 -9.009382976208893945e-01 8.671755263321102580e-01 2.931821250974158688e-01 -4.025553974970286220e-01
8.719445351212570458e-03 -1.741352125821390706e-01 -9.721224609000267414e-01 7.350206595652113428e-01 4.738138745520512618e-01 -4.850206617189566916e-01
8.879926357497309325e-03 1.921115181199477551e-01 -7.999855896154278723e-01 8.190081602730550081e-01 -1.715309527677782164e-01 -5.475424783966299502e-01
-4.020570643887493717e-02 1.815750068696577249e-02 -9.709323972622168064e-01 9.580016569138340987e-01 2.617453768410928361e-01 -1.171417220833912282e-01
-3.460694060115870017e-03 9.235939364750078706e-02 -8.366732131696831276e-01 7.445843773376989994e-01 2.543640588730986529e-01 -6.171653186774461730e-01
-7.768977026125748093e-03 -1.240114429259958073e-01 -9.666408101676406961e-01 8.134196680914761446e-01 2.712144864442155301e-01 -5.145786100342234493e-01
-9.729783103038187886e-03 1.495095243609213809e-02 -8.875663124018404737e-01 9.688269129666040591e-01 2.128786743151484528e-01 -1.267165448290992202e-01
2.540989037160803696e-02 -2.346418850172732884e-01 -9.676743142724121283e-01 9.358519000569974766e-01 3.094943803340585164e-01 -1.685065271772717144e-01
3.033357252502470042e-02 -1.833836728718624964e-01 -8.532443248680239289e-01 9.153974286572283958e-01 -1.175277217548944819e-01 -3.850127039811008234e-01
2.556283631289866382e-02 6.629413116692177421e-03 -7.405156444342565480e-01 8.832228394908617775e-01 1.732056800402002050e-01 -4.357949153024978650e-01
3.583784094750543103e-02 2.282369609833049540e-01 -7.682644861297404093e-01 5.773506483270307577e-01 -3.873908075397692885e-01 -7.187451503210595671e-01
4.312832441811154452e-03 -9.587832512316563430e-03 -8.743756476280885037e-01 8.960174683045228905e-01 1.523608636846723319e-01 -4.170597843360273060e-01
1.572605438240395198e-02 -1.772738567675272714e-01 -9.406575061905256829e-01 9.096580151368446332e-01 2.819107957962703748e-01 -3.050386839579689036e-01
1.517431233481205538e-02 9.863267065437580916e-02 -7.393323880490354494e-01 9.926504413493233425e-01 -7.520347481357585878e-03 -1.207830520509946270e-01
-3.502124284138006106e-04 6.289834517296191696e-02 -8.427800192551260228e-01 8.588148132216658626e-01 8.234519737641528281e-02 -5.056247472781316699e-01
-3.084586699992691167e-02 4.138242525249202775e-02 -9.152991611437457653e-01 9.641891836102993718e-01 1.706225896042644630e-01 -2.030446998215883758e-01
-2.228117192473244926e-02 -6.182118816734197969e-02 -9.760741191910398129e-01 9.352325742744009851e-01 1.074164065130844836e-01 -3.373451461454469169e-01
2.090237659651708949e-02 -1.030002258882319333e-01 -8.195360788975639688e-01 9.683103705982789577e-01 2.136576907300524186e-01 -1.293267852524177808e-01
1.669555795006030796e-02 -6.903738873809790733e-02 -8.211176103834915141e-01 9.504258029503784844e-01 6.419162121716500552e-03 -3.108851676162489031e-01
7.408370191724637094e-03 1.077114835874229681e-01 -7.937559673226436407e-01 9.902114336984630949e-01 -7.610043053563181337e-02 -1.170044488262105831e-01
1.326387046337001475e-02 1.076727632766530107e-01 -7.531890639548738386e-01 9.885284452689278023e-01 5.796252443193412526e-03 -1.509235447231841165e-01
1.687498664105289634e-02 -1.564168533061604804e-01 -9.088208497528625918e-01 9.610752542210575511e-01 1.596111590313604722e-01 -2.255185882285425658e-01
3.026944226662415041e-02 -1.837314439902878183e-01 -8.566241091647370798e-01 8.741483070631920205e-01 4.826633179677568553e-01 5.385962074607533734e-02
2.080343009006214994e-02 1.837291864998811045e-02 -7.671575512805787200e-01 9.947987330188238220e-01 8.625051619656240454e-02 -5.418790676866453576e-02
-2.133064130972091646e-02 4.837751740657197930e-02 -8.885117087020724114e-01 8.919245360838031766e-01 1.084467694394513487e-01 -4.389873803765195204e-01
2.740929019729101968e-02 -1.489843898258326749e-01 -8.436442119004277096e-01 9.943603568671772752e-01 6.083156985277135553e-02 8.687347581527403440e-02
8.566739069363612374e-03 9.263066569317728038e-02 -7.888288307774795616e-01 9.680106378387172139e-01 1.750905919730316174e-01 -1.797183619823335965e-01
-3.313744468273290000e-02 1.784948686367133705e-02 -9.415760278308302755e-01 9.398632941296637400e-01 7.959405203189959255e-02 -3.321472192099160781e-01
1.674324915923295840e-02 8.769176083908434075e-03 -7.920209705797841560e-01 9.867297766360525468e-01 1.187979268728166643e-01 -1.106860446058414160e-01
9.341105760042724224e-04 -5.661265003136830426e-02 -9.085963027515563395e-01 9.097403431097281779e-01 2.645521813551461321e-01 -3.199760170056934472e-01
1.970829096899889138e-02 -1.922925592833474029e-01 -9.381736699313203420e-01 9.135115366024791905e-01 3.733724024238641581e-01 -1.615231302396319124e-01
5.849095195278271320e-03 -8.545714326120339155e-02 -9.001878773229240460e-01 9.899868137497142007e-01 5.738895915185018154e-02 -1.289674996623408343e-01
1.706879305874399802e-02 8.240011249181675157e-02 -7.331564575718133581e-01 9.889803545911941551e-01 1.161879571225644114e-01 -9.175084115342338476e-02
2.123623762594313222e-02 -2.017475901022644791e-01 -9.358526132113249574e-01 9.336090676545319988e-01 2.341490753385506440e-01 2.711979338257158312e-01
-1.480323598144890791e-02 1.784986083580716032e-01 -8.405645095979373815e-01 8.003459791209527330e-01 2.195160938358400038e-01 -5.579059044785045218e-01
6.747340525378468269e-03 -8.860460181425769410e-02 -8.950054976333692291e-01 9.720240074328955204e-01 1.134229170329424802e-01 -2.056807498669543377e-01
-1.607345246623030632e-02 -1.217063191990055415e-01 -9.875465028243463061e-01 5.797842966784465535e-01 -2.411838713629118891e-01 -7.782547844501036538e-01
2.974705693485720295e-02 -1.138827734698111965e-01 -7.876535408723807086e-01 9.427498783326807574e-01 3.173848827479791579e-01 -1.024182752577244560e-01
7.138642748399064673e-03 -6.357895207757706564e-03 -8.551929611105327789e-01 9.827258286417441813e-01 1.313206919311122878e-01 -1.304025367511346123e-01
8.557338709717548023e-03 -1.680279975753268540e-01 -9.618864064968681848e-01 9.395419681211121254e-01 3.350105449196156826e-01 -7.091420825031688469e-02
-1.764093220895180877e-02 2.037853613270514119e-01 -8.364246322214183849e-01 7.872354580282860947e-01 -1.739902263550837935e-01 -5.915976121959091172e-01
-1.317869186401458229e-03 -1.026726467016697564e-01 -9.385570075817443181e-01 9.461652205342292454e-01 1.531528710316021891e-01 -2.851588566855153273e-01
-5.976207745989473193e-03 -1.515817581683667759e-01 -9.875375369200111164e-01 9.361693027960629188e-01 2.881668961259566952e-01 -2.013625498434731265e-01
2.237458635962338155e-02 -1.641886052959224129e-01 -8.834028585720964388e-01 9.731337083098801077e-01 2.291091852884881153e-01 -2.279839835396665210e-02
3.109908500895908548e-02 -2.366919113531528451e-01 -9.354415800681703530e-01 5.859462901374965504e-01 -5.628224821805725142e-01 5.830075459427636053e-01
1.420882129227235384e-02 1.375014770829947712e-02 -8.071746595549610381e-01 9.872566078195694761e-01 1.547467418871068812e-01 -3.711921593894012411e-02
1.938287769749941908e-02 -1.435061757544055516e-01 -8.758185337136957793e-01 8.412534188706913829e-01 5.260665851082479971e-01 1.246861390488909205e-01
8.237604819535952055e-03 7.385621876358750004e-02 -8.034918466704795703e-01 9.625830941296380505e-01 -2.471689487216777517e-02 -2.698571140505476862e-01
1.232988220536645856e-02 -1.590402940202944315e-01 -9.351480918615698856e-01 9.031127189717569337e-01 2.463504985519048007e-01 -3.517084711727431756e-01
1.967424820878710748e-02 1.567147089832383877e-01 -7.345039047261422427e-01 9.563899142569151079e-01 -2.731216911968042393e-01 1.035513095303371989e-01
2.289349944743956922e-02 1.825459965637279414e-01 -7.645347526232707525e-01 9.329825239127349512e-01 -3.455359251429221401e-01 -1.007399350260248239e-01
-2.770745385855171578e-02 -5.478644913342668732e-02 -9.862457976031097084e-01 8.907963059262569150e-01 3.296102241917381881e-01 -3.127923295996986042e-01
2.098237778360190903e-02 -2.722524874416687966e-03 -7.744803236821168335e-01 9.740986092921540829e-01 6.432065236275053000e-02 -2.167827323721181754e-01
2.788418976689197720e-02 -1.741676135097962597e-01 -8.681775369266011566e-01 9.002842519419713696e-01 1.188034938155389936e-01 -4.187767848896427614e-01
1.288870506855625125e-02 -1.163558669421833544e-02 -8.331267525767658277e-01 8.933900620315132768e-01 -1.562913305852902113e-01 -4.212211023289413880e-01
-1.628603266306328026e-02 8.893751997457442771e-02 -8.644377857897660444e-01 9.712849210465562821e-01 -2.443320331199817438e-02 -2.366614052259035650e-01
1.559660636454187482e-02 -1.720626303729187456e-01 -9.350204070084248142e-01 9.273039579094375373e-01 -1.249024587985866630e-01 3.528551337752636186e-01
1.245523625162352037e-02 1.454937869559878860e-01 -7.826699066016181705e-01 9.450218711651856562e-01 -2.025285386407669197e-01 -2.567408305188062512e-01
-1.021628792477670064e-02 -9.923238631965554390e-02 -9.622771690572722303e-01 8.887875373564509962e-01 2.876276275643518399e-01 -3.568291766399680487e-01
2.898432312190733773e-02 -2.690703003858465822e-02 -7.483063902445362681e-01 8.159991329291678142e-01 5.709017316938016506e-01 -9.064561659487260781e-02
2.949813076349376909e-02 -1.737802457353235519e-01 -8.510753149552668928e-01 9.758864997109718553e-01 2.177363702956554847e-01 1.537571892108809644e-02
