-7.787706469162405248e-03 1.623950188338094958e-01 -6.506249699414803356e-01 2.997588128844461131e-01 -6.251922162797317606e-01 7.206103987602070493e-01
1.571310330003824682e-02 1.221029821075016175e-01 -7.041193847097746428e-01 7.591876764015448309e-01 -4.616466122379649373e-01 4.588207464895559529e-01
9.090200117414530458e-04 9.744813906260109404e-02 -7.021457069153259622e-01 9.738969959348818817e-01 -1.463351473157119553e-01 1.735242518183022498e-01
3.246001010093176736e-02 3.219309991293616696e-02 -7.868218112358364991e-01 7.793057610265753388e-01 -2.429984475872531968e-01 5.776108424371682037e-01
-8.878037524785810375e-02 -2.353633879651832739e-02 -6.937213834954458758e-01 1.740354625971683167e-01 -2.066417677361804262e-01 9.628140202476571652e-01
-5.398966080795954137e-02 5.468244697704265772e-02 -6.821651007155606905e-01 5.027954853753263675e-01 -4.644059271906822994e-01 7.290568116932676368e-01
7.405551667356970180e-02 3.940535532097573512e-02 -8.201197883759867580e-01 6.719506300021791390e-01 -1.719107137165442334e-01 7.203673072462010163e-01
-6.079674356632311372e-02 5.558202361317894635e-02 -6.780360403544883896e-01 4.912199725908734105e-01 -2.800400662719598199e-01 8.247911855798519820e-01
1.200162980332375971e-02 -3.650592128091147831e-02 -7.860702267097325890e-01 6.943670454126121827e-01 -1.764454754937012926e-01 6.976542126460364424e-01
5.064805833836136945e-02 1.217454219585925590e-01 -7.473852303888636195e-01 7.771314200699294128e-01 -1.955447124348166366e-01 5.981881153774951665e-01
3.363794477494996132e-02 2.223505769879951799e-01 -6.162742920554867831e-01 5.508686960394704180e-01 -7.209938082505671364e-01 4.203707984483674442e-01
2.203140151957963880e-02 3.375067580697641012e-02 -7.700957938558364857e-01 7.657934862061120951e-01 -3.036337568892867322e-01 5.668922985555429062e-01
-2.752901932179719832e-02 -1.991906190974981061e-01 -8.146046533972800541e-01 5.982715951882251471e-01 -3.039010907739752021e-01 7.414278288662521366e-01
5.571531780410979295e-02 2.281380281420607170e-02 -8.132657894803780874e-01 6.455472870872202007e-01 -4.315412093863315035e-01 6.301118033616832648e-01
4.342020133549916172e-02 1.491470751626349789e-01 -7.228340844908175411e-01 7.928452460090976706e-01 -2.574431599872784027e-01 5.523761718761388551e-01
2.708174425549166042e-03 -8.637747597009854186e-03 -7.602780542282925325e-01 9.178577121730846500e-01 -1.626425446102278960e-01 3.620561046123942361e-01
-5.676101617305308322e-02 1.146159963448271646e-01 -6.541538931074752927e-01 4.926313088741741120e-01 -3.991334496194595127e-01 7.733090474782953194e-01
-8.323496338777622294e-02 -1.164292681426071369e-01 -7.401112924350252698e-01 5.638574773008111496e-01 -1.448328859261289736e-01 8.130732934036598580e-01
-4.239121731736306825e-02 -4.389387755125603169e-02 -7.408244805454680115e-01 7.593433777518591166e-01 4.890480889129128483e-02 6.488497162916107008e-01
-9.490769938538742845e-04 -1.039745275223015325e-01 -8.017923023996518239e-01 9.187633535951394981e-01 -3.430249202795405128e-01 1.954681666098793125e-01
-5.290155481224974310e-02 -1.767476648989634302e-01 -7.859523001837696032e-01 5.311421426557791925e-01 -1.429812277561259837e-01 8.351313626037396576e-01
7.762671727719679116e-02 3.961023943143721776e-02 -8.220998493287070552e-01 8.287234922535923198e-01 1.549077282552671631e-01 5.377926822798935191e-01
-6.293287217812795764e-02 5.193655062564504765e-02 -6.773291828443855911e-01 5.353686759673704776e-01 -1.727030330760861154e-01 8.267732719187678159e-01
2.484264017953933396e-02 4.953438356291862271e-02 -7.681289908640175357e-01 8.635963111823266036e-01 -2.144000227978764550e-01 4.563266829109907663e-01
-3.787085932266362476e-02 -5.703308819355672188e-02 -7.518836583620929215e-01 5.949989294116665439e-01 -5.647316210314800022e-01 5.718867634472116768e-01
6.395881864084573820e-02 1.169538775696065541e-01 -7.645153151659265234e-01 7.066766713927647992e-01 -4.226177366311301142e-01 5.674524921031035563e-01
1.890659408101627234e-02 1.698525148287913789e-01 -6.647338365143889982e-01 8.839792559459840326e-01 -3.684364906913033533e-01 2.878110967010505394e-01
8.548144599791290821e-02 -1.942849665846346080e-02 -8.570187549232446411e-01 6.152775196893452980e-01 -1.733399482921165746e-01 7.690167983152340625e-01
-7.846100677917172694e-02 -1.989960961466517020e-01 -7.746508720004084969e-01 6.135515165660827552e-01 -2.309175389124517863e-01 7.551368265036980665e-01
2.135447588682812953e-02 2.104919691227556122e-01 -6.200374806774876513e-01 7.215139260741511018e-01 -6.343575066378727145e-01 -2.775035283617950932e-01
6.045737110156911009e-02 -1.137944282384055206e-01 -8.763460547654640109e-01 5.499233541716923579e-01 -4.243538279458359819e-01 7.193803814702420807e-01
-8.338754425783005686e-02 2.015425625003178928e-03 -6.864828322476074218e-01 5.840771743709843866e-01 -2.884920189948373959e-01 7.587003422663580743e-01
1.943213194053827406e-02 2.465810334131999723e-02 -7.708129889541428525e-01 7.951916410016233172e-01 -1.665498176441052025e-01 5.830363730710639292e-01
4.115531469736317081e-03 1.176611717428826046e-02 -7.537053670056826915e-01 8.418084659994957697e-01 -2.961316390627991568e-01 4.512920993298639161e-01
-2.090508103334039192e-02 -2.331724176849176919e-02 -7.464063190690751748e-01 6.067581320607776663e-01 -4.559930008410593150e-01 6.510875151330128840e-01
-5.916196113594880679e-02 9.009652781001412092e-02 -6.646904812896716752e-01 4.673984931289318356e-01 -4.325389531557581324e-01 7.710049952002415719e-01
1.723435504650332184e-02 4.568238988616558915e-02 -7.594327449681309572e-01 8.265347379309966325e-01 -8.600578717347338864e-02 5.562763086506649080e-01
-1.106345622814368379e-01 -8.420566196638161471e-02 -7.052782635070342643e-01 7.830550168294286850e-01 -3.220246329395985430e-01 5.320948941668016685e-01
-4.357290920081205443e-03 -3.039784794515119730e-03 -7.471321749301804704e-01 1.471516029322276764e-01 -3.895867529547977215e-01 9.091581642797985641e-01
-9.815970123261987673e-03 -1.418194382137171472e-01 -8.098510927571811457e-01 4.515745892642623049e-01 -9.639682887184458648e-02 8.870107337085978427e-01
1.796914402799812405e-02 -1.814203451283855351e-01 -8.537528470558467530e-01 5.213447261600775429e-01 -1.755947925431227546e-02 8.531654828890999909e-01
-8.582419580498658329e-02 2.015819065784419176e-02 -6.756530344185439629e-01 6.439557444192794966e-01 -1.374506490267099479e-01 7.526143224198883486e-01
-1.032739493722188290e-01 -7.330345014312371343e-02 -7.067725724633814322e-01 5.413383871288192095e-01 -3.042157956508727557e-01 7.838402262561388056e-01
-6.478485474851252042e-03 -2.341542224963456265e-01 -8.384535451337558065e-01 3.876563726353515205e-01 -1.699546504649940976e-02 9.216472703388507437e-01
7.993102688602207739e-02 2.144626480838058430e-02 -8.340279687916957174e-01 6.237350869755853289e-01 -3.539455313807626236e-01 6.969053752778409105e-01
-3.132581188434363506e-02 1.859782877832996395e-01 -6.203962129314435359e-01 5.093527084845791975e-02 -5.498785265627623708e-01 8.336901128169623698e-01
2.415041402837653228e-02 1.613416644082047990e-01 -6.834465704394939722e-01 7.817910209465878113e-01 -4.297514093966220972e-01 4.517925693157300859e-01
3.249438336159343743e-02 -1.595352248682328500e-01 -8.652982834040648941e-01 5.469384585589521786e-01 -6.240849384336961680e-01 5.580110323007663187e-01
-2.602096754991882477e-02 1.182987800495216846e-01 -6.744193751611035070e-01 4.181170108235758298e-01 -4.046168105194857811e-01 8.133040033745045916e-01
4.195727898376491911e-03 -1.097936628187502067e-01 -8.098561916056065124e-01 6.233033731249887355e-01 -2.163797448352852426e-01 7.514470780274735695e-01
-3.001458502105665629e-02 -1.388819671437156907e-02 -7.333502803708159545e-01 5.759256277796289680e-01 -3.959832400077052950e-01 7.151971370885374935e-01
-9.723392435195522820e-02 -3.253087264718580729e-02 -6.910931142851913789e-01 7.484737892290197481e-01 -3.246586255422140299e-01 5.782592530156293043e-01
6.117020225625680735e-02 -7.924379169624076735e-02 -8.590327220727753676e-01 5.598675225371851916e-01 -1.810783694070142724e-01 8.085536354138614934e-01
1.274631611568225256e-02 8.880852099765558505e-02 -7.250236667378947564e-01 7.418074168577499794e-01 -8.797652595406335596e-02 6.648171832736323728e-01
1.553135737325380371e-02 -1.479014023089109675e-01 -8.396188349778465065e-01 7.639336740497426614e-01 -3.674912094334057966e-01 5.304295925398908595e-01
-2.503396411216326709e-02 -1.170613341042292116e-01 -7.884050613542255004e-01 6.467404288714471150e-01 -2.382363620133806648e-01 7.245483099682216155e-01
2.764794960071092003e-02 1.784675986089929445e-01 -6.718640132214173111e-01 8.402475906008406437e-01 -4.337078128364581509e-01 3.253944061813261457e-01
2.269898667409042323e-02 -2.124702822841987582e-01 -8.650495168246236100e-01 6.730946980761612908e-01 -9.516593991917765560e-02 7.334077796840311469e-01
-1.115581468966175133e-02 -9.283454928718051780e-02 -7.887176220834096751e-01 9.027556318736017493e-01 -2.421997229641427787e-02 4.294713751374529820e-01
2.057398238733827679e-04 1.783266883943062653e-01 -6.428216432528787161e-01 4.782551626438394377e-01 -6.735370761935181028e-01 5.635776844386243267e-01
-8.782421676780536451e-03 1.872041286403598459e-01 -6.295839545967636397e-01 3.912758614978373850e-01 -5.983421091238214640e-01 6.992066365949209938e-01
5.614506938490489846e-02 -1.316410656070382268e-01 -8.805551259572736988e-01 6.109321102634157619e-01 -5.253340906097823115e-01 5.922719391396850108e-01
3.929333945820216722e-02 -8.571435589360217044e-02 -8.383606331264052969e-01 6.758061124645515783e-01 -2.178917019118952192e-01 7.041372768100603308e-01
3.266138972017976899e-02 2.131162046286314560e-01 -6.336833565826990311e-01 7.859472035372353504e-01 -5.397445775218546737e-01 3.016003718296019764e-01
-3.077672537843433032e-02 1.142825394113546889e-01 -6.736811269045615003e-01 4.845988286117798860e-01 -5.610966709552156484e-01 6.710696693720148431e-01
6.130152346500245680e-02 -1.630450714814667135e-02 -8.323124395408523224e-01 4.796021207686546606e-01 -6.184874466742148469e-01 6.224589015032390149e-01
7.921978556566625085e-02 -5.614403129594773556e-02 -8.689215123432926235e-01 6.081944469730501401e-01 -2.515402224592935276e-01 7.528791610585822136e-01
-1.286848418118382957e-02 -1.686946370164761067e-01 -8.151391384591476497e-01 4.178193209883177550e-01 -4.886536589426609400e-01 7.659272919871769059e-01
-6.649653001448482814e-02 -1.552809707441208942e-01 -7.699965622322848535e-01 7.928368120819727638e-01 -3.715014591827607293e-01 4.831112244947059486e-01
5.858503374246590290e-02 -1.435431509568190767e-01 -8.887447435865694079e-01 -1.817940715834256982e-01 -2.414367800108159767e-01 9.532361705239309480e-01
8.156111544861066598e-02 -1.274278211792239345e-02 -8.523191164596800595e-01 6.867494656590452662e-01 -2.199111617822290254e-01 6.928306086920569262e-01
-4.203185098107196753e-03 1.525600997177898599e-01 -6.622755726115607811e-01 4.606628569015929764e-01 -4.345390251194410913e-01 7.739286581588177283e-01
-2.587282580909440553e-03 3.393788823763515400e-02 -7.335832598179592434e-01 9.214580846636840628e-01 -1.353263226242211736e-01 3.641452795423002486e-01
7.057656067379335096e-02 -9.324439429911382526e-02 -8.778008258692223675e-01 5.671256755682378969e-01 -3.379667224090722177e-01 7.510971725784478803e-01
6.250232770524963288e-02 1.141658561953051571e-01 -7.644036166243655117e-01 6.459431837014446565e-01 -4.004230460672467129e-01 6.499375259268147520e-01
7.442638107340698861e-02 -9.080316071818311796e-02 -8.788102541963501713e-01 -5.363623212052984202e-02 -1.347222121193498157e-01 9.894306848716493130e-01
-1.571080886747028282e-02 -2.534679545166778070e-01 -8.361862926651331129e-01 6.674509504024439543e-01 -2.396604689605809080e-01 7.050333952547698235e-01
-6.116613067468794351e-02 3.726075179102493473e-02 -6.857287421747024769e-01 5.824039504997698957e-01 -5.677357717744015986e-01 5.817918286552210549e-01
-1.963855490166149884e-03 -1.209486376077427566e-01 -8.078124465246800945e-01 7.963765591442708569e-01 -5.413456473900064569e-01 2.696836407671522884e-01
3.808726829245591156e-04 -3.363910025104726448e-02 -7.685523444321281650e-01 9.206514777419613216e-01 -3.838809145179592486e-01 7.096689369274908343e-02
-3.323119712641438295e-02 -2.268851592966390496e-01 -8.190223018622234674e-01 6.772323739098292661e-01 -7.316428967833919772e-02 7.321224613712662421e-01
4.914070407074655478e-02 1.657354056607550086e-01 -7.179868300020647576e-01 8.511159574330455779e-01 -7.081730265303169680e-02 5.201793312385439849e-01
4.296514036082327986e-02 1.251213298343241756e-02 -8.050450713443738637e-01 8.298587251736089243e-01 -2.767185519158550377e-01 4.845217634728337663e-01
-4.668481745545075001e-02 -1.106131511544751894e-01 -7.695873498799905565e-01 6.584906803825227861e-01 -1.993472777577533217e-01 7.257070253896783507e-01
-6.944863838009260326e-02 -1.844298541551700477e-01 -7.760314831570637173e-01 5.912580857675022727e-01 1.528091420335508654e-01 7.918732487750290705e-01
-3.685172068999485739e-02 -2.203753228940990849e-01 -8.125765526364260305e-01 4.277637532431610712e-01 -4.474900008077005442e-02 9.027821987628550371e-01
-5.150814003358173548e-02 3.640738854626304755e-03 -7.086906932465132369e-01 5.524604098798150398e-01 -3.957178762572598485e-01 7.336176510457409483e-01
-3.155557255625929952e-02 6.347684027864043677e-02 -6.970671378688356734e-01 4.661203239351697225e-01 -3.518622942758625749e-01 8.117418120815870219e-01
4.184966641020068656e-02 1.963954998422501319e-02 -8.015131759304110481e-01 6.867831972257303352e-01 -3.084802289106013951e-01 6.581555958735489931e-01
5.535350590748307903e-02 1.147914355606332593e-01 -7.567767859748766313e-01 6.341716620030913854e-01 -2.695356960721156936e-01 7.246908386720207762e-01
-7.568202256544447060e-02 -4.977164252809532230e-02 -7.197973203728273983e-01 5.931725133133224359e-01 -3.697898716794220109e-01 7.151236398364082536e-01
1.405918278482970463e-02 -4.748400434410902926e-02 -7.923835899394514604e-01 7.270041317324498209e-01 -1.700801693648128776e-01 6.652350926046997071e-01
3.941066571131984081e-02 1.881412802486505109e-01 -6.833060131607219256e-01 9.447064846207298139e-01 -1.613425068677440399e-01 2.854789894075827617e-01
6.513541673561003276e-02 8.757441535764309837e-02 -7.819723943041417824e-01 6.952342541851773694e-01 -3.835144308158678905e-01 6.079194133794059152e-01
-5.294987654881654765e-02 -2.193861487132761912e-01 -8.006950512172104073e-01 5.973776375883458334e-01 -4.272937897975190857e-01 6.786456920292357475e-01
6.634318798406448753e-03 -2.394894387452217721e-01 -8.493850262892237435e-01 6.328223528256146091e-01 -1.779803859446274783e-01 7.535640994522330161e-01
8.549831596143381979e-03 -2.496102026847792921e-01 -8.519219186447591907e-01 5.966262946072139473e-01 9.656794332663219682e-03 8.024610961950008337e-01
-4.863742250415319102e-02 -2.022545264743985383e-01 -7.974980784388666644e-01 6.303219031116186200e-01 -3.144769780105569068e-01 7.097876645582783528e-01
3.126601209347295435e-02 1.885652924912802897e-01 -6.680818501244080165e-01 7.927867162762679554e-01 -5.395603181432314654e-01 2.834852475545547312e-01
4.249976281875920275e-02 1.102042166153331393e-01 -7.448497763235146785e-01 7.230016225212388958e-01 -4.635422376337572925e-01 5.122472525657363329e-01
-4.681413344511366897e-02 7.624817849202507325e-02 -6.793544332588431489e-01 5.453206496164516581e-01 -3.983909997536376757e-01 7.375025426513375226e-01
-7.640478316316848262e-02 -1.649940561928573968e-01 -7.637996672237952200e-01 5.788110482411995550e-01 -3.032038149792609660e-01 7.569975013274125031e-01
4.669306970713781035e-02 4.407484066801480027e-02 -7.952989659917977239e-01 4.790573442689631811e-01 -4.509326753806152666e-01 7.531027706601858274e-01
3.228242122974411127e-02 9.128602538587028692e-02 -7.481484817958010680e-01 6.921196897677305282e-01 -4.262212065442645414e-01 5.824996292941063691e-01
1.705803810828735237e-02 2.035932864111995588e-01 -6.248664821129941149e-01 3.335577399361816520e-01 -7.706414359684164994e-01 5.430018520200493581e-01
1.963059165225157499e-02 9.336231929481163261e-02 -7.315246460972889553e-01 6.623102558500407744e-01 -4.586288974333231350e-01 5.924564620585616170e-01
3.573732770378318380e-02 -2.306703813694574445e-01 -8.813393584781920032e-01 8.909621902118551873e-01 1.342796429294115246e-01 4.337687783919491058e-01
8.407227927686531516e-03 4.979821756191316062e-02 -7.450119105007814158e-01 7.786432586612608286e-01 -1.986363987371768669e-01 5.951959818732802665e-01
5.387295810787758044e-02 -1.035411313490401525e-01 -8.633360546022953441e-01 6.813555565073312614e-01 -4.138067348570979020e-01 6.037537509643250422e-01
-2.477361425498372793e-02 -1.109415903151306226e-01 -7.851738413726261356e-01 5.955819984887625873e-01 -2.093357835479945084e-01 7.755389176582168087e-01
-1.949323006837358138e-02 -5.833387220291321590e-02 -7.660948720421129066e-01 4.531652786917356734e-01 -4.006878946817351017e-01 7.962979600901662902e-01
-6.025056993059041410e-02 1.150791045096930393e-01 -6.524291389994221202e-01 4.320517630727909175e-01 -3.081479400863818552e-01 8.475707174308304559e-01
-3.036360458981841523e-02 -1.678629641259658523e-01 -8.013617941248026844e-01 3.540037642722768108e-01 -5.965610349742907215e-02 9.333394260377958496e-01
4.322060654655545536e-02 -1.230080648989310271e-01 -8.605070746279299687e-01 6.468386211072196801e-01 -3.054898169410888986e-01 6.987673217812998550e-01
-9.774917475805657008e-02 -1.466069671055801327e-01 -7.404016843195849740e-01 6.520770835276142874e-01 -3.244354862868731315e-01 6.852277667870155797e-01
-7.762648016492762482e-03 -1.529209521794849536e-01 -8.159649282867237341e-01 5.959299557368991085e-01 -2.264792858109015983e-01 7.704379410140711482e-01
1.300089462187756055e-02 -1.496806982849382406e-01 -8.373747044079465907e-01 8.044165457929870477e-01 -1.085852219794024021e-01 5.840575916997935435e-01
-4.171789902908393938e-02 -1.752881352949674787e-01 -7.948779877876644973e-01 5.223438294012718863e-01 -2.103590612588807363e-01 8.263812614239854915e-01
-5.132455082152310999e-02 -1.545600894487351162e-01 -7.814882695474565377e-01 7.101710812914383553e-01 -2.701986057114292294e-01 6.501151811555770932e-01
-7.212537246911472633e-02 -1.921630265584748642e-01 -7.791612275614205885e-01 5.001748064276364536e-01 -3.195047570561970751e-01 8.048241256532613352e-01
-6.262325508862344459e-02 3.995132324978618865e-02 -6.836201836502109330e-01 5.715018243997265213e-01 -4.415147421238635461e-01 6.917010894852503311e-01
2.460927673877877017e-02 -3.372014960264724508e-03 -7.864897101788573819e-01 7.420629785034399406e-01 -2.305045584469024578e-01 6.294522892720318952e-01
-3.827412386527646870e-02 -8.587568260692396427e-02 -7.641327048760566676e-01 6.732203065290628397e-01 -2.892000618714900551e-01 6.805422419588964544e-01
3.256331318335365516e-02 2.198570947257419139e-01 -6.201370276263561410e-01 8.842915177249005554e-01 -4.490527234948040181e-01 1.279850116290619233e-01
-1.271914856014376427e-02 -1.941077221221517435e-01 -8.242199807506107589e-01 7.378642434067823608e-01 -7.773356475490175721e-02 6.704579414193199138e-01
-4.403852576777329136e-02 -2.313722874710039679e-01 -8.129100427952551389e-01 5.133131147472209665e-01 -3.156752595181741006e-01 7.980343205380576732e-01
4.319165611388854631e-02 2.257175121190179712e-01 -6.353491178174116571e-01 -3.956572293276105490e-01 -9.171617382398916662e-01 4.764139785500590141e-02
1.929501455516956232e-02 -7.168328677825924755e-02 -8.087449307279910293e-01 7.098047384181062069e-01 -4.265416258105197977e-01 5.605706688457058329e-01
3.702767527726845420e-02 -5.633634242245427488e-04 -8.019809484841203817e-01 8.145410933123760078e-01 -1.415965741520355259e-01 5.625595235118555637e-01
-3.038549952778005561e-02 -1.026259177463455761e-02 -7.313866391137693324e-01 5.405893862479390632e-01 -4.038596730559891324e-01 7.380111651968324082e-01
5.984095697263156627e-02 1.003031101203949171e-01 -7.692072466930061081e-01 5.765557913773199372e-01 -4.764989467275900226e-01 6.637259774912909194e-01
-6.395113685617205383e-03 1.691473214322959939e-01 -6.467105502070824574e-01 8.548758057515426501e-02 -7.319636342836919329e-01 6.759594008915150720e-01
-9.929062965623192127e-02 -6.802576738447214943e-02 -7.065953464101437653e-01 6.014256263028480154e-01 -2.973222154202695422e-01 7.415434688835237376e-01
1.124024115235585514e-02 6.295923954978174808e-02 -7.409303208766513382e-01 7.358298770830783431e-01 -4.786822545950792929e-01 4.789756686175963285e-01
-7.124898987657300731e-02 -5.203406174018600922e-02 -7.251575117631285927e-01 6.394222126622748359e-01 -3.583048942880397991e-01 6.802623293137119997e-01
-9.106294580260262950e-02 -1.747950578659359377e-01 -7.564061373735483373e-01 7.594685493473711801e-01 -3.676991597092292841e-01 5.366608337687092112e-01
5.134753451528526608e-02 1.488635200272550030e-01 -7.330040873335116336e-01 6.258340645443154493e-01 -4.140073307237968625e-01 6.610065459304453883e-01
3.045684796398876598e-02 -2.244591607820812518e-01 -8.765384681569668990e-01 7.858371263793537675e-01 1.084423554635837589e-01 6.088515963232333794e-01
-9.896017330150473634e-02 1.834726148327582920e-02 -6.672961683588850557e-01 4.975550174929005975e-01 -4.702092116676885869e-01 7.289323026389282756e-01
-1.165334506975174329e-02 -1.031853159152040789e-01 -7.928524335152821179e-01 5.748874814350548590e-01 -3.282341257980762594e-01 7.495110021546261825e-01
-1.045010289719697921e-01 -6.299920491136935807e-02 -7.002443355493209731e-01 6.251388730854312570e-01 -2.929160293629359257e-01 7.234649881644094060e-01
-6.296281103876169571e-02 -1.339903657000325876e-01 -7.650587182988930479e-01 9.221514749603849648e-01 -1.687337549993705443e-01 3.480884616763370021e-01
-1.287950963259555659e-02 -1.071141573903041100e-01 -7.935594371758736276e-01 5.131604958672162375e-01 -3.747373292775123543e-01 7.721646453492091444e-01
7.596687666946236317e-02 5.336108375296861467e-02 -8.145877509067472877e-01 5.928718878583100205e-01 -3.492600861401123358e-01 7.256171971616471872e-01
-8.828210430595469227e-02 -1.820032514688977310e-01 -7.647030131575101031e-01 2.280488970747893696e-01 6.799713853731523261e-02 9.712724075632485077e-01
-2.800686515741884243e-03 -4.251617519856666638e-02 -7.684203572430505780e-01 9.023200387809672263e-01 -5.136430473469886376e-02 4.279956259279229513e-01
-9.408694773701901937e-02 -3.401288332840929352e-02 -6.942978565958487502e-01 3.732657494636933415e-01 -4.485118600631461949e-01 8.121020820438794585e-01
7.781299197086245789e-02 8.150161315726142663e-02 -7.975999093878312074e-01 6.942699830933055649e-01 -3.444789546827096149e-01 6.319204383119195745e-01
7.391445819474261325e-02 1.538578152612889681e-02 -8.306900391750560164e-01 7.511906667055086029e-01 -1.310531104074430797e-01 6.469448697586742680e-01
8.583264312728922096e-02 -2.181101813537338410e-02 -8.596067800146030002e-01 6.177004685897234948e-01 -2.375057606369360974e-01 7.496913663423812046e-01
-1.821951929405694892e-02 2.892361746155953928e-02 -7.224707033185981953e-01 7.262628561007707928e-01 -2.570004085509657865e-01 6.375680778183515640e-01
-2.310517208191209190e-02 -2.245712323754203432e-01 -8.246906412797325725e-01 5.798994451526111593e-01 -2.431398748228198181e-01 7.775600522035819306e-01
-4.693260024742700043e-02 -1.878685256020172500e-01 -7.938878663299454574e-01 5.892939037517609391e-01 -2.441532836334799339e-01 7.701440573632959419e-01
-1.046498167862723594e-01 -6.612046716607260233e-02 -7.037899680356874965e-01 7.561998383605066376e-01 -4.576970145587439531e-01 4.676272525501016242e-01
-1.031631477287283105e-01 -1.004913650065756420e-01 -7.207741052648354296e-01 2.179171010812739617e-01 -2.998681459579975450e-01 9.287578974609295157e-01
5.387502272883229861e-04 6.188320134938974509e-02 -7.234208651801738998e-01 9.245896828834808678e-01 -2.435649463898624800e-01 2.929334996130136815e-01
1.597400440340347727e-02 -1.873698515361214567e-01 -8.527299041562784732e-01 4.907768624685219794e-01 -4.867822621786901394e-01 7.226209936707832515e-01
-1.055192761495116621e-01 -1.033221282427717463e-01 -7.177050916411681358e-01 4.045959526564033570e-01 -1.386762969986950755e-01 9.039197971860042369e-01
4.024752009627638460e-02 -1.769541844361829930e-01 -8.819887581501146823e-01 9.428347433045516368e-01 -2.466567204894065113e-01 2.241051294710834085e-01
1.550151540347884105e-02 1.783337773568931806e-01 -6.499003904183097147e-01 4.443853734987597282e-01 -7.839095096765920090e-01 4.335983400094757245e-01
5.360516148735398195e-02 1.044274641185075070e-01 -7.605928953191458675e-01 6.743930632734563835e-01 -2.456396753705369640e-01 6.963154070480568336e-01
-2.896940013892887033e-03 -2.566481032128010153e-01 -8.446245438208855871e-01 1.389924465927840636e-01 -5.069629679769187963e-02 9.889949369340330643e-01
8.284841299654295554e-03 3.569071291494210069e-02 -7.514835167151343587e-01 7.413295782655620059e-01 -3.690569048434697019e-01 5.605599498501137035e-01
-2.770442091926389114e-02 -1.526486515774374553e-01 -7.987920568456362558e-01 6.742798011039667916e-01 -3.585157675557553714e-01 6.456107141591613807e-01
2.739971994633596739e-02 -9.477506881456299048e-02 -8.286682900238200311e-01 7.473930743538624855e-01 -2.091274025164968353e-01 6.306102773699338027e-01
1.190527930154367496e-02 -6.212783814140921540e-02 -7.963062568621730453e-01 6.157133210291169112e-01 -5.055899624294454275e-01 6.043805888658960734e-01
3.249557207909169187e-02 2.180882815709674072e-01 -6.232563890431761511e-01 8.371937532045217178e-01 -5.240585883172653725e-01 1.564263903765643338e-01
-2.509654804522538571e-02 -1.657223814846934817e-01 -8.051980290509720417e-01 5.939485198765571683e-01 -2.792251967371141008e-01 7.544921770592235566e-01
9.062065459571409798e-03 2.143071736974728192e-01 -6.079415538844223921e-01 2.183112186592266746e-01 -7.082381238909853938e-01 6.713709642775000930e-01
-5.224024146354373094e-02 -2.534932715922028762e-02 -7.220637671008273140e-01 7.094029632114516870e-01 -1.714931517001820616e-01 6.836208998463622066e-01
5.851526527273016864e-02 2.390937193958608473e-02 -8.149848235838841326e-01 5.934712627018325914e-01 -3.886305473515076492e-01 7.048107249555441989e-01
-5.301994066572099373e-02 1.526875355264560030e-01 -6.330316270436946446e-01 7.524742152563593800e-01 -2.875594178121650968e-01 5.925302832782934903e-01
-8.126447308977469142e-02 -1.259189730439190802e-01 -7.451634123425411316e-01 4.771823750941578957e-01 -6.827664773971343914e-02 8.761479785247040519e-01
-6.296005870767434898e-02 -8.557210343762332305e-02 -7.468844753206291820e-01 4.014299585779010915e-01 -2.980943797641722459e-01 8.660217832763549284e-01
4.872923804091685435e-02 -4.824664241953506572e-02 -8.300231256976817740e-01 8.963128271399617431e-01 -5.183768953612639258e-02 4.403818455022018852e-01
-3.518544816945375769e-02 1.738850170932949857e-01 -6.276512236139766276e-01 3.453073744731992023e-01 -6.647340878702628908e-01 6.624887995715214029e-01
-3.540817677503536182e-02 1.583430185357692366e-01 -6.398318259782239670e-01 5.043129200528149170e-01 -4.880615729991961138e-01 7.123653414009930573e-01
8.813490160261826245e-02 9.593235002320096849e-02 -7.989252230097160234e-01 5.811213026076184063e-01 -3.918161013286994288e-01 7.132868808517391912e-01
3.034738011463297344e-02 1.424164528880677650e-03 -7.936588343527527512e-01 9.379816333865429456e-01 2.618281993464003921e-01 2.272365495613209718e-01
-1.893795243537100409e-02 4.759725322163992772e-02 -7.141699036436215398e-01 6.693788228042001354e-01 -2.709888768937674941e-01 6.917347903504044160e-01
-2.300437839321902225e-02 -2.161308660470891430e-01 -8.226959585841514544e-01 4.714870092872638363e-01 -8.490428633171012707e-02 8.777763167435396197e-01
5.087355805089305294e-02 -9.861481774608200912e-02 -8.570584926041187046e-01 5.258374996307690896e-01 -2.442623454014335449e-01 8.147581423962891867e-01
-4.641076114883771475e-02 -9.205640235926680626e-02 -7.604008132978353762e-01 7.441107541720899388e-01 -1.798680912631448192e-01 6.433868628366580245e-01
1.152986940674306272e-02 1.379968285737581957e-01 -6.838233701707835399e-01 7.946139935807196020e-01 -3.757203649966361358e-01 4.768886751984099392e-01
3.364948048971221073e-02 -5.466267458973247777e-03 -7.989555655537640133e-01 7.313714127969139778e-01 -2.420600854087509302e-01 6.375756987176927071e-01
4.283439242695012000e-02 1.251955813433248410e-01 -7.358244506162757714e-01 7.139207044123502266e-01 -3.715686618986490664e-01 5.935098628550506961e-01
2.696008691817975908e-03 -2.029842789587086860e-01 -8.393668955077079330e-01 1.759559062328568124e-01 2.828391412391537477e-02 9.839916357691281812e-01
-8.315043600407728570e-04 1.995958908927971398e-01 -6.206416769560443303e-01 2.941204298307109055e-01 -8.386744310756226728e-01 4.583867051040839136e-01
1.640931026756218061e-02 -9.880137109156816866e-02 -8.176113155262884069e-01 6.709841693302023291e-01 -2.622921963465911152e-02 7.410076062670444275e-01
-8.641818892493831339e-02 -7.500841570498745225e-02 -7.247327221536548070e-01 7.517219809553592480e-01 -2.084151504564460133e-01 6.256813793048083827e-01
1.605401097746441894e-02 1.330194065006216897e-02 -7.705480008366932809e-01 8.190256989645455787e-01 -3.264339844819482139e-01 4.718450574191455082e-01
6.737890570058635564e-02 1.563022749156253166e-01 -7.491653254914635296e-01 8.467025113147733650e-01 -2.452364876925494375e-01 4.721799682721390945e-01
5.413276535521945737e-02 -2.110473821356408791e-02 -8.264180605379922717e-01 5.885754250239884078e-01 -4.463785472584729797e-01 6.740364690469252684e-01
-1.171489282198150648e-02 1.592672197184782368e-01 -6.508406238000956634e-01 4.045802784243093253e-01 -5.828097033078564193e-01 7.047323236806415370e-01
3.319044314195244288e-02 2.299661909558575468e-01 -6.059913391236803060e-01 6.167434853165717490e-01 -7.126314988978788012e-01 3.343408741062482981e-01
-4.780385940887810908e-02 5.439244997589251507e-02 -6.870311632003849311e-01 6.165028527617556486e-01 -4.312155892628602993e-01 6.587695713322688773e-01
-1.755514336047691443e-02 1.054311885739889210e-01 -6.863302604721459588e-01 2.634805585948635787e-01 -3.668019786421598538e-01 8.922075451971559490e-01
2.359768670186804598e-02 5.046300341988176064e-02 -7.651693782941403343e-01 7.518076235174022681e-01 -3.545103353241341737e-01 5.559745671966352942e-01
-3.088576043251670469e-02 -1.622401874986383330e-01 -7.991382790780577894e-01 5.702826938552265634e-01 -2.752490345613116673e-01 7.739609925973606197e-01
-6.199366966372941989e-02 6.367560816355724573e-02 -6.735329545412797048e-01 6.192551929934224653e-01 -2.034248034955014606e-01 7.583807455846277579e-01
-5.078073129383634671e-02 1.948083883712058845e-02 -7.023025461542173886e-01 6.492817343218953985e-01 -3.474153921708471593e-01 6.765617301907699277e-01
2.711970495684675603e-02 1.991017352536564033e-01 -6.452807545768461939e-01 6.455552785299323304e-01 -5.154718635702774110e-01 5.635132121162084173e-01
-3.008279257348135671e-02 -1.740028193410994850e-01 -8.028965439005442128e-01 8.341101219090397700e-01 -3.179284304600386579e-01 4.507569385312921173e-01
-8.781888358712029719e-02 2.239034767545652546e-02 -6.742283272823869078e-01 1.416509384723784459e-01 -3.123877174667802348e-01 9.393342991745746717e-01
-5.783419178928956433e-02 8.748972345919693583e-02 -6.670644933460068149e-01 5.569787875473581895e-01 -5.008845918759307070e-01 6.624871740973984346e-01
-4.641642724731468578e-02 -1.548603633689096815e-01 -7.846093761144166123e-01 4.111578168913936904e-01 -2.245273020355172677e-01 8.834799037045237835e-01
1.046320414994732738e-02 1.304128926780599718e-01 -6.899718974788645598e-01 5.972862508813601146e-01 -5.994380002825192566e-01 5.328444597867030286e-01
-8.913847350685809301e-02 -1.662360166267354278e-02 -6.892195002994578878e-01 7.802554963765463425e-01 -3.336139723328226392e-01 5.290586714519514011e-01
8.600083731750204907e-02 8.096218864868517939e-02 -8.051264654379092223e-01 7.783234090970380104e-01 -3.663314943013600278e-01 5.099155882442673038e-01
1.473373466009949076e-02 -8.117451089763687289e-02 -8.093309884016415268e-01 7.327713320298011590e-01 -4.574095235350186250e-01 5.038082003448716151e-01
6.229892765709814373e-02 1.493801869675075861e-02 -8.220843027228452726e-01 6.169829649894548185e-01 -1.469638657824497152e-01 7.731323580520343963e-01
3.066808769729468739e-02 1.504358070063081809e-01 -7.041210155382287006e-01 7.937980542212956792e-01 -3.880186358783989098e-01 4.683227384246377301e-01
1.383049673230741681e-03 -1.517132768860402769e-01 -8.221989538354426141e-01 8.280576164708483011e-01 -2.143479436489692178e-02 5.602331063005399070e-01
5.299487732563825867e-03 -5.226656418057249592e-02 -7.838881101733816692e-01 6.489840354645860510e-01 -1.726004638101266142e-01 7.409647775735563879e-01
-1.027580605166229233e-01 -9.378704375224329592e-02 -7.160647592957983809e-01 3.741721649155678175e-01 -2.673193478253840238e-01 8.879952462038342986e-01
3.872668463729800337e-02 2.407289615298776296e-03 -8.039261470009995136e-01 7.660537282493977695e-01 5.926419139977152917e-02 6.400386246570817228e-01
8.986758969435501565e-02 1.387543901177429144e-02 -8.461902323564199913e-01 4.177039595900325364e-01 -3.857392756996928518e-01 8.226351641678615323e-01
3.702195937516763319e-02 7.687837808685901719e-02 -7.618963243708608557e-01 6.640707984716789358e-01 -4.317472230573661807e-01 6.104132288863336475e-01
4.860419460554263327e-02 -7.521663850605189716e-02 -8.425235272727819025e-01 6.215364584745574072e-01 -3.375864355862309152e-01 7.069143012381967628e-01
-9.130101660084061210e-02 -1.023613182606879501e-01 -7.297367809806151184e-01 7.037573337804223783e-01 -3.103630228704489236e-01 6.390621324918167590e-01
-1.926716101344171789e-02 -2.323275295304844668e-01 -8.299877964130782937e-01 5.043273291722482066e-01 -3.613787268306647982e-01 7.842572032466355036e-01
3.997458258671385961e-02 2.277376172271476373e-01 -6.239648217555164855e-01 -3.454461223310102413e-01 -9.342559981569827920e-01 -8.850257891252995279e-02
-5.650111403835490070e-02 -1.281397147538285430e-01 -7.674015079671036021e-01 7.672316888907038113e-01 -3.406847665753720000e-01 5.434053969049280619e-01
8.025452760160371735e-02 9.327310954710651969e-02 -7.925117066540342536e-01 6.455884920628690571e-01 -4.480543895047793268e-01 6.184357387485706070e-01
-7.027750404985719235e-02 7.602098763712254736e-02 -6.630577078863353346e-01 5.871996053615876621e-01 -2.871682152102877361e-01 7.567899574096722537e-01
2.742569310332642479e-02 -1.458222741493655217e-01 -8.539837881299143785e-01 8.334309592516226939e-01 -3.149418954023266992e-01 4.540973889831449450e-01
-1.020951582759379618e-02 -2.316293695177090162e-01 -8.355062053678156131e-01 2.979119944691177024e-01 -2.012920243928762454e-01 9.331291252914839518e-01
-8.791799727524493221e-03 -2.503987151185981253e-01 -8.387870223360337496e-01 8.361838242051454761e-01 1.707668062835583367e-01 5.211864445756163589e-01
2.763194943814486701e-02 -9.772255983137104196e-02 -8.301793753498257766e-01 6.442598983797447332e-01 -3.552222878586647759e-01 6.773081348604759189e-01
4.603896340957652072e-02 9.008511543099402552e-02 -7.629520491131736026e-01 5.590791881321857115e-01 -4.448014113857091112e-01 6.997014833675411216e-01
-4.973645317189725329e-02 -1.168248642313719082e-01 -7.688601346140278014e-01 6.179515386982649128e-01 -4.101170704436376546e-01 6.707755841942780739e-01
1.378508627302784534e-02 2.072593435573963916e-01 -6.199931979292057083e-01 4.807877883060887592e-01 -7.352137190446028647e-01 4.778115632174919636e-01
1.993736143513550815e-02 -2.620689392840478971e-01 -8.571967662485918682e-01 5.126649161698924040e-01 1.777206627157412455e-01 8.399940772245925169e-01
3.116765412681909639e-02 -7.949840951615935736e-02 -8.260910362527197348e-01 6.526061287557407553e-01 -2.669876431261417604e-01 7.091000205389880184e-01
2.094803305011037203e-02 -5.262653815359736448e-02 -8.009121920637324310e-01 6.420879191148609610e-01 -2.590037742983554714e-01 7.215539820595228138e-01
4.815450836981855333e-04 -2.338421603030305662e-01 -8.433850579637038880e-01 3.469548357434393271e-01 -2.973515743382846854e-01 8.894967021820747721e-01
-1.181998232475785400e-02 1.484963956314544753e-01 -6.620615374479470461e-01 5.826983317380320937e-01 -5.653352868669142550e-01 5.838310265931554444e-01
-1.237392580399779458e-02 6.482964339455181413e-02 -7.108332615082233463e-01 5.473329499602054282e-01 -3.667243759603835973e-01 7.522897539939822353e-01
-1.744890741374226575e-02 1.821246822989725511e-01 -6.306020711911313192e-01 4.634759275187866900e-01 -5.220079805307531462e-01 7.160291424745259814e-01
4.469696523944025751e-02 -7.755192700557198004e-02 -8.394623872634716655e-01 7.656010700949734682e-01 -4.523508565665969039e-01 4.574207079187576075e-01
4.933440325582770514e-02 9.139942007280794922e-02 -7.655528878572114282e-01 5.892500519125394298e-01 -4.137724932900942454e-01 6.939572754266420951e-01
-3.602790835355926258e-02 5.765952352739419501e-02 -6.961578809185825500e-01 5.944590359978521033e-01 -3.614577219173429889e-01 7.183082693292826004e-01
-7.845754691632597644e-02 -8.078557309384816476e-02 -7.327240479296041054e-01 7.524742152563593800e-01 -2.875594178121650968e-01 5.925302832782934903e-01
5.450322343167799538e-02 -4.310136848937196757e-02 -8.348938390106770413e-01 6.443573096575578862e-01 -3.914753207656986866e-01 6.569252093825197480e-01
7.003531764201607890e-02 -1.026164027574351378e-01 -8.806121235537354153e-01 2.341937239096774093e-01 -2.863949962751432543e-01 9.290485486721767883e-01
-7.467194763374460087e-02 -8.912248483805494670e-02 -7.382963379008901095e-01 6.711183241793521326e-01 -2.135166688030403215e-01 7.099371994014335163e-01
4.872553822518319901e-03 1.205255367555975454e-01 -6.901283689739045046e-01 9.214960369815122787e-01 -2.856750703636997679e-01 2.631250805226721945e-01
4.113116992070314087e-02 -2.475214969579873220e-02 -8.145637624402243260e-01 7.168114621058176983e-01 -2.368075393240523241e-01 6.558227787390485952e-01
-5.039789744319934234e-02 -6.388250029862563295e-02 -7.471418859036030868e-01 4.763439788563630373e-01 -2.929913378333163232e-01 8.290069298636362216e-01
-6.168327844776374386e-02 -1.100104024450519191e-01 -7.571016464725368600e-01 7.139119659642314542e-01 -5.571302364187730172e-01 4.241881711234392616e-01
-2.094093020104106223e-02 9.337059019995673503e-02 -6.897213105745119144e-01 5.677671446452989823e-01 -1.605596830254392149e-01 8.073791288162548430e-01
-3.497152152730235997e-02 -4.386329295835282582e-02 -7.456768244859224293e-01 4.642971488404361580e-01 -5.992011738336464610e-01 6.522163067993793639e-01
8.520136237396612119e-03 1.911221399713046998e-01 -6.335428382892128729e-01 4.017427596687203062e-01 -5.060607121664322250e-01 7.632203552417637926e-01
6.282987581668400545e-02 -6.523333552142990266e-02 -8.541113934043419453e-01 6.423825759806440772e-01 -3.330366919017573313e-01 6.902399495274132990e-01
3.415375518612802364e-02 1.867158537220128256e-01 -6.749291718376584370e-01 8.815877081003281601e-01 -1.009190629338055784e-01 4.611056881702647603e-01
-6.262224823455268818e-02 8.933741764993817502e-02 -6.629568083723472727e-01 5.362349937536694533e-01 -3.067461416812395369e-01 7.863579566823718503e-01
-1.837545690282199953e-02 1.709137521577517443e-02 -7.278121959695547094e-01 5.711186978193085739e-01 -5.492161938622089901e-01 6.100696725790307751e-01
-4.409148984753544914e-02 8.319049377708309656e-02 -6.775687161263536096e-01 5.361234936820882258e-01 -2.121058276988281588e-01 8.170573525636416479e-01
2.627668050445744474e-02 -5.571758535454185120e-04 -7.880791465052682243e-01 8.304338018745127670e-01 -1.979592581615229330e-01 5.207608211188529124e-01
3.411851787938201264e-02 -1.810415256919590266e-01 -8.745962575836772057e-01 6.515813530372353002e-01 -1.209613987104456723e-01 7.488725394859784279e-01
-1.366061052645207866e-03 6.735252310995769320e-02 -7.153023804753133597e-01 8.819333573228115286e-01 -3.642508972648803023e-01 2.991903024548816514e-01
6.594382500638021338e-02 1.360783073193092829e-01 -7.571469419716440052e-01 7.436651383525545445e-01 -2.194484539992646033e-01 6.315097291700330073e-01
3.100076964569515193e-04 -4.710870574538715549e-02 -7.761658874341385017e-01 8.690443505175037275e-01 -2.758894366710351598e-02 4.939643378027846476e-01
-1.078217708273484093e-01 -1.268092225449433397e-01 -7.263113926452642310e-01 5.732341636589447509e-01 -3.967238042547703847e-01 7.169468716382356721e-01
3.578471208220188049e-02 2.628850063381266491e-02 -7.932148655821126271e-01 4.682314328854080276e-01 -4.160462415328228247e-01 7.795286076626627425e-01
2.915391295504028008e-02 4.030684090637630390e-02 -7.775395010192875933e-01 8.017165522409269718e-01 -2.307500458315764613e-01 5.513664717877267973e-01
-2.170127501211725415e-02 6.876011440427916288e-02 -7.021740986154918485e-01 3.567947965343289951e-01 -4.345953954109601503e-01 8.269367058328090936e-01
-3.328630235337955157e-02 -2.067535786427788513e-01 -8.114087983396199855e-01 2.254186865580347088e-01 -7.436419003455524424e-01 6.294308062058180386e-01
1.183988620287095873e-02 5.365843068236326313e-02 -7.486923411412481633e-01 5.421187960212181522e-01 -6.081743350468415965e-01 5.798544551789155399e-01
-7.916509838007616817e-02 -1.881808202561694454e-01 -7.735323874339669059e-01 5.500284220333537810e-01 -1.211745749858181009e-01 8.263083306687069030e-01
-1.104839962210552376e-02 -1.460053955868026998e-01 -8.110647133331188030e-01 4.517421574855864930e-01 -8.697675527540256468e-02 8.878986807018186544e-01
3.217821249307897119e-02 -1.848924164934516723e-01 -8.745137391246896597e-01 6.345940753712580040e-01 -1.783448273633364833e-01 7.519863576265459759e-01
-5.161208658348494238e-02 -9.634064208270398666e-03 -7.139684817944338402e-01 6.434595067046605665e-01 -3.342146545128589219e-01 6.886656866290385981e-01
-3.668928255072565620e-02 -1.066682821042169160e-01 -7.757789997302679819e-01 6.472820235532773525e-01 -2.143723346290898890e-01 7.314851222892011506e-01
1.326043237967502661e-02 -7.184382070119639530e-02 -8.022961319011623349e-01 6.605537932740229712e-01 -3.956557641095921896e-01 6.380636351635735615e-01
-7.521990011670723342e-02 6.703658570613198198e-02 -6.638519515056430231e-01 6.143885049585666724e-01 -2.731284296968570224e-01 7.402213357274337602e-01
-6.516198750842602805e-02 -1.766803076416365581e-01 -7.774305536190035948e-01 8.201694516226492038e-01 -8.044643187549833929e-02 5.664366180107919257e-01
-7.765203915534100998e-02 -1.709000704199231391e-01 -7.646044772724528427e-01 4.999651632935008250e-01 -3.610656677123116332e-01 7.871889348132160569e-01
-9.698354157580937884e-02 -2.316977101774426312e-02 -6.885433218208396600e-01 7.136422275364633361e-01 -5.004959341807194706e-01 4.901209962298732625e-01
7.402597127352041062e-02 1.017582309412756875e-01 -7.821060900892143897e-01 7.006072092733597323e-01 -1.987905348196307709e-01 6.852969149064657151e-01
3.044182164681219147e-02 1.921034132233942482e-01 -6.614868568901853818e-01 8.168030597092661438e-01 -5.023259683818622756e-01 2.837276566336198735e-01
-1.049074676302465432e-02 -2.046693716947509400e-01 -8.298929640825392084e-01 3.378161097037020721e-01 -3.952049274926975886e-01 8.542208972567622016e-01
1.660676058956190096e-02 -4.696078348406888640e-03 -7.772844013570834321e-01 6.953439709088941045e-01 -3.581281363229975589e-01 6.230898812326093328e-01
3.366305878168502491e-02 -2.047959034579153181e-01 -8.803668911573687694e-01 7.693276675299530742e-01 -3.599832832850404785e-01 5.277754974686149625e-01
-5.036768961233480807e-02 -1.781126716953306821e-01 -7.882126386586202349e-01 8.641287713867320530e-01 -1.743392401065259056e-01 4.721094108580511928e-01
-4.775602738417102089e-02 -6.125838209126414913e-02 -7.478736638688712191e-01 6.194612077738224087e-01 -3.505666091657358430e-01 7.024036336761330102e-01
4.861285550267382266e-02 -1.567713614009356438e-01 -8.825843915371154313e-01 7.977744516408118436e-01 -4.607501330388336785e-02 6.011929951839498631e-01
2.777306506463719099e-02 1.337349351513352769e-01 -7.124704153607557267e-01 7.491957142226705058e-01 -3.339516063665671775e-01 5.719983447489791484e-01
3.276323954999666582e-02 4.025512392006064255e-02 -7.830176095879204379e-01 6.496593539891482028e-01 -4.194860824683357414e-01 6.340143140259303367e-01
7.983950886767027938e-03 -3.168830352843863413e-02 -7.786727034550361415e-01 7.012659638370043469e-01 -2.676304955126473373e-01 6.607571156146653246e-01
8.430946074340626983e-02 1.252521091331571246e-01 -7.799404623591408292e-01 -2.696408690049165169e-01 -4.682514307272902521e-01 8.414477995598531601e-01
6.390128344501264102e-02 1.006972057831260620e-01 -7.731615877488328126e-01 7.524742152563593800e-01 -2.875594178121650968e-01 5.925302832782934903e-01
3.448853619684358329e-02 -1.289820614182257408e-01 -8.551572427523278508e-01 7.270411516393974205e-01 -1.631774325797628045e-01 6.669215016173459798e-01
2.605053182561707301e-02 -1.834373770334336295e-01 -8.651767169869734042e-01 7.524742152563593800e-01 -2.875594178121650968e-01 5.925302832782934903e-01
-1.227272402751146060e-02 1.246731568333332291e-01 -6.784446367352591212e-01 4.257205523952623527e-01 -5.429678689218452314e-01 7.238424584028919639e-01
-1.945582685098076400e-02 -1.534498310326361525e-01 -8.055648497171058464e-01 6.054640692392216916e-01 -2.602883500182744392e-01 7.521058673518290494e-01
5.372711025917992905e-02 2.730021381032447791e-02 -8.095588788412700909e-01 4.980901788173162648e-01 -3.363984559153243015e-01 7.992135212967304003e-01
8.599166783735599784e-02 2.316743854933425023e-02 -8.386625758920935869e-01 6.373837665065529290e-01 -2.792921273343501598e-01 7.181488994651271662e-01
-8.243006345583415995e-02 -6.828892151533048904e-02 -7.254100966686538587e-01 6.756333578976372323e-01 -4.483411616108221587e-01 5.852433412704683979e-01
-3.564734999663113357e-02 1.837992303177724274e-01 -6.208668951329312513e-01 1.882884908952568992e-01 -6.668204420812292588e-01 7.210394872813696843e-01
-5.085993319765010762e-02 -1.914632902765996403e-01 -7.917057621902273690e-01 6.589418558987800156e-02 -4.356589481015712972e-01 8.976966287362779795e-01
3.501354189643442801e-03 -2.539291453179773599e-03 -7.584169413797908765e-01 7.834154494736722540e-01 -2.653386918651984283e-01 5.620103309773133438e-01
2.776934336612683907e-02 -4.674640129048281828e-02 -8.069006186304917838e-01 7.323671418184926063e-01 -2.602916671361993894e-01 6.291952142253387503e-01
1.033798795289849783e-02 1.798102393520553677e-01 -6.466108234677745426e-01 5.393076953861030143e-01 -5.569479438683319072e-01 6.316297946726135981e-01
-2.264386688803408584e-02 1.895571474255746403e-01 -6.207281138113927010e-01 7.935045743356904380e-01 -5.396293323561249244e-02 6.061670498673972229e-01
7.484370074829423125e-02 1.418461463418962953e-01 -7.636203596530282134e-01 7.386089302777546495e-01 -2.622707642101030912e-01 6.210240690622219617e-01
4.212634997380502316e-02 -2.720565616870909698e-02 -8.162750333970506533e-01 7.980226317558500870e-01 -5.156420736059690035e-02 6.004173646096022665e-01
-8.154145018139938306e-02 -4.194073020231998267e-02 -7.085236808573536216e-01 8.360415098462655736e-01 -5.476309375750292308e-01 -3.368901934861461001e-02
3.691081474621531449e-03 9.335170451597044061e-02 -7.085436112208641779e-01 8.052571400120324130e-01 -2.497471198592145503e-01 5.377613918660106851e-01
-7.036960508272280257e-02 3.099076977818936499e-02 -6.832618922324531496e-01 7.201446877067583241e-01 -3.000565419933834410e-01 6.255858856901330700e-01
-2.980275625751160895e-02 2.906248386912337403e-02 -7.138840945009333749e-01 6.095814531401226866e-01 -2.145100470408483062e-01 7.631486694649406433e-01
4.868757015483107103e-02 1.292262480383668879e-02 -8.106731018333640515e-01 6.982377847950181904e-01 -2.976207389125771208e-01 6.510651976981086664e-01
-5.591356275282118038e-02 -1.889727092434668743e-01 -7.878871659552383333e-01 4.002917620184347491e-01 -3.131713597776937807e-01 8.612143778846048647e-01
