4.372941846862463122e-02 1.499539180283271655e-01 -6.512974313373685042e-01 1.377078882181154984e-01 1.185913978922476519e-01 -9.833476586988295631e-01
7.791547407986708883e-03 -1.448268993152405093e-01 -7.875037620228166890e-01 -3.102138131603624505e-01 2.993369734248017000e-01 -9.023107926127156286e-01
-4.075966757381446065e-02 1.088123031847324090e-01 -6.363967401592450779e-01 -5.411407529367686653e-01 -1.635236943403900120e-02 -8.407730285427333916e-01
6.455550043231046697e-02 -1.057046042844272948e-01 -7.858641566633032260e-01 -5.210613318608141586e-01 2.853146509489721816e-01 -8.044194418295099736e-01
8.566610476055575019e-02 -1.102888167291792842e-01 -7.993683075495479073e-01 -4.408081120415329734e-01 7.060452696764530911e-01 -5.542456905794432842e-01
-1.598240497337600347e-02 1.247408716205467144e-01 -6.457382780886057327e-01 -5.462866339952795469e-01 3.182194896871027440e-02 -8.369935944091450031e-01
1.112039717315899262e-01 -1.152286872444882870e-01 -8.118812485466112561e-01 2.093582506341604699e-01 5.824224345820685489e-01 -7.854637041817400522e-01
4.112988245518791469e-02 -1.424811638716686757e-01 -8.003942245398956157e-01 -2.567256672596499589e-01 6.401353838508179184e-01 -7.240984892348926172e-01
1.025044134191699791e-01 -3.875488519671014404e-02 -7.609564681736448177e-01 2.473969771826109443e-01 4.277112052504161710e-01 -8.694008629994238735e-01
1.806376760124162040e-02 5.852905617015116690e-02 -6.874340833136051154e-01 1.282262009314594220e-01 -1.725102670633813298e-02 -9.915948988736591474e-01
-6.258111345846718854e-02 4.102816508365438042e-02 -6.508540680084864416e-01 -3.410251760187615888e-01 2.557386516366652041e-01 -9.045991219211042544e-01
1.789745050759164111e-02 1.992874252786101807e-01 -6.351753242125255383e-01 -2.390225433645343234e-01 4.238997736210580736e-01 -8.736001406178715012e-01
-5.219559571986664287e-02 -1.646846932950859488e-01 -7.601846437139504475e-01 -4.499256437660258401e-01 6.668666121871810182e-01 -5.940166972667679790e-01
3.837423342118622543e-02 2.615537662797286222e-02 -7.117576888341331509e-01 -3.713705818970262640e-01 3.555516186697510461e-01 -8.577102875463160636e-01
4.997888253329053204e-02 -1.210151108153560279e-01 -7.907520794491066374e-01 -2.425076980750369982e-01 5.499418613114481769e-01 -7.992208490471494065e-01
-8.962369557973208500e-02 -8.584431232910118281e-02 -7.001612407110229253e-01 -2.736604193933475093e-01 1.441379938353178625e-01 -9.509648855718001448e-01
1.911779718901046241e-02 -1.796097638378431061e-01 -8.152136367951386964e-01 -2.673484849593577017e-01 5.254538073314894975e-01 -8.077271098278043793e-01
-4.487341024495557912e-02 -1.316366537762363176e-01 -7.492782023257027468e-01 -3.882269968592775844e-01 5.392586176090180539e-01 -7.473151559041455450e-01
-8.164379849370008435e-02 1.184414205996708186e-01 -6.063385320551126778e-01 -5.390072657502987807e-01 3.441801759330386790e-01 -7.687725111911125619e-01
-9.135589237965686948e-02 5.994493980475974065e-02 -6.305557774579050312e-01 -5.716992176518053137e-01 2.077845865760575006e-01 -7.937163032959134723e-01
6.424013691204187755e-03 -7.762633645888177003e-02 -7.505110666910124184e-01 -1.308517526526463137e-01 4.319414109717366612e-01 -8.923589167568596325e-01
2.420127165633873326e-02 5.404795434489517020e-02 -6.917510388443679492e-01 -5.794654275944843141e-02 2.925229798661966862e-01 -9.545011809486817489e-01
4.834370577406051778e-02 3.369051297363909181e-02 -7.112535094346266185e-01 1.246294495433455940e-01 6.347975611674754326e-01 -7.625611822289067865e-01
-1.009902529752317729e-01 -1.194044338243019920e-01 -7.123673304731034106e-01 -1.736172406679530045e-01 5.622600013199934299e-01 -8.085299899561467774e-01
9.040706669340257615e-03 -8.366922229195990213e-02 -7.536245923486104559e-01 -4.149529529802810646e-01 2.983374320698706783e-01 -8.595398905454590954e-01
4.711894749261802233e-03 1.300231207064766470e-01 -6.523745420167650355e-01 -3.456944870853413954e-01 4.719935277815448527e-01 -8.109977998312539738e-01
-7.370955399228587557e-02 1.443412595449386771e-01 -6.002157681364435060e-01 9.379307601114155180e-01 2.126304920015062994e-01 -2.739966479868314875e-01
3.831199045511077261e-02 1.074722563066832920e-02 -7.192095153126371043e-01 -8.150165754671533092e-02 5.166956133544071683e-01 -8.522811290633219850e-01
-7.238871320384612784e-02 1.488852642372280044e-01 -6.006815228667951034e-01 5.823330570986536836e-01 -6.095311991034296772e-01 -5.379218604311143404e-01
1.202868655518223584e-01 4.156498722925412725e-02 -7.303759464846230065e-01 4.066051107872621917e-01 5.417573859078713694e-01 -7.356434045758502016e-01
1.200133590435926156e-01 -6.624415308756895215e-02 -7.850783587764790239e-01 -3.275728130043795705e-01 6.013601777199066856e-01 -7.287400008460356293e-01
-7.168699384137969428e-03 -1.187651709285688223e-01 -7.625476515637990005e-01 -2.568754420915502767e-01 1.363127919710810654e-01 -9.567830631837707100e-01
-2.642689454032054724e-03 1.878237596996893966e-01 -6.363564007445863258e-01 2.118688788773470319e-02 1.662120915681614131e-01 -9.858623922222460312e-01
1.009887977850455060e-01 -2.661681264516525813e-02 -7.543362204210950495e-01 -4.664502191872005876e-01 3.499474298399035121e-01 -8.123798307249252559e-01
-5.994986541716294109e-02 8.498474582475781802e-02 -6.352956874601916049e-01 -6.090345127792951008e-01 2.891783246503817906e-01 -7.385478040019378687e-01
-3.711517439856905354e-03 -1.682233793648017506e-01 -7.967090236362281974e-01 -6.660747228796140007e-01 4.895321869462595510e-01 -5.627634507361487515e-01
-2.304114390117686234e-02 2.286662950214308487e-01 -6.240234860192915844e-01 -5.320262796984576159e-01 -3.104065977362480827e-02 -8.461586820159896494e-01
-4.610290056158335148e-02 -5.325040477643382120e-02 -7.062905570911038877e-01 -2.815856449820582919e-01 5.308660294684645065e-01 -7.993064389184073582e-01
-1.232390809191107918e-02 -1.146106025004402090e-01 -7.586571552038179345e-01 -2.540587442027751330e-01 3.840612101856745730e-01 -8.876661204106102154e-01
-5.544320971404613496e-02 -1.496592159139156775e-01 -7.508629431543000221e-01 -4.532651816681090851e-01 3.872319376632593624e-01 -8.028711612338144121e-01
-6.155012249076433073e-02 -8.464834670674901973e-03 -6.685242327193023915e-01 8.057208019737610583e-02 4.702569221869842275e-01 -8.788438809185009637e-01
3.300959917001632105e-02 4.777953809512124755e-02 -6.982266191914143771e-01 -3.341689000003135734e-01 5.287963530859343120e-01 -7.801958492811893464e-01
-1.368762695333712587e-02 7.219121717225460144e-02 -6.649919451124920444e-01 -3.606804229708344134e-01 3.366402515813911034e-01 -8.698177817800679668e-01
4.356242155643535313e-02 4.900701064738053475e-02 -7.014878280177654357e-01 -2.162686464723057589e-01 5.099942470566914965e-01 -8.325465395532641866e-01
-6.326217309233512359e-03 2.331981707513987589e-01 -6.303147232254822097e-01 -5.734000882655145848e-01 -1.251022534256326091e-01 -8.096676879837363394e-01
-8.117634865384608378e-02 -1.060807250420289782e-01 -7.157486342676036006e-01 -3.305866188496831559e-01 4.619317883322444085e-01 -8.230015251296370904e-01
4.767451511564249622e-02 4.463518878349090335e-02 -7.052365316986399790e-01 -3.786369745757742766e-01 5.087401944491082295e-01 -7.731865596581384281e-01
7.822525407852132587e-03 -7.350072293175979876e-02 -7.480301009726292305e-01 -2.137348213121960661e-01 5.471303014831918610e-01 -8.092996103777357897e-01
3.892855692041673893e-02 7.188039514039074040e-02 -6.868798492836880598e-01 -1.160583916444758029e-01 3.141595158393110099e-01 -9.422495679683313696e-01
8.836139296805246846e-02 -9.444799322287142753e-04 -7.403778666199215541e-01 -4.502070540256883913e-01 1.904739701196834500e-01 -8.723722113939420542e-01
-8.543609858871013818e-02 1.059192316596283684e-01 -6.112185975781775360e-01 -6.959140322814674207e-01 4.677079278870640011e-01 -5.449338986201333057e-01
6.597619237947957224e-03 1.875011099553418603e-01 -6.373968688598788956e-01 -5.978750523511480730e-02 2.285976564344583406e-01 -9.716833669927844586e-01
1.757516908760705168e-02 -2.016704942047207183e-01 -8.313781937436512948e-01 -1.705748479371852755e-01 5.043378924753275649e-01 -8.464912943821402136e-01
1.137712943082855171e-01 -2.720978136911317985e-03 -7.502020651965066733e-01 -2.105821432769742763e-01 5.401794736160902000e-01 -8.147768389054266258e-01
9.986275235408081929e-02 -1.037357527077776981e-01 -7.997761471250984799e-01 -4.335538711181928240e-01 5.185097173247152913e-01 -7.370065901186185764e-01
9.104337094985721912e-02 -5.368006222047509018e-02 -7.665228053053324553e-01 -2.584737095826436515e-01 5.541628419013535645e-01 -7.912615788160085595e-01
-6.722834047045612993e-02 6.494428558377701721e-02 -6.398863368893973336e-01 -3.107024631936448622e-01 3.892330386919430341e-01 -8.671572065986871136e-01
-6.003254322872214610e-02 -5.590385261143561435e-02 -6.997457747463670108e-01 -5.101897241786944592e-01 3.796601428115303767e-01 -7.717283338732587872e-01
1.402972009641507457e-02 3.148496521416425942e-02 -6.997692079339068449e-01 -1.466472794692263992e-01 5.698235417348817000e-01 -8.085763456279129180e-01
-9.860865059209758532e-02 -1.152251089047408306e-01 -7.110312626045348638e-01 -3.301218994480347724e-01 4.059994027716458675e-01 -8.521643130605086602e-01
6.538947420024303347e-02 -1.640959507585499910e-01 -8.250999710303529300e-01 -3.817669960109526528e-01 -1.523715052785052371e-01 -9.116122449462467081e-01
8.562403270912118114e-02 1.622553984381549033e-02 -7.320915085337323935e-01 -3.470551294505536677e-01 5.118460664873013544e-01 -7.858538931274289263e-01
1.010911643543446203e-01 -1.279100567374335529e-01 -8.150009966285125529e-01 -5.427801909982933326e-01 -7.371066445643514875e-02 -8.366339714625786739e-01
1.003214543048197294e-01 -9.420612543171942577e-02 -7.938111422856417576e-01 9.614602046583173300e-02 1.707605985232640566e-01 -9.806104021172530327e-01
5.471845536276214589e-02 1.235037857168870962e-01 -6.650269877412541275e-01 -4.403087497555840946e-01 3.888410481636925820e-01 -8.092779770583374832e-01
-8.330901204343928168e-02 7.702640364579110832e-02 -6.264104804614517574e-01 -1.773958880021446471e-01 2.399051022115741838e-01 -9.544507534979396191e-01
-8.170384144986128638e-02 -1.125942339370562296e-02 -6.624560923672320190e-01 -2.846284807017951390e-01 3.875735388435833650e-01 -8.767972285321442572e-01
7.309699263660124346e-02 1.280835558612514191e-01 -6.692615577157220441e-01 -3.422806145220297913e-01 4.237287557114272629e-01 -8.386285962842352504e-01
-7.684682378213979204e-02 8.904229903717947314e-02 -6.242460370485638510e-01 -5.389153683776848336e-01 3.987419723073655775e-01 -7.420074563282880176e-01
6.670286026015663505e-02 2.840110759309561611e-02 -7.194868686903314048e-01 -1.515628864208806159e-01 5.876328985332525123e-01 -7.948058052261441908e-01
-2.668575038386982942e-02 -4.108547084022540902e-02 -7.115985731383723811e-01 -4.033599850175126345e-01 3.802080947155527246e-01 -8.323115565696784790e-01
1.756451911815346337e-02 3.442237985918732146e-02 -6.999681547557835559e-01 -2.993684646067579780e-01 3.867009091296397805e-01 -8.722619613839079911e-01
-7.601016925643891420e-02 1.391496255556050332e-01 -6.009722435560224119e-01 9.896823665495899092e-02 -5.556574839109303943e-01 -8.254998780782358825e-01
-4.860258496778461362e-02 -1.382180590760865024e-01 -7.499154409240691432e-01 -2.269976398529365835e-01 3.100831453304820351e-01 -9.232120636577230144e-01
-4.593323795777966984e-02 7.959406663494113243e-02 -6.435579760676733985e-01 -3.753591748804331329e-01 3.497379061025566171e-01 -8.583640759421841127e-01
6.600973411183090611e-02 1.962807072646714172e-03 -7.326239498661847316e-01 -2.493839952382556624e-01 7.122104516916412109e-01 -6.561736777867532844e-01
5.152744819901759234e-03 -2.114387033681296157e-01 -8.324175670273707972e-01 4.359668804783362051e-02 8.418718200312714783e-01 -5.379137174570792768e-01
8.905186998310901658e-02 -1.065604311660441478e-01 -7.962904093838757413e-01 -3.099020493448554903e-01 6.175667637473345462e-01 -7.228914248533473419e-01
-7.041371963520955124e-02 -5.050867062759951953e-02 -6.898287549462125412e-01 -4.062818599154461308e-01 5.893485313519569724e-01 -6.982860151090934941e-01
-5.161722533011629116e-02 5.400916917777104365e-02 -6.499832349372196560e-01 -4.288266339294292684e-01 3.738646815070287288e-01 -8.223946242251363170e-01
1.542592086134631120e-02 -1.945718168960348105e-01 -8.250961399330722923e-01 -2.261753908136914515e-01 6.176624435056997653e-01 -7.532182940375532487e-01
2.132867735421290281e-02 -1.620597165704829867e-01 -8.050351574369363217e-01 -1.508917258516677129e-01 5.444073286532200573e-01 -8.251377749068150580e-01
7.579712819785792977e-02 -6.484231416073152343e-02 -7.669693044625166545e-01 -4.566865500311134141e-01 4.210343217068680532e-01 -7.836883914959549280e-01
1.365087239781616162e-02 5.168971620733564531e-02 -6.900754228072610852e-01 -4.067222128790878161e-02 5.440926742675383787e-01 -8.380387414815054781e-01
4.068206041646351551e-02 -1.010334223067225062e-01 -7.741983698452892249e-01 -3.144067491302796058e-01 5.695660151866166476e-01 -7.594359422925466285e-01
8.276577466913596914e-02 -6.895351530475987700e-02 -7.727337935719814643e-01 -1.694304779659736582e-01 6.150491533188369164e-01 -7.700700306712394694e-01
-9.496892812537982564e-02 -8.856385143171269236e-02 -6.985664647021285756e-01 -6.142958879653021009e-01 2.379205991046766111e-01 -7.523525440580315360e-01
-1.540368397435225864e-03 -1.219125132248757848e-01 -7.681979122932028892e-01 -5.101897241786944592e-01 3.796601428115303767e-01 -7.717283338732587872e-01
1.203330312281751004e-02 1.913021935491905079e-01 -6.371025809235403292e-01 -1.460309265323498154e-02 5.258684577818061034e-02 -9.985095759861609688e-01
-3.037985962057986652e-03 1.929556712782773686e-01 -6.361305749353797223e-01 1.949961948300475978e-01 1.468533183481772753e-01 -9.697476923880411492e-01
1.029328750957267807e-01 -1.324997956267331412e-01 -8.186955318839521656e-01 -3.098822211908029423e-01 6.564465868775604118e-01 -6.877869492558401632e-01
-4.036481387559547745e-02 -9.191185774118375285e-02 -7.325600947362408411e-01 -5.567912653254423194e-01 2.423335061182046724e-01 -7.945174376121338922e-01
-5.899674758730470703e-02 -6.371132967351523374e-03 -6.685553801757966319e-01 -3.708321293587414358e-01 4.784283266388972833e-01 -7.959835853236962855e-01
-1.900473640160984731e-02 -3.386332001651838619e-02 -7.135567291979475479e-01 -5.356541729240227312e-01 3.176505167088792270e-01 -7.824146958382512951e-01
7.742541409999138813e-02 7.006381796403819695e-02 -7.015451669520419431e-01 -2.774523227692590743e-01 4.097884012974692403e-01 -8.689612619397986126e-01
5.467777226571769039e-02 -1.726082914810105062e-01 -8.255700296761364632e-01 -4.590134482213047429e-01 5.881962968428890992e-01 -6.658316384284389544e-01
-1.695783549615367293e-03 1.742195512093037135e-01 -6.392166227147014768e-01 7.493101300970873846e-02 2.823776797212800838e-01 -9.563724113987004394e-01
1.187781844308382767e-01 3.744812535879520066e-02 -7.305245395284404308e-01 -4.219601327716007710e-01 4.002099775960850092e-01 -8.134996128972120655e-01
1.287976645695334058e-02 6.013609266551196708e-02 -6.855400379683339596e-01 -2.096112868202397450e-01 3.430459960483459581e-01 -9.156323241524194634e-01
5.456926343366990534e-02 1.637256075146057699e-01 -6.474068570235345099e-01 -1.951863000190940389e-01 4.407450827953142136e-01 -8.761541418475448095e-01
-4.760834572418113156e-03 -2.211965840244792536e-01 -8.373008477849005482e-01 -2.533130006710384019e-01 6.385038493886908695e-01 -7.267360992869819070e-01
-6.152607705271803673e-02 9.432071604248300212e-02 -6.299724682287942690e-01 -3.520131283457553772e-01 2.516185023752706695e-01 -9.015402856970177181e-01
-7.124356533756626142e-02 -4.221388230766447147e-02 -6.834750522851524845e-01 -4.421915814535200551e-01 4.838797884264641191e-01 -7.551999441498886689e-01
6.298161632760790329e-02 1.169959327726961817e-01 -6.716011171279950842e-01 -3.192554014194977641e-01 5.410876149418452075e-01 -7.780103994298666059e-01
7.383362823626016258e-02 -1.308077816565074158e-01 -8.067570253061617791e-01 2.277064262521445379e-02 5.554348708828891201e-01 -8.312482192713215312e-01
9.934979619414860408e-02 2.427129409580286792e-02 -7.315279493674158307e-01 -2.649769840397935283e-01 4.588207539434027704e-01 -8.480982924637817666e-01
4.444369155401303034e-02 -1.432635378411307170e-01 -8.028134915073190658e-01 -4.441745640145527974e-01 5.092382267334673029e-01 -7.371467866821610482e-01
1.780564866491380141e-02 7.001901205339045031e-02 -6.811204392796438301e-01 -1.782209901475367148e-02 5.195416639739248721e-01 -8.542592300829494611e-01
1.981943763933362995e-02 8.470781965931219182e-02 -6.741671136882564364e-01 -5.101897241786944592e-01 3.796601428115303767e-01 -7.717283338732587872e-01
-2.714498055365464207e-02 -1.997269883710655891e-01 -7.986399027733971367e-01 -4.855046808431586758e-01 4.905790412466851658e-01 -7.236141300229466111e-01
-1.057641266230528176e-01 3.249472440222559572e-03 -6.475067500836415579e-01 -2.829240466716785307e-01 3.626719028575893788e-01 -8.879319088154097317e-01
1.495422976535727699e-02 2.434101193341215441e-01 -6.298849202455065743e-01 1.741457348572158226e-01 6.454541916283464964e-01 -7.436814839300748270e-01
-2.327755781607088181e-02 -7.193519910905715742e-02 -7.326132497644483044e-01 -4.700653351197895402e-01 4.299111280760152254e-01 -7.708534248968008651e-01
9.751847223214953064e-02 -1.195191653243493357e-01 -8.091378939694637840e-01 -4.111883132376951688e-01 6.820914764368479766e-01 -6.047109961204112372e-01
1.137816130249883900e-01 -8.634128563617717023e-02 -7.934478775989335375e-01 -2.146359002712641684e-01 6.088396733834655628e-01 -7.637052326840892968e-01
1.937010712256516387e-02 1.130470944839915559e-01 -6.618114483686515781e-01 -1.999510802989886704e-01 4.992178896889916673e-01 -8.430901874068615909e-01
-2.877692238808022065e-02 -2.246806952252854983e-01 -8.182190776236044627e-01 -5.038463138396929164e-01 6.056060846046903423e-01 -6.159384403655369100e-01
-8.393466180013144096e-02 -6.957046188681130505e-02 -6.945150011657014177e-01 -3.043492335786988079e-01 3.341307219850486732e-01 -8.920359884252475613e-01
1.082254979360433300e-01 -7.713367192830396235e-02 -7.880328954594348900e-01 -4.887949230399093840e-03 6.583012063890695265e-01 -7.527387525689219760e-01
-3.423644362877681022e-03 -6.460579716339845402e-02 -7.383830560540823873e-01 -4.359574252893785862e-01 4.166024680464681107e-01 -7.977364896710235076e-01
4.578081597458069640e-02 -2.118984214753757145e-01 -8.484591711978505257e-01 -3.941589484108758978e-01 5.335830947275560510e-01 -7.482832380914303805e-01
9.089582357500178289e-02 -1.358932385160442069e-01 -8.174121926417425854e-01 -4.257621115744780194e-01 4.148782078929924566e-01 -8.041160966944640442e-01
-6.115676167072343211e-02 -3.980710861757688623e-02 -6.877169267750881110e-01 -3.403973746236297337e-01 6.253721198052083485e-01 -7.021676004485543077e-01
-6.411143018083126366e-02 6.405005109037849309e-02 -6.413330716725602620e-01 -3.195351509203013807e-01 3.150215467720441920e-01 -8.936770738894944666e-01
3.918795392446313558e-02 -2.044170965261788153e-01 -8.424710071724184068e-01 -4.925172140736130411e-01 4.922199871735594146e-01 -7.177369142436719196e-01
-1.026426326721667226e-01 3.473665921652907551e-02 -6.375325179239001994e-01 -3.312423613682853873e-01 3.362371347122327103e-01 -8.816025676435328418e-01
9.508768857552354903e-02 -7.797196802909525659e-02 -7.837306618422008597e-01 -2.517918433681085033e-01 6.470947824878302557e-01 -7.196313014942564701e-01
-7.032796532727739192e-02 -9.602185753521659539e-02 -7.164412567807431076e-01 -5.554441146599318202e-01 4.804845067348441634e-01 -6.786873170152936119e-01
1.610199220791671063e-02 -2.203171515145960768e-01 -8.454416723414260870e-01 -1.891649562314063615e-01 6.357770930174981849e-01 -7.483342216738385622e-01
-9.446254052912145260e-02 -4.381343100530165485e-02 -6.738269657854265571e-01 -1.953384969064930476e-01 3.852865960730483819e-01 -9.018853089571621240e-01
-2.564762280829285118e-02 -2.068438903681185104e-01 -8.049415179657789521e-01 -8.454682828401137717e-01 4.747242595518225694e-01 -2.445818065686065634e-01
-7.034882718072220376e-02 -1.679816853305043933e-01 -7.506853817310958910e-01 -6.039620027730290275e-01 3.065557085854702102e-01 -7.356993249555499048e-01
-4.179084417774568683e-02 2.190126779015378056e-01 -6.092385042257295602e-01 -6.144117688670577282e-01 -1.432857058836733144e-01 -7.758655713247437635e-01
1.199884097177602998e-01 1.191389806439221641e-02 -7.459709073094981102e-01 -2.927308029453842275e-01 3.023985940917336968e-01 -9.071183865947671787e-01
1.182861547718026818e-01 -6.327433212784173977e-02 -7.826427769115797961e-01 3.698054412045148620e-01 6.559901157151285522e-01 -6.579672512667986695e-01
-1.870246454843583692e-02 2.160499737370424056e-01 -6.271242346087252395e-01 -6.314460382199741373e-01 -1.249259231621089317e-01 -7.652904118949838130e-01
-3.123961318955114502e-02 4.902346178115472852e-02 -6.622043202689495978e-01 -5.000019397616397576e-01 1.808963684618778156e-01 -8.469206362534225097e-01
-4.966748923986064740e-02 -1.981791687159985271e-01 -7.798213385578898205e-01 -4.266442153625515377e-01 3.518530089695090513e-01 -8.331711550316509562e-01
-6.449649522833918180e-02 -9.055758238314323694e-02 -7.170499045324407739e-01 -3.718710907710403024e-01 2.793196773982138947e-01 -8.852640338717677748e-01
-5.546364642443080833e-02 -1.580248655330184493e-01 -7.545961916313562723e-01 -4.286375353877407424e-01 3.297241583369378559e-01 -8.411610087645059464e-01
2.577909572172836210e-03 6.763603425528344482e-02 -6.784426538112791061e-01 -5.619505535312352418e-01 2.762987318910702927e-01 -7.796605582824648328e-01
-1.751143001472250244e-02 5.111177771803004921e-03 -6.918699429803484291e-01 -5.781624320306577580e-01 2.146009404338133364e-01 -7.871941555634912602e-01
-6.116778015821539710e-02 -1.161142530220900665e-01 -7.320207344431945984e-01 -4.427897813652093006e-01 4.154437483161276257e-01 -7.945713948435320084e-01
-4.054915674210258017e-03 -1.941188222522382545e-01 -8.170080198745340860e-01 -6.134581306133385370e-01 5.845040426175485138e-01 -5.310594563211650243e-01
1.787351648260069453e-02 -1.935576320998552702e-02 -7.267601922766139255e-01 -3.748014687928732935e-01 3.561514252851306628e-01 -8.559673015121983530e-01
1.212954832036266389e-02 -1.533633253762938520e-01 -7.956304527398533333e-01 -5.224566716475422812e-01 4.922882113949266225e-01 -6.961977759031955371e-01
-4.357992958306498160e-02 1.720705597030660478e-02 -6.657826306933665172e-01 -6.139445753864866129e-01 3.948462975318018375e-01 -6.834972272649938452e-01
1.136145369844802216e-01 7.451636129485225690e-02 -7.101455428738816522e-01 -4.186401209725020278e-01 6.038689204502523111e-01 -6.782940188637784917e-01
1.953133616634776271e-05 -1.679150877929216079e-01 -8.004856289219364207e-01 1.538598826800257995e-02 5.039275650050339950e-01 -8.636088701449946559e-01
6.187913940448389050e-02 -1.693807104547122300e-01 -8.272245152369808174e-01 -2.103881583949302192e-01 5.557133056387125736e-01 -8.043130887554202912e-01
8.923492188988241258e-02 -5.682722900795503240e-02 -7.674872161302582763e-01 -2.351438551419059442e-01 2.079525774405187044e-01 -9.494541025899289055e-01
5.266174399144558926e-02 6.095692769296792018e-02 -6.972464168367472626e-01 -2.200896421904564304e-01 2.737893156072446765e-01 -9.362691707301876720e-01
-4.076557176639333813e-02 -6.971227092716349161e-02 -7.199413252437594224e-01 -5.011688993784060298e-01 4.144847066313319672e-01 -7.596263306814580174e-01
-2.701237395627489879e-02 2.420117842394046981e-01 -6.220843091030338057e-01 -7.355697475367184435e-01 1.887451865446853061e-01 -6.506246237770134666e-01
-4.323438475008626464e-02 7.880287397958843365e-02 -6.456763338639375238e-01 -2.893100274317897402e-01 2.359096754750368286e-01 -9.277102635223347660e-01
-8.803256693196736312e-04 1.597359201550846153e-01 -6.429750392926536495e-01 -4.450892575557165165e-02 5.792593131936202289e-01 -8.139272716935711527e-01
-4.858441252220812440e-02 1.281625767366360580e-01 -6.240914881797708924e-01 -4.414319919158535277e-01 2.080449754261473605e-01 -8.728431042937415674e-01
-2.144532900173326193e-02 -2.928892403367751307e-02 -7.086519718250017252e-01 -4.100683635214705941e-02 2.696994076900812720e-01 -9.620710310907440999e-01
4.212860577403724355e-02 9.167312537107451254e-02 -6.797941891234173806e-01 -3.517813463695459997e-01 4.559898767349646054e-01 -8.175103159359282667e-01
-9.156404101611033408e-02 -1.372396329335567322e-01 -7.238401142310062486e-01 -2.127690834847695556e-01 4.808895439834509067e-01 -8.505730795178271242e-01
-6.600711716937545347e-03 8.985144183740194357e-02 -6.628866138708803257e-01 -5.930795701017063104e-01 3.554174828232743999e-01 -7.224507155727251106e-01
8.337231508171753444e-03 -4.627773530968750521e-02 -7.353616382612950808e-01 -4.012257331260921100e-01 3.970035286846695932e-01 -8.254732638246683463e-01
1.009185915073665812e-01 1.130643076649345130e-01 -6.853557802228534834e-01 -5.506077080923398315e-01 4.970589110843384173e-01 -6.706441610130908781e-01
-4.637621624775466189e-02 -9.497510135199575820e-02 -7.303494244191007789e-01 -5.101897241786944592e-01 3.796601428115303767e-01 -7.717283338732587872e-01
1.017644831048362258e-01 -2.091962161121472055e-02 -7.519929307833308485e-01 -5.936153850630805362e-01 2.997764818711568524e-01 -7.468298571517895112e-01
-2.117999128094183448e-02 1.008056249293124013e-01 -6.498649935576268355e-01 -4.207699716174833071e-01 2.948081534104818324e-01 -8.579281926057238383e-01
-2.189050911869165963e-02 1.155521110973018184e-01 -6.452205020368989574e-01 -5.381352820249134528e-01 2.443499377201570899e-01 -8.066619652469813051e-01
-7.586837559168685408e-02 -1.625946860583001030e-02 -6.667633521966511712e-01 -2.587172566886707381e-01 4.176908502491777919e-01 -8.709763112218420478e-01
1.305683230838980413e-02 1.218476011401492948e-01 -6.567761439281251112e-01 -3.884793103515401386e-02 3.912339510340755999e-01 -9.194709532185095791e-01
3.721179402773230893e-02 -1.128855188033952607e-02 -7.295802825940970182e-01 -2.928623618401436923e-01 5.875375502883316559e-01 -7.543416096296153839e-01
3.658835384248797229e-02 1.683724902241463817e-01 -6.443852182614876467e-01 1.181159193871953450e-01 1.162304410285449202e-01 -9.861739776356033271e-01
3.070457164670539751e-03 -1.426582632492839064e-01 -7.852414706520368659e-01 -1.474525730725360362e-01 4.914255370399598366e-01 -8.583464802975983021e-01
9.757850110652087350e-02 1.993891013729655239e-03 -7.419367323537175984e-01 -6.616321336450916579e-01 6.269931675337513388e-01 -4.112450456774360830e-01
5.462477483076941948e-02 -6.243632194280036157e-02 -7.588679392745356633e-01 -1.045627290312193119e-01 6.157053317782319457e-01 -7.810080538108433723e-01
2.369264354386423771e-02 -1.590930968547637214e-01 -8.041829419754699115e-01 1.189480773985609335e-01 4.693250620689935482e-01 -8.749773374191593955e-01
-1.627382414361819296e-02 -1.608920276641068736e-01 -7.813766153495546041e-01 -5.970991298494822130e-01 5.705450613494923440e-01 -5.638714056437825750e-01
3.558641201724369041e-02 -2.204249999083024436e-01 -8.512759991706171370e-01 1.059399602540800761e-01 4.550783067793109371e-01 -8.841269476270018357e-01
5.404375541000305816e-02 1.286333216591546424e-01 -6.626755885682041880e-01 -3.076456104049818396e-01 4.656889437438807566e-01 -8.297517617174758886e-01
5.613234415891973916e-02 -2.680578149226185355e-02 -7.404314643435405685e-01 -2.179032078758188218e-01 3.144905108946932648e-01 -9.239122850977914414e-01
-9.200428791694915953e-02 -1.281237029114681014e-01 -7.202826064649842097e-01 -5.226282193171489787e-01 1.864934567564457690e-01 -8.319134179470947243e-01
1.208870375242839523e-01 2.561399736424029711e-02 -7.387872949686241641e-01 -3.315902058537540387e-01 5.871042456895705364e-01 -7.384825929398373123e-01
-1.081358876108131500e-02 2.618804038049115657e-01 -6.287362736854748002e-01 -7.526810751393773202e-01 -3.016589643408846833e-01 -5.852119858306185085e-01
1.106116624916611835e-01 2.276857412593509544e-02 -7.354593429727838139e-01 -3.371119192198276382e-01 3.230274628490688027e-01 -8.843126212857180812e-01
-2.210081611341684765e-02 -4.067241361827440838e-02 -7.138198808435705089e-01 -6.341997802784494764e-01 3.045473122473686955e-01 -7.106627704457791905e-01
-6.251677334621263959e-02 4.615330128448263264e-02 -6.491483996239458820e-01 -4.122769594003368732e-01 2.489483536629189808e-01 -8.763860028298802174e-01
-3.987236956498188718e-03 -1.158277466510170689e-01 -7.626324115289622174e-01 -8.916753900322882398e-02 5.793753768901934720e-01 -8.101687001121765652e-01
1.220480839567222864e-01 -7.725332233929781134e-02 -7.938097545293009150e-01 -3.119931013393570929e-01 3.275813373037411158e-01 -8.918244065772937823e-01
1.244537434193286052e-01 -3.298460029934396909e-02 -7.685920716610192827e-01 -5.644305943579196461e-01 2.486460165455324223e-01 -7.871424665261076425e-01
8.042369619263127489e-02 -3.653489382733018237e-02 -7.511707310322501829e-01 -1.120452508279673048e-01 3.212019670128408722e-01 -9.403590581017338135e-01
1.276206299821200096e-01 -5.524238583415831683e-02 -7.808393578606553920e-01 -4.173776432219296617e-01 5.329142236438819680e-01 -7.360695165380414240e-01
8.846787423703424136e-02 1.081719782162615523e-01 -6.842253559342422742e-01 -2.873150119205261643e-01 4.801173438370444635e-01 -8.288168796977828379e-01
3.199966490727716717e-02 1.350215771785265029e-01 -6.540294415134499939e-01 -1.910593322813846362e-01 4.028423616600703139e-01 -8.951057832459403674e-01
6.862282828562353554e-02 1.976200768980392042e-02 -7.259787578122147700e-01 -2.320884860568376562e-01 5.601192945475577112e-01 -7.952366380615214503e-01
-1.101210708780406416e-01 4.617910083575077484e-02 -6.291098500638193647e-01 -1.229541519313355064e-01 3.859208572342546772e-01 -9.143015741397496621e-01
-2.752088433805889231e-02 -1.430438658505309331e-02 -6.963131169257070763e-01 -7.298598042629371729e-01 3.768220345353905376e-01 -5.703593782957163683e-01
-5.937120994310586541e-02 -8.649939999086155018e-02 -7.180503267183040439e-01 -4.253916567032577367e-01 3.724117764550545773e-01 -8.248341694939949065e-01
6.399099259968002093e-03 1.237514098240748844e-01 -6.553789098024844773e-01 -5.360079023586902247e-01 1.419470655902005940e-01 -8.321938230841225970e-01
8.738970694754061297e-02 -2.352714493930498779e-02 -7.471898187004513137e-01 -4.199628614741731658e-01 4.790726019244184175e-01 -7.707922139382261673e-01
-4.381378958781735611e-02 -1.391598730314621002e-01 -7.529710341621574932e-01 -6.075412027806164073e-01 3.092785344527839708e-01 -7.316013088087117699e-01
3.750977407368052963e-02 -1.917239658352128950e-01 -8.319369500386354366e-01 -6.893017126292046159e-02 6.701420300151491594e-01 -7.390252303520087329e-01
-1.025202337271447911e-01 7.555856871010971365e-02 -6.170548117108104469e-01 1.713788279394390657e-01 3.409214179348261653e-01 -9.243386198398352294e-01
7.732107622627842902e-02 -1.151274400860106822e-01 -7.980023885073621592e-01 -5.744187354667197321e-01 6.496793282989858920e-01 -4.979557075943533695e-01
3.489547616422416371e-02 4.064338285780359772e-02 -7.028595862405654371e-01 -4.848965473171498175e-01 5.573770629853864733e-01 -6.739481790595562849e-01
-1.681678571972481523e-02 9.479777402063195579e-02 -6.536137452661735514e-01 -4.188553968444918008e-01 2.572896355195070650e-01 -8.708399393622702211e-01
1.251420902164905868e-01 1.016336402731046057e-02 -7.459499881430008417e-01 -1.622084448042045435e-01 1.852276241977043325e-01 -9.692157384546927767e-01
6.227988901116742262e-03 1.801446663689575955e-01 -6.390704060669658571e-01 -2.746012013854951528e-01 6.151069104459389730e-02 -9.595887739468710320e-01
4.773057876936630944e-02 -2.033667797434491054e-01 -8.423074446058042009e-01 -3.638183593851236908e-01 5.559264178743429374e-01 -7.473834486284256506e-01
5.242088397420792412e-02 6.840617028541179367e-02 -6.942196673532595730e-01 -1.541340533168520099e-01 3.835110639237518937e-01 -9.105833061594033051e-01
-6.247499303519046115e-02 -3.363664992067664367e-02 -6.829742480899199109e-01 -4.242655528962145928e-01 4.270467298760323160e-01 -7.985172704004943611e-01
3.868034632810843365e-02 -2.178750714604494321e-01 -8.505209113144273081e-01 -3.311076996642512427e-01 3.175995102579123319e-01 -8.885371361440005389e-01
7.117845277041079388e-02 -1.807155875147224700e-01 -8.372756080368266574e-01 -8.556984493023974681e-01 3.083193384784462254e-01 -4.155951748777717003e-01
2.793516613284703978e-02 7.663821055164675433e-02 -6.806446791531303164e-01 -5.104850836294873018e-01 2.556659745420541419e-01 -8.209993232964671872e-01
3.212804476498756084e-02 -7.914298434690915374e-02 -7.589268481125872601e-01 -2.155251164412065878e-01 6.162606126580258969e-01 -7.574772481529453705e-01
-4.428433916092933825e-02 8.776345582376464394e-02 -6.424630522678423938e-01 -3.012589097741099065e-01 1.502590011131529901e-01 -9.416290680868939500e-01
-8.267611286936280002e-02 -8.486606081960430814e-02 -7.034506876403420206e-01 -4.652128667029215570e-01 4.221360285830273451e-01 -7.780605130876383502e-01
2.635539606203793003e-02 -1.817997680881332234e-02 -7.278805655653728390e-01 -2.608220508965597983e-01 4.588624433035423111e-01 -8.493627704883324192e-01
3.349177146230207514e-02 8.386777405699329113e-02 -6.793190520549338141e-01 -3.545700399526372504e-01 2.856016255941649651e-01 -8.903436405264854026e-01
2.718220745980963124e-02 2.318056358162467745e-01 -6.302040989394372961e-01 6.799526859464114503e-01 -1.881722246015070932e-01 -7.086999074098857543e-01
7.318370858597651740e-02 1.535348527134146324e-01 -6.567909273464654918e-01 -3.097021206804012050e-01 5.311512103390659822e-01 -7.886463010763491432e-01
-7.373138766084832291e-03 -2.167916317147778604e-01 -8.331682916619097545e-01 -6.491601789711709536e-01 5.892982297751959697e-01 -4.809559838716400693e-01
6.645717306769953828e-03 -2.635873935252074779e-02 -7.263030475968513811e-01 -1.925651275435250609e-01 4.579559464761918663e-01 -8.678680906343091417e-01
-5.296615581880905615e-02 1.354066340598134022e-01 -6.193870744324836419e-01 -5.859192072862693390e-01 1.978460137728996482e-01 -7.858470826867038905e-01
-9.350664986138086665e-02 4.488006995289355039e-02 -6.368758551162436721e-01 -2.825291030846769913e-01 1.822366509707700200e-01 -9.417893124012003403e-01
-2.052161600762164931e-02 2.194500592429882435e-01 -6.256055577776371557e-01 -6.914904064700758690e-01 6.155876276639617173e-02 -7.197579707697022711e-01
1.153663015129571257e-01 -1.017494787714693927e-01 -8.048428703482313207e-01 7.885000406978227849e-02 7.432808950010961757e-01 -6.643163312643793894e-01
-6.904214564253406683e-02 -7.822669037296857419e-02 -7.078320479996087489e-01 -5.238790679670750627e-01 3.934649496396419588e-01 -7.554707509566620516e-01
1.788956167893818866e-02 -1.659909941285964141e-01 -8.061341043329883771e-01 -3.963860096720192017e-01 5.122238461991455161e-01 -7.619086971030375466e-01
-7.911288825281689169e-03 1.924100174458030083e-02 -6.909774607206332631e-01 -5.708449337767812493e-01 4.813732056287510774e-01 -6.651435172081906488e-01
-7.003222848138677958e-02 -1.148346418276033065e-01 -7.268973849022943856e-01 -1.798281682777529145e-01 6.610274531837746770e-02 -9.814745319952229430e-01
-4.439929676195737696e-02 2.244690056691298896e-01 -6.085358041021911024e-01 4.750450691166972494e-01 -3.517441426948432759e-01 -8.066029013013665816e-01
7.020276548915363457e-02 6.948473009442909798e-02 -6.994606365197526543e-01 -3.542172700138979669e-01 4.039979417457286726e-01 -8.433953928550452783e-01
-4.398911106340533395e-02 -3.593001302696132576e-02 -6.967876255472662539e-01 -5.283205148607306167e-01 4.561263413892996388e-01 -7.161188408833443209e-01
1.209529415189311424e-01 -3.527286778643559662e-02 -7.689447533753512865e-01 -1.487019412686689246e-01 5.848126140421644470e-01 -7.974220583355464687e-01
-1.087784257832564161e-01 -2.295875368816911385e-02 -6.578584560092943789e-01 -6.779277174038355058e-01 5.976872983369534431e-01 -4.279998871288392404e-01
-8.334566073751036031e-02 -6.659991595728692593e-02 -6.935133791398984116e-01 -4.882602585730156375e-01 3.120881978684593716e-01 -8.149864272792702868e-01
-2.329420798829489117e-02 -5.592119305064896517e-02 -7.224553819490314721e-01 -3.908043640963921317e-01 4.343821483000972483e-01 -8.115319452993866589e-01
7.529559773772342111e-03 1.097775328063329420e-01 -6.610447266581954695e-01 2.575347606235738884e-01 2.909464389351013591e-01 -9.214260777412054404e-01
-9.382042096296571571e-03 2.517754675767902225e-02 -6.865200921560298264e-01 -8.618030680850140568e-01 3.194774103987692571e-01 -3.939919492631200337e-01
5.683841382965691517e-03 1.660699718692388305e-01 -6.418995744356680300e-01 -9.512905432275954934e-03 6.450230745997624637e-02 -9.978722147462446568e-01
1.012233824998333281e-01 8.227103103714662746e-02 -7.018484493924815881e-01 -1.396055028736157555e-01 5.088945996161042817e-01 -8.494330992191025942e-01
-2.205172221997327500e-02 -9.010271447974553538e-02 -7.408531647808038745e-01 -4.224450502651647121e-01 4.102531808642126410e-01 -8.082280044005270003e-01
-1.142997550230463039e-01 7.466462254472381634e-03 -6.436120222471587438e-01 -2.411381923413821182e-01 4.987740599770322802e-01 -8.325123478293631196e-01
7.661330386001953541e-02 -9.245878040364721717e-02 -7.838488775662548758e-01 4.229392639295298517e-02 2.700478753521323161e-01 -9.619175478220919340e-01
8.627763905609658890e-02 -7.252626716940251128e-02 -7.763385502286643813e-01 -1.768116463467423460e-01 6.922710370340906527e-01 -6.996416604233191006e-01
7.457471329746223621e-02 4.826889718234787796e-02 -7.107154491726783707e-01 -3.577643547199532148e-01 4.944373830547742488e-01 -7.921719136208767997e-01
2.397190774799614482e-02 -5.879793497343424602e-02 -7.453198714507081046e-01 -2.120330206117046756e-01 4.314898827583543151e-01 -8.768457556762523364e-01
9.141611473734242597e-04 -1.491723092769358383e-01 -7.877394864848741296e-01 7.473095483051644949e-01 -5.742712253905659509e-02 -6.619898523458005446e-01
-5.203624419709537707e-02 1.061546103345227948e-01 -6.301805047007260629e-01 -9.551235167190219588e-02 3.605639382482735966e-01 -9.278313624323106801e-01
3.598103047711370683e-02 -2.137931214142626754e-02 -7.333570500107322587e-01 -2.750092141456490502e-01 5.915428742694330833e-01 -7.579227929255395457e-01
5.085735671783023909e-02 1.784873476699620071e-02 -7.203763049519286144e-01 -3.756840686852559452e-01 4.765781681851741225e-01 -7.948174193771521123e-01
6.670196829755550838e-02 -6.082300095088081365e-02 -7.614048472011513136e-01 -1.940921691825324424e-01 5.870879064459973984e-01 -7.859109491328359898e-01
-1.193593773005521656e-02 2.455591968207085918e-01 -6.289962061474835275e-01 -4.468421767698235042e-02 7.131185251192234675e-02 -9.964526784458527242e-01
-1.085253896885123720e-01 2.005384957543919835e-02 -6.402233241267346608e-01 -3.906926693829384512e-01 4.748741225480717087e-01 -7.885770766542943289e-01
2.055642090245977591e-02 -1.858851598570955277e-01 -8.203717399051854153e-01 -2.779791256645905428e-01 6.651294622667867085e-01 -6.930587306422488769e-01
-2.352946156956763069e-02 2.366026261522686802e-01 -6.234953481517765406e-01 -3.559266366689376460e-01 3.334714327762292735e-02 -9.339187316596447852e-01
2.755357949339194701e-02 -2.107425188289611950e-01 -8.407295064353959013e-01 -3.134802640938930685e-01 5.480209539249296657e-01 -7.755018749705464565e-01
-9.947630195108157769e-03 1.109503407506596678e-01 -6.523723670162993038e-01 -4.756062315451867195e-01 1.753279195881154717e-01 -8.620086038597813971e-01
1.016015992552165570e-01 2.717518019315995001e-02 -7.310854125194927722e-01 -2.152911319588157180e-01 4.996534297136842051e-01 -8.390448013516585979e-01
-6.092659909884093339e-02 -1.676664547356429003e-01 -7.567714756055222702e-01 -5.036301339509892117e-01 3.400125538193694563e-01 -7.941965445793246481e-01
8.461530417278349814e-02 -1.045564226902839650e-01 -7.950674657334765305e-01 -5.555326853384939811e-01 5.321861559151176424e-01 -6.388750511429380774e-01
3.298762031043500024e-03 -1.689088307330785174e-02 -7.201803613911305080e-01 -6.687605213012779437e-01 4.028945509820144877e-01 -6.248482583298473614e-01
-5.244145675313619664e-03 2.571346260976981046e-01 -6.293371900793431895e-01 -2.910365827624785684e-01 -6.064991618601391909e-01 -7.399030167237378164e-01
-4.390341930302196077e-02 -1.448624782942551925e-01 -7.548973856436697050e-01 -5.384600076056926810e-01 1.697792662521249440e-01 -8.253701115016022216e-01
1.664370458440754541e-02 -1.169902747706842369e-02 -7.227980694853710641e-01 -2.753683626473344970e-01 6.728174693063856404e-01 -6.866505063342464021e-01
-3.098517488189268809e-02 1.132558486371952888e-01 -6.406605277915397023e-01 -5.400968255257152517e-01 4.385587298591994143e-01 -7.183047121670096402e-01
7.606705548003128703e-02 -1.623861835998254288e-01 -8.271210111189393199e-01 -8.410777538402934850e-01 2.387776742783979389e-01 -4.853590776540248064e-01
8.886291122607041515e-02 -3.254945453147971290e-02 -7.523960967292147028e-01 -3.607712853930188368e-01 2.286373995825247973e-01 -9.041952328717564047e-01
-4.666297795657213532e-02 -1.565987154391007274e-01 -7.594783702458832719e-01 -5.210441245977490698e-01 5.327566017543206023e-01 -6.668458768781238000e-01
1.276560768112885991e-01 -5.011558778638655447e-03 -7.558335229016052148e-01 -5.289324549646255980e-01 1.634085671622877711e-01 -8.327833441316310203e-01
-6.718970712347335783e-02 1.973142302457517663e-02 -6.565068144752267409e-01 -2.852491891963212720e-02 2.699939063670265260e-01 -9.624394108333790276e-01
6.315596862257057131e-02 -1.180375976259480375e-01 -7.939144926461568774e-01 -3.737391535616853555e-01 5.886732620863999177e-01 -7.167864644366211957e-01
-4.775197173579447119e-02 2.113565069596819723e-01 -6.050217996471101145e-01 -4.126045501912516955e-01 1.600931767082813262e-01 -8.967316543609497037e-01
-6.635457134088037535e-03 1.946987320976334146e-01 -6.338692259684669539e-01 -3.848747284508553523e-01 1.644409142767746246e-01 -9.082018658380408560e-01
8.424643359376245144e-02 7.556545361728531085e-02 -7.008241701251838318e-01 -1.845809596117178875e-01 5.266611937048022440e-01 -8.297938637964552555e-01
1.770317544993893835e-02 1.593985006583465425e-01 -6.444642989016421408e-01 -2.800037584820226633e-02 5.543710362245614087e-01 -8.317984931145677718e-01
-2.151151092431501793e-02 -2.313761483682928999e-01 -8.335482794281372509e-01 -6.279189745696582836e-01 5.520309293481892032e-01 -5.486160901927350508e-01
-1.503607629030044059e-02 -1.192078341960203930e-01 -7.591066925611497096e-01 -3.523706470333545782e-01 3.827231907984010584e-01 -8.540245232628778105e-01
-7.842832441610067193e-03 -8.832265839489844561e-02 -7.472664130071248190e-01 -5.363631101334128681e-01 4.651290194604465467e-01 -7.042510982197868197e-01
-2.270823557082844724e-02 1.074144560928362302e-01 -6.469288841629989850e-01 -6.226670623310675418e-02 -8.128482508347454651e-04 -9.980592149630206356e-01
2.809579657181265552e-02 2.208257840051055798e-01 -6.310002779834152919e-01 -1.927065559501772996e-01 5.839077552356174428e-01 -7.886164572652052396e-01
-6.828086301083682863e-02 -3.916186830041164246e-02 -6.830427496138925525e-01 -3.823850922640739114e-01 5.239378544775386004e-01 -7.610983943352326309e-01
-1.870063067861981940e-02 1.730317965241712774e-01 -6.326601702801690763e-01 -6.122629013835737544e-01 4.043720709359079762e-02 -7.896195108226737869e-01
1.103536306485662921e-01 -1.074190477295170892e-01 -8.046496290645424043e-01 -4.102177573014888501e-01 3.784240326580249891e-01 -8.297690299724223006e-01
-2.046096496790240568e-02 -1.683933852220554361e-01 -7.837027433329399884e-01 -5.332382935603030560e-01 5.215137131954050709e-01 -6.660933637486842196e-01
-1.613714958354063242e-02 -2.118239572249457775e-02 -7.079295358073371958e-01 -5.837536301077729251e-01 3.787516303855776867e-01 -7.181774862916993074e-01
7.502342443514870007e-02 1.119017742850959979e-01 -6.779493802960530058e-01 -2.481613409486875532e-01 5.478235957889097119e-01 -7.989400833325728257e-01
1.107711727065521373e-01 -8.942470911384449439e-02 -7.938090430023659883e-01 -3.655923623804898659e-01 1.195630688750666387e-01 -9.230638640582938814e-01
9.955684924765183241e-02 -2.971760200674253977e-02 -7.563645433184155165e-01 -4.054588494193568371e-01 3.914085306866347258e-01 -8.260765603340050056e-01
3.192786218905425272e-02 8.682490457879867007e-02 -6.782610592703982588e-01 -2.671974010763394358e-01 3.704503146640837352e-01 -8.895909808576810684e-01
-7.002879110623440317e-02 -1.585880005467930898e-01 -7.466981037175985936e-01 -5.384270856137869377e-01 2.949107852811255759e-01 -7.893819748400096037e-01
-2.037002590676523228e-02 -4.805654917124359965e-02 -7.196391747345219914e-01 -5.101897241786944592e-01 3.796601428115303767e-01 -7.717283338732587872e-01
-1.585983371380504311e-02 -1.045905794128539346e-01 -7.519580148754065885e-01 -5.648565761001723695e-01 4.144697889929944701e-01 -7.135487666925736105e-01
-4.647641155744971359e-02 -1.805265632737317050e-01 -7.722791724133182267e-01 -7.246534320173904087e-01 3.776340227393931159e-01 -5.764286151251346579e-01
4.424541544939977755e-02 5.505897011079638470e-02 -6.986419513369105383e-01 -3.658949343347616678e-01 4.670685901901077686e-01 -8.049644893322845940e-01
6.914550533000189680e-02 -1.164081351835737077e-01 -7.946770260194585545e-01 -8.133325522863478207e-01 3.927817130518680422e-01 -4.292000527532766063e-01
4.139325010962364298e-02 5.300726834785757929e-02 -6.982966261455815227e-01 -3.895868735072558486e-01 4.004891750019676788e-01 -8.293554658269786106e-01
-1.372003999237848479e-02 -2.347458995798203107e-01 -8.470896750277844278e-01 -1.265707257887691561e-01 7.464492491516431238e-01 -6.532942444368021739e-01
-3.128303868578853619e-02 -2.340077307117944538e-01 -8.266192916384716982e-01 -4.061287353831868896e-01 7.794309420582536951e-01 -4.770187175135128244e-01
1.248033589634054558e-02 2.025254225179300149e-01 -6.334515796313013869e-01 -1.483592224195524889e-02 -3.528534060668563326e-03 -9.998837156682838234e-01
-1.071626237638177298e-01 4.105195039444924088e-02 -6.325491790945381165e-01 -5.101897241786944592e-01 3.796601428115303767e-01 -7.717283338732587872e-01
6.575200808577344458e-02 -1.160761659996373679e-01 -7.935185874385976001e-01 -6.121566421031462979e-02 5.385009989226823279e-01 -8.403983083125304843e-01
1.260709699503834158e-01 1.919853664745648988e-02 -7.419466597768549221e-01 -1.207149020593514394e-01 1.567126278994884214e-01 -9.802392894990680228e-01
9.909405418240407881e-02 -9.842727442383127079e-02 -7.963372997516687812e-01 -6.544739887390838007e-02 6.550509215796911366e-01 -7.527449289887224726e-01
4.242830796451164260e-02 5.954139330038041994e-02 -6.953654885393572016e-01 -2.153825918459939537e-01 5.147494548391942093e-01 -8.298453698566101711e-01
-5.218928479384429137e-03 -1.913705454361738223e-01 -8.127741281523883643e-01 -7.466061308280771414e-01 3.819675067545653668e-01 -5.446834945118396165e-01
2.263188162340109069e-02 6.799303392569837345e-02 -6.834028876854448820e-01 -4.702670509310262204e-01 1.834667736696618812e-01 -8.632432124076508950e-01
1.920269246917743686e-02 2.269903886649391189e-01 -6.308004688481626543e-01 3.493019434622234021e-02 3.852244991415792325e-02 -9.986470359318883050e-01
-5.761780228682023691e-02 8.442827378935160998e-02 -6.373844219729060123e-01 -5.552594345562583689e-01 4.397993093145638466e-01 -7.058778420255850117e-01
-2.663323038614385033e-02 -9.174067089101291261e-02 -7.396071374322215064e-01 -3.728473361957976850e-01 4.944758570694472444e-01 -7.851614424225971112e-01
-6.986480514286252941e-02 -1.212989821998208678e-01 -7.293438466970866285e-01 -4.517712573762742156e-01 3.938177646732242687e-01 -8.005062768251383076e-01
-7.616577257202755691e-02 7.578071653649641470e-02 -6.305039073439141495e-01 -5.309920982056047789e-01 3.585024893737756568e-01 -7.678042437731216197e-01
