-7.642422077496851228e-03 7.074219132283908473e-02 -6.870570700117399898e-01 8.663160111541426955e-01 1.866050042755363625e-01 -4.633304880938683423e-01
-2.890180309992005162e-02 7.704331657436569447e-02 -7.256083382152030969e-01 8.906977431142505397e-01 1.539372264787311484e-01 -4.277392438334557401e-01
-1.372376217786594466e-02 1.280007407727297708e-01 -6.847138759456228296e-01 8.296623953752634284e-01 3.039213437836199572e-01 -4.682863723117920429e-01
1.385772143107457180e-02 -5.484100351820961339e-02 -6.947707938952363271e-01 9.052942432338850764e-01 -4.203906894625095148e-02 -4.226997159328588771e-01
2.016610449351762674e-02 1.245294361073843586e-01 -5.822980720017899570e-01 8.946428741578567045e-01 8.549270622321092361e-02 -4.385260823499567695e-01
-1.853374108937314024e-02 6.085024687216589873e-02 -7.071715465145924640e-01 8.991252933902302846e-01 3.571858503375866523e-01 -2.529663517239944537e-01
1.138480089540224068e-02 1.410116601554272653e-01 -6.354037491551645100e-01 9.109799198988842717e-01 -1.383200831210064097e-01 -3.885654901640390735e-01
-1.239803561603350021e-02 -1.633746217334192397e-01 -8.308101076223810555e-01 7.617011061270879679e-01 5.491722894792568921e-01 -3.438331301560133557e-01
-4.448559702809672112e-02 -1.878885688255048023e-02 -8.185997705678885739e-01 9.229698322685924161e-01 3.407976348553494739e-01 -1.788397629138619160e-01
6.003287614759753900e-03 2.353935628297807725e-01 -6.403475284686980240e-01 5.534331644032064457e-01 -7.603816317923983714e-01 -3.398992594451815119e-01
-4.720107966630543439e-02 6.919516439407046027e-02 -7.732994305114297973e-01 9.436977959730415977e-01 1.615684511223532127e-01 -2.886695437304521161e-01
4.040316820908597395e-02 -9.349967436146212896e-02 -6.197196274161139717e-01 9.719197363717010374e-01 1.582192708560783423e-01 -1.741800458747612690e-01
1.913117649348311869e-02 1.755029801011492863e-01 -6.202956591960240296e-01 9.811685976995557779e-01 6.311593162204216095e-03 -1.930501144263900015e-01
3.515939367943821808e-02 -1.446254456346380279e-01 -6.827973479803296497e-01 9.615711728554552362e-01 2.234749407868257820e-01 -1.594986845516555285e-01
2.859082216721066383e-02 -2.152615546831258553e-01 -7.662031155017001716e-01 8.721668876372651313e-01 3.714050775138114102e-01 3.184072682997137749e-01
-2.829552116236724868e-02 -1.404173873130530326e-01 -8.457143343981958772e-01 8.816271250948982674e-01 7.545374760048183249e-02 -4.658758893417295210e-01
-2.750654167602096384e-02 -1.405952610689778677e-02 -7.712273758528555012e-01 8.277285457609920849e-01 4.015561394923799488e-01 -3.919414769686537792e-01
4.892864746223197191e-03 1.722604720310900173e-01 -6.458375594279718301e-01 7.998753774068171341e-01 8.027230094685927630e-02 -5.947736866397156374e-01
-1.911735679990506521e-03 -1.662509771199826084e-02 -7.259347039323431616e-01 8.059673268683907876e-01 1.916912163338373443e-01 -5.600635192556950859e-01
-9.909565794483249108e-04 -1.611020922064635152e-01 -8.080423257034866635e-01 9.563961466324458760e-01 2.193889482014913239e-01 -1.928079358160655066e-01
2.437993056615580037e-02 -9.369250195746602061e-02 -6.707923181195301066e-01 9.066896021440329356e-01 3.540364311996515578e-01 -2.292862201426625335e-01
8.960148371239659917e-03 1.498673635361503220e-01 -6.424304174471320295e-01 7.335407764327165347e-01 2.519671312636680982e-01 -6.312135091023042266e-01
2.504492229974610018e-02 -2.058600804166805520e-01 -7.748014153620762512e-01 9.242895893173727062e-01 1.819598205887102971e-01 -3.355285066441399677e-01
-2.938677324777778585e-02 8.279954519988506900e-02 -7.264784118964622284e-01 8.962137110898434900e-01 2.288231596400785994e-02 -4.430320345874479426e-01
4.131256209465739015e-02 -1.910651873408900359e-01 -6.886914628831634078e-01 9.957336879741340852e-01 -9.056267214590993375e-02 -1.768686086398941690e-02
2.457940188672774404e-02 -1.190891907782108822e-01 -6.939611576632800372e-01 9.816096323820338032e-01 9.535420798171527490e-02 -1.653786704354225923e-01
7.678000879502094346e-03 -7.385121841118895414e-02 -7.240218017728033972e-01 9.033012196339637034e-01 9.260149603247704031e-02 -4.188936255666116382e-01
2.720965411522337923e-02 -2.317258884091261684e-01 -8.049098621193470082e-01 8.535204240911566931e-01 2.389806983463335366e-01 -4.630238778693283597e-01
3.443798445072663444e-02 2.300530138247896816e-01 -6.090849691585906722e-01 8.520140374623238477e-01 -3.422067138903288064e-01 -3.961901625930817072e-01
-2.251322025733979229e-02 -4.945781079652038920e-02 -7.878534738335002396e-01 8.671538121956653411e-01 3.239400733249944708e-01 -3.782949839592404384e-01
3.155188663027489598e-02 -2.493553271214860867e-01 -8.500307007555478744e-01 7.639140493522216246e-01 6.228236226653616203e-01 1.688965963312659135e-01
3.871322977784053682e-02 -1.975044675716185472e-01 -7.042873975023589139e-01 9.582352569876966264e-01 -6.932964770874038875e-03 -2.858970553629551770e-01
1.757605805413304384e-02 9.318420222053899749e-02 -5.980547830288571731e-01 9.354466065029770627e-01 -1.115000765035500116e-03 -3.534662687660002356e-01
-4.728927822521919455e-02 -4.823774113632836591e-02 -8.417627647304060101e-01 8.327920545554103882e-01 1.866830445790163828e-01 -5.211591261180092971e-01
-3.910499771870254437e-02 1.598548870411297673e-01 -7.197555506588748653e-01 9.154818594229776618e-01 2.102247089085919896e-01 -3.430722035253586655e-01
-2.640681614772777061e-02 1.902440702408696171e-01 -6.852911123168591301e-01 7.693970585607705637e-01 2.114292050631364217e-01 -6.027651761045959011e-01
-3.390152017308957488e-02 -1.179299340775279703e-01 -8.452982187462244612e-01 8.045837056037896673e-01 2.427206598177577557e-01 -5.419702408569189167e-01
7.273694506294982320e-03 -2.249692790595051242e-02 -7.079467937425151236e-01 9.106817368094396459e-01 2.022261489160979420e-01 -3.602268159594819164e-01
-5.316467774317978207e-02 -2.362492503657186854e-02 -8.376240947443693852e-01 9.152727475381396971e-01 1.913089771238057069e-01 -3.545090589615840226e-01
3.746393098410023131e-02 -3.766865430680546578e-02 -6.080008886018077874e-01 9.717945057111636586e-01 -1.185321264849447387e-01 -2.038763685681899696e-01
-3.487428555942749531e-02 -1.436267845241175067e-01 -8.609519384829713573e-01 9.441833538637914858e-01 3.203632774633189406e-01 -7.671482737699866772e-02
3.073565604767677234e-02 -2.482855049029359384e-01 -8.388545843851588080e-01 6.929739312314148192e-01 6.706982769553783141e-01 -2.644824227104045078e-01
-3.757887151467838999e-02 1.506286548649601320e-01 -7.209268623019022826e-01 9.259374696313431574e-01 3.092585953063193768e-02 -3.764085460573355357e-01
-4.949063264071988655e-02 1.780086855334827786e-02 -8.037361084332779182e-01 9.568559838331107681e-01 1.140145458331269929e-01 -2.672588811269618891e-01
2.528506265575790335e-02 -1.952774456120676405e-01 -7.627885021742609739e-01 5.303870330746659478e-01 3.888179262707360251e-01 -7.533327388058863594e-01
4.253534700649209965e-02 -1.215240262934212528e-01 -6.285378063911615243e-01 9.660977362356900633e-01 1.813920671225381365e-01 -1.837173971764452518e-01
3.517298130802488931e-02 -2.177312484046249053e-01 -7.487406713427053884e-01 9.820471935772669969e-01 1.885971896342935050e-01 3.796004354569395070e-03
-5.039623878637629686e-03 -6.439435279390220979e-02 -7.568458197375502738e-01 9.060126436160181873e-01 2.766847014538071359e-01 -3.202915321848701646e-01
3.851537261102312704e-02 2.378595231053166059e-01 -6.102172310049059911e-01 8.029624661487332338e-01 -5.288855087268128363e-01 -2.748297593331638367e-01
3.204439768089240026e-02 -1.818333724377964034e-01 -7.164497769452199405e-01 8.569927819487632714e-01 5.107355628674616899e-01 6.864806268334483486e-02
1.147705598711120170e-02 -6.121926422278529262e-02 -7.026456384970698466e-01 6.113540993433195236e-01 2.984630474845634263e-01 -7.329160760294086696e-01
1.357160143756732176e-02 -1.697959629772344270e-01 -7.797463652754752506e-01 8.971524551456145913e-01 2.800650625647521097e-01 -3.415860549799969448e-01
-1.265654901618993959e-02 -1.129928064559712619e-01 -7.975784982009727075e-01 9.648613376188572843e-01 7.928216820407721355e-02 -2.505133468963478549e-01
-7.472815451376682181e-04 1.020599325668486296e-01 -6.657161906515767225e-01 7.155828311898672078e-01 3.379735390579191034e-01 -6.113224178802534325e-01
1.394493955700730481e-02 1.120156599230368311e-01 -6.092429412069594319e-01 9.483177334067451891e-01 -1.981542327012117133e-01 -2.478474865091176982e-01
3.014245786568665528e-02 -9.106567121167498391e-02 -6.466322662571765134e-01 8.942242267091400354e-01 1.737828235254685050e-01 -4.125076515823147827e-01
3.278651376315224603e-02 -1.321183221643560946e-01 -6.790160041551126513e-01 9.749706699685544153e-01 1.663478096358972647e-01 -1.475147414003329105e-01
2.737060382959823415e-02 7.400914618888145002e-02 -5.706524508733548107e-01 9.410040258890641773e-01 1.505509516544147885e-01 -3.030607764401777038e-01
1.060845274900037299e-02 1.237263927821697779e-01 -6.210537254915587946e-01 9.109955895048253982e-01 -2.495723983777838606e-01 -3.283300989411667148e-01
3.377171696638217591e-02 -2.131218145163354116e-01 -7.511944565216710501e-01 9.394887157771176778e-01 2.091112651062510819e-01 -2.713548078312326695e-01
3.591770849614619315e-02 -5.154165531244776777e-02 -6.139247362816597775e-01 9.347562604262612540e-01 1.994393535978912224e-01 -2.940317633018016963e-01
1.193210263992396450e-02 -1.923119441122938533e-01 -8.115554243340999951e-01 9.082269686510398010e-01 3.236505291962346043e-01 -2.652811873577547441e-01
4.060775801921365225e-02 -1.842036334332806669e-01 -6.960651325363507169e-01 7.930463528139098939e-01 -4.178852918281324158e-02 -6.077262550830698773e-01
3.073518354788062901e-02 1.464542751534318211e-02 -5.981353545549786821e-01 9.922240517199892862e-01 9.426172602682401924e-02 -8.127827627854770920e-02
-5.776715180228052943e-02 5.484891966213328862e-02 -8.118342083613155902e-01 9.000895904401325920e-01 2.231546727856902335e-01 -3.742201507070747057e-01
2.075498484258759407e-02 -2.268961471065814722e-02 -6.624886897757976678e-01 9.860908239756323024e-01 4.303995551312147366e-02 -1.605379989301189692e-01
-2.397037618946890394e-02 -4.135982447749968899e-02 -7.855879192654497967e-01 9.595710699238293451e-01 1.643080944905633001e-01 2.285305490522375471e-01
7.383566352566661023e-03 -1.985550646520897744e-01 -8.245977628921027369e-01 6.442845753528970709e-01 6.781926614562986400e-01 -3.534856431443281766e-01
-4.442245761595854658e-02 -4.426919539277511528e-02 -8.339898238552067022e-01 8.976913302370063130e-01 3.280102112661293368e-01 -2.942100897699856943e-01
-2.573693970579081156e-02 -1.391433634803757383e-02 -7.680050991960777340e-01 8.846286350891999772e-01 3.694843746236375903e-01 -2.844529396740318461e-01
7.000755167814603358e-03 -2.148080187464934399e-01 -8.431460023761073730e-01 2.196305012229032849e-01 5.043856738088197122e-01 -8.350793584977413975e-01
2.647459142574477495e-02 -1.827465363362142103e-01 -7.444105190975038866e-01 9.515091849895451759e-01 3.057227294384630700e-01 -3.411573808710201966e-02
-5.730486571526347862e-03 9.637669754115350818e-02 -6.754045371319654656e-01 8.708141496590094954e-01 2.471870224480940403e-01 -4.249485765206203469e-01
2.651470929534106499e-02 -1.698964628680868227e-01 -7.333433245483443885e-01 8.625564749520047148e-01 5.059410040633030015e-01 -4.475257063957188350e-03
3.999760445092901545e-03 1.102620680309933376e-01 -6.557779335002325016e-01 8.506526251884595213e-01 3.745414617189800344e-02 -5.243923132488845784e-01
-1.702006501386157944e-02 -1.450833952460584865e-02 -7.508044615044788817e-01 7.469622455325893862e-01 2.737098241986236635e-01 -6.059128121157946190e-01
-4.803051806998983458e-02 1.536115977805924127e-01 -7.380359144675636696e-01 8.991632671943223798e-01 4.083312211155753491e-01 -1.573881596267477923e-01
1.492419625857976939e-02 -1.572738494957027500e-01 -7.622740738864204335e-01 8.941552731066516602e-01 3.636034013681194166e-01 -2.613023422954788288e-01
-2.296741972271018617e-02 -1.798112457740810854e-01 -8.622080114416874608e-01 7.896759387219205450e-01 5.643979143158672773e-01 -2.405554117444719253e-01
1.706404625015368534e-02 -9.533106166563896922e-02 -7.047388710435726900e-01 9.006067809302967797e-01 2.171566471841202273e-01 -3.764975653654612509e-01
1.809323447598990345e-02 1.892114245894308544e-01 -6.268906969631472537e-01 3.258992081420749032e-01 3.711473199681034063e-01 -8.695052461100293284e-01
-2.022653014033641214e-02 6.082138269828392396e-02 -7.101699440037843036e-01 8.380216098114691148e-01 3.403953350281777590e-01 -4.264396761325668361e-01
-3.597837538676586233e-02 1.458590730376976841e-01 -7.198324096966435270e-01 9.255119192862834021e-01 1.170175623785412872e-01 -3.601868644939789088e-01
4.256183990223872532e-02 -1.864275026578449956e-01 -6.781065406504037663e-01 8.909004399187941958e-01 -4.462127417552588238e-01 -8.479737759950768672e-02
2.893950898203027922e-02 -1.584333453182204254e-01 -7.096298835058084675e-01 9.854480747891695147e-01 1.144407632126128033e-01 1.256797661106748842e-01
2.167896725140731548e-02 1.336949039762804770e-01 -5.794019655681043046e-01 9.576080673468322368e-01 -4.238719480409890855e-02 -2.849387917937886705e-01
8.842670694346041124e-03 1.224114808616047628e-01 -6.371004339761515700e-01 9.776375353076567354e-01 -1.415300986604418609e-01 -1.555444654455302445e-01
1.238348965225941241e-02 1.700526281066147560e-01 -6.366574689509264529e-01 7.478250734560824009e-01 6.160768977068161248e-03 -6.638672340430848973e-01
2.038395956120849645e-02 3.600254250733637279e-02 -6.263884464491474846e-01 9.403075237268488928e-01 1.298129568155772240e-01 -3.145955452092071281e-01
-3.765719476889027584e-02 -2.185417261523010454e-02 -8.027428247846967180e-01 8.689747265060107084e-01 3.141578211822262379e-01 -3.823451164639615207e-01
2.142637367237034546e-02 2.093776229861621374e-02 -6.313748291195985241e-01 8.785978460306004267e-01 4.395569024276967940e-01 -1.866964233148501462e-01
-2.804989201124638218e-02 4.909278806513663572e-03 -7.579479657813481541e-01 8.691536512966669958e-01 2.769793194800863612e-01 -4.097003624821682344e-01
-3.188700783910483876e-03 1.288655907143088086e-01 -6.656470302722139465e-01 8.108423941584771422e-01 1.253680633213352484e-02 -5.851302763678695174e-01
-5.612663605960262897e-02 3.224325281827240125e-02 -8.150290750982688293e-01 9.660731915789948498e-01 2.010189869370072047e-01 -1.621541100410151814e-01
-2.122246196382749413e-03 1.961419546731569818e-01 -6.518954257017005594e-01 7.137110008923766014e-01 3.985565909303503268e-02 -6.993054651891846829e-01
4.176554370795425991e-02 -1.491443415489677460e-01 -6.613059268730779872e-01 9.049715369795283681e-01 2.869312561496534797e-01 -3.141607415023271455e-01
-1.943586043997984044e-03 1.699179556897279647e-02 -7.048466749463760950e-01 7.281153921956761144e-01 5.141043031754897186e-01 -4.533704237201418019e-01
-3.558754602954353457e-03 8.271959057995871556e-02 -6.782766002898268365e-01 8.855868710545401479e-01 1.107356525018204571e-02 -4.643417598800255175e-01
-2.511524316913382043e-02 1.127202953217548154e-01 -7.105087840948959288e-01 9.253457608651651789e-01 3.735741559788930549e-02 -3.772792683791610924e-01
2.071280536099394387e-02 -5.626906818595538845e-02 -6.699867273727879713e-01 9.536944274346557116e-01 -1.846597183310050572e-01 -2.374188861611435386e-01
-2.810249849812552006e-02 9.836561605871468883e-02 -7.190951012647288643e-01 9.243498042400368764e-01 1.350977699704709600e-01 -3.568277342786164708e-01
7.921611920904183049e-03 1.118172993140156835e-01 -6.513092647126789148e-01 8.657283683599908963e-01 -1.890347457416784172e-01 4.634439093559509781e-01
-3.427656182292875692e-02 8.714830578320099941e-02 -7.385813648542997045e-01 9.271837477308954023e-01 1.783890276051403323e-01 -3.294049981007933781e-01
2.635083893361684845e-02 2.073508322374584267e-01 -6.139831043416801304e-01 7.456541726865955066e-01 1.865492734565661337e-01 -6.396868165969157305e-01
-2.292507799136233454e-02 -3.490730203701030571e-02 -7.787667821663583068e-01 8.507853206146186453e-01 3.282070481209604651e-01 -4.104198725578548923e-01
-2.677643099730716431e-02 1.507571546433948417e-01 -6.998389949527572540e-01 7.769734089513006259e-01 1.026753579858407373e-01 -6.211039306308361319e-01
3.246637092946565509e-03 1.301892684886974683e-01 -6.537204040686392936e-01 8.785632831466928527e-01 2.971885569546264261e-01 -3.739057623542739184e-01
-4.945490305029064809e-02 -8.525804133716587824e-03 -8.205619835405153495e-01 9.265899058272200062e-01 1.035668290998646018e-01 -3.615315454138168239e-01
2.798597770102107321e-02 -2.104665630835130807e-01 -7.627230492284050589e-01 8.441845010284116935e-01 3.638054919918784491e-02 -5.348167759741434546e-01
-2.731110226659162754e-02 1.616580133313507139e-01 -6.964513288334419627e-01 8.050643366861999217e-01 8.402201422709175416e-02 -5.872067054464138458e-01
3.239315172135964760e-02 2.457514412905286577e-02 -5.829666760340559417e-01 9.868626410426443174e-01 1.074426799784466008e-01 -1.206573588032912175e-01
1.586926942832922460e-02 8.721733580439261502e-02 -6.142394802316502034e-01 9.773954654577361456e-01 1.085880203713770753e-01 -1.814021662893824383e-01
5.932766645385798530e-03 -2.028975400822075892e-01 -8.325030944767625174e-01 9.730569112920012254e-01 2.001011091428114286e-01 1.145416671202518916e-01
3.931778355659480001e-02 -6.692308955214720800e-02 -6.133030636872097707e-01 9.818338277083901167e-01 8.356467165783276752e-02 -1.703504635104050036e-01
-4.285534443945258204e-02 -4.842602417405914017e-02 -8.299089746308061510e-01 9.774381128242033423e-01 -1.484417493991624926e-01 1.502657067796106805e-01
6.500634265236128993e-03 -1.128338329417207936e-01 -7.546574186321755029e-01 9.209166302104642154e-01 3.790356710118034100e-01 -9.079934087004674914e-02
-3.214153039412145224e-02 -1.344848969916784265e-01 -8.514365881311189987e-01 7.481709457140425235e-01 3.856576385111811223e-01 -5.399151987556326526e-01
1.607510576406031427e-02 -1.234937545733073155e-01 -7.261267069251020612e-01 9.153288979135731918e-01 2.673564342164012619e-01 -3.011536912066901661e-01
-1.978520359121915817e-02 8.489964179196260452e-02 -7.038472518575740189e-01 8.697013866205590693e-01 1.710249056827789493e-01 -4.630010580403389753e-01
2.819769502154571145e-02 -4.207610853821636306e-03 -6.185695626592072616e-01 9.662138488716485174e-01 6.916497183644162994e-02 -2.482881489711087075e-01
-5.447087883612038162e-02 8.511991604501084607e-03 -8.223794139838461748e-01 9.358929666736388597e-01 9.192239552938087643e-02 -3.400803259980720861e-01
-1.237630349938070168e-02 2.074398371938700469e-01 -6.631651751574849651e-01 6.607474484785986757e-01 2.686114098202985884e-02 -7.501275147827635159e-01
-1.244521081751683890e-02 7.299105548114029340e-02 -6.959285224264510905e-01 8.850422051678654700e-01 1.660572457721755657e-01 -4.348853713315281033e-01
-1.200586862207580000e-02 5.032691722769334214e-02 -7.003194490319264442e-01 7.121093998361173183e-01 3.187270382495748233e-01 -6.255503798685594363e-01
1.719177243263561930e-02 3.088745065594072567e-02 -6.418454798904414949e-01 9.765265176587478724e-01 1.893697028748286271e-01 -1.026405180344401313e-01
1.200880818696369208e-02 8.540737888911303921e-02 -6.335867865795450360e-01 9.516323729911501106e-01 9.416549800577288243e-03 -3.070947008091893249e-01
-6.868354255782066877e-04 -5.342989802157516177e-02 -7.433837982316153781e-01 8.670378921768308045e-01 2.149582026959337977e-01 -4.494866679038345691e-01
1.394691384102380791e-02 1.000595387058740293e-01 -6.114174454800619385e-01 9.655484490508190465e-01 9.588689014118165210e-02 -2.419129943484038259e-01
2.159741425746368806e-02 6.636259366293636996e-02 -6.024647222498125121e-01 9.705524170165432674e-01 4.175820361896814825e-02 -2.372430362599977915e-01
2.337632534554906147e-02 7.925396409795860964e-02 -5.841562942970121020e-01 9.555730292182837982e-01 1.069825981775209545e-01 -2.746541634816046518e-01
5.520885776698741462e-03 -4.857507158567170302e-02 -7.284546751300378098e-01 9.145816036099025936e-01 3.974295073834026304e-02 -4.024437702399539796e-01
-3.541092730606776318e-02 7.790946569347718953e-02 -7.438582664784513243e-01 4.504094365450294624e-01 8.621985475266480403e-02 -8.886492424559977454e-01
2.357359243780258670e-02 2.044321929957987893e-01 -6.215694788960300921e-01 7.256501780951426506e-01 -3.111022577650466789e-02 -6.873601478720036129e-01
2.897609178366362948e-02 -1.125625955620780105e-01 -6.706198467247389550e-01 9.456596508876209395e-01 2.750273077936408739e-01 -1.734583657564112147e-01
-1.472977300958549021e-02 9.021048902428942598e-03 -7.319875403628378630e-01 9.055013349649204679e-01 1.755688445566742362e-01 -3.863197033517463130e-01
1.770285886305851195e-02 -8.538472575864265723e-02 -6.904050559772230145e-01 9.877908037384421913e-01 4.673409625918821531e-02 -1.486110773011191655e-01
3.315658552354540378e-02 -2.434695321762055109e-01 -7.924502475713806060e-01 7.591018820829551483e-01 6.244268513164603629e-01 -1.839984781815505732e-01
3.439859292821704356e-02 -2.219037835769910594e-01 -7.440096133847079463e-01 9.769945222671686524e-01 9.759288636340752998e-02 1.896241861978733290e-01
-3.229390799512123905e-02 1.183707474352560865e-02 -7.609061536497728762e-01 7.049564555699915358e-01 2.141960215999768047e-01 -6.761334632163512603e-01
1.288776977025858986e-02 -2.153352738254748489e-01 -8.340024840475778189e-01 7.759730134842508509e-01 5.247305329277194286e-01 -3.500339271521575313e-01
3.461407160054428417e-02 -2.352979606485707809e-01 -7.622971432254195268e-01 9.692884131995054275e-01 2.254383227759836350e-01 9.827275645435069873e-02
3.917686436298893626e-02 -1.730031506280543460e-02 -5.850580516572299050e-01 9.545275256279066589e-01 1.367321963175380239e-01 -2.649179293835136062e-01
6.225521228195651097e-03 7.207631303439088200e-02 -6.602227204954410622e-01 8.954330013515040543e-01 2.938025212972547040e-01 -3.344844070655813573e-01
2.030742461616835345e-02 1.481103291161766089e-01 -5.907127687719107012e-01 9.637504990820831008e-01 -1.035783428590730387e-01 -2.458790401998590947e-01
1.313404791403214623e-02 2.312247828319337339e-01 -6.326760084346516599e-01 6.784580372089341616e-01 2.379115958616112927e-02 -7.342538201958136446e-01
5.554999721457043980e-03 -6.134073204892628167e-02 -7.281272257219090216e-01 9.335786414751672257e-01 1.311517890634050776e-01 -3.335118114952589363e-01
1.383917534685323233e-02 1.419775134105834453e-02 -6.678770391546690055e-01 9.439111860107343155e-01 7.169552933666645256e-02 -3.223219260257418894e-01
3.617699562797704535e-03 1.916479197932394740e-01 -6.451208872583936715e-01 8.813494247465762932e-01 -2.598012388495211100e-01 -3.946219808768047788e-01
-1.550058131005247267e-02 1.973304945122854592e-01 -6.682522419730174690e-01 8.361106532422468707e-01 1.489791212954846289e-01 -5.279433652891646345e-01
-2.861310481488106572e-02 1.593534166226875937e-01 -7.003970081494005351e-01 8.727439463278009457e-01 2.351621568928957129e-01 -4.278045863635144830e-01
-3.928017457667804489e-03 -2.006290810136821812e-01 -8.467786566319599473e-01 7.752439713920891151e-01 4.457625842922354198e-01 -4.475405046086102234e-01
-2.673582562170604901e-02 -1.631174096198669821e-01 -8.587967745286944066e-01 9.276671794218200873e-01 2.935173358523053833e-01 -2.308271599654807826e-01
-5.532878533023562542e-03 -7.292801575737925535e-02 -7.619429200283431847e-01 8.708053024090753880e-01 1.413109840890804936e-01 -4.708814405686578275e-01
4.046343188007765768e-02 -4.383757609386649406e-02 -6.001462318066514978e-01 6.413444393317176973e-01 1.234303080850526341e-01 -7.572597105249385674e-01
2.299834859033653145e-02 -3.949511047127981372e-02 -6.628860349413745467e-01 9.089144451830790672e-01 1.758771152392639425e-01 3.780764098335818169e-01
-1.814843282124473751e-03 -7.574145652443886600e-02 -7.542320638415600520e-01 8.317928891635799626e-01 1.680434161562690265e-01 -5.290387507767605468e-01
-1.324393463368646676e-02 -1.985975891456365494e-01 -8.609522184437822245e-01 8.008769212104880353e-01 6.330820339631605675e-02 -5.954731131253033771e-01
-1.548314291068432318e-02 1.397239385571530726e-02 -7.296901778841229369e-01 8.797337557173280365e-01 2.309927940025392479e-01 -4.155849469968628251e-01
3.378597951559294404e-02 -1.787128367568479592e-01 -7.097725096340347095e-01 9.094667424927941335e-01 2.979798096503228910e-01 2.899625447196634287e-01
1.181649383267716069e-02 -3.168459350079534664e-02 -6.957482198695733588e-01 9.510588343618828766e-01 3.866715158035422678e-02 -3.065810577496245748e-01
2.000959711988848158e-02 -7.249032708216295029e-02 -6.729267593505285916e-01 9.220817849520249743e-01 2.627294997048313374e-01 -2.841450190387590502e-01
3.435394348536855574e-02 -1.001102910721952954e-01 -6.442583564237609473e-01 5.968980100459692073e-01 7.942032634399162627e-02 -7.983765886889319097e-01
-3.952955247495137242e-02 -9.680106861468082413e-02 -8.448082025575484044e-01 8.176683106173717741e-01 4.513127794063258591e-01 -3.574007679855631392e-01
2.225482478821766766e-02 -1.350442537935032938e-01 -7.111160477574057781e-01 7.715915044660111022e-01 1.736255477367759925e-01 6.119646390184503293e-01
-2.505133815148241627e-02 -1.542635976895822270e-01 -8.488174311844978170e-01 8.673175204425939144e-01 3.181688958334950579e-01 -3.827908991308509035e-01
-2.779290647291927756e-03 5.464483740587030430e-02 -6.861635386814408655e-01 7.797943467993170286e-01 4.301667979667440633e-01 -4.548376662358391553e-01
1.973682734989214843e-02 1.374417252729095429e-01 -5.869379799940022124e-01 8.823280105980687571e-01 -1.212446953653142923e-01 -4.547493876409580693e-01
1.253060692377524349e-02 -2.071981824647044917e-02 -6.886920532479966495e-01 9.582633337127721695e-01 1.001701148011638065e-01 -2.677635736286877455e-01
-4.153602887436742830e-02 1.065740482145134671e-01 -7.509748209338329428e-01 9.736023957775844506e-01 -8.453682449848097524e-02 -2.120186318224439037e-01
-2.762268708116406499e-02 -1.314518456560868631e-01 -8.394825050599633576e-01 3.535467318184097874e-01 5.639119188742539729e-02 -9.337155572753607080e-01
1.111014789300806931e-02 -1.699271805253386447e-01 -7.877538997019049027e-01 8.537228742151309335e-01 3.609082701012433225e-01 -3.753697838324012714e-01
-3.291014448119091579e-02 8.014910315589419965e-02 -7.361160058701893272e-01 9.260984669760148336e-01 1.176690648991001314e-01 -3.584628580905505069e-01
-4.482557726108537394e-02 1.155488129488835003e-01 -7.557283936529806123e-01 9.523005817857008726e-01 6.525804588778733040e-02 -2.981023136064573920e-01
-2.864847664924480633e-02 1.154419099463842024e-01 -7.176618500895112218e-01 9.175613249280434314e-01 1.504741703525240559e-01 -3.680200253423895895e-01
-4.478344853794563596e-02 -2.243298260197514743e-02 -8.202346142024488085e-01 9.040005074377659433e-01 8.353016995877829420e-02 -4.192920143037773828e-01
-5.682749450525793194e-02 4.986971435534375691e-02 -8.092713958189037271e-01 9.419980078087091258e-01 6.131154250054823840e-02 -3.299706775466973441e-01
1.989648882591171439e-02 1.805568481476973741e-01 -6.139612659766198188e-01 7.444947926326103138e-01 -1.023205835575484862e-01 -6.597408596739855469e-01
7.246663002423276399e-04 -7.802416476357063035e-02 -7.504164566961883942e-01 8.064884887410272984e-01 1.735494752323507306e-01 -5.652051814826094533e-01
1.238009711159807416e-02 2.715072181532479298e-02 -6.624943502459648137e-01 9.658190262154833228e-01 1.687954483174632925e-01 -1.967274897605355566e-01
2.198131245066011971e-02 -5.764495950713945625e-03 -6.496473139121826668e-01 9.718959631366725915e-01 1.844460958733535466e-02 2.346870963981840530e-01
-4.177677394435692221e-02 -1.701227978983279460e-02 -8.090335036410484237e-01 9.138602300805430678e-01 1.371817537229330086e-01 -3.821526479335674575e-01
6.795419324649308764e-03 -1.431706181897672570e-01 -7.780798849412779994e-01 8.911034429406436974e-01 4.099194290732514068e-01 -1.946810613480171315e-01
-4.085594227847835075e-02 1.378532867557208212e-02 -7.809920398024097210e-01 9.173516376275395734e-01 2.746678337348935628e-01 -2.881380815745332447e-01
-1.103924068516998376e-02 1.524357579662750095e-01 -6.720100238493514899e-01 8.410189858603589474e-01 -9.455576676325701257e-02 -5.326783949009247232e-01
-5.450134388727421314e-02 9.293972608588178808e-02 -7.901134748966719412e-01 9.854035085204012612e-01 -7.443747874269682208e-02 -1.530979658719022474e-01
-5.347343959102882028e-04 4.575186629026410656e-02 -6.877060474950348334e-01 8.499609388982262148e-01 1.249307065973710301e-01 -5.118190313932526880e-01
-1.092390997958508046e-02 1.633100272956744259e-01 -6.695530714251386462e-01 8.238835892143596684e-01 1.400078333238732875e-01 -5.491936252645496230e-01
-5.052679453273975496e-02 -4.503349617302648822e-02 -8.486951118096844882e-01 9.525939389273406777e-01 2.576742279337753128e-01 -1.617676722266437606e-01
-1.217487237994556611e-02 -3.038868926632538880e-02 -7.513011019900218690e-01 9.086748768194664594e-01 1.532047863405523735e-01 -3.883790180731614416e-01
-1.795717456862012257e-02 -6.247226410274211994e-02 -7.854842452805593789e-01 8.528640082039451453e-01 1.322118505235205244e-01 -5.051168281610178834e-01
-3.412498049785561011e-02 3.920282325973072773e-02 -7.457604069170303829e-01 8.536984251779573540e-01 2.748598076863740247e-01 -4.423246375314007772e-01
1.029990575881994941e-02 1.182348025942395742e-01 -6.249030770919090649e-01 9.616327858803631612e-01 1.276275860234808018e-02 -2.740428745886849815e-01
3.679212097189031583e-02 -8.517947912435740176e-02 -6.318105373820533943e-01 7.340993008305464196e-01 2.961040937281832486e-01 -6.110814857263423550e-01
-4.807186775824728864e-02 4.544938529392876514e-02 -7.827869305701179448e-01 9.590694143120024329e-01 -1.618933575324537355e-01 -2.323282146406274173e-01
-2.270309399114686655e-02 2.902618877294306857e-02 -7.318649839727863204e-01 8.801308513723623550e-01 6.882255160365198521e-02 -4.697160214995048100e-01
3.191965414360707631e-02 -2.031764981848667440e-01 -7.487205000401293553e-01 8.286498452790469482e-01 -5.512864069551075552e-01 9.707075473868911897e-02
-5.425904943600240449e-02 -1.736782009163738774e-02 -8.400531789523417725e-01 8.097041999541003676e-01 5.721206511351614732e-02 -5.840427109228718550e-01
-7.530337481347269997e-03 -1.189414988882481344e-01 -7.884373181289804355e-01 8.960624644618042645e-01 1.625785441368047257e-01 -4.130862824749750861e-01
-4.183413882522264010e-02 8.883624859580122046e-02 -7.584222562423734715e-01 9.383151215698483094e-01 5.218612324596567931e-02 -3.418206271919781991e-01
-1.165951331477807149e-02 -1.865061494631657935e-01 -8.477288723906893919e-01 7.371402705616835194e-01 6.091188877516146016e-01 -2.925720459997573353e-01
2.914714075970907536e-02 -1.311899991837098441e-02 -6.221448830637605898e-01 9.363149461752282576e-01 9.752085853268060989e-02 -3.373484900217111337e-01
-3.088243618540029156e-02 -9.275039339689902795e-02 -8.272161234405228658e-01 8.631198164207077861e-01 2.649205189389030601e-01 -4.299317401018746820e-01
-1.659014950878128988e-02 1.496272857630921160e-01 -6.814213618108971859e-01 7.805951607021291982e-01 1.992673707395005711e-01 -5.924219020655662193e-01
-5.481951652681910786e-02 3.272475870893451488e-02 -8.108694628039671004e-01 8.965203317453022125e-01 2.054405638354180885e-01 -3.924862666365266373e-01
-2.594473745148587890e-02 1.378719823519632404e-01 -7.032444398818158415e-01 8.201617345645332291e-01 2.848830505317692663e-01 -4.961616436966985733e-01
3.524121050771489294e-03 -9.933651429775558483e-02 -7.579269438855981145e-01 8.714857335857407739e-01 2.038099997977245170e-01 -4.460651299294473016e-01
2.571221657872050509e-02 2.358965761978664422e-01 -6.213104288469643022e-01 6.259426060961478244e-01 -1.102215948328927608e-01 -7.720408369419691219e-01
3.936509384598158717e-02 -1.318292230539711563e-01 -6.552541534360837305e-01 9.551241177351836864e-01 2.950103617282336943e-01 2.658582693022265575e-02
7.422727221787663379e-03 4.993143084308978435e-02 -6.657552584255734818e-01 9.290579336421370682e-01 3.663028500997239645e-01 -5.170665281587702444e-02
1.125774909476607785e-02 9.078322740369586252e-02 -6.292428347057681393e-01 9.410893361888529318e-01 3.064624981177334062e-01 -1.429391428512921669e-01
-3.076274448208664997e-02 1.387042993063005315e-03 -7.664622473493083454e-01 7.889773836662924422e-01 3.583992600261982631e-01 -4.990637819715684764e-01
-9.038743782779112487e-03 -7.360281574585809949e-02 -7.705902380998134182e-01 9.824240575748812709e-01 -1.634474245394734182e-01 -9.015492504305813726e-02
-2.056243541732648977e-02 9.085911461061887961e-02 -7.036734289922765839e-01 9.712584855059172018e-01 2.322723677925751240e-01 -5.202404725492665999e-02
-2.321676631471136093e-02 6.822985939548516232e-02 -7.165071462784303735e-01 8.974038470500242948e-01 -3.357549764687747795e-02 -4.399307005172302665e-01
-2.244740816177372145e-02 1.429149299407934670e-01 -6.938160804425766992e-01 8.593641517529032603e-01 1.748788252284646516e-01 -4.805316338897209216e-01
3.898273688406362486e-02 2.256752024667419698e-01 -5.855411913245606170e-01 9.753289451685298594e-01 -3.922022482351202738e-02 -2.172446148497956253e-01
7.709529257456506322e-03 -1.605549086176640827e-01 -7.928049178289841015e-01 8.581843591659283899e-01 3.834823284757780115e-01 -3.412636948603821607e-01
5.135761834158995105e-04 -6.795601198321707392e-02 -7.470024450456780318e-01 8.651588458137043913e-01 4.046562187688174106e-01 -2.962321996711730909e-01
2.599296959390534970e-02 2.404729209862459249e-01 -6.209187613648634585e-01 4.842549086180069073e-01 -7.594541253843629068e-03 -8.748939972491007744e-01
-5.538915217867005497e-02 5.442712812753736779e-02 -8.019858590784869623e-01 9.208515740363037994e-01 2.542523415117399210e-01 -2.956148261347174011e-01
1.490805717016675629e-02 -1.292840865848803034e-01 -7.348541028864978841e-01 9.775791644727664931e-01 4.170072434387327859e-02 -2.063977392752254503e-01
9.042028550272897258e-03 -9.564950499814095508e-02 -7.370668562518563061e-01 9.602686817971325395e-01 2.266443570549081243e-01 -1.628385524830180675e-01
-4.043293724753591750e-02 -5.289091947989660834e-03 -7.977107995838346177e-01 8.756447009287969818e-01 3.425240332129830256e-01 -3.404756149958892419e-01
3.683078037825700257e-02 -7.458467347811265080e-02 -6.260735736569194021e-01 9.433808846904285783e-01 1.872094739985492029e-01 -2.738341089891662694e-01
3.679343463654577429e-02 -3.977402082499118668e-02 -6.105687355952741369e-01 7.278383421168019840e-01 -3.846770306338841844e-02 -6.846689591077516068e-01
6.180137982125525481e-03 -1.003471579979238332e-01 -7.480270786802925009e-01 8.418482018842583514e-01 8.948328950539682913e-02 -5.322446297366787427e-01
3.477225046983084544e-02 -1.185105127419632670e-01 -6.596487987542228870e-01 8.053313776823605163e-01 3.601436158258018994e-01 -4.708905903712118368e-01
-3.843292692022604040e-03 -1.201731226680490955e-01 -7.818160797051576516e-01 8.742362405857245777e-01 2.670585947557346795e-01 -4.054512333359356346e-01
4.093021978801526101e-02 -8.204856981358502055e-02 -6.163672885898044962e-01 8.728545155046624204e-01 1.397202828849854195e-01 -4.675502511106805481e-01
-3.472948706803514335e-02 1.315719897025726948e-01 -7.229987187150779260e-01 8.927084451834610412e-01 1.395961475380984307e-01 -4.284676737989100426e-01
2.878574732840605624e-02 -1.809111609444820357e-01 -7.319005172474737364e-01 8.825403096979288486e-01 3.801513978802788518e-01 -2.767806287440535695e-01
1.995051276546636401e-02 3.251417907299088833e-02 -6.294527541934040737e-01 9.973508287146876095e-01 2.013341127935896775e-03 -7.271362265509977163e-02
7.549088919737844718e-03 6.439660570261350470e-02 -6.584395443002389881e-01 9.711898210461330505e-01 7.200103788284739625e-02 -2.271699408816505450e-01
2.466761333286127122e-02 1.857333916070446067e-01 -5.970747934839716331e-01 7.311343778347136890e-01 -4.672094874285365740e-01 -4.971496921501714072e-01
-3.427225754274791647e-02 6.807879690034744635e-02 -7.425015071709504255e-01 9.024852056411111212e-01 1.953957837127753283e-01 -3.838501547559826088e-01
1.985478168608928451e-02 -2.266777856620286538e-02 -6.662800069804813985e-01 9.494210865562112689e-01 2.386707642849196231e-01 2.040486870285505849e-01
-4.492031131073152828e-02 -4.800093858196549483e-03 -8.083191712131830853e-01 6.621627021976923544e-01 4.547859873582965062e-01 -5.955755716286469381e-01
-1.225343139913215654e-02 1.083204177252846956e-01 -6.844620362473690101e-01 8.385986530919926629e-01 1.755053452362031752e-01 -5.157035706932974195e-01
2.459917871401698722e-02 -1.336115935530337584e-01 -7.012922177589195893e-01 9.389364330649255797e-01 3.203309694622323844e-01 -1.256441191090969245e-01
-2.525220107671177078e-02 -1.703392304588462192e-01 -8.596609991018629993e-01 8.936270135788740854e-01 3.367484472450444910e-01 -2.967005963596199281e-01
2.679428088107993836e-02 -2.148169155283669862e-01 -7.805605505481598705e-01 8.097545056779666961e-01 3.795759591280234990e-01 -4.474591956662337111e-01
3.122141933125956517e-02 -6.912473410036658848e-03 -6.096495126945773446e-01 9.315372355606305055e-01 1.377488212157800263e-01 -3.365466401818944520e-01
-7.507502124527778813e-03 -1.677689778591170966e-01 -8.250306077382054681e-01 8.572345970451074049e-01 2.889165640044317196e-01 -4.262347530091669667e-01
4.292304680706170855e-02 -1.720395588115123109e-01 -6.744178715510252831e-01 9.166933980409165406e-01 -2.118767891943971748e-01 3.387940970395891260e-01
1.631114143440179354e-02 -2.008010466072981948e-01 -8.015073687981439932e-01 8.708346881658165506e-01 3.838468788570232881e-01 -3.070969219625405700e-01
1.173692360665650955e-02 -2.535708954963876438e-03 -6.787449737152325691e-01 8.902733070460024933e-01 1.002999402821708325e-01 -4.442447081741854320e-01
-4.240417589374601698e-02 -7.894410818224856241e-02 -8.434941530731111525e-01 7.823299668357405201e-01 1.917210057569205262e-01 -5.926237245861355474e-01
-2.549156447282753882e-02 1.473239864979191405e-01 -6.981848101250004435e-01 8.470222697307803195e-01 1.881654915995681077e-01 -4.971388360923033600e-01
-2.237325479355529653e-02 1.280744838010005049e-01 -7.003284763830834869e-01 8.535204240911566931e-01 2.389806983463335366e-01 -4.630238778693283597e-01
3.266047962718578862e-02 -2.338975282404666955e-01 -7.703420135525399504e-01 9.154900912469380314e-01 4.012073619281544823e-01 -3.017524752713305822e-02
3.482882259494565064e-02 -2.187883570348846396e-01 -7.452683475844923411e-01 9.532519715130352012e-01 2.624603107215795622e-02 -3.010345904700501563e-01
2.116079800207613937e-02 5.384802204467906833e-02 -6.173055763689589970e-01 9.421740066970883953e-01 2.638766191154237606e-01 -2.065847791793200272e-01
-7.078966166613900532e-03 -9.740586718495104768e-02 -7.816996638486549687e-01 8.177948835576854814e-01 2.446013496901952022e-01 -5.209430949313047510e-01
-2.925105496556459558e-02 -9.079061933094777215e-02 -8.231319936931490444e-01 8.303787292463907788e-01 3.213354496020870421e-01 -4.552084081430985973e-01
1.892334014242546755e-02 6.837755281366599339e-03 -6.527419177299429442e-01 9.728939770003549592e-01 1.536581482244565866e-01 -1.728192205764841893e-01
-3.794979949477624969e-03 -1.297280143221720972e-01 -7.892192528123255224e-01 8.425038793105921187e-01 3.673410441294733264e-01 -3.940149370829381104e-01
3.552253090020737053e-02 -2.004260916933781334e-01 -7.293111672263753453e-01 9.529780428137200055e-01 2.644780909676826552e-01 1.479330568636429422e-01
-4.258871865316502664e-02 1.022865010141385256e-01 -7.557993984072686189e-01 8.646584347430769091e-01 9.556017092681147462e-02 -4.931876366658949906e-01
1.338314368825572337e-02 5.177879424319620921e-02 -6.416313208157622405e-01 9.737574508601802847e-01 -4.507925025700375288e-02 -2.230791072479666182e-01
-2.519688655514042488e-02 -1.027112723108628140e-01 -8.210755862385594739e-01 7.619220223970220029e-01 4.833612674846968216e-01 -4.310878296612178917e-01
-2.862019621600516567e-02 -8.733136997497235703e-04 -7.644013960061327717e-01 8.225051427383320846e-01 4.273438039758902240e-01 -3.753166175010265726e-01
2.422837443444448430e-02 7.788614971827183264e-02 -5.802116352839011837e-01 9.862166812811777872e-01 1.091617997726463396e-01 -1.243396921064889998e-01
2.054345390169164121e-02 -9.962262314934977603e-02 -6.971347841728111616e-01 9.791008759319356214e-01 1.831388570223334566e-01 -8.844000111866526237e-02
2.002668005866010265e-02 -1.753670786109012281e-01 -7.628043557649476503e-01 9.329545796698359705e-01 3.181845861247240559e-01 -1.683874146892147539e-01
3.798539094806365618e-02 -2.009308070294440474e-01 -7.100794278657774905e-01 9.041279195738248786e-01 -7.898814822936058022e-02 4.198971034508375832e-01
-5.223014652227824482e-03 1.234270869261177850e-01 -6.696472427121493709e-01 9.090253238178215289e-01 -1.369379198257716750e-02 -4.165158348959166479e-01
-1.824661101841845365e-02 -1.908331227018155440e-01 -8.636112517795091481e-01 9.327223328569991256e-01 2.812813549319956308e-01 -2.256321102091136954e-01
-3.585845590799922183e-02 1.347176112769945533e-01 -7.254542806590229542e-01 8.963089592477198053e-01 1.017559596220625057e-01 -4.315970044539956807e-01
2.490394456963390245e-03 -1.286767993317291525e-01 -7.758321384665987086e-01 7.092006597990666572e-01 4.430315716645374935e-01 -5.484135762807283987e-01
-5.109201110396779932e-02 3.309989494479319283e-02 -8.018757139415294555e-01 8.974916157340148137e-01 1.338181169986982222e-01 -4.202398258733577863e-01
2.831179842737978694e-02 -7.647260089041522935e-02 -6.454995068406949033e-01 9.193518699423351981e-01 8.215530393386605290e-02 -3.847631027906206480e-01
1.495517803550566738e-02 6.775410166363293740e-02 -6.336286662499478473e-01 9.443600705043041499e-01 5.856853452511522062e-02 -3.236568924041103856e-01
9.560081637797247095e-03 -2.043324747287491583e-01 -8.272905719185825735e-01 7.349379448792805469e-01 5.283015247214184473e-01 -4.251631641542385487e-01
4.577369627865869942e-03 1.393487220288745221e-01 -6.517092716703848376e-01 6.294204256361874972e-01 1.547441235483926758e-01 -7.615012698736622898e-01
6.087713492278566674e-03 1.901699027665990915e-01 -6.424110952038373235e-01 7.328118356596404759e-01 1.225560978798776596e-01 -6.693032320178992078e-01
3.182534006938508853e-02 -4.817953930319073680e-02 -6.286579199886649372e-01 9.070570934880379799e-01 3.343125988649860991e-01 -2.558955165554321343e-01
-2.574644615239020384e-03 2.032394938841205201e-01 -6.518471836743461312e-01 6.605552893463413344e-01 -2.298196257784820840e-01 -7.147374688118773856e-01
2.148660830448611420e-02 -6.356365638528001238e-02 -6.672598240050634510e-01 9.780125198038932544e-01 -6.588194322907345302e-02 -1.978663201841089070e-01
2.115853949102491569e-02 -9.830814122117294274e-02 -6.931222699766187434e-01 8.534558585180346268e-01 -8.915748710903687035e-02 -5.134822684900097745e-01
-2.084111977240982877e-02 -1.696572734541011707e-01 -8.501311632089890713e-01 9.059095111709484227e-01 1.942225277573125797e-01 -3.763051518137545681e-01
6.072357384334383344e-03 -6.957577290012730009e-02 -7.266264573341985056e-01 9.000329769297574778e-01 -1.709671174328921892e-02 -4.354863291614621268e-01
-1.043812945048009505e-02 -1.627266224935797201e-01 -8.268253846459154843e-01 8.180100856678736987e-01 2.228800790708534429e-01 -5.302678286479464154e-01
-4.961420696751601966e-02 -3.475489245813766486e-03 -8.187084778274719143e-01 9.082787066810431575e-01 2.678538434202809571e-01 -3.213784522254025111e-01
3.194468786014590528e-02 -6.353310451625471256e-02 -6.345439334820003330e-01 8.516418585806851960e-01 -9.602278633777834582e-02 -5.152531117976538733e-01
-3.843949782296918888e-02 2.984682938939247146e-02 -7.601111935955375820e-01 5.408441153812437729e-01 4.171954842534214558e-01 -7.303667371779968276e-01
-1.136473210304346157e-02 1.959690593495592714e-01 -6.635072001201669512e-01 6.678303731377852603e-01 1.025692580053218506e-01 -7.372124117422903522e-01
1.752322015428651666e-02 -1.278260215699788815e-01 -7.243659882429807073e-01 9.337043402090041688e-01 1.388619786214109475e-01 -3.300205387066307838e-01
-7.733781589331895252e-03 8.950508705935250608e-03 -7.204207313827453163e-01 8.067703165504473972e-01 3.336279531598125847e-01 -4.876618143790679705e-01
9.313935105810173740e-03 -2.102876339330843336e-01 -8.340386854420162033e-01 6.922765631799970842e-01 4.947622358871528458e-01 -5.253222725257677972e-01
3.603774132817841314e-02 -2.330647721747065859e-01 -7.520755824129908840e-01 9.211446482042797701e-01 8.856924720635375725e-02 3.790092684010685775e-01
9.031093864896199601e-04 -9.259726964931756787e-02 -7.580309008064356480e-01 8.840682501241003965e-01 2.386347545794681724e-01 -4.018417387844472333e-01
-1.641789008901217012e-02 -2.279646299480295873e-02 -7.549032166179825420e-01 8.048106760907671742e-01 2.707979029803040949e-01 -5.281555371212083294e-01
3.470554479224553790e-02 -7.523123671187154082e-03 -5.981630932215697971e-01 9.546239079397123017e-01 1.163921383053709013e-01 -2.741278251666817156e-01
2.250715733348917710e-02 -3.288601090064527388e-02 -6.590480463670251865e-01 9.343371107769592454e-01 2.243905465293423995e-01 -2.768809239605128369e-01
4.096340385503676601e-02 2.392140452469874168e-01 -6.010571405614963947e-01 7.906603077115944567e-01 2.808070423219153899e-01 -5.440622048918899445e-01
3.916114539706942732e-02 -6.587913376678188569e-03 -5.803363916880315276e-01 9.514741740844018247e-01 2.593748564335014994e-01 -1.655946252162363574e-01
-4.751818017881320050e-02 5.737393927840814950e-02 -7.773452540932311861e-01 9.215402167218870177e-01 1.151057918428730620e-01 -3.708291866188563324e-01
-5.136142656810268464e-02 1.144717192377172656e-02 -8.132369160130674679e-01 8.984448064989974947e-01 2.961112527079305945e-01 -3.242145211040352581e-01
3.834063345614072138e-02 -4.149438393016547516e-02 -6.057264997815694496e-01 9.225459950029726297e-01 5.785414640487574617e-02 -3.815256018247508152e-01
8.314216324175062803e-03 -2.069213172429950065e-01 -8.318423947838409216e-01 6.462728966079079873e-01 4.968042632156019489e-01 -5.792381782659248302e-01
-1.554194388914373207e-03 1.544573278725870913e-01 -6.574021713424429425e-01 8.398957612863785505e-01 1.770519390359423517e-01 -5.130572298065662062e-01
5.053426521971946320e-03 2.081809508705982081e-01 -6.423923343332637037e-01 7.639109840446707267e-01 4.088526559600090537e-02 -6.440251575156418218e-01
-3.966662709345313009e-02 1.207113429933106552e-01 -7.399131771982720984e-01 7.695695258608700184e-01 1.084059588976982319e-01 -6.292939638529405633e-01
-4.422737653199338564e-02 -3.730987854323942338e-02 -8.293905369097037683e-01 8.550666073753344643e-01 2.969271048767009868e-01 -4.250828052758379716e-01
-5.516183066406770731e-03 2.192438120484510589e-01 -6.531285362645143922e-01 7.122293853363278471e-01 1.853358271561489357e-01 -6.770376162635151074e-01
1.004219122351388514e-02 1.365289295336623576e-01 -6.384874205303562311e-01 9.888899240755246733e-01 -1.253570690908031859e-01 7.988944417672966258e-02
-4.020980019922054671e-02 -1.174005835528658531e-01 -8.591423083916026604e-01 8.675527608722407580e-01 -6.795877629483859650e-02 -4.926802328361273853e-01
2.196987145041910845e-03 2.138845229071217879e-01 -6.452487818907726158e-01 8.383451062640004947e-01 -4.638531634078030264e-02 -5.431628533240905332e-01
-3.950239491548474674e-02 2.504135605286912647e-02 -7.678947840844837502e-01 8.886705285077051153e-01 3.558238029299804484e-01 -2.892302076725084548e-01
2.138768047838167027e-02 -2.388925467794008051e-01 -8.590422807856041842e-01 8.351337881337751456e-01 5.480583337723718973e-01 4.672920607052898079e-02
3.328015655466308453e-02 -2.197164760419698937e-01 -7.602147972804865761e-01 8.957985253114740809e-01 4.386194365697876907e-01 -7.181916118272667349e-02
-1.062574570239843350e-02 1.412620007063367100e-01 -6.737406630291216114e-01 7.989687641246387972e-01 7.052108780978313951e-02 -5.972233167980567359e-01
3.246423863509517727e-02 1.992040308196272869e-01 -5.746538879297014013e-01 9.972942218612417253e-01 -1.094174250407248944e-02 7.269465807853395245e-02
