3.428775394742571148e-02 1.440739865662901686e-01 -6.919110023763316297e-01 -7.991034222355195560e-01 4.805374111901177248e-01 -3.612720817032238352e-01
6.334152947570877157e-02 2.294990331456073923e-02 -8.270632051668498352e-01 -8.438245083088676823e-01 2.375542200721843245e-01 -4.811737645624434290e-01
8.622053277095389785e-05 5.365145464194650410e-02 -6.782863154951984663e-01 -8.955201632937485057e-01 1.689991406879958191e-01 4.116830426202386928e-01
-2.436045595340817840e-02 -1.375942150013110543e-01 -7.056746834623213172e-01 -9.099654724133411365e-01 1.029884251772393740e-02 -4.145561154516479441e-01
-2.657552558948945293e-02 1.866267310987005379e-01 -5.941471752933291661e-01 -6.261295661940361468e-01 2.609169880049030388e-01 -7.347680529991197362e-01
-1.074445592732701897e-02 1.847201462518735515e-01 -6.210107144176801874e-01 -7.470947334267982187e-01 2.884421085916485938e-01 -5.988744520157334161e-01
-2.272303789692094091e-03 3.152634546336690463e-02 -6.681909825496377131e-01 -9.644499013001461840e-01 2.514784424862706591e-01 -8.120948741875912147e-02
5.806555314617509178e-02 -1.779648872704614818e-02 -8.386436509730755828e-01 -9.246159665127785532e-01 1.527772782883730363e-01 -3.489189271284051097e-01
-3.125262325942484293e-02 9.708381331948091886e-02 -5.583814968720255401e-01 -9.916185744297082438e-01 8.058678106118080664e-02 -1.009869970055080196e-01
-2.357979287179582176e-02 -2.341658164371273887e-01 -8.283423764804115352e-01 -9.405617084504690473e-01 3.327291539012558474e-01 6.808070755279749253e-02
7.336861706960028464e-05 -1.630087147220155297e-01 -8.170406848480114004e-01 -8.714639035860396454e-01 2.268368136684644487e-01 -4.348513823265601763e-01
4.277469142553898263e-02 -1.756406974086112058e-02 -7.978408075627874130e-01 -9.439101367248059482e-01 2.815328400209848314e-01 -1.725482940451063540e-01
-1.046100269586963498e-02 -2.894776169907197633e-02 -6.732997918809142668e-01 -9.668286343410069650e-01 2.162079799077489539e-01 -1.360018427908755712e-01
-1.171317685347497001e-02 -9.764844354583862573e-02 -7.238339280676964194e-01 -9.301352051597165937e-01 2.658645785660245231e-01 -2.533071771316441345e-01
2.230840474755268338e-02 -1.171636150015151201e-01 -8.327285709552775250e-01 -9.319778355041572482e-01 9.580485044238502834e-02 -3.496265790249625249e-01
8.353805773120498782e-03 -4.423134229492256542e-02 -7.497620719214200813e-01 -8.341759302724944813e-01 2.794392329776712036e-01 -4.754621251234097956e-01
-1.971274023360062438e-02 -9.827457094916217106e-02 -6.981801671781230345e-01 -9.724752457717887877e-01 2.029824746360608112e-01 -1.144115874888549933e-01
1.398733698427703787e-02 1.476200779736748792e-01 -6.578821327421211507e-01 -8.999022949410223626e-01 3.672232366206227838e-01 -2.352083205283248823e-01
6.388473124249591240e-02 9.269541921544010438e-03 -8.314806019686120653e-01 -8.235024150036390767e-01 3.957068353529832883e-01 -4.065216758527165353e-01
3.803628408009114559e-02 1.665875573597015158e-01 -6.877614034502606000e-01 -8.554304092224221945e-01 2.097206487279807130e-01 -4.735568228572723526e-01
-5.491998696754750789e-03 1.563053244586413149e-01 -6.317343313826864204e-01 -7.946145991911144346e-01 1.177739892692107188e-01 -5.955811667639938634e-01
1.016219297028245205e-02 -1.685698701664237742e-01 -8.519312343127324327e-01 -9.620858296915183461e-01 2.368191889109219905e-01 -1.353053142724106039e-01
-1.333175913194113195e-02 2.521565258439457252e-02 -6.339971785141409466e-01 -8.490684138017382532e-01 2.024085549105521520e-01 -4.879688571858067370e-01
3.001937618404909233e-02 -1.040922159635756378e-01 -8.413596135855563318e-01 -9.319970626490120535e-01 2.079083264881217419e-01 -2.969100924362831906e-01
3.658795324834859114e-02 -4.586885283318821449e-02 -8.098137964144547229e-01 -6.979708448922625763e-01 4.761809586217812251e-01 -5.348723159095286617e-01
2.459068835228029812e-02 3.511724682247362866e-02 -7.446158453291032986e-01 -7.985584925314885840e-01 1.766551134327544736e-01 -5.754105533476920886e-01
3.101631466245415372e-02 -3.781652685940264935e-02 -7.902259253137207118e-01 -8.910888994907841809e-01 2.873020365850680324e-01 -3.513091416094598629e-01
-1.807158098665422041e-02 1.980301218358926363e-01 -6.107495521682514417e-01 -8.278893735680883381e-01 -1.696109729644516492e-02 -5.606349135681248930e-01
-2.609020561970331817e-02 -1.418403073937765380e-01 -7.003922512967919456e-01 -9.001014799453785908e-01 -4.038557280428094892e-02 -4.338044851190560602e-01
2.955676826248132549e-02 -4.520206766881820770e-02 -7.939677628417158850e-01 -6.932092497803247211e-01 5.150324773338873507e-01 -5.041849693419254708e-01
-2.404534212111350457e-03 3.745755742677152333e-02 -6.622115982778282728e-01 -9.982649782190097243e-01 -3.673375549010683000e-02 -4.601808849781827832e-02
5.289851929920224953e-03 1.138334860047994085e-01 -6.588072780838928333e-01 -7.257441146837783075e-01 3.350969452501024182e-01 -6.008373467802318180e-01
2.057310770987469048e-02 -1.741480045286896705e-01 -8.777591990074502526e-01 -6.604648449467410698e-01 6.273757783762999862e-01 -4.125358424382163380e-01
-1.775213921709014112e-02 -1.384008804121634739e-01 -7.281795437060986087e-01 -9.668927766130502865e-01 1.588017634189063110e-01 -1.997507408460647560e-01
-2.944519762517384606e-02 -1.707139237038480251e-01 -7.021786694662420780e-01 -8.944340416975344876e-01 1.824340151683354061e-01 -4.082959406633532851e-01
-8.731479918414501024e-03 -1.935566750018124782e-01 -8.213722090057069547e-01 -8.617369144221727062e-01 4.309178428657154947e-01 -2.678045985828311215e-01
-4.369404254500983131e-03 -7.041453890538169891e-02 -7.325260525388432864e-01 -9.583495132895284430e-01 2.360236448664243814e-01 -1.608074918705346135e-01
4.422291783932272291e-02 -9.435519534398204011e-02 -8.645090331105915737e-01 -7.981699320923091312e-01 1.218109071716269587e-01 -5.899888663337503614e-01
2.773567128482254396e-02 -1.249811187319217476e-01 -8.516023672060037963e-01 -8.458685817315556577e-01 3.478967575888620711e-01 -4.043194139521412156e-01
-1.470023707428459725e-02 -8.068105069358438852e-02 -7.051658075999930331e-01 -9.215132001614179114e-01 2.787733012435053559e-01 -2.703680240747047825e-01
4.857113288499860515e-02 -5.212306942306341867e-02 -8.453759749981299976e-01 -8.856006168055563510e-01 3.211930888737755674e-01 -3.354795778782088123e-01
4.758528283221790528e-02 -6.735722857097528604e-02 -8.517236086097311754e-01 -6.457300850776351853e-01 5.998651877282829004e-01 -4.724345603121579695e-01
2.997707157214852397e-02 1.664408492454389765e-01 -6.766670586631347017e-01 -8.512524094624542847e-01 2.255465910339408131e-01 -4.738122736457280326e-01
-4.262415434413694554e-02 2.437776992408684507e-01 -5.890539886391916724e-01 -6.499431378137786597e-01 -1.627317050467676218e-01 -7.423559185332541110e-01
-1.565011272900834055e-02 -1.993702476145233493e-01 -7.785507481704867505e-01 -8.910970211587976308e-01 3.560473631810869288e-01 -2.813829668862570799e-01
3.829328974546414993e-02 1.129272567623472862e-01 -7.223107492268133756e-01 -8.128008685899346109e-01 3.460599698785149503e-01 -4.686120413168330945e-01
4.549433996730577190e-02 -1.007423650266187770e-01 -8.755820829717259057e-01 -9.166380240815403813e-01 -3.422204908966575698e-01 2.065426552030843188e-01
4.670968160432906885e-02 1.444570545931609107e-01 -7.155559122851273823e-01 -7.455509140102379861e-01 3.650528663296035425e-01 -5.575753217306513854e-01
2.618295919255032855e-02 1.344615425434085298e-01 -6.843502599565588485e-01 -8.761836217357595880e-01 1.628927963429286085e-01 -4.536167963177603624e-01
6.040951088082451709e-02 3.585337770930777297e-04 -8.330398493138342353e-01 -5.936663927046610389e-01 1.649806101361032951e-01 -7.876176816528142055e-01
-3.355428930743965116e-02 1.857403806316250080e-04 -5.981345517129599276e-01 -9.213721046377518764e-01 9.700269602604277841e-02 -3.763826799403480750e-01
-1.760583109030481111e-02 1.281936804759014337e-01 -6.057531143377997696e-01 -9.425341773835040904e-01 -1.258223362948567847e-01 -3.095126235766565426e-01
2.262023042215326185e-02 -1.580449173669561669e-01 -8.681279261069143605e-01 -8.780143607885153578e-01 3.995264241755989154e-01 -2.635705192820214648e-01
-2.136378133493434944e-02 -1.503356433216109511e-01 -7.223724824365292951e-01 -9.510690862338507801e-01 1.667446834377577514e-01 -2.601226705913007864e-01
-4.366344648374696075e-02 1.077831749536270131e-02 -5.713812147659311780e-01 -9.509909543973248391e-01 -2.791783316507794321e-01 -1.329498544232099178e-01
-9.703747294776915097e-03 -1.832978649987830888e-01 -8.018168092396249502e-01 -9.616469523850920131e-01 2.742032974522482514e-01 -6.905840627949952348e-03
1.750760857189266953e-02 -1.076106940166415976e-01 -8.139439477222949471e-01 -8.294780293041570385e-01 4.868461463644628284e-01 -2.737645496987586302e-01
-3.638312522421079109e-02 6.835783556550956153e-02 -5.560573632037268954e-01 -7.702956705635704004e-01 1.569525737148201872e-01 -6.180699551954562665e-01
3.878017933893756347e-02 -6.271431089112490531e-02 -8.255077228927304445e-01 -8.883215452460940798e-01 3.267601793490435003e-01 -3.226648686228058560e-01
-1.979585552218700653e-02 -2.311068371558425427e-01 -8.579036320744301003e-01 -4.778728076152146675e-01 5.989005152230746365e-01 -6.426163339096568894e-01
2.546245659061502700e-02 5.619270124200562849e-02 -7.310784743748143244e-01 -8.468008226927411508e-01 3.773182533566419861e-01 -3.749123929277209943e-01
4.433516673290741755e-02 1.225163069817432893e-01 -7.268500661532678597e-01 -8.484581296349625879e-01 2.405780753106898651e-01 -4.714244286586609101e-01
-2.448231661476458348e-02 1.255065437447251131e-01 -5.828204688103704179e-01 -9.460675732901800972e-01 -4.206833698399797296e-03 -3.239420462352235464e-01
5.936614360257404244e-02 8.073821901042102511e-02 -7.856041537873066360e-01 -8.838828924391951558e-01 4.057826938011218632e-01 -2.325756605168025071e-01
-2.483903206238278344e-02 -6.588934554676416193e-03 -6.172457104885276102e-01 -8.890257811400719135e-01 4.205872708142487787e-02 -4.559212913920286381e-01
1.685683035027505305e-03 1.038570295451360648e-01 -6.604555847612537667e-01 -8.437903373919475314e-01 1.362334120809045312e-01 -5.190937525695888954e-01
5.275665293362143127e-02 -5.571115736110106298e-02 -8.576593424648240038e-01 -9.884533132442840930e-01 7.674843346485596407e-02 -1.306511595703907513e-01
8.820452442177474000e-04 4.021816238180322273e-02 -6.901942136843065567e-01 -9.638959513019779157e-01 1.290555323381854802e-01 -2.329147153714478946e-01
-4.004766886826038874e-02 -3.802848558417924046e-02 -5.964234120751974455e-01 -8.982392863120637339e-01 8.488296044814976071e-02 -4.312320344677006423e-01
8.511533748829234677e-03 5.411811485692335361e-02 -6.971906170913871881e-01 -8.119043720699450351e-01 3.701413830329783328e-01 -4.514494957136870323e-01
5.077641599683412228e-03 -2.826375894232054098e-02 -7.367527685534760451e-01 -8.983437930658261239e-01 2.222254136464004159e-01 -3.789383788820953058e-01
4.669884968793077892e-03 -1.550535333984943975e-01 -8.220304434193526077e-01 -9.826211011259354811e-01 8.010507046819959065e-02 -1.674483481773971494e-01
5.271865731452417443e-03 -6.145676857769936247e-02 -7.514446365204345835e-01 -9.134626970291298553e-01 3.486048448389186816e-02 -4.054265010551441617e-01
-5.120685399797466654e-03 -2.077109249305194028e-01 -8.549488864345607952e-01 -8.121168768983726416e-01 4.026378164747853039e-01 -4.223138252546920768e-01
-6.184720292330835208e-03 -1.376011412798944511e-01 -7.618666593841114665e-01 -9.864083081228600669e-01 1.363762008416165017e-01 -9.165250411311118284e-02
-2.585196771693035536e-02 1.856238635050204422e-01 -5.971349619031355305e-01 -9.879267584008732950e-01 -8.262580073088582333e-02 -1.310484532114828404e-01
-1.983490782804037816e-02 -2.289988262361647708e-01 -8.463349041951787610e-01 -8.066112462478535194e-01 5.845901088899372322e-01 -8.736533645866764730e-02
1.060682816591021135e-02 4.087585845363392312e-02 -7.105875042689433485e-01 -7.505642958593615743e-01 2.845049164887156756e-01 -5.964144450588781954e-01
-2.010347366760217164e-02 -2.330802877465480705e-02 -6.303742402757944729e-01 -8.378145863826729212e-01 2.542546217083828664e-01 -4.831369435101787735e-01
-2.737427460721273548e-02 -4.608950126893031352e-02 -6.270986528995139420e-01 -8.478758706808078305e-01 2.949013579319456624e-01 -4.406128652310964400e-01
-8.885130480925269858e-03 1.965360483560972815e-01 -6.213909898747858040e-01 -6.472872925113272169e-01 1.767259618078627532e-03 -7.622440801651382269e-01
2.473683177694913776e-02 -1.584872398746710320e-01 -8.769068480818806854e-01 -9.608536437882821968e-01 2.146203318311846742e-01 -1.752095556282628752e-01
-6.730776571386884802e-03 7.366390268066636167e-03 -6.629369657185860687e-01 -9.977566365035632767e-01 -4.015409003694592888e-02 -5.356625212203379449e-02
-3.231377347033117381e-02 1.189152079243686877e-02 -5.966839192956229221e-01 -9.246109427604756181e-01 1.290694713120068282e-01 -3.583792350329793042e-01
-3.564343903792260154e-02 -9.234773751145287923e-02 -6.357548245460877823e-01 -9.354778061048365512e-01 2.930221832090565415e-01 -1.975329704952567822e-01
-1.872553223985977053e-02 -4.683720502442568351e-02 -6.510925246300399705e-01 -9.016137667091969066e-01 3.591289211474789633e-01 -2.410788951275123770e-01
2.595872135649739121e-02 8.047867575036578291e-02 -7.171320943729708741e-01 -8.792708856658904004e-01 1.539990800627254464e-01 -4.507404940319373887e-01
-1.553871531138856406e-02 -1.967177962786298695e-01 -7.751536893306356646e-01 -9.868421466490127081e-01 1.002588034880686346e-01 -1.268493197471285416e-01
5.253181792846698533e-02 8.346356415552608210e-02 -7.696488851328320280e-01 -7.762480851822195493e-01 2.986027369541225385e-01 -5.552254638743118198e-01
-2.549047682578372415e-02 1.258517338896028223e-02 -6.121177090276168631e-01 -8.057102825210633590e-01 1.613245020232095261e-01 -5.699169638524470560e-01
-3.056529145981909390e-03 -1.528425184933923653e-01 -7.989453369500512103e-01 -8.769865001550991579e-01 4.784873173686600145e-01 -4.409722965281889784e-02
3.997751780382777231e-02 -1.132304859965349020e-01 -8.733977446047592741e-01 -8.373498179359465388e-01 4.306773848653165926e-01 -3.366931430371118417e-01
-1.202595166423365072e-02 -1.479631073915297634e-01 -7.474873356396931623e-01 -8.597478880372025900e-01 4.165997524962716109e-02 -5.090167143402762884e-01
-2.165625889973986449e-03 -8.602882397540521919e-02 -7.461086576664677228e-01 -9.411523213498812490e-01 9.377063024731081831e-02 -3.247143004561889312e-01
1.380123045527648085e-02 2.284982184875154060e-02 -7.259572138249347217e-01 -9.368517616298001061e-01 2.072219962332600973e-01 -2.817229508013913142e-01
5.114238547010888092e-02 7.932339641814474540e-02 -7.688900463626797688e-01 -9.133914284530272321e-01 2.509375454508375181e-01 -3.205408658995713145e-01
1.330348615154000776e-02 4.694706292341200432e-02 -7.131720730064484703e-01 -8.634605616207590151e-01 3.012103881260919103e-01 -4.046086511809809383e-01
-1.391081675439716399e-02 1.555948671440715581e-01 -6.230361704735478678e-01 -9.902345046164282572e-01 -7.765691733551130516e-02 -1.157800892079570709e-01
-2.410854047123127744e-02 1.185830646037601410e-01 -5.838323238231912793e-01 -9.592965690739772011e-01 2.318708667898268516e-02 -2.814470670911980443e-01
-1.251161917928871568e-02 1.142358026573941643e-01 -6.231900215676623445e-01 -9.610744636341291836e-01 -3.783349990759967557e-02 -2.736868678528668886e-01
-1.680450275402388741e-02 -2.133401390941404574e-01 -8.010789531757802617e-01 -8.795780554729807355e-01 3.051213867023966908e-01 3.650251822918201272e-01
3.656483199312746081e-04 2.480453992593337556e-02 -6.947660274985343332e-01 -9.974553753121249144e-01 1.223444612512059916e-02 7.023597788142202369e-02
-3.270133589280027619e-02 -1.456417812338164641e-01 -6.809523368248900921e-01 -9.211030296561939501e-01 7.069339474087026065e-02 -3.828467744387980543e-01
-3.520942022369371455e-02 -6.750786481835449604e-02 -6.228855683457121817e-01 -8.334466578982907548e-01 2.352299102457306446e-01 -5.000335566379068286e-01
-4.205946561540731786e-03 -1.376827451626803367e-01 -7.741074892868156088e-01 -9.971899541093266484e-01 7.213071993948837191e-02 2.023251503027343259e-02
7.007346275648347264e-03 -1.934475103723929112e-01 -8.706147237953195672e-01 -8.816339802677032322e-01 1.183733070848639324e-01 -4.568471133838092890e-01
-1.764399884613939914e-02 1.370111987261278252e-01 -6.063258607780509513e-01 -9.580809888065789925e-01 3.693836937592198666e-02 -2.841062754591242578e-01
-3.394205988163037646e-02 1.864915726209104285e-01 -5.658381740397333548e-01 -9.591405898430918064e-01 -1.937958707835928385e-01 -2.061370645533577850e-01
-1.673009660727027906e-02 1.144300026340102777e-01 -6.077539921211476681e-01 -9.502817100102116665e-01 2.375801355812403315e-01 -2.012966735871894175e-01
6.430311964235801980e-02 2.696740276521664842e-02 -8.259773687074355442e-01 -7.722093586972550439e-01 5.727110348109535343e-01 -2.751268379241488815e-01
-2.254694402684261426e-02 -2.296404728959809405e-01 -7.874538831675008677e-01 -9.844534048516533353e-01 1.657752735978128278e-01 5.805215189428566264e-02
1.204573038708891923e-02 -1.045001358139294595e-01 -7.956953723769371045e-01 -8.239720909831844686e-01 4.191266149671245556e-01 -3.813172877106392744e-01
-1.858136100084708739e-02 -1.566841588228421178e-01 -7.322211563262973621e-01 -6.654207845326267634e-01 2.726356560779903404e-01 -6.948992578402335418e-01
-3.894633800230621473e-02 2.114700581480502273e-01 -5.738635564003576883e-01 -9.638959513019779157e-01 1.290555323381854802e-01 -2.329147153714478946e-01
-3.393480683425210281e-02 -1.187997960728914976e-01 -6.648417325039897019e-01 -8.947425799645605249e-01 2.555755305233815000e-01 -3.662196933482061989e-01
-3.446287737734591433e-02 1.033081151322913158e-02 -5.926635725955395895e-01 -9.093314748530321179e-01 6.584701660961733705e-02 -4.108289659276985195e-01
-2.138871074526971575e-02 -2.320329736362420070e-01 -8.459778339347920895e-01 -7.323150903908517417e-01 6.706412319630804530e-01 -1.181310559373802277e-01
-1.525010837435075012e-02 -4.261688754214466857e-02 -6.600294818295745491e-01 -8.358993924800999231e-01 4.685634742693615684e-01 -2.858679349490341193e-01
2.624841978898095549e-02 -1.101409509647897633e-01 -8.376032938577709919e-01 -8.233806627537805234e-01 4.002139346047405288e-01 -4.023345507799915288e-01
2.860875669976843325e-02 1.998766334789504329e-01 -6.641890233427930612e-01 -9.026584296770606697e-01 -3.470677939729615441e-02 -4.289559403910967461e-01
-2.134356551820625059e-02 4.992454260654846654e-02 -6.081811787405053682e-01 -9.104178923920965838e-01 9.338653727999315923e-03 -4.135843937564392947e-01
-2.876046904135153362e-02 8.989976731589349734e-02 -5.735347185951136240e-01 -9.856518540291410169e-01 7.901718689297952680e-02 -1.491532997437093055e-01
-1.749723480892857730e-02 -1.621718501490486131e-01 -7.357925572054652141e-01 -9.783343248070182074e-01 -1.225243388368301919e-02 2.066683980881486304e-01
-5.307806118940828523e-03 1.330721507788543839e-02 -6.665915517446834304e-01 -9.759353908067233130e-01 7.826603650790162070e-02 -2.035301955491416737e-01
-3.141069905340994339e-02 -1.255833533630343890e-01 -6.746839601263895370e-01 -9.478915235847312770e-01 2.057738817892602323e-01 -2.432257574550780732e-01
4.482531696817375171e-03 -3.331039435495887491e-02 -7.356414738678130893e-01 -9.121743197163255656e-01 9.855868401602388418e-02 -3.977740517619118843e-01
-9.321931939866183459e-03 2.287327522625378640e-01 -6.188793148361430019e-01 -6.330952950365146270e-01 -1.818280825862656214e-01 -7.524153745010997429e-01
2.535652180660697905e-02 8.837932544575448357e-02 -7.112071761887879262e-01 -8.853927069315259413e-01 1.686139210500729180e-01 -4.331848336917910047e-01
-3.930529386259450086e-02 -3.309183949638438288e-02 -5.957961315459469054e-01 -8.015549688578774701e-01 1.062573084458986183e-01 -5.884037867834299718e-01
-2.261675285887260189e-02 -2.191544036620289015e-01 -7.649357023097943520e-01 -9.265859536778592309e-01 3.215274529614065013e-01 -1.950860513697542653e-01
-3.269501587028460221e-02 -2.772834120582844120e-02 -6.075632264562988993e-01 -9.217381855559656501e-01 -2.392931718761575483e-02 -3.870737721248117547e-01
-2.128782361108783744e-02 -1.385718391564164376e-01 -7.148975412094114024e-01 -6.793233577722599392e-01 4.009632546391895813e-01 -6.146122712850522474e-01
-2.113661705492149781e-02 -1.536834183271101884e-01 -7.252392441136886747e-01 -9.795530521375324096e-01 8.485731214601760497e-02 -1.824145131928876784e-01
2.448500686880967364e-02 -5.472496852071593448e-02 -7.882955712912509405e-01 -8.924593911055369588e-01 1.273312446274900145e-01 -4.327851538224809502e-01
-2.498600387177687607e-02 3.665286245931637793e-02 -6.035274424460045362e-01 -9.534929597903217813e-01 -5.006564987062985190e-04 -3.014148718516759806e-01
1.401595404612142326e-02 -4.166580015697009254e-03 -7.413874101149859897e-01 -8.618112074590044136e-01 2.564388943079571881e-01 -4.376305932909231866e-01
-3.870725644559572243e-02 5.450550506586170768e-02 -5.557712633444549244e-01 -5.369548103035843845e-01 2.196147008421128408e-02 -8.433251007313739001e-01
2.467232745088003207e-02 1.303571192080876517e-01 -6.833979677146564402e-01 -8.013884056226829866e-01 2.949596990083355186e-01 -5.203608356654507716e-01
5.903581248690352445e-02 5.075240064400794032e-02 -8.020858706757654222e-01 -8.966433412805485670e-01 1.249902014911723341e-01 -4.247448270061092157e-01
6.747174098879693376e-03 3.857406505306584191e-03 -7.215482100290431244e-01 -8.740763398180338983e-01 1.067647765500365220e-01 -4.739112096780678240e-01
1.951614680267007781e-02 -8.935207592117259956e-02 -8.001305105597661393e-01 -9.080505335030060188e-01 2.592229007382254036e-01 -3.290102070419189673e-01
4.845082819368048965e-02 -5.829751153031815375e-02 -8.512078761674013450e-01 -8.632634300900721147e-02 6.230586822873525055e-01 -7.773967075625154433e-01
-4.223865015452383381e-02 2.059062670673637505e-02 -5.695650335651453178e-01 -8.352374086913779694e-01 -8.432282792184186970e-02 -5.433858038390176892e-01
4.702914557245532062e-02 -4.838857179927798929e-02 -8.392881152901189301e-01 -8.216261241885297606e-01 3.675159579173755131e-01 -4.357321800452756411e-01
-2.520110231885961879e-02 -1.258133686511881955e-01 -6.966390876136517862e-01 -9.223481343083514972e-01 2.688641603630145260e-01 -2.774634794170113827e-01
4.342469146787374806e-02 -9.713753321949554140e-03 -7.975377711792895896e-01 -9.950979051055024449e-01 7.554205464650254331e-02 -6.382442506145552530e-02
-3.836623636522311365e-02 2.080646974143215422e-01 -5.714027826348402339e-01 -9.585928180504894591e-01 -2.497884884791115867e-01 -1.367681256921437216e-01
3.267378827268681979e-02 -1.192506272647187171e-01 -8.569802188147723765e-01 -8.621570078388892666e-01 3.812305603654121966e-01 -3.336893071073256944e-01
1.026214860525100081e-02 -7.765066623971361714e-02 -7.721556437232568459e-01 -6.740973453369215607e-01 2.776907069408038331e-01 -6.844564560937619335e-01
5.733370970977298697e-02 -1.045035449983637956e-03 -8.256533842438227300e-01 -9.520338309967436574e-01 1.993437216463833372e-01 -2.321500921340172996e-01
4.520724624219370907e-02 -1.062668428564977549e-02 -8.006392231853250996e-01 -8.732999365187347207e-01 3.966238115532211839e-01 -2.829077110744223078e-01
-3.189036894240834114e-02 -1.415289085385683376e-01 -6.804086629162284794e-01 -9.038547821051478026e-01 2.752639020329276098e-01 -3.275306353660107916e-01
-1.966153357091732917e-02 -2.020751778146095967e-01 -7.600386014322125794e-01 -9.330335701370128243e-01 2.438688661042274497e-01 -2.645304011685960521e-01
-1.010263070950217015e-02 -1.654758324464689900e-01 -7.749305523122674844e-01 -9.449836770901582916e-01 2.852949415474919093e-01 -1.600395149973171394e-01
-1.800178171329283594e-02 -1.224965351092718036e-01 -7.170095568080449011e-01 -9.785896547928464306e-01 1.248311023206070958e-01 -1.636443809785106951e-01
2.480431841786552918e-02 1.042254058216425389e-01 -7.024571334113254295e-01 -8.062574312277162036e-01 2.405791687085563069e-01 -5.404355818907413678e-01
-1.616420640623756830e-02 1.439108206451184813e-01 -6.136620767077612948e-01 -8.968292046103172321e-01 -2.459394112565454760e-01 -3.677107337960228151e-01
6.438219936445816957e-03 -1.837193225016924558e-01 -8.581793881930319667e-01 -9.663585739151990817e-01 2.313785537796021474e-01 -1.123168352093425332e-01
-4.259416576013404232e-02 -8.503642709723258086e-02 -6.153437102690343385e-01 -6.415817553365412707e-01 4.882232212975294305e-01 -5.916172220322412079e-01
5.798582908141264314e-02 8.211165738026718341e-02 -7.809358348439827679e-01 -7.360141627863172609e-01 2.483537478674719967e-01 -6.297646926417330704e-01
5.228057357909766251e-02 -4.877116552611895917e-02 -8.512447292310315605e-01 -8.983060541483011141e-01 1.492487116065953912e-01 -4.132445464422741521e-01
-1.578056370148350068e-02 -2.072299801476564507e-01 -7.905057156230760329e-01 -9.823828177445408372e-01 4.899976287097880523e-02 1.803414057804921256e-01
2.779267881913491389e-02 1.178291333809513564e-01 -6.988976139102476282e-01 -8.367722727114769166e-01 3.041027507743176983e-01 -4.553390830938663925e-01
-1.197806749660289619e-02 7.408174753931422163e-02 -6.252355051491871318e-01 -9.135747996798853077e-01 1.600124949989362444e-01 -3.738677397610986608e-01
2.699206931157427380e-02 8.616056406193935147e-02 -7.145608885469320049e-01 -9.285352482759637871e-01 1.799281734149519307e-01 -3.247278015825762476e-01
2.195553715043245535e-02 -1.266146328936012533e-01 -8.421654238013661642e-01 -9.036838523626372632e-01 3.632166198018823566e-01 -2.267800301585613520e-01
-4.463789264522573935e-02 -2.225526377210838846e-02 -5.829594593216803622e-01 -8.907349606847794199e-01 1.790173723193941024e-01 -4.177846457467577213e-01
-6.223978150741676756e-03 -1.459289356568864993e-01 -7.722492316109220711e-01 -9.783618651186384296e-01 -1.017975998698713025e-01 -1.801258158685547506e-01
2.275036766925207787e-02 -4.041387721511837533e-02 -7.740690400474287136e-01 -8.302001262863555331e-01 3.645850432667869234e-01 -4.217173182835565193e-01
1.268582554737267450e-02 7.399711365753920689e-02 -6.928547635430069018e-01 -8.890927852189001168e-01 3.248491501027493955e-01 -3.224702295549471409e-01
-2.627399286796724270e-02 2.877123978982196878e-02 -6.041069025401938353e-01 -9.266429104923621374e-01 8.020334854450185402e-02 -3.672878153662234579e-01
-1.983153586237737867e-02 1.573074148252726345e-01 -6.058073343794153631e-01 -5.438779374019193646e-01 4.148317330098322819e-01 -7.294596784576191650e-01
1.710850692398558498e-02 -5.303467545700100289e-02 -7.697761627534678297e-01 -9.283026934243480133e-01 1.241228602284551452e-01 -3.504962552578960167e-01
-2.789856390762136124e-02 -5.042920496457379761e-03 -6.110338546103381008e-01 -8.537730156996661268e-01 7.154411723690051739e-02 -5.157063863788097224e-01
5.058896917673850330e-02 4.041114572392270898e-02 -7.913721253884546947e-01 -9.230394113370072873e-01 2.744230877187119888e-01 -2.696112275955122595e-01
-2.094751585243013331e-02 -5.951135571692822007e-02 -6.573185697398594707e-01 -9.183513972380250578e-01 3.751959589069774892e-01 -1.259313448305887928e-01
-7.883275131864603573e-04 1.442678895467640332e-01 -6.403413262974392284e-01 -7.415004807387847174e-01 5.873617434597502851e-02 -6.683764649412412551e-01
-3.415075959932743765e-02 -9.965021443218269326e-02 -6.486130521127803084e-01 -8.005166423910555773e-01 6.437519215557552243e-02 -5.958430497118210045e-01
3.916630218726566137e-02 -6.478076436241650415e-02 -8.320861287936355266e-01 -8.821587832860549039e-01 3.919133896414883078e-01 -2.611508684476969711e-01
-8.471632349333010209e-03 -1.982666065394335930e-01 -8.312130107179691585e-01 -9.712987369428968121e-01 2.082387570620076178e-01 1.149581822681777638e-01
-2.564346452896495987e-02 -4.977837939878827778e-02 -6.326771461669036256e-01 -9.292637127836144151e-01 5.838807236101209441e-02 -3.647736080222604427e-01
-3.979361598915205460e-03 -7.472703304490599385e-02 -7.345182063645526727e-01 -9.371328956741299399e-01 3.013992503307112436e-01 -1.758989134290072920e-01
6.345658535351550965e-03 8.500795068490184236e-02 -6.741468007750784919e-01 -8.332747852190669491e-01 1.911510130163152077e-01 -5.187623950721121924e-01
-1.573144948987251213e-02 -1.822886217965842548e-01 -7.622744445202876973e-01 -9.485809077317151061e-01 2.052271767876567565e-01 2.409897661616429987e-01
-2.431164718802111477e-02 -1.194873379555965037e-01 -6.950419885043348511e-01 -9.495761525636503553e-01 2.514596110028478049e-01 -1.872783877459199553e-01
4.939346025426692016e-02 6.390788335274301402e-02 -7.736903787693081291e-01 -8.183273889468747342e-01 4.118823091584031815e-01 -4.008656232476565107e-01
-3.440706463523473396e-02 2.013387945243801103e-01 -5.810481469187795955e-01 -8.415589642591199127e-01 -2.605004506439556611e-01 -4.731997727064261583e-01
-1.338273110046331836e-02 2.045319994395333393e-02 -6.356968707943498886e-01 -8.242702750454685701e-01 -3.539222478260188598e-02 -5.650892886096897660e-01
2.911473597173267272e-02 -1.406760012528553705e-01 -8.725037578974285113e-01 -7.974382963906017086e-01 3.634691204511568130e-01 -4.816454732768880032e-01
-2.747981040931056843e-02 1.130131045116501975e-01 -5.732928099098476560e-01 -9.928777467431725290e-01 6.271717156064592069e-02 -1.012933187018444370e-01
-1.809573905028435958e-02 -1.982944263010624486e-01 -7.619629761478163843e-01 -9.678640869782132450e-01 1.682704497873622751e-01 1.868800815126870074e-01
-2.564407844469338699e-02 -2.041953936537149739e-01 -7.379085935461149326e-01 -9.361019216655349640e-01 -4.920291675207985604e-02 -3.482703909854821256e-01
-3.574530502554686476e-03 1.287175859479201649e-02 -6.746835217220135128e-01 -8.957156184839087931e-01 2.858718015862375950e-01 -3.405449219439740660e-01
-2.550651062609897782e-02 7.676385152468045980e-02 -5.887937633698033801e-01 -9.544738443812451623e-01 1.699104846617042752e-01 -2.451736274441262131e-01
-2.224396761042454762e-02 -2.235525443166779536e-01 -7.669606213774284864e-01 -8.616595525892358776e-01 4.671861394920989730e-01 -1.981916408383233574e-01
4.209762366093475205e-02 1.887964492035218726e-04 -7.871933993883989400e-01 -7.299580949919985962e-01 2.283470383403505832e-01 -6.442195352803598007e-01
2.598914095321928908e-02 2.066579586078928221e-01 -6.564166542319581632e-01 -8.943899518561473361e-01 1.924847683155287694e-03 -4.472839243480086768e-01
4.116464656878163902e-02 1.538530251679909311e-01 -7.007654373460640018e-01 -8.527680049950167041e-01 2.558295774586325511e-01 -4.553437788684021603e-01
2.859887273702708607e-02 -2.771762209175503838e-02 -7.763326236867998942e-01 -7.933247269504334342e-01 3.871100734320322978e-01 -4.698740987290817017e-01
-1.826915083178423660e-02 -2.280760248019726433e-01 -8.544405403685058076e-01 -8.621347481392181988e-01 5.066090593360852434e-01 8.422413521889210788e-03
2.277134899389449130e-02 7.069757829171267882e-02 -7.166236592854289267e-01 -8.112944347924447852e-01 3.735666903057840438e-01 -4.497213225640851464e-01
1.173680417789579053e-03 -5.434884009709221170e-02 -7.421733284584043355e-01 -9.293715961206647780e-01 2.467342399697387278e-01 -2.745735805766522097e-01
-2.063380835984173975e-02 8.569567322033644352e-02 -6.018379525389009332e-01 -9.663292316443566898e-01 -1.883937527549911506e-02 -2.566181872137203168e-01
1.651504319684294481e-02 1.875240561485084501e-01 -6.511393018322533255e-01 -7.913951841220158157e-01 2.280754340411140779e-01 -5.671642257190047109e-01
5.634500486838937144e-02 -1.489880366072041627e-02 -8.322116558364189842e-01 -8.728927074237654571e-01 2.580968471096319883e-01 -4.140583761240385074e-01
-2.087011251455119301e-02 -1.079834837369116757e-01 -7.030238156652710568e-01 -8.306188050412878221e-01 2.336563264540485463e-01 -5.054474471394448942e-01
1.176167161238992828e-02 -1.710529258754763249e-01 -8.591332407628443635e-01 -9.385857923678381232e-01 3.067688969029768176e-01 -1.579542790118974860e-01
2.271716729454962766e-02 1.912447012362513687e-01 -6.581908203346382713e-01 -7.007230135076044641e-01 1.605040902354735177e-01 -6.951443701552250110e-01
-3.397209103179896911e-02 1.909483628847083447e-01 -5.702707480912047044e-01 -9.567759761047982536e-01 -2.586058897337721318e-01 -1.330515890311522453e-01
-5.784110384513721503e-03 -1.604033431173234603e-01 -8.004681250466684217e-01 -2.180711554607143304e-03 2.842893096138791598e-01 -9.587360601001608806e-01
-2.651941605193045351e-02 7.129018817728216550e-02 -5.881272042256164845e-01 -9.414569630477523932e-01 1.872968665441713254e-01 -2.803188729137547908e-01
-4.152108207860433220e-02 -7.169385642021557092e-02 -6.095696582520971907e-01 -9.019462972196889972e-01 1.462608148258603413e-01 -4.063257941334363910e-01
-3.444343733098000071e-02 -1.035554062117730878e-01 -6.514855771135255047e-01 -9.153122940428539689e-01 3.888169846106586114e-01 -1.049988421473445482e-01
-1.168405791496125549e-02 4.685652620764684667e-02 -6.307960088735259374e-01 -9.657503188056110188e-01 2.806066064260624715e-02 -2.579513928071739959e-01
-1.728510048249313341e-03 -1.322790432532570948e-01 -7.854218180871112009e-01 -8.481878048951204674e-01 5.294249561292202477e-01 1.693113861411843848e-02
2.968082696334774489e-03 -9.738444784472530258e-02 -7.710021107812964347e-01 -9.481045829336453012e-01 2.011984712228098021e-02 -3.173214325758573762e-01
-1.354188797460206817e-02 -1.074549422323706760e-01 -7.234098120830734224e-01 -9.591623084813774014e-01 3.012684594227195076e-02 -2.812472917953974805e-01
-8.356578152848914004e-03 -1.766388929836399391e-01 -8.043431105145341098e-01 -9.326905986627958001e-01 2.989775058510954486e-01 -2.017441403389295396e-01
1.742682477261701599e-02 1.488856345465624509e-01 -6.615990781686972300e-01 -8.642416606359857312e-01 1.141694333600699884e-01 -4.899507041605250524e-01
-1.231891660746327680e-02 -6.009318666637505219e-02 -6.943376007036742292e-01 -9.542649198832435786e-01 2.082218904994078690e-01 -2.145276369074139988e-01
-4.630468843405927126e-02 -5.155252886790816051e-03 -5.737610637416780124e-01 -6.848151892609425362e-01 2.160207527959395746e-01 -6.959620614077861589e-01
-3.076242647209527156e-02 1.166762225744851222e-01 -5.565942278431131873e-01 -9.026531043741304883e-01 2.332120647917992340e-01 -3.617036162375086294e-01
-3.025077722947282048e-03 2.831140477831797786e-02 -6.608837287186959397e-01 -9.490288428442554824e-01 2.865572036478332696e-01 -1.312601405119910580e-01
5.140206483762294748e-02 1.459564623999576871e-01 -7.249576302066860212e-01 -8.950948154452723626e-01 3.677634209178906044e-01 -2.521018397349855111e-01
2.229814771109849686e-02 -6.876397495453608066e-02 -7.911091027129660835e-01 -8.923138273798049136e-01 2.053137427862572750e-01 -4.020227611589948236e-01
-4.974689545288615931e-04 -1.843905847648242002e-01 -8.375600406309282597e-01 -9.928780442043295684e-01 -7.128783900527047024e-02 9.545278071876150960e-02
-3.886753148570912947e-02 -1.294430858617940383e-01 -6.505129233072955985e-01 -8.474840601486182123e-01 3.467841217042854085e-01 -4.018849844517713987e-01
-1.340527577212886380e-02 3.615516907861554552e-02 -6.301144300152797806e-01 -9.543769820836329743e-01 2.266926469720622617e-01 -1.943579683926978385e-01
-2.278515609965685307e-02 -1.602469947015098262e-01 -7.217189326851722875e-01 -9.790578895965219575e-01 9.612475546168527951e-02 -1.794594110272175469e-01
-9.523992003785215418e-03 -8.300051394303360058e-03 -6.535341019773240889e-01 -9.295748430845675037e-01 2.418035370956976016e-01 -2.782474807654353177e-01
-5.214430172775058950e-03 -3.891683091273789169e-02 -7.074291069701517110e-01 -9.671607648748712371e-01 2.772086451431349935e-02 -2.526491807966796954e-01
2.275749064924141238e-02 1.294790129558068825e-01 -6.802863760896799006e-01 -8.301123080956531730e-01 2.703599095594420021e-01 -4.876669716631606977e-01
-5.715202238351863376e-03 -3.046983297371196053e-02 -7.001227515051704486e-01 -9.945510683422555953e-01 5.067042489699326996e-02 -9.110807044404069244e-02
4.850154370610909593e-02 -3.296137829036045741e-02 -8.270204673473617873e-01 -8.667853988632867601e-01 3.158169272577218134e-01 -3.859310052002868363e-01
-1.869138766203963520e-02 -2.192645728928680204e-01 -7.934466132728965615e-01 -9.750685895460191599e-01 1.960077472161886047e-01 -1.040298452943746038e-01
-3.160698682283494959e-02 1.970290575205475292e-01 -5.847046381329125131e-01 -9.382211465210475998e-01 -3.397574118665772080e-01 -6.561997639786157355e-02
4.911754033964103872e-02 6.107080745543775474e-02 -7.760428211462372383e-01 -7.856845065635744696e-01 5.005917989523880340e-01 -3.634662391028419259e-01
4.711267429237378165e-03 2.118353563879754858e-03 -7.169246127566814009e-01 -6.994847870405894730e-01 2.290683575886688916e-01 -6.769407065987470551e-01
-1.178323181810996684e-02 1.444957334183935571e-01 -6.276263049618265866e-01 -9.805720572763932941e-01 -9.974587863068265503e-02 -1.689058915045136833e-01
5.353327476269506210e-03 1.194941876201854533e-02 -7.145125003829519983e-01 -8.565854842090017129e-01 3.952837235396488014e-01 -3.316806990873308880e-01
2.546362791954089391e-02 6.932208567897184259e-02 -7.229274547942827756e-01 -7.972606005607160151e-01 2.790339542851502652e-01 -5.352715078813358174e-01
2.079304248040221223e-02 8.537117999769640656e-03 -7.508154774736213177e-01 -9.554944906611534394e-01 1.673153456414675777e-01 -2.429729479367178091e-01
1.240429155322624218e-02 -1.808352242664172382e-01 -8.694734009120836937e-01 -8.468149124406968431e-01 2.577108073252670217e-01 -4.652844762678140511e-01
-2.364732417161222872e-02 -2.185300136312745278e-01 -7.538165103732776817e-01 -7.349324927947532560e-01 2.242466859641800009e-02 -6.777694042023663101e-01
-1.590998864447698904e-02 1.122256966662993072e-01 -6.109417832036801999e-01 -9.434495192814488229e-01 -4.406047821424312338e-02 -3.285752255224600460e-01
-4.920724439362486081e-03 -1.687402121915236031e-01 -8.075682152107166445e-01 -9.516551186171710031e-01 1.044115462485021989e-01 -2.888784592518714445e-01
-2.083943107512347889e-02 -2.260072403894617665e-01 -8.336980232935088386e-01 -9.365892761132911248e-01 2.701077419800461121e-01 2.232539710554377610e-01
-1.957203594648856265e-02 2.164314876527890230e-01 -6.104302560680566758e-01 -7.917369158197904433e-01 -6.077020531883554379e-03 -6.108319948640714703e-01
-2.278337327317622382e-02 -1.426464203817923992e-01 -7.135234670957746328e-01 -5.488070273535911037e-01 2.173951422258749433e-01 -8.071865948242117339e-01
3.833680183069398950e-02 -1.784372119770093190e-02 -7.900237695731053833e-01 -8.705342424222537456e-01 2.384580344072924074e-01 -4.304740393995009629e-01
-1.714211602573638069e-02 -1.255638174432688048e-01 -7.202439009525285485e-01 -9.999947077732935785e-01 1.576787176376334611e-03 -2.845727957052271787e-03
4.406566022272786348e-02 -3.669923289124202292e-02 -8.178584330375846534e-01 -9.198675628450561081e-01 3.281335655051159095e-01 -2.148767786765163612e-01
-4.870244743395494603e-03 9.081555572556032629e-02 -6.448701606478914883e-01 -9.677810312711903062e-01 4.060165386410681532e-02 -2.484982519358447384e-01
3.531780511929498434e-02 -7.663577215403918896e-02 -8.303114067439024693e-01 -9.700692980702675383e-01 1.969633558828885189e-01 1.420246224455785078e-01
-1.598705566449536847e-02 -2.254210806500789310e-01 -8.520255504392391099e-01 -7.006366614792081116e-01 6.478352529878984578e-01 -2.990280147032637337e-01
7.239881605345278338e-03 1.995173974694232910e-01 -6.365206306729112029e-01 -8.787426133796143457e-01 2.675493164732585527e-02 -4.765454784837568902e-01
4.048433453744881144e-02 1.318825016222118229e-01 -7.119596591824948195e-01 -7.040699291318270880e-01 5.311444891658839706e-01 -4.713502588532398341e-01
-8.223668490561806405e-03 8.253444302852960823e-02 -6.361349802153835054e-01 -9.268130352272848649e-01 -7.619342888994978802e-02 -3.677120600779634763e-01
3.785250728808689513e-02 -1.299911030575915116e-01 -8.773457458956056554e-01 -8.259290508080819881e-01 3.238354605795636387e-01 -4.614886753783702944e-01
-3.310684558201858196e-02 1.824498124578718683e-01 -5.615949825518516958e-01 -9.623100512844441345e-01 -2.549614382399242318e-01 9.462573755358431871e-02
3.380691802506446270e-02 2.592829275258042021e-02 -7.655570590219170635e-01 -7.334610216618030476e-01 2.196162754273735251e-01 -6.432756961600771817e-01
8.799991824301755389e-03 2.015917081024691804e-01 -6.383564778178150156e-01 -6.992658860832005052e-01 1.566271805047062537e-01 -6.974920407341022033e-01
-2.682439772894970251e-02 1.697104141689746715e-01 -5.840160252049415579e-01 -9.720537173279414356e-01 -1.482360751979265312e-01 -1.820374594385594236e-01
5.943497335748938737e-02 2.365061662778213114e-02 -8.181431478756769904e-01 -9.070550711271242461e-01 2.040487332638956652e-01 -3.682597078095394272e-01
-1.394378101411484355e-02 1.354537735418132882e-01 -6.177129423208731485e-01 -9.451819647030983429e-01 -7.229753578216144283e-02 -3.184401355354228302e-01
-2.518442449403920577e-02 -7.598615058503804809e-02 -6.603161486887496601e-01 -9.260127824877772973e-01 2.696183138500886090e-01 -2.642088028546356049e-01
-2.352956292039233566e-02 -1.282462551567265241e-01 -7.031182424334537773e-01 -9.207568727059705083e-01 2.931688341954018576e-02 -3.890338053579484590e-01
2.142751646783374458e-02 1.930607450787652779e-01 -6.555135213503007208e-01 -7.527338532474705524e-01 2.895265993567527896e-01 -5.912411474518072252e-01
6.041656720860223706e-02 -3.324867684383200211e-02 -8.546379385800438877e-01 -9.318713369094833165e-01 2.812456759053116317e-01 -2.291651832872887151e-01
-3.316748079947828137e-02 -1.454785723129146113e-01 -6.772613092892756370e-01 -9.216363102307424393e-01 3.101922232143971558e-01 -2.331679573216962065e-01
-3.740006761831671245e-02 -8.415273764779616916e-02 -6.255403979587071950e-01 -8.911834548398683831e-01 1.108582635716768294e-01 -4.398891851563855870e-01
1.588176722249518696e-02 6.411740197106367833e-02 -7.062560468497929289e-01 -8.963192524005462181e-01 3.129000169247618257e-01 -3.141741192151408790e-01
-1.468936321142493874e-02 -2.132208647638860755e-01 -8.324552851130062603e-01 -9.126678860233830015e-01 3.618096043545874774e-01 -1.900819297523732854e-01
-2.475530859960434205e-02 1.401119325770380786e-01 -5.818410748741169591e-01 -9.985095488467491398e-01 -2.094433942161299383e-02 -5.039856652776909113e-02
-1.559284407137434721e-02 1.192221223005027197e-01 -6.116106508626313332e-01 -9.209787154203106230e-01 2.133407794613175618e-02 -3.890283573994869348e-01
-1.080110276114307211e-02 -1.929018810651402516e-01 -8.139870033026389562e-01 -9.364067118163824643e-01 3.508809110022231281e-01 -5.005632775239261117e-03
-3.030633895547543352e-02 1.763793613841022900e-01 -5.746215373660898962e-01 -9.143455836265385051e-01 -3.279695620676467693e-01 -2.375039369353707797e-01
2.004651496321228910e-02 -1.508360310885306921e-01 -8.592394007776139597e-01 -9.227322960725812262e-01 3.561906590713930787e-01 -1.472865376567352447e-01
-3.321756668115553868e-02 1.751809266341211868e-01 -5.588901698822636988e-01 -6.433467405497065306e-01 -3.529370648391306764e-01 -6.793676469238195681e-01
-3.775711246304417484e-02 -1.575578639112186208e-01 -6.747826132142895617e-01 -9.184429502675417467e-01 2.817045008990790023e-01 -2.776780892995601713e-01
-4.212622340675718606e-03 -3.522768334777653942e-02 -7.087414520284397446e-01 -9.767444602117196784e-01 1.539556239846890384e-01 -1.492244125108269370e-01
-7.653091810219477334e-03 -1.725740139051725464e-01 -8.044058168047795165e-01 -9.835374550093055612e-01 1.571653504863513018e-01 8.918030724504512341e-02
-2.509373971913791621e-02 1.712385022873457452e-01 -5.916698925473626858e-01 -8.760756321590207341e-01 -2.433618075459401953e-01 -4.162529487765160852e-01
-3.190914142663180131e-02 -7.381647299531925166e-02 -6.340234043439151312e-01 -8.689466584371960955e-01 3.758020939725622012e-01 -3.220318166837995433e-01
-5.218361350334937629e-03 8.119083071072080715e-02 -6.459390840784893228e-01 -9.971582111790298075e-01 -6.720228685224047260e-02 -3.404929544155788773e-02
-8.176881565549215525e-03 -1.442046102655225592e-01 -7.595815886105281578e-01 -9.945155984267338711e-01 4.079622894858642157e-02 -9.630364577465427844e-02
-5.290319661887648781e-03 -4.219069102845043884e-03 -6.823618741075418992e-01 -8.669627854039034798e-01 3.433260946024312976e-01 -3.612516041344975837e-01
1.809562761333544404e-03 -1.996634590673686538e-01 -8.604061248560400665e-01 -8.974791949163699600e-01 3.588781039980705745e-01 -2.563934499222135233e-01
4.815338023719998445e-02 -8.311193272104150376e-02 -8.641292581447111987e-01 -8.711498550281575604e-01 -6.019704108245325924e-02 -4.873132938155265714e-01
5.633811401994345824e-02 1.110363996790091623e-01 -7.588917965522580245e-01 -9.696414130883196369e-01 6.363489685616907643e-02 -2.361061835831320677e-01
-3.842205999248611559e-02 2.247196658997411556e-01 -5.913146393689010516e-01 -7.254701263915281917e-01 -5.752482256158619744e-01 -3.778658156532057610e-01
-2.860080292710974036e-04 -4.440713370769444439e-03 -7.131555162136707926e-01 -9.616663805969867251e-01 6.929782516135203629e-02 -2.653216611160835736e-01
6.376624529405561063e-03 -1.488898491274228686e-01 -8.214708228264446799e-01 -9.483146660713501763e-01 2.331197687683218556e-01 -2.153008767362263876e-01
3.534294546122675879e-02 1.629258034222400287e-01 -6.851312813695070725e-01 -8.107810946634228522e-01 2.251696378871123061e-01 -5.403079221241980923e-01
-1.659390773263925718e-03 6.026636100519158074e-02 -6.674895330236835234e-01 -9.628233712854818993e-01 -4.956594154940016650e-02 -2.655454257651232997e-01
-1.404942227554490698e-02 -1.591487946313363197e-02 -6.411294985375423083e-01 -8.942798450752681427e-01 2.603831300167870344e-01 -3.639562944844000891e-01
-2.270370902840519386e-02 -1.191099909940348672e-01 -7.019062015347933281e-01 -9.303453999382691464e-01 1.143440666147431672e-01 -3.484004466755248330e-01
4.904726472508765672e-02 -1.370823568561550104e-02 -8.105660276563045885e-01 -8.683411505883646964e-01 3.416885155756752002e-01 -3.594893663497804592e-01
4.040342593190064668e-02 3.833393400941844439e-03 -7.824368937883959818e-01 -8.940164478602979914e-01 7.914369953019614878e-02 -4.409885098048801910e-01
6.649091669575876717e-03 1.255155553837879745e-01 -6.554362181623241135e-01 -7.848026227507280961e-01 1.866676826126619226e-01 -5.909653285867086936e-01
2.583281242548692014e-02 1.573973195272260484e-01 -6.726263317339407077e-01 -8.294599817254992846e-01 2.094054631633685271e-01 -5.178276650713723450e-01
1.732378856992451699e-02 -1.126372801847916327e-01 -8.174936157181897922e-01 -9.014722178672573971e-01 2.362447192858388167e-01 -3.626792977591125622e-01
4.635032182650963145e-02 -8.583931478453156461e-02 -8.632027772865418225e-01 -7.776242377471329625e-01 6.059202371099864370e-01 -1.678130243120842247e-01
4.067145493357134101e-02 9.672730262776152443e-02 -7.383940258231762588e-01 -8.037464386741420830e-01 3.305424129436503877e-01 -4.947053421624058589e-01
-7.858205634025172692e-03 1.110036624047772494e-02 -6.505573179336601175e-01 -9.572735696820652285e-01 2.581139878851935673e-02 -2.880296590296496095e-01
4.490218081200652439e-02 -5.662495671903862438e-02 -8.402149512392054209e-01 -7.133743554524334396e-01 4.197821336645249923e-01 -5.611416837474150210e-01
1.347159144013389612e-02 1.206251045413261891e-01 -6.689486771831305578e-01 -8.850269874722924701e-01 2.815141770315680025e-01 -3.707789092922595398e-01
-2.005623487121310777e-02 -5.000079042950945213e-02 -6.483123333826438239e-01 -9.218852040685781013e-01 1.032426730352155875e-01 -3.734549785234887453e-01
3.234923627627194626e-02 7.134795975872813834e-02 -7.347148694156766524e-01 -8.409324670782434286e-01 3.053638378655437191e-01 -4.467499438586698957e-01
-2.569565626411742573e-03 -5.863321027467716801e-02 -7.344101887645810844e-01 -9.514913372804789660e-01 2.118365129340054609e-01 -2.231356691973896134e-01
9.646738602944933752e-03 -1.546443616347741301e-01 -8.357460116448679477e-01 -8.971544831285750421e-01 3.946038370338118551e-01 -1.984984765697011266e-01
