-2.882934367979117507e-02 -2.388357447352166540e-01 -1.024044653408820338e+00 -4.865224846874950382e-01 7.909474475194147036e-01 -3.710768210977730686e-01
4.116264343914650264e-02 -1.655740847929000337e-01 -1.027187119597184228e+00 -5.592936333665811111e-01 6.771619209934907069e-01 -4.781656244775591147e-01
-2.681450159753231283e-02 1.136308212789684663e-01 -7.881584748678989172e-01 -8.052515960412356399e-01 8.667368478224532491e-02 -5.865641818584820255e-01
1.589529226775934431e-02 2.283761147362779464e-01 -7.946087260907753747e-01 -2.806762595750907918e-01 4.898333972361189614e-01 -8.253993459308404113e-01
9.104498093761326238e-02 2.181100343347261092e-02 -9.490439371166214944e-01 -6.848073595803191305e-01 3.393060825683343329e-01 -6.449110501431667419e-01
-7.250072971681414957e-02 -2.349442950952318476e-02 -7.957721004976768819e-01 -9.861458750325620137e-01 4.074600872668683246e-03 1.658303674963988728e-01
-4.248502965292163397e-02 9.052296414705457428e-02 -7.774258856612689117e-01 -8.496884616253777001e-01 3.484429801183936970e-01 -3.957486674480552025e-01
4.175452792539235264e-03 2.314466787110763535e-01 -7.904505361458927792e-01 -3.156029113915274631e-01 2.261091916294616089e-01 -9.215581564838234430e-01
-4.353589116533987391e-02 6.624507908225629738e-02 -7.881710269979507189e-01 -6.342482266173180561e-01 2.454869189450623324e-01 -7.331202900340759721e-01
-5.503222207961531998e-02 -1.368550782733364002e-01 -8.853636485834841530e-01 -7.312962765398486331e-01 2.874459012305111694e-01 -6.185310095579139578e-01
3.044828895469873023e-02 -1.844486373519081956e-01 -1.032070395387239437e+00 -1.921476926475593761e-01 4.799196922889646388e-01 -8.560118884475172996e-01
-1.380931483621471167e-02 1.333898535804178657e-02 -8.462157555843479173e-01 -6.118210602761622319e-01 4.400862954148326844e-01 -6.572663408319349143e-01
-6.265176323195159776e-03 1.306519114170526519e-01 -8.099801717547955304e-01 -8.202052577506648845e-01 6.486672541925053714e-02 -5.683798405041725621e-01
-2.209630768665885384e-02 1.163767233625962773e-02 -8.316868012171315661e-01 -7.563880541541769809e-01 2.812761331787573815e-01 -5.905597754985210113e-01
-1.921589181977127400e-02 -2.238394441471021623e-01 -1.011959333470582312e+00 -9.299541727613030995e-01 3.619715505360692753e-01 -6.451227144004365033e-02
-4.520146415817689195e-02 -1.111137498356262049e-01 -8.843199730130848479e-01 -7.724021316074173305e-01 3.405117230168989151e-01 -5.361405725892982588e-01
2.193756710009764702e-02 2.113454609598757195e-01 -8.002910010564505683e-01 -4.249156768296386555e-01 3.941861216391186890e-02 -9.043742812572024281e-01
-7.171308951903463541e-03 6.258074239149130635e-02 -8.319736436637430455e-01 -8.551961362576167014e-01 1.965048133008344133e-01 -4.796096609532043975e-01
-7.666053963148945771e-02 -1.072387678985982223e-01 -8.408665259815193416e-01 -3.530124175783287410e-01 4.422779546091157310e-01 -8.244831374274919078e-01
1.126997877575491337e-02 1.992554489367386605e-01 -7.984312645773727901e-01 -4.963658550073544173e-01 2.977640451913511344e-01 -8.154492696508476302e-01
6.054551649401625907e-02 -1.886924088192151738e-02 -9.388949507162525077e-01 -5.938387331473312658e-01 4.331475412168470096e-01 -6.780403871096267743e-01
-3.868913004306006459e-02 6.431962291881199167e-02 -7.929757930713197123e-01 -7.984001789870330823e-01 2.152866617180727304e-01 -5.623244681496274433e-01
-7.189362291564173335e-02 -1.405575762575434762e-01 -8.667637951840356791e-01 -4.999184862369630555e-01 4.893214344532264559e-01 -7.145950188065827158e-01
8.159777732698540731e-02 -4.861773732860892594e-02 -9.806465228783989296e-01 -7.303585538765509089e-01 5.235683761180256468e-01 -4.386941284180663203e-01
-5.344618040921651769e-02 -1.130217030017046168e-02 -8.079424568113644511e-01 -6.882682315725289213e-01 2.118262719949500494e-01 -6.938418205187295573e-01
2.792986287365285120e-02 1.249705855633715668e-01 -8.329306708282709915e-01 -6.528879759138945804e-01 4.674575185426581014e-01 -5.960039926586047088e-01
1.429899756305026866e-02 -1.780478919612380750e-01 -1.008486800970432418e+00 -9.157142638350808106e-01 2.483671168063597834e-01 -3.158815637201257132e-01
-3.200714969949575855e-02 -1.226990201517988849e-01 -9.069237791439664909e-01 -7.385785397501517524e-01 4.261340435012628269e-01 -5.224093391104310813e-01
-1.255767378829675783e-02 -1.017624100151043598e-01 -9.199860274609282795e-01 -7.625955842598270973e-01 4.128935767515854449e-01 -4.979627186293119623e-01
4.555409052502205902e-02 1.511131182008493556e-01 -8.345572849218383382e-01 -6.710460093150852900e-01 3.054530712779444102e-01 -6.755706288976524032e-01
-3.820966560957273633e-02 2.039072879972667618e-01 -7.603402983043486829e-01 -3.682211108919544174e-01 3.006319300680417861e-01 -8.797918254434164975e-01
6.279231113504450679e-02 -9.180925009797230585e-02 -9.926588446394700727e-01 -7.417591500958490291e-01 3.667384385464713126e-01 -5.615124940209073046e-01
-6.909392840856241891e-02 5.511321794936348967e-02 -7.632923142939280758e-01 -6.849404146093714951e-01 2.867741429705322753e-01 -6.697889364256917055e-01
-1.199603919527732036e-02 1.134726643657356891e-02 -8.490474491019538439e-01 -9.631247822822205373e-01 7.691009853878699731e-02 -2.578284128962105015e-01
-3.641472587240375536e-02 -1.206898667486325655e-01 -8.998713004611443855e-01 -6.110643541634608322e-01 3.870656321109480213e-01 -6.904929771614950473e-01
1.165031927289079776e-02 2.339957314489330698e-01 -7.924623601159502817e-01 -3.156944841624228504e-01 -4.513088362620505944e-01 -8.346600068178752219e-01
6.543706697014770035e-02 1.129671535694472401e-01 -8.723311669648841082e-01 -5.113406464784151506e-01 5.379980104048327494e-01 -6.701409434286773603e-01
6.599157247465683822e-03 4.509042161718769537e-02 -8.608469424395686076e-01 -5.960385763786988367e-01 6.064514916053654892e-01 -5.262647658717816146e-01
-6.395441250481553874e-02 -7.338186253376231816e-02 -8.337351734324508490e-01 -6.891120016996893360e-01 4.913693922487514243e-01 -5.326169068613388902e-01
6.271475699462959741e-02 1.857502617016606669e-02 -9.255311466843830770e-01 -6.277737227478036308e-01 3.941537334903146839e-01 -6.712249901508506866e-01
2.541705068573162779e-02 1.951367220750447606e-01 -8.057252740137893499e-01 -4.407683420256271467e-01 2.128755319521074829e-01 -8.720133465515806925e-01
-3.736423740861211096e-02 -2.291358466133828486e-01 -9.762894247517138746e-01 -3.841425735930457108e-01 8.251330825447336093e-01 -4.142340874958713171e-01
-7.403204656933948247e-02 6.379337089665454430e-02 -7.507185308890171882e-01 -6.862303199951594879e-01 4.653599264835429072e-01 -5.590421153567701751e-01
1.920123067075366757e-02 2.141118774481120812e-01 -7.977797064980750585e-01 -3.115056682567372559e-01 3.903228732475287344e-01 -8.663788278020864153e-01
-2.337998901368034191e-02 -1.936032652181453872e-01 -9.650380784707306425e-01 -8.172341734453755224e-01 4.133303734271451813e-01 -4.016046665013123795e-01
4.503646484064838251e-02 6.563408343707384518e-02 -8.831635857660420363e-01 -5.074549988303391768e-01 3.994334671540755166e-01 -7.635066008093017720e-01
8.702819603626463230e-02 8.609259404341146338e-02 -9.071163990391988285e-01 -6.397861702977900578e-01 4.591071070805825549e-01 -6.163556769624060072e-01
1.060699197766120094e-01 2.230809292267758870e-02 -9.597812706322272902e-01 -3.443071105708776503e-01 4.923370627227626750e-01 -7.994103015847718874e-01
1.943216970556515058e-02 -1.589216185708819673e-01 -9.980777115889140072e-01 -6.417606540942643045e-01 4.918117265518865966e-01 -5.884424258009907094e-01
2.677812077056156061e-03 4.512029995047872090e-03 -8.792316790272411975e-01 -9.899985603060749151e-01 -2.942944089587275908e-02 -1.379737605505296505e-01
-6.968732261774861214e-02 6.193519898221873377e-02 -7.591928556035137943e-01 -7.538809137296670349e-01 3.369413248719835829e-01 -5.640337857855987069e-01
-2.267681990855264021e-02 -6.083672941172196119e-02 -8.823918398099512839e-01 -7.100191315515766988e-01 1.754333474706525620e-01 -6.819794523488124094e-01
-2.029294392588938331e-02 2.196756157260828513e-01 -7.830729316378621796e-01 -9.681316588227392161e-01 1.314718665265969533e-01 -2.131577807567515970e-01
5.499985173997650606e-02 -1.594895201477231073e-01 -1.035878525054155563e+00 -5.694950891909632551e-01 7.172613428594669660e-01 -4.015115308765254132e-01
3.671690180920234720e-02 -1.427696310744000219e-01 -1.003609837973390650e+00 -6.634111458139485551e-01 4.863785031720215812e-01 -5.686137557797626974e-01
-2.905436966860816539e-02 -2.322252305230832203e-01 -1.001802022702668271e+00 -7.119862501371289065e-01 6.629659098165835429e-01 -2.314125796855892037e-01
2.147845436970844887e-02 1.867213887138166883e-01 -8.071341743376266864e-01 -4.301405776725247265e-01 3.423646642216762181e-01 -8.353236020440976128e-01
2.023709551202561893e-04 -2.371437924471480815e-02 -8.922712186803417600e-01 -9.736832557516161835e-01 1.196138040491729337e-01 -1.939934415123837075e-01
1.500735085896412642e-02 -5.985900375033281935e-03 -8.969493257170189082e-01 -5.687884262398108515e-01 4.156974728851638434e-01 -7.097008786894151156e-01
-2.430288835852847940e-02 2.985925912963885778e-02 -8.204330751065058713e-01 -4.359411939587693463e-01 5.862503937979507418e-01 -6.828365479245748215e-01
6.485988627711659904e-02 1.260039805712045435e-01 -8.627467692003808475e-01 -5.285639926606576777e-01 4.399443122566106812e-01 -7.259952532735196584e-01
4.016523722786152772e-02 1.154377968888186529e-01 -8.492106567533026507e-01 -5.737581982684724080e-01 4.617737557610713250e-01 -6.764366403515046366e-01
-2.512000081773096971e-02 -1.258781216265292824e-01 -9.197573384634412097e-01 -5.906554515285253881e-01 2.362030584952354850e-01 -7.715790644756571615e-01
-5.411542457471184286e-02 -1.866196803241837177e-01 -9.122801416557808629e-01 -6.298526192843556526e-01 6.342204687528179008e-01 -4.483860780572836990e-01
8.867570175034203417e-02 -2.456760403474699504e-03 -9.574721969678227085e-01 -7.209584214906918920e-01 2.092057397286092302e-01 -6.606450733535029762e-01
2.799022551753650029e-02 -1.885201392631719042e-01 -1.033054635674788280e+00 -2.155440831645978883e-01 5.738955741377093078e-01 -7.900535540062345596e-01
6.355851031594156320e-02 1.150034068393143531e-02 -9.287203918875953645e-01 -5.563254576211670299e-01 2.732559399623309404e-01 -7.847503911932136589e-01
-5.091978408140288015e-02 -1.911071255571518690e-01 -9.202396203132665597e-01 -6.716794124747714756e-01 4.765542596812517573e-01 -5.672237692808719256e-01
-4.840852874706506881e-02 -1.221513860489906594e-01 -8.861337023937527757e-01 -8.885199255048074063e-01 3.763148969102207003e-02 -4.572922620869130372e-01
1.646164646774647602e-03 -1.966643928224099530e-02 -8.932008518258804930e-01 -8.916124800083096158e-01 1.302684032077812970e-01 -4.336557720348321321e-01
-5.759477731232363895e-02 7.599137905883093791e-02 -7.657260038544135838e-01 -8.471123979840052831e-01 3.064317488650932786e-01 -4.341660609366747581e-01
-4.106722569508425291e-02 8.189291398853651427e-02 -7.838591199003684951e-01 -8.041358827515568963e-01 1.939675060211553670e-01 -5.619093242501920216e-01
-3.669266234049076841e-02 -6.191611463678782512e-02 -8.622451996726623324e-01 -8.304348523096931611e-01 3.689339507976598931e-01 -4.174514295318771384e-01
1.027166554594141357e-01 -1.921930315563065775e-02 -9.804805397198892436e-01 -6.273101193038514989e-01 4.067942516248418405e-01 -6.640786482518259426e-01
-7.238281733062531739e-03 1.187884523234791810e-03 -8.665482437703313501e-01 -8.538366167305944110e-01 4.126704379900087427e-01 -3.172792800344616526e-01
4.707359889721327018e-02 -1.244588151606327436e-01 -1.000727073402272405e+00 -7.146661952102825177e-01 4.532877373381236086e-01 -5.327123582220921749e-01
-4.405240139683521544e-02 1.303859449889455957e-01 -7.618119240091723032e-01 -8.715730843860781674e-01 1.609856990886328054e-01 -4.630809467713850047e-01
-1.783890204876883642e-02 -1.484002258897753057e-01 -9.392623877379131514e-01 -6.955283986293607779e-01 3.458251581984604917e-01 -6.297977505970362433e-01
-1.788902575346000556e-02 -1.521187216655579544e-01 -9.421017763951601287e-01 -4.144429483500874367e-01 3.654978173070594916e-01 -8.334556905478911482e-01
-6.878313511063650909e-02 -1.106762109321556831e-01 -8.529741336354605963e-01 -5.289786340614150983e-01 4.603774663945497392e-01 -7.129054587690114575e-01
3.874763272506158429e-02 -1.109595640200548711e-01 -9.823772504095042990e-01 -6.962852208229871609e-01 6.055551573947164368e-01 -3.853437979469039321e-01
-1.824019658182509523e-02 2.826689519740738926e-02 -8.278305871549167527e-01 -6.075642558869399634e-01 2.451279217368833030e-01 -7.554984956659446249e-01
4.119273110982112768e-02 4.603204885529936508e-02 -8.920913345621067636e-01 -4.190807841897637998e-01 4.676096176568618201e-01 -7.782753637355457332e-01
-3.130395418100186122e-02 -1.544130552406691725e-01 -9.249818292016978027e-01 -7.970678603055530997e-01 2.412891441912315693e-01 -5.535904397326512072e-01
-1.626748219722417427e-02 4.484786174245498913e-02 -8.255928467665435422e-01 -6.597248864828451076e-01 2.745985816117307299e-01 -6.995417736861914149e-01
9.688647233862611452e-02 -1.453729400215807328e-02 -9.727747781548403694e-01 -2.398918716367787751e-01 6.814736578148751223e-01 -6.914083768851937428e-01
3.506050863444297970e-03 1.328434968378976178e-01 -8.138074792464277118e-01 -4.296423520935341855e-01 3.178934727010898076e-01 -8.451929893826481965e-01
-4.481046108917938892e-02 -8.418224193378635867e-02 -8.679694231847747687e-01 -6.992584631774870774e-01 5.288755772181714665e-01 -4.809659296632194936e-01
-2.721435228045042051e-02 1.029715200361318861e-01 -7.919897356341850658e-01 -6.489885230984948628e-01 2.369632226586239343e-01 -7.229538906414942900e-01
1.447218277015746048e-02 3.013606452167172378e-02 -8.765408462751512753e-01 -6.213526407268256113e-01 3.378626900991998916e-01 -7.069439146783373928e-01
-2.723507883221059148e-02 -1.532452187468069660e-01 -9.285927317374423895e-01 -4.625070783836591759e-01 4.384109513529557689e-01 -7.706380734033376756e-01
-1.492631879667802829e-02 2.247570404455456194e-01 -7.838709241488333035e-01 -4.032920067798678732e-01 -1.201619263824571168e-02 -9.149924417075516736e-01
9.124850052200492515e-03 -1.878867081063744227e-01 -1.010375984136256955e+00 -6.229336231328524986e-01 5.910674233181594239e-01 -5.124382911752486391e-01
-1.156670818360959301e-02 2.364917473119456173e-02 -8.417725966321132347e-01 -8.625628051542476582e-01 2.650109561906651701e-01 -4.309925756475913583e-01
1.856636337158896685e-02 -9.450561753028571474e-03 -9.018533609443094567e-01 -5.761051844232505381e-01 4.560043908120297029e-01 -6.783530143227802789e-01
5.486525644347606256e-02 1.786827970722044273e-02 -9.197021973767154357e-01 -4.897726897496968990e-01 4.152857348680953908e-01 -7.665901582921692548e-01
-4.073535026357830158e-02 3.098569140239173028e-02 -8.044456473399478336e-01 -6.367720350539907148e-01 3.046014285413541911e-01 -7.083356161479991142e-01
-2.612932647031399481e-04 -9.561003047423689838e-02 -9.319189517110123555e-01 -8.259892447579354480e-01 3.741470097403206130e-01 -4.216109375319759267e-01
-2.210537638539969083e-02 1.326970131835727706e-01 -7.889343178774004262e-01 -6.758233169282514829e-01 2.383225576473964047e-01 -6.974705748721586884e-01
4.266061321750557606e-02 1.935869899757321211e-01 -8.156461780231650804e-01 -5.019470835708501610e-01 3.168720234015255932e-01 -8.047616082295058204e-01
2.002758188639910952e-02 1.184961537842887658e-01 -8.310097999415194669e-01 -5.116773194428348992e-01 4.614468586576508380e-01 -7.247434838636226395e-01
-5.697449086333585683e-02 -1.733330633681569033e-01 -9.024713174040563946e-01 -9.483587296400810551e-01 3.167573813745662159e-01 1.674757475513653088e-02
-6.990900387975375330e-03 7.769623088773715269e-02 -8.273232301658296484e-01 -7.161750014707273237e-01 2.457337538173062497e-01 -6.532291248124652006e-01
1.755401842639306431e-02 -3.979455332078348645e-02 -9.157298595216695203e-01 -4.000446695055049906e-01 3.962190361878910605e-01 -8.264228565102554880e-01
7.740197977675371266e-02 7.169184726577991495e-02 -9.076588219181905837e-01 -6.882819728624879341e-01 2.765961276504882993e-01 -6.706433538038500952e-01
-1.161171912503061558e-02 -1.751361329600728267e-01 -9.711849515104881148e-01 -6.242017768806563671e-01 4.400154349325767211e-01 -6.455683997533696594e-01
6.828034040969856167e-02 -1.360241375546733800e-01 -1.028051308982815382e+00 -5.507691379506547413e-01 5.683443845857847343e-01 -6.112593698184903834e-01
1.752809542217334884e-02 1.374196381160685265e-01 -8.201416961971084163e-01 -4.597509893406028225e-01 4.585554813692311327e-01 -7.604971389206995891e-01
7.434155104809528347e-02 -2.273310286821381490e-02 -9.550593706752954493e-01 -6.921147327433457841e-01 4.029241760028517416e-01 -5.988566649140926179e-01
-1.217211587752546230e-03 -2.191150426343756730e-01 -1.033045746549646537e+00 -4.808646884031121393e-01 8.205799718843064250e-01 -3.088974930123727924e-01
-7.199387734839450548e-02 -5.402554013894237533e-02 -8.135565926967101014e-01 -3.653802021008993872e-01 5.336256839815852748e-01 -7.627194355120966440e-01
-4.260516250638061303e-02 -1.257011484939274393e-01 -8.950935776781774322e-01 -6.574783103943151463e-01 2.970923865235591266e-01 -6.924293359114507274e-01
8.411799880001219476e-02 1.222663499159394318e-01 -8.810156136908872115e-01 -7.281395783631030572e-01 3.668191738545938385e-01 -5.790133401864206997e-01
-6.968398933619014690e-02 -1.211704839819181950e-01 -8.571120691386063806e-01 -8.121702352477960796e-01 3.306387785668750134e-01 -4.806844152719581542e-01
-6.102025932243197726e-02 3.082503103251038601e-02 -7.847320158290552738e-01 -6.183003392619975669e-01 3.310180040217567954e-01 -7.128336211781476361e-01
4.333863004497351401e-02 8.490211139600219170e-02 -8.705953233567312877e-01 -6.775486835382409367e-01 2.987310028476789642e-02 -7.348709950154332926e-01
-1.935647965301992828e-03 -2.103120550330328242e-01 -1.020385280529621630e+00 -7.493530211213513814e-01 5.797997079027634726e-01 -3.198473830628811299e-01
3.463067468452890596e-02 -1.608131180483815259e-01 -1.015814794775496965e+00 -7.892743758257880771e-01 5.383003966391255446e-01 -2.954295899922221857e-01
-7.659456181943588918e-03 -2.004683352842163979e-01 -1.003125913676097047e+00 -8.729820174062381533e-01 4.840533558406542869e-01 -5.995620055286511596e-02
7.284430818339518107e-05 6.908567718301206195e-02 -8.409875269662816510e-01 -9.200215335625423485e-01 2.405659779029515610e-01 -3.093353973550785341e-01
-4.340144112022138040e-02 -1.288520336959328785e-02 -8.170368224944406510e-01 -5.217599793828701094e-01 2.361587659213133794e-01 -8.197533538771947237e-01
-1.584789900070293547e-03 -2.667448282550530583e-02 -8.911050878122995789e-01 -7.673227355941535377e-01 3.404331812986824968e-01 -5.434345117041823325e-01
-1.098210274739318173e-03 1.804954264977370049e-01 -7.974811567385281519e-01 -4.774552483482188414e-01 4.295655154355437766e-01 -7.664919789360722380e-01
-2.329820313221311889e-02 -1.284124676784679508e-01 -9.214305740064057115e-01 -2.695846743671757584e-01 4.054753488038259079e-01 -8.734493945608753362e-01
-7.205242412091926452e-02 -1.200108188429884482e-01 -8.545004747811428825e-01 -6.605251308630815110e-01 4.593857692857702957e-01 -5.938613192286814613e-01
4.510870165478292337e-02 -1.346674034919973506e-01 -1.005852758568809291e+00 -6.886314101979776892e-01 4.229838641433933955e-01 -5.889579200274562831e-01
3.778530837430349454e-02 1.325491047880040518e-01 -8.373631277428534858e-01 -6.232050869333656262e-01 4.552662036530813472e-01 -6.358837184829370104e-01
-4.835752475995632599e-02 1.699626750949903009e-01 -7.426888241493845300e-01 -4.994796668308690846e-01 1.329446047826135166e-02 -8.662235968519421681e-01
-5.871386446652220037e-02 1.131136409956116778e-01 -7.447493992211495772e-01 -7.039495248794489513e-01 7.995587660609626210e-03 -7.102049964622605405e-01
5.711978729008563432e-02 1.027771816997637977e-01 -8.715794003467551843e-01 -5.033195725514132413e-01 5.220885272487807427e-01 -6.885440999688123842e-01
-4.812369512440425184e-02 -4.103705244961985271e-02 -8.291049328162349852e-01 -6.094869004440837124e-01 5.362361640464230472e-01 -5.839319263029220108e-01
4.020221956252192919e-02 6.281784242060904633e-02 -8.805715768089109607e-01 -6.126113856324773010e-01 3.714282017450902806e-01 -6.976735491201201400e-01
6.363969455617471405e-02 9.476409752269124905e-04 -9.331759622313657854e-01 -5.966371377827812683e-01 2.219095186151356369e-01 -7.712200019231667536e-01
-3.690969213032292695e-02 -7.059123973182669654e-02 -8.689443283304987276e-01 -7.716862911816427806e-01 3.768057100672506654e-01 -5.123648357011201249e-01
-5.335844493829752788e-02 -8.752343843744633811e-02 -8.585759866414639507e-01 -7.432275052746608601e-01 4.458133075039872328e-01 -4.988620753831252141e-01
-2.923789516740787214e-02 4.890616393509202020e-02 -8.079518756693221393e-01 -5.824584772968398605e-01 -2.642640761970994553e-02 -8.124307768698596499e-01
-1.079302411692109739e-03 -1.472993553633250019e-01 -9.683095216452285436e-01 -8.237400198515950622e-01 5.636022094651351733e-01 -6.168410800936991595e-02
3.236301915802926310e-02 1.344775329833121091e-01 -8.310857930543696925e-01 -7.582758451028653868e-01 3.188167164128536957e-01 -5.686595150608676486e-01
5.879161704942557215e-02 1.100248054356498945e-01 -8.673347316408114294e-01 -7.399955778042180965e-01 4.395535378668956050e-01 -5.091161283822159822e-01
-2.026157008831745016e-02 2.010667127361702167e-01 -7.847986502820847310e-01 4.345634138979465044e-01 3.037954049499502762e-01 -8.478578838653667571e-01
-7.999281603866755658e-03 -4.873171304992349878e-02 -8.937782786396711865e-01 -6.487046636917718212e-01 4.691215614862868644e-01 -5.992555547120218540e-01
7.608419337198633892e-02 -7.109742471114736950e-02 -9.914364775471268265e-01 -7.037019348964013155e-01 3.488302744186502213e-01 -6.189677103630445432e-01
6.127076600301684106e-02 7.073862280603458730e-02 -8.934049932498491220e-01 -6.046716184603644351e-01 4.210766238264909700e-01 -6.760670903803907006e-01
2.927602519434556461e-02 -1.777828251012335548e-01 -1.022524637295757932e+00 -7.072118944691413445e-01 2.069584203488444851e-01 -6.760322097119922935e-01
2.075098232153109717e-03 1.865734101434916511e-02 -8.728880395940419312e-01 -4.980522835128725068e-01 3.344313803498710214e-01 -8.000622317825615282e-01
-5.021343715252830908e-02 -2.004691943842973612e-01 -9.281042724212783535e-01 -6.145209837857101842e-01 5.137855555601648083e-01 -5.986554630042020264e-01
2.617701759844784717e-02 -3.570564439220200864e-02 -9.212973304626654869e-01 -5.622622239181274129e-01 4.255685927010408043e-01 -7.090504667942171269e-01
-4.316171338348694791e-02 2.177409512892772292e-01 -7.548735697067326944e-01 -6.073223007244724636e-01 -2.841174026817100406e-01 -7.419143646918643364e-01
-4.002841857159628036e-03 1.127183394521520249e-01 -8.173058628034181039e-01 -8.626474172461420231e-01 1.430054276260539770e-01 -4.851689202618503782e-01
-8.764614592540932725e-02 -4.910075200951392188e-02 -7.964702636997641472e-01 -2.805998836215118364e-01 3.901695748728378765e-01 -8.769443586426353132e-01
8.512803641353833273e-02 1.252992682071152608e-01 -8.808122796935640153e-01 -6.854081699566225705e-01 5.365882198486779942e-01 -4.922283239273624322e-01
1.243648069961529948e-02 -4.632202173363106357e-02 -9.166607951852516756e-01 -4.308374582841321687e-01 4.674268003376578773e-01 -7.719399399340393098e-01
2.540920326626470993e-02 5.893522744528399693e-02 -8.687490268296507168e-01 -6.174705615577540385e-01 4.390926480908844964e-01 -6.526314059268727430e-01
7.174098474793157154e-02 1.367145705198538619e-01 -8.621857193778775796e-01 -5.391097540336999838e-01 4.642368997143171416e-01 -7.027409010790269805e-01
1.656956694096580612e-02 1.635750833752303846e-01 -8.108614919461782922e-01 -3.691884907306435815e-01 2.062988865212973810e-01 -9.061681012550059089e-01
4.859900704112271597e-02 1.008417276885078262e-01 -8.653783957640089897e-01 -4.621837583539825101e-01 5.596798080755689409e-01 -6.878551344187827654e-01
-4.197458692823539256e-03 -1.356702430933361403e-01 -9.517808590126407564e-01 -7.362833815485256839e-01 3.335054825307168791e-01 -5.887791395569496045e-01
2.768350759132822553e-02 -7.939375605921278334e-02 -9.481651727136162222e-01 -5.807464525673238231e-01 5.202814063014734591e-01 -6.261316284036690938e-01
1.222003630052036563e-02 1.023213416378489504e-01 -8.351326307400077642e-01 -5.471066798420261001e-01 3.639854371024785484e-01 -7.537830473349425020e-01
-7.281795912889829636e-02 -1.256905205420542036e-02 -7.910657838140311426e-01 -6.143621765292708314e-01 3.553090224515759177e-01 -7.044960004249295471e-01
-2.731291346647982121e-02 -1.599106691455989271e-01 -9.334877512670209931e-01 -7.482900804468162193e-01 4.442494377403130024e-01 -4.926503755933949735e-01
-3.483633871944395721e-02 -2.426733468521792003e-01 -1.017229364541806680e+00 -6.668740854331743906e-01 7.448928054874419669e-01 2.033869491179667727e-02
5.900575604396461615e-02 1.200197402418586717e-01 -8.612501229931051050e-01 -4.440239727079367538e-01 5.734343015609445482e-01 -6.884880634070377203e-01
-1.822603582701413580e-02 -2.324272011506794411e-01 -1.032516509402748861e+00 -6.884625356067036739e-01 6.774172393785433677e-01 -2.590853543887446930e-01
7.739285919291478966e-02 1.142925971643949518e-01 -8.809629092832663710e-01 -4.164191904181264725e-01 5.251172655477905904e-01 -7.421906192314230433e-01
-6.953243736106759498e-02 -1.046380662707987741e-01 -8.485268250142660174e-01 -6.817275462550348442e-01 3.940119818274615549e-01 -6.164431124227809367e-01
8.414084079049280462e-02 -8.261973229505796545e-02 -1.006536599175148039e+00 -4.609327017446202546e-01 3.995388079356693156e-01 -7.924075879342329376e-01
3.438679317754540082e-02 -1.202229315630979484e-01 -9.857287192232346840e-01 -3.970383640016131310e-01 5.431327838694898213e-01 -7.398427647798556661e-01
1.806548542375887093e-02 -1.534473059428471398e-01 -9.923677942890088977e-01 -6.875490695970819521e-01 4.770960024948167066e-01 -5.474081487333312124e-01
-3.526538152938155785e-02 1.514684558499194977e-01 -7.672958223089072494e-01 -8.879314578458024076e-01 1.356098388807785993e-01 -4.395312250188340153e-01
-7.699233217276073293e-02 2.938538574231082390e-02 -7.692799449728594530e-01 -7.042922950092630474e-01 4.118425117488048737e-01 -5.782370696410086275e-01
8.873064270361911976e-02 8.944707360407824770e-02 -9.062654343849916305e-01 -6.075279663187388435e-01 3.962245576776932121e-01 -6.884154777703168637e-01
-5.893116676824536326e-02 -1.738302621595530506e-01 -8.993724526061116498e-01 -6.899527224682756588e-01 3.889889673332176945e-01 -6.104529662895016306e-01
7.732035540122429718e-02 -7.678206707618973059e-02 -9.965361003242643179e-01 -7.884355783200465151e-01 2.278604241644638373e-01 -5.713571264443321196e-01
-1.848124614399279317e-02 2.537680675870645705e-02 -8.290327954843416114e-01 -7.536456235735653486e-01 2.533729127416480820e-01 -6.064820204731753428e-01
4.924512882082878601e-02 4.764690753730769363e-02 -8.975414249146475010e-01 -5.891363095239606773e-01 3.795162319304374865e-01 -7.133623472694716749e-01
3.182854231534273937e-02 -1.576273855841714144e-01 -1.008955420130079661e+00 -7.943520625852792394e-01 2.071376040667539942e-01 -5.710506226666747231e-01
-6.918799860443839225e-03 -1.294418753996657567e-01 -9.417857910114726394e-01 -7.679291202379980863e-01 3.359476385919559771e-01 -5.453659784172300018e-01
2.594037601840051138e-02 8.470641732129684243e-03 -8.998593167943388371e-01 -5.599475887776091954e-01 3.389883685176812711e-01 -7.560063384865647329e-01
-4.629180012150227973e-03 -1.291890252152451124e-01 -9.447613663671555750e-01 -5.918922475953029005e-01 4.468289290313836037e-01 -6.708259650738389590e-01
-6.774150255543792687e-02 -1.039632445519361736e-01 -8.514484969028249806e-01 -6.638290244486827474e-01 4.725952846493076120e-01 -5.796418922289432452e-01
6.489430690017336523e-02 -9.310941033965337843e-02 -9.968504998365482761e-01 -6.160487614076207707e-01 4.797719910647835762e-01 -6.247421549390350659e-01
7.505669084674157499e-02 -9.538323803325964023e-02 -1.008606179640673783e+00 -6.798444222967601203e-01 5.622915594195955213e-01 -4.707863248624199470e-01
6.627393592931225819e-02 1.744693782359306314e-03 -9.354622840028429254e-01 -5.492568730050679804e-01 3.594656668532735244e-01 -7.543880445834396653e-01
6.801293115431615577e-02 1.291529387807928142e-01 -8.630363825973088598e-01 -6.971854649908997281e-01 3.218970357042316155e-01 -6.405581361673988727e-01
5.836806275543837685e-02 5.419197823443192702e-03 -9.276316138093685382e-01 -4.528542965928086805e-01 4.274642248985771054e-01 -7.824303946609505456e-01
-4.703060895091221161e-02 1.919394543716343993e-01 -7.455848545868699606e-01 2.652556789889570776e-01 -1.671303218489893216e-01 -9.495824768195549881e-01
4.004697330277062067e-02 1.556816326600989897e-01 -8.287711187323082429e-01 -6.102156549767112637e-01 1.970635796199880774e-01 -7.673348682346577965e-01
-7.872721350848101499e-03 -1.810127883244118663e-01 -9.826163792593052282e-01 -2.549018780215652202e-01 5.572968189892423263e-01 -7.902185065698923427e-01
-6.547448694250004864e-02 -1.156817188803242608e-01 -8.617133833366458218e-01 -7.847942185624848799e-01 3.030809199024211420e-01 -5.405922590104308423e-01
6.137895145374457073e-02 7.390810899148166080e-02 -8.914851332237015979e-01 -6.502580411094908142e-01 4.247617175437721770e-01 -6.298745615451636359e-01
5.366679704572675097e-02 3.666809614763091862e-02 -9.082622353269665938e-01 -5.330630803996299072e-01 3.646311015474325012e-01 -7.634709634944630841e-01
-1.549170938877434539e-02 1.927230075468517045e-01 -7.862784649244897173e-01 -3.842297987332815579e-01 1.500260542492109495e-01 -9.109663247408186226e-01
7.425657257667983568e-02 -1.307055841702390031e-01 -1.029222126965128048e+00 2.624648796126137218e-01 7.005309275762416910e-01 -6.636027474921325497e-01
9.208691886206236965e-02 -4.860982382579142475e-02 -9.937678910122702547e-01 -5.859695427503912590e-01 3.189211400068630020e-01 -7.449355686404162125e-01
4.136970735762314499e-02 1.190016302707972012e-01 -8.487023823849204618e-01 -6.539434503932247678e-01 3.895949443073571383e-01 -6.485165711513863895e-01
6.714530344275028645e-04 -1.008444682730589431e-01 -9.361156848911976747e-01 -5.281515287116487212e-01 5.341331065169973441e-02 -8.474685722578587654e-01
-2.862725226188821137e-02 -1.975885290551856188e-01 -9.582457462249984737e-01 -7.847942185624848799e-01 3.030809199024211420e-01 -5.405922590104308423e-01
-1.310351074490490215e-02 1.482211750148330898e-01 -7.977234847133443107e-01 -1.733279244238637717e-01 -6.707131688509417045e-02 -9.825776656662896791e-01
5.173007915716218430e-02 -8.424129890710736757e-02 -9.754315794780425986e-01 -6.574707595713366048e-01 3.226977750383386301e-01 -6.808805668353264950e-01
-3.545292792256491549e-02 4.608675089772189953e-02 -8.022055135298749029e-01 -6.768174014828614027e-01 2.920476109048100177e-01 -6.757413691752042206e-01
-1.694527258613611961e-02 1.257044627750600330e-01 -7.976812540736938351e-01 -8.490620998874154335e-01 2.381494079856324164e-01 -4.715701538592804720e-01
3.770989156162187633e-02 -1.540930631545277263e-01 -1.011992609039359170e+00 -5.819602333825529827e-01 5.033385962323709828e-01 -6.387272847656896291e-01
1.195919733763270952e-02 -1.298372908520434577e-01 -9.677937417721278468e-01 -9.538603003344382769e-02 7.946780571357274781e-01 -5.994900255896209451e-01
-5.231153608094538110e-02 1.578050152495950875e-02 -7.998456113269823975e-01 -6.783693594891688772e-01 2.466017942801705665e-01 -6.921001135414260874e-01
2.185974105309465912e-02 -8.021507762648051598e-02 -9.431333108919643937e-01 -6.391363102121868645e-01 5.354290253001837696e-01 -5.521055477301837211e-01
-1.389997000973866234e-02 1.592505496065663440e-01 -7.954629289817880533e-01 -6.696502838625277843e-01 8.339709165844524930e-02 -7.379792831955033217e-01
-3.308968194502976551e-02 6.318724953424639801e-02 -7.987172348570924507e-01 -4.928175046025608519e-01 3.592632227067891759e-01 -7.925028983969943930e-01
-6.860564809263409308e-03 -1.816393173731891417e-03 -8.688514044114309387e-01 -7.269236088428634446e-01 1.769642187613461037e-01 -6.635252310086285910e-01
9.821674304952288104e-03 1.948853855629469334e-01 -7.989119545408999157e-01 -3.155005153315293409e-01 2.022587382018470048e-01 -9.271196404167781902e-01
-6.679066575520851978e-02 3.786674582999653704e-02 -7.755488154627171449e-01 -8.203343604719378623e-01 3.704447601238440302e-01 -4.356859152255029288e-01
3.144975769680128513e-02 -5.381112384087711337e-02 -9.359352362792043856e-01 -2.959004559785877175e-01 5.371919790998013200e-01 -7.898529595706420547e-01
-8.551979691230110481e-02 -5.546152488735270336e-02 -8.005515443394283226e-01 -4.246909306935162665e-01 7.630723121985003576e-01 -4.871942731013053640e-01
-1.757786075359632494e-02 -1.789682661301503566e-02 -8.621258661148203384e-01 -8.132215059080815101e-01 2.241979312312662176e-01 -5.370345146824476723e-01
-2.179555341811491992e-02 2.240578370577897549e-01 -7.815353975867017633e-01 -7.195501651905295004e-01 3.491679929219371203e-01 -6.002743310296949630e-01
6.428785574681157577e-02 -2.190454849996601241e-02 -9.434970138595984990e-01 -4.771524633016762662e-01 3.991201326388745252e-01 -7.829614591328678541e-01
-2.777848260746132100e-02 6.167499204094970683e-02 -8.047880400114483246e-01 -6.112673025602134436e-01 1.513806078851407388e-01 -7.768115578292367207e-01
-6.043595088656109060e-02 2.401942241121642410e-02 -7.887714086732233731e-01 -5.094897351826093157e-01 4.667215090487407125e-01 -7.229047259043345219e-01
6.976187868847585904e-02 1.512273772978735553e-01 -8.519070243635961104e-01 -6.238371073553440338e-01 2.250491781688300219e-01 -7.484518226927174833e-01
-7.960659410960566063e-02 -1.279812391666343419e-01 -8.520424952088904158e-01 -2.202692118487145079e-01 3.690532592055624783e-01 -9.029292143802294390e-01
8.704016349157306376e-02 1.080463445256465704e-01 -8.932277266065836718e-01 -6.996031833505292896e-01 1.895678312325421722e-01 -6.889262828544110429e-01
7.358031620664987060e-02 8.264267414061284012e-02 -8.979689692632185638e-01 -5.913888835430951563e-01 4.005031549945701208e-01 -6.998974291001837100e-01
-5.690901495464759444e-03 -2.264915702675349973e-01 -1.040380419816987256e+00 -5.634391167082533070e-01 7.849336849978630903e-01 -2.577119941304606421e-01
2.446011951005998622e-02 1.032183715733457630e-01 -8.432823072567331435e-01 -6.875240311404212656e-01 4.867301692923327039e-01 -5.388918712553402157e-01
-8.231766632745715628e-02 -3.522463281205932134e-02 -7.928541602448266890e-01 -7.277118892411756912e-01 2.268335605210734518e-01 -6.472881445526181832e-01
-4.842378545893168823e-02 -1.783917098290066228e-01 -9.156471735000674128e-01 -6.905915274311394958e-01 4.810698206068435567e-01 -5.400510808633058879e-01
-3.532541960018318467e-02 -1.755009624345592600e-01 -9.320708792147931465e-01 -2.292465914000332561e-01 1.758257751695753435e-01 -9.573564107047511929e-01
6.895895445714539385e-02 3.523003845467876077e-03 -9.361990024352635498e-01 -5.618097487597780715e-01 2.923067116720989289e-01 -7.739034775150707146e-01
-8.517501615258520065e-02 5.633787724586229902e-03 -7.714329180506882544e-01 -1.790270200188159577e-01 3.876526402703636132e-01 -9.042537014547402663e-01
3.900333750835418417e-02 -1.456360982992747910e-01 -1.009744744263086247e+00 -6.377720736464048690e-01 5.262719611777939566e-01 -5.623918606762041694e-01
2.820300307237424628e-02 -1.162205911079240185e-02 -9.118091405841708408e-01 -5.584270101083067539e-01 3.675963710916612670e-01 -7.436613357851401540e-01
9.347323664830974044e-02 -2.152273409829304207e-02 -9.770989579066882147e-01 -5.091153407219941585e-01 5.081353359399614078e-01 -6.946942134570508465e-01
2.899891839362113075e-02 5.056579811726626301e-03 -9.043987284441509233e-01 -6.078292635200003291e-01 3.208653598029660992e-01 -7.263532248756434662e-01
7.044944135705670518e-02 4.726259399639703290e-02 -9.159938438032624308e-01 -6.538033478488431971e-01 3.628149008049291191e-01 -6.640079292414767798e-01
-7.185516732027111275e-02 7.404933794246705558e-02 -7.483698733898440647e-01 -2.119039671903823197e-01 9.677444620184717794e-02 -9.724872314078489843e-01
8.919632154911263933e-02 -7.761093497310332656e-02 -1.007286790492301520e+00 -5.701620511433932448e-01 5.038898292464422113e-01 -6.488530460882107054e-01
7.578230284333062339e-02 -5.696269250780481436e-02 -9.812893803950379912e-01 -6.910667610909749792e-01 5.174927739481316458e-01 -5.046067385862945676e-01
-1.238834852749796066e-02 1.190830317408333311e-01 -8.061150991261731846e-01 -9.409598801919757394e-01 -2.437658114020012090e-01 2.348887674211483367e-01
3.771640526608725091e-02 -1.582896602474779812e-01 -1.014521076862533455e+00 -6.104683088446734018e-01 5.662827099511605899e-01 -5.537619852488019356e-01
-7.471206422481033171e-02 -6.190484187361560732e-04 -7.847435365655538453e-01 -6.367539351695925554e-01 2.341226472082457988e-01 -7.346638769602338304e-01
-2.303882685157059712e-02 3.443346171046230558e-02 -8.206002628617821149e-01 -5.985127394534146550e-01 1.000237194107466143e-01 -7.948444855864631453e-01
1.439220844604507596e-02 4.489485859277769081e-02 -8.684829134273264195e-01 -5.729756122503982807e-01 4.393791102068746457e-01 -6.918417053633703073e-01
-7.505264094190582623e-03 4.202712707874954601e-02 -8.377645920834919657e-01 -7.847942185624848799e-01 3.030809199024211420e-01 -5.405922590104308423e-01
-6.533394372747818035e-02 -1.276143124347197677e-01 -8.683833850269477850e-01 -6.187243485011656441e-01 2.533945075019228832e-01 -7.436204704953098821e-01
2.873188912397535780e-02 1.967386773618761131e-01 -8.066456280827751790e-01 -5.318685422539132235e-01 2.798635997926735008e-01 -7.992447805721247800e-01
-8.064132350525758663e-02 -1.033404592905449171e-01 -8.328961484468138110e-01 -7.033089098001724659e-01 3.569821150754338146e-01 -6.147522646659892009e-01
2.985807892880894265e-02 -8.369936780744528793e-02 -9.536419251144668818e-01 -5.813926453077745693e-01 4.491579362766828787e-01 -6.784097141563492084e-01
7.541617053683200012e-02 8.156070469527136602e-02 -9.003217898526079122e-01 -5.183254574230982126e-01 4.616487038359957662e-01 -7.198744296290019440e-01
-4.460066756521394171e-02 1.121094730185353966e-01 -7.654844547822523548e-01 -7.751132499996573610e-01 2.124694484803046901e-01 -5.950262037401744530e-01
-7.569948220236601133e-02 -1.375389179385531624e-01 -8.603355136202753828e-01 -8.455625372692332498e-01 4.423580706169058518e-01 -2.989035512115986171e-01
8.990149281954286364e-02 1.041062610202594246e-01 -8.989154837251775998e-01 -7.847942185624848799e-01 3.030809199024211420e-01 -5.405922590104308423e-01
-5.791038904982609772e-03 -1.323970021600376634e-01 -9.455407519415423012e-01 -8.221836856539782579e-01 4.054928651168553944e-01 -3.994865747228106279e-01
-3.910169325136875207e-02 -4.766121662375276402e-02 -8.476327267535108678e-01 -7.534205814719879823e-01 5.048612850278367814e-01 -4.212748631172438252e-01
9.247497878270272142e-02 -5.771692952388923076e-02 -1.000502644145001785e+00 -5.907302661228743812e-01 5.342933631734316791e-01 -6.046224894553803297e-01
-2.471000932409787854e-02 8.768291809975300999e-02 -7.999996531795898758e-01 -6.078239784790926414e-01 4.783900139623865622e-01 -6.337925573300108306e-01
9.265547476473254274e-02 5.236698954821598223e-02 -9.333063888344352854e-01 -5.750273487599745215e-01 4.819322514527963341e-01 -6.611239317916977054e-01
-3.393408177380494856e-02 -2.439331987953059222e-01 -1.029587366952870564e+00 -5.919671921896372258e-01 7.977504662757332055e-01 -1.147564243428986358e-01
-9.693600477543914268e-03 -5.580209007262496024e-02 -8.971258042784890918e-01 -7.430670467102007404e-01 4.063633058705625190e-01 -5.317144231025974221e-01
-6.111387603859540912e-02 -1.657513199827630179e-02 -8.030941049454070058e-01 -5.610820734649865082e-01 4.555235744568306155e-01 -6.911477265753709354e-01
-1.153993181237965467e-02 2.463765459539482283e-01 -7.824424059513257479e-01 2.058483245872641254e-01 7.673129339509396907e-01 -6.073362566620054137e-01
5.881732932706316974e-02 -4.775234284548585811e-02 -9.585129878094056366e-01 -8.143622408957760239e-01 4.641472418485432794e-01 -3.483984478834539211e-01
-7.711702253250152239e-02 -9.339885262140874833e-02 -8.311849327195415249e-01 -6.364266408271594955e-01 3.112370840141269190e-01 -7.057567629005342402e-01
-4.382452002385810869e-02 1.758276108166651475e-01 -7.505945711098144235e-01 -8.587897555476018407e-01 -7.484428622404806775e-02 -5.068318148913925070e-01
7.119469936661465548e-02 -7.911087685161573291e-02 -9.906160882209930074e-01 -7.399950265558793427e-01 3.511976634881603943e-01 -5.736441072939042485e-01
7.149917919850611037e-02 1.045233372909791514e-02 -9.356525044058914276e-01 -6.324188080468964301e-01 3.360283685923685648e-01 -6.979479828251485829e-01
4.275560665390939694e-03 1.038391951091220400e-01 -8.290204306455468686e-01 -5.297128604690951592e-01 4.719581564669680929e-01 -7.047409339593875277e-01
-8.576098963239330020e-02 1.396099011809784525e-02 -7.673939300275679498e-01 -4.916854964365840464e-01 4.841498507921750405e-01 -7.237708854132119951e-01
8.533513387523207483e-02 -3.047911888737450670e-02 -9.733016690190401388e-01 -8.917356103320428495e-01 2.767819249750521626e-01 -3.580493922252114825e-01
-9.560303644329932321e-03 2.156009402550495280e-01 -7.866817764249233180e-01 -2.236945133667093966e-01 3.005122220588736237e-01 -9.271748319938745153e-01
-4.920995026659941152e-02 -1.554867726683266116e-01 -9.023098703032206291e-01 -6.134811411266557490e-01 3.651178562303892816e-01 -7.002355607534233028e-01
-1.895438153593586098e-02 -1.146521889068779880e-02 -8.531290054991083061e-01 -8.272128968365001223e-01 3.615909777420325266e-01 -4.300823038941808951e-01
-1.919178463049285230e-02 -1.005077950954973570e-01 -9.108904659692024230e-01 -6.828162901413773467e-01 3.879099242901345446e-01 -6.191024184695037569e-01
1.002588945898720725e-02 2.176566588848095618e-01 -7.944035833370615141e-01 -2.820194051550378722e-01 1.855685024130297456e-01 -9.412913396118038900e-01
6.024919073195476871e-02 9.797639969370844359e-03 -9.280075214127235794e-01 -6.977113216531312112e-01 -5.501293315784398785e-02 -7.142635989761842996e-01
-1.263740151767568307e-02 7.789293631445982913e-02 -8.163309449649461813e-01 -9.996568522628365150e-01 -1.281019857232208736e-02 2.284899421188689092e-02
-7.643581733089677144e-02 4.613451100313300385e-02 -7.593330860439683194e-01 -7.371436040210337381e-01 3.368259738521278135e-01 -5.858050617649587233e-01
-4.557044489691432915e-02 1.753244170068177510e-01 -7.476163092320478043e-01 -8.958970071109931821e-01 -3.595961594751857521e-03 -4.442472529006498139e-01
-4.119180817699057140e-02 -1.484641126693551742e-02 -8.199270458761926950e-01 -7.073786883980998086e-01 2.458770787703151717e-01 -6.626913711038950883e-01
-4.401597150345554210e-02 1.022377210454404189e-01 -7.700135912416520290e-01 -7.437392450384650022e-01 4.119105431010871010e-01 -5.264804268648374252e-01
2.661918413257793187e-02 -1.910391218046639944e-02 -9.140878807789850624e-01 -5.982148172722752122e-01 3.232847359532938225e-01 -7.332298492938672529e-01
-4.001183343440945644e-02 -1.138338449700962984e-01 -8.917550498818481719e-01 -7.233530936504086739e-01 3.072768801910522596e-01 -6.183374651486327478e-01
6.802631657808803911e-02 -9.045812421135633608e-02 -9.955024146936898299e-01 -7.230077917744689442e-01 3.433069254150655780e-01 -5.994998648836050714e-01
-7.397155083958069366e-02 5.087122740706739865e-02 -7.591782517886576098e-01 -7.883341263435923452e-01 2.561426841854687608e-01 -5.593927337571951153e-01
1.044982913630457949e-01 1.449440501736255424e-02 -9.651601996719472165e-01 -8.817714651842186724e-01 2.523049445730061180e-01 -3.985238990711704732e-01
5.332014255648206275e-02 -1.403430655959702067e-01 -1.019945065197051193e+00 -7.897821930817223723e-01 4.464769499638869821e-01 -4.205976945276442280e-01
2.446043858472073465e-02 3.493634628800833947e-02 -8.835236604232256097e-01 -8.287411957316939137e-01 2.951557487055768703e-01 -4.754693623181753259e-01
1.954431012769707390e-02 7.963011515594922707e-02 -8.508002717272699078e-01 -7.472411131656400141e-01 2.847218457165818228e-01 -6.004699737428328410e-01
-2.188289845647270037e-03 -7.967696301418369931e-02 -9.193481561415024483e-01 -7.492485382623400580e-01 2.610026208578528628e-01 -6.086906109158236600e-01
-9.003173218581645570e-03 8.748435549584812621e-02 -8.182450731977777281e-01 -8.594230645523754930e-01 2.649330147684425540e-01 -4.372670737674028696e-01
-1.192829922831758560e-03 1.903737860468985299e-01 -7.943897917679380027e-01 -5.504466161999107543e-01 2.079067513620087848e-01 -8.085686770164698389e-01
-2.416185046430790670e-02 2.639393468163848955e-02 -8.221452668887749837e-01 -7.123413196084269483e-01 3.178262577317892967e-01 -6.257446078670844125e-01
3.719776355367336584e-02 -1.148617352018447280e-01 -9.843088204911677463e-01 -4.677690680285309655e-01 7.829546241304664589e-01 -4.100904236243994583e-01
-2.632394405493966930e-02 -1.479117356947175499e-01 -9.265385073340486333e-01 -8.560859749524801776e-01 1.649217748530322214e-01 -4.898138541007052149e-01
-7.430221579628137028e-03 8.561985326798642049e-02 -8.218770672964752499e-01 -9.155212102417210618e-01 1.032471030546184693e-01 -3.887942248907037546e-01
5.238399282197112733e-02 -7.143830308869923706e-02 -9.661969840334645454e-01 -6.290549957880033904e-01 5.099670531170241716e-01 -5.867055624495931543e-01
-5.991081075010058071e-02 -1.454746977875650549e-01 -8.825826429844327858e-01 -6.664056296785575428e-01 2.601900930465538830e-01 -6.987164319043533967e-01
-5.044396406831942736e-02 -3.387320019830064588e-02 -8.220442198995987493e-01 -4.882096736190958408e-01 2.776527874803305651e-01 -8.273815590095892070e-01
3.551067452413157050e-02 -7.121011781040054167e-02 -9.501902087132513275e-01 -6.489866212642663168e-01 2.954410825276326813e-01 -7.010926701762699720e-01
8.037828123277106218e-02 -1.175408297913082545e-01 -1.024953289318325966e+00 -2.011120573112910870e-01 5.141389228787973664e-01 -8.337956034814828499e-01
-5.631772723403392911e-02 -1.894514164073685669e-01 -9.135019075541118694e-01 -1.182491992327250607e-01 7.720521576533514452e-01 -6.244618425041068566e-01
4.202088508453929311e-02 -2.874192311673332348e-03 -9.197550947858906811e-01 -7.095508172065476682e-01 3.643082507049567598e-01 -6.031725592811851833e-01
5.888570436690385851e-02 7.597326280511004781e-02 -8.889029471587864828e-01 -6.735038135342165111e-01 3.910166298265184692e-01 -6.272946742592182545e-01
-1.278489683099432242e-02 -8.390170659611147219e-02 -9.090120956386733564e-01 -7.357014498904570488e-01 1.812303518450354423e-01 -6.526093289244367934e-01
1.425825940510533178e-02 2.553431795645167562e-02 -8.787572851458634871e-01 -5.574558675134203556e-01 4.007079622928662044e-01 -7.271011516494516602e-01
3.310592096738699305e-03 -1.860723619814105140e-02 -8.963437743598628993e-01 -6.213613495896015415e-01 2.783301898675324959e-01 -7.324222679878678033e-01
1.338714470732960821e-02 -1.941343303562501899e-01 -1.021603408295096660e+00 -5.289761329930818823e-01 5.515627688183728505e-01 -6.449517522862431296e-01
-6.997437083135940594e-02 6.710323621356101276e-02 -7.559887113771887046e-01 -7.431850180031871478e-01 1.932624408456283804e-01 -6.405666694216863855e-01
7.005887859966679343e-02 -2.361701525647332683e-02 -9.516493365167109086e-01 -6.509933786495946118e-01 4.077791128394950282e-01 -6.402529313374676345e-01
2.518928346946914480e-03 5.477809121639184292e-02 -8.533991510383435175e-01 8.955811725057057082e-02 5.152883330624264957e-01 -8.523246314898328402e-01
-3.041231256112610429e-02 -2.409179195546653773e-01 -1.028408780811737699e+00 -5.962816477405914473e-01 7.798067581362913003e-01 -1.906557539984899130e-01
-1.366664597948651430e-02 -6.577450478251177513e-02 -8.999779004321059039e-01 -7.418053976531699956e-01 4.992525014140918871e-01 -4.477406524366470131e-01
