-3.482740309046265109e-02 -1.925034651481363213e-01 -9.241162502325921402e-01 -9.636527912161649834e-01 1.989575818064208690e-01 -1.782952007852023346e-01
2.599595602876229525e-02 -8.706673821704845329e-02 -9.818382663222132711e-01 -8.372630736341165614e-01 3.348942960325224649e-01 -4.322457125451134585e-01
-1.652161231348110368e-02 5.346201479413690422e-02 -8.280394707703665480e-01 -8.940229096454657132e-01 1.498704513644198155e-01 -4.222107114189317389e-01
5.298172801285666589e-02 6.610602121806458120e-02 -9.399508647095392577e-01 -7.518335507229773063e-01 2.547513113346885349e-01 -6.081513638729563187e-01
-5.516298810145466025e-02 -8.644520671974706416e-02 -8.234726258897903106e-01 -8.108844234088747882e-01 2.001011167627368137e-01 -5.499327185603362089e-01
-3.726997973399134856e-02 1.644595151509411768e-01 -7.649912129176297260e-01 -9.329041598329917973e-01 -2.089575750075438609e-01 -2.933028476051096622e-01
-1.031043870854491881e-02 5.328929279223103277e-02 -8.428647089540530768e-01 -8.800983429661090041e-01 1.702500453154698890e-01 -4.432175862693056301e-01
-5.187367218404155024e-03 3.544088292698415604e-02 -8.565878581764360122e-01 -9.809306588089150569e-01 8.582182423147172168e-02 -1.743836491598052540e-01
2.874929577277745424e-02 7.068268180120051980e-02 -9.040843705541425912e-01 -6.961844846819864596e-01 4.321033199585396778e-01 -5.732485361245023281e-01
1.705150404842114067e-02 1.105868596423575240e-01 -8.675014514836184576e-01 -7.641924671966356941e-01 1.716626757730843611e-01 -6.217248578160144978e-01
-3.842055803328923384e-03 -5.735832466792379486e-02 -9.208889670480615575e-01 -8.992584897668066679e-01 1.869665029331480932e-01 -3.954461978111194487e-01
2.669733370846917586e-02 1.352743039662464286e-01 -8.647793588085507244e-01 -7.569104814664350256e-01 2.765021095338574542e-01 -5.921428091850615694e-01
4.175880246894572018e-02 1.212459774393423867e-01 -8.939430987730667688e-01 -7.357586518104680673e-01 2.450232614560453603e-01 -6.313658271014395140e-01
4.932447803068844977e-02 1.422327472969476259e-01 -8.913226914204739337e-01 -7.795750005888929524e-01 2.593275239436264035e-01 -5.700982843177967441e-01
1.799013578332906002e-03 -4.224033778956924612e-02 -9.258496794774593308e-01 -8.249456262376833049e-01 1.172791292436916877e-01 -5.529107700119051394e-01
-3.449249929380830693e-02 1.737166760434231266e-02 -8.116552968408369262e-01 -9.389928256140614993e-01 -3.370356570694931220e-01 -6.855245662305339827e-02
-2.576644483085485660e-02 2.025512941564086566e-01 -8.030481169683095777e-01 -9.012661399826095154e-01 -1.833194164491615263e-01 -3.925727148867915739e-01
5.539210194384337760e-02 -3.949828956562986132e-02 -9.973317005814745784e-01 -7.633732253370231202e-01 4.328380169029281688e-01 -4.794919915515701292e-01
-1.126207182057787498e-02 -1.349031940451291857e-02 -8.734786196793922208e-01 -8.595136223992553282e-01 2.153122814988732148e-01 -4.635482222443100264e-01
3.687860435380248270e-02 -3.811742914249899999e-02 -9.671237459308421602e-01 -6.821965335973354527e-01 3.113248701316072564e-01 -6.615774442839760239e-01
1.316022270863168378e-02 -2.033794774346530665e-01 -1.055264193976444220e+00 -7.987900048833727062e-01 5.900226889465116642e-01 -1.175064024925846495e-01
3.988274836671171220e-02 -1.575887904595983935e-01 -1.053767950596966152e+00 -4.468360559610668470e-01 5.567074164075248577e-01 -7.002959314532799517e-01
-2.371082084660561598e-02 -3.666898613852271477e-02 -8.520195169514628297e-01 -9.744342128704389649e-01 -1.928792547170046778e-02 -2.238435630492110751e-01
-1.665707983639758832e-02 -2.186243369497153921e-01 -1.012749814427115647e+00 -8.924826771877576448e-01 4.237712087538146877e-01 -1.545724217029133818e-01
3.140209094825712616e-02 -1.781436792564476679e-01 -1.058179203758818465e+00 -5.581377179429006796e-01 5.814828324660885617e-01 -5.919121584802137237e-01
7.640570029513356343e-02 8.281056353891064203e-02 -9.641842759621439551e-01 -7.831165466635273686e-01 2.851070671398451828e-01 -5.526684671742246868e-01
5.783273396579211544e-03 8.248510158306349149e-02 -8.655127653856707903e-01 -8.606072750957978190e-01 3.238910547581524968e-01 -3.930008940191320188e-01
2.011183939719426994e-02 1.831344741705627222e-01 -8.437067802607163269e-01 -6.831521511109303058e-01 1.393481793244104594e-01 -7.168578822552489349e-01
-3.822408023092666723e-02 2.095144506822770869e-01 -7.757258965274568263e-01 -9.300286824469399249e-01 -1.941984019076519186e-01 -3.119833818050611884e-01
6.862851389421763607e-03 -5.059150112162142526e-02 -9.340768352170564226e-01 -8.196367863166847956e-01 2.297489488545898795e-01 -5.247961118536113023e-01
1.783294804824803875e-02 4.163190495248712819e-02 -9.061613310764409235e-01 -7.946675386655542850e-01 2.008635712475633217e-01 -5.728501800094895069e-01
-2.700855558959281907e-02 1.714064193035830241e-01 -7.910149100444671122e-01 -6.868917415014437200e-01 -9.149600803557154938e-02 -7.209772645310450478e-01
-3.541775146192199103e-02 1.532476448337146968e-01 -7.679410238430112168e-01 -9.145075641324195148e-01 8.098640871470030866e-02 -3.963800155760678345e-01
-3.726592545656903788e-02 1.023092459182365910e-01 -7.749657287510298698e-01 -8.941947187060432789e-01 2.165006865551190873e-01 -3.918459617750095769e-01
-2.217295746841294046e-02 -2.232582236717297608e-01 -9.880440341153221562e-01 -9.337800598431401644e-01 3.083918654385559566e-01 -1.815193024740594518e-01
-3.241425412111816062e-02 -2.143669495347143850e-01 -9.445950082473388854e-01 -8.024360508159226191e-01 4.019109519005947817e-01 -4.410940615031036516e-01
-7.361791853656837400e-03 -8.410432123102430657e-02 -9.254017108793592961e-01 -8.891637844172203264e-01 1.253184627844672605e-01 -4.400943618886578590e-01
7.465983727331432229e-02 5.587252880980440872e-02 -9.784961209330277354e-01 -9.638705437245354002e-01 -1.560058404775601371e-01 -2.159068147999467224e-01
3.671972114166851403e-02 1.222566873860061500e-02 -9.482361104699310594e-01 -2.997610164955457623e-01 7.034333680868263272e-01 -6.444570037260677342e-01
-2.717482701618497906e-03 -7.967505704998370519e-02 -9.317269420628638832e-01 -9.201171446662360642e-01 9.145417127030268378e-02 -3.808156701719543902e-01
-2.812374499793382152e-02 -2.344493874463725591e-01 -9.765919990288608465e-01 -9.118355772956816541e-01 -3.289414647139411035e-02 -4.092356962751040883e-01
-1.102833983829946615e-02 -8.988474728760624533e-03 -8.703100204165027387e-01 -8.875614711805140944e-01 2.241303116938450635e-01 -4.024925319256264511e-01
4.900596566411076493e-02 -1.070213787202444200e-01 -1.033825126529768434e+00 -4.111470177188126796e-01 7.295448064392299203e-01 -5.465551255074577730e-01
1.589057372355967210e-02 -7.689521967224241181e-03 -9.273676403197721463e-01 -7.745881123330764506e-01 1.914149195335753950e-01 -6.028047650875333341e-01
4.353633389461608605e-02 -1.745695281699867832e-02 -9.646954199747435066e-01 -8.268034108697076556e-01 3.451755429936219643e-01 -4.441283196253935084e-01
6.701986940474848053e-02 -1.231509300506846739e-02 -9.995176089848251122e-01 -9.524111335351070906e-01 -2.285883578245815340e-01 -2.016442297350294899e-01
-4.009750807815587459e-02 -1.657792486349421168e-01 -8.962481406465372391e-01 -8.934849641171941359e-01 3.855889504755222186e-01 -2.302298420441655225e-01
3.793566938121445409e-02 -8.292417112740207985e-02 -9.972397347934689460e-01 -4.982149972109661124e-02 7.987464471469661875e-01 -5.996014770959454676e-01
-2.938535600713320511e-02 -2.014296878939374758e-01 -9.425291392367936005e-01 -8.895486175414384356e-01 2.988408522607586271e-01 -3.455392916155541894e-01
-1.607835926208018651e-03 5.085077040704352735e-02 -8.639285868337942542e-01 -9.357849803060852567e-01 2.949987658910390720e-01 -1.930859879854130157e-01
2.725372269785613158e-02 1.781568596690625839e-01 -8.509600951109663747e-01 -7.841902791803558870e-01 -3.635726250748139154e-02 -6.194544014711635960e-01
1.651581499261042113e-02 4.436461003375328713e-03 -9.225618779839516170e-01 -7.734388981057693790e-01 2.601594214054975263e-01 -5.780219254932202899e-01
-4.715302136647649134e-02 2.976791452771706051e-02 -7.872449557800098585e-01 -6.710274772386944919e-01 1.774265684702256707e-01 -7.198902260703042844e-01
-2.973243532778531428e-02 -1.811431754419954576e-01 -9.283000963881424816e-01 -9.063516076302412516e-01 -4.224842810139103344e-01 -5.813401950380360506e-03
1.107740436560768725e-03 -1.593631923323746147e-01 -9.933458372579038187e-01 -8.926650018210193771e-01 3.271112755867867095e-01 -3.100764549395272351e-01
-3.105764629689703252e-02 2.475267503743610806e-02 -8.138767837727659549e-01 -8.286553521500279462e-01 2.019745364061956427e-01 -5.220503749607074973e-01
-5.220190613018058090e-02 3.152127923424200701e-02 -7.780038271113447479e-01 -7.791413511689156968e-01 2.151400383578285502e-01 -5.887728923736792463e-01
-3.327791887845533286e-02 6.181691354935663074e-02 -7.988563808942380495e-01 -8.433243634025098245e-01 2.146829756895029251e-01 -4.926613827375267429e-01
-4.729383692183604382e-02 -1.021871086906710191e-01 -8.507912437643073700e-01 -8.479900485439741953e-01 1.319458420103958030e-01 -5.133256007122143361e-01
-5.989274445780429224e-02 -5.122107446748659643e-02 -7.984781280823749494e-01 -7.952745971324362007e-01 1.882957040968414875e-01 -5.762664687230342198e-01
-9.051338283471434612e-03 1.899673911841423535e-01 -8.173200714774029318e-01 -8.645482924776047851e-01 -2.064113926352271478e-01 -4.582036522818691560e-01
-4.748207809517583232e-04 -7.781600213427507240e-02 -9.359380115281795698e-01 -9.345621430360506743e-01 6.253300186484313239e-02 -3.502616514573577144e-01
1.769567695473253655e-02 5.320365221682653301e-02 -8.981017085549553025e-01 -7.515099431041495359e-01 3.543305759488568074e-01 -5.564913731257196128e-01
3.422619772058198284e-02 4.291909542413827050e-02 -9.291115620522244489e-01 -3.808283376626943051e-01 5.303108837219658867e-01 -7.574563643135469038e-01
-4.280795470402709579e-02 -9.027616178231449851e-02 -8.521679039882813500e-01 -8.465884486581908286e-01 1.953563878820029076e-01 -4.950998690286778081e-01
4.934732190040876749e-04 -1.368727962925367081e-01 -9.754036569561280734e-01 -7.994722488939155491e-01 4.892254384997286598e-01 -3.485722214595609048e-01
-3.439902539142611348e-02 -5.139401821270909998e-02 -8.397932067553298685e-01 -8.316077478679408941e-01 3.488569437077659874e-01 -4.321196437479876695e-01
-2.365750351901940371e-02 1.223987835010086483e-01 -7.989185346715775848e-01 -8.283672700666839805e-01 -8.370839215596256877e-02 -5.538958123735299166e-01
-6.345791544841364318e-02 -9.220073713132600352e-03 -7.772491782103443381e-01 -6.381885962614511909e-01 2.261926326544400345e-01 -7.359023090972688363e-01
-6.298411952522145864e-04 4.474796562198019717e-02 -8.708785221953833089e-01 -9.013202800237973822e-01 8.035370109549744289e-02 -4.256348617513361354e-01
-2.604151203277508056e-02 1.313090520332614031e-01 -7.926556864437901417e-01 -9.198492890300355995e-01 5.679760390040554385e-02 -3.881382713184958200e-01
-5.640932070544295296e-02 -1.376599868691031348e-01 -8.543057892643081130e-01 -7.520965772418347628e-01 4.312565653102346519e-01 -4.983658429085367492e-01
-1.194342128107584756e-02 -5.128162382713836315e-02 -8.959290476359650368e-01 -8.543277001296804007e-01 2.001864530734935310e-01 -4.796348244206051770e-01
-2.164565058808016682e-02 -9.678053278306837648e-02 -9.041140405132275237e-01 -9.007883187218850285e-01 9.061067396742204794e-02 -4.247000242728614094e-01
-2.193084476366935487e-02 -9.344412050604189099e-03 -8.367935523346361482e-01 -9.092188195472088452e-01 2.266937439878545790e-01 -3.491863179134445105e-01
1.194181394648419214e-02 1.375116719973520918e-01 -8.473790149561755136e-01 -7.467918871784714474e-01 1.987427203372878204e-01 -6.346677936978932788e-01
6.913413172744643787e-02 6.560302606374152773e-03 -9.947143403982342535e-01 -9.740761175760646040e-01 8.817886230716295848e-02 -2.083271595595611592e-01
-4.367304088955186597e-02 -3.400933501246253959e-02 -8.139152408094586511e-01 -6.484413211750513772e-01 1.070393421192216143e-01 -7.537018191774768061e-01
-1.427859191819247711e-02 -3.001504308170702389e-03 -8.549130641219085947e-01 -8.660524594414036326e-01 8.091808285735081763e-02 -4.933613294150512307e-01
3.071019054867514184e-02 -1.489517523907925856e-01 -1.038924953419545494e+00 -1.853341240294093528e-01 5.794764153562869009e-03 -9.826584773860427280e-01
-5.845437613973909069e-02 -1.149952609617416466e-01 -8.359719323043304229e-01 -9.060843592362622934e-01 -2.636411997763775036e-02 -4.222748715294539767e-01
-8.256742126765779372e-03 -1.326277785158843370e-01 -9.470317076415658564e-01 -8.689522869401232752e-01 1.859700730305713090e-01 -4.586251791589007198e-01
-4.573047363870266779e-02 1.300228070301773578e-02 -7.965762246085018594e-01 -7.984519352680724547e-01 1.732274600344774207e-01 -5.765993012107047955e-01
-2.388255818971079039e-02 -2.173107418338943442e-01 -9.731497110719751209e-01 -8.604338737598041797e-01 5.022968505729892286e-01 -8.574043848239641663e-02
5.320070326075313633e-02 5.820566910365402441e-02 -9.454856370240827257e-01 -8.112375241346763133e-01 2.057597773597430180e-01 -5.473176348855476325e-01
-3.356549121629597704e-02 -1.485810547670091408e-01 -9.041358983064825550e-01 -9.016363691364912558e-01 2.314809756546135355e-01 -3.653332940759067005e-01
-2.638875014633515828e-02 1.124166990025592117e-01 -7.944272466561947965e-01 -9.497654564108654052e-01 5.265887601916751509e-02 -3.085006006234963793e-01
-5.569239990729032974e-02 -6.299042851143210608e-02 -8.104937308060512491e-01 -8.703285194706635863e-01 2.280410366704498926e-01 -4.364923295892713662e-01
-3.271006345461670989e-02 8.708285641299168267e-02 -7.899350725655723826e-01 -9.337367218514722733e-01 1.864352974827367948e-01 -3.055775091831688384e-01
5.161340510860924031e-04 -9.584767396768172076e-02 -9.498065884848471141e-01 -8.950152217061109194e-01 1.833448202748329536e-01 -4.066109071246738482e-01
-3.871348510380391572e-02 2.246564799505045007e-01 -7.846529235849897255e-01 -8.774458742273577583e-01 -3.281604737080158207e-01 -3.498563152168591150e-01
6.815359428811490483e-02 -3.871526943580332059e-02 -1.020821486055731864e+00 -6.292522012708309243e-01 5.771955292328063702e-01 -5.204680472704105165e-01
9.444353413838335945e-03 6.454599633830501726e-02 -8.791957139542636579e-01 -6.991838196472682787e-01 5.653454933579288300e-01 -4.376373607032840174e-01
1.862703946525206058e-02 1.166775215232519758e-01 -8.645425190923100578e-01 -7.502984996968258269e-01 4.716435557666040501e-01 -4.632542689026472038e-01
-2.469094411435676997e-02 -4.664298641579991966e-02 -8.584984427371337157e-01 -9.462272236956945637e-01 2.221318849545040053e-01 -2.351839000095385657e-01
-1.149042777350318782e-02 -9.139176028053609679e-02 -9.212339592619912532e-01 -5.564903684082423974e-01 2.053598037487958383e-01 -8.050750405230029383e-01
-1.821755917228228688e-02 5.727994199790602953e-02 -8.237154892607900791e-01 -6.722971391525069951e-01 4.911391293228730692e-01 -5.538943151317993197e-01
-1.757370708671022672e-02 3.290716590234923217e-02 -8.331699169734098076e-01 -8.150289489707855939e-01 3.766554876462181040e-02 -5.781947066307647765e-01
-2.965956328958862728e-02 9.779762802863010973e-02 -7.914986301205506614e-01 -9.025581149091191913e-01 1.373787474426124144e-01 -4.080636334725205594e-01
-1.600737754220277198e-02 2.455953275082143061e-01 -8.092703744159750467e-01 -6.930285926023436183e-01 2.051859071560431236e-01 -6.910934186780877120e-01
-4.248101230884157933e-03 -1.575743598469140361e-01 -9.837005529019011707e-01 -8.786697427647626180e-01 3.656743579471311012e-01 -3.069556109434375957e-01
-1.666178283248616766e-03 -6.896156793885915848e-02 -9.301719559113342806e-01 -8.575263906581075402e-01 4.112052460536007592e-01 -3.091257591060249110e-01
-4.031937607170215515e-02 2.280854374830101616e-01 -7.820378668487611984e-01 -9.123221019188745284e-01 -3.784449339034169912e-01 -1.563579686270100411e-01
-5.707554268616777532e-02 -4.297721240397153752e-02 -7.983366820112962614e-01 -8.313259446737895075e-01 3.317146284808809575e-01 -4.459401069247105887e-01
2.243425059342442698e-02 -9.695357397841619651e-02 -9.826270124863056843e-01 -7.170171058606107373e-01 2.672853794938237493e-01 -6.437740254251613781e-01
1.134686461150612689e-02 -7.799978277409651273e-02 -9.563893426429036504e-01 -7.454272120524453316e-01 4.126473619136286630e-01 -5.235078091465696914e-01
-3.968870961831301447e-02 -7.468599550650750762e-02 -8.483391074413167976e-01 -8.723686241052330814e-01 3.452918034459090957e-01 -3.460441505788157124e-01
6.930985262595458496e-02 1.734190823399677991e-02 -9.893393746987020343e-01 -8.025511675991431337e-01 3.091015368001697738e-01 -5.102625435332530657e-01
6.752141526739231792e-02 5.057471823812886152e-02 -9.707769188481877309e-01 -8.977273712075016787e-01 -1.857172685797942868e-01 -3.994930076185676526e-01
6.682364731003922857e-03 -8.921692833441005610e-02 -9.547151492984091714e-01 -8.983255297608225831e-01 4.047036306291918600e-02 -4.374624467237075987e-01
6.245332279903661327e-02 -3.431048906828559897e-02 -1.007941269559492037e+00 -9.353759586825707295e-01 2.474395967835561483e-01 -2.526765953986492841e-01
-4.995846103485150971e-03 -1.278416820696372525e-01 -9.520727226793475051e-01 -8.907042713854347316e-01 2.527163245741479436e-01 -3.778628854882093990e-01
7.697034036240940624e-02 2.006316452637616279e-02 -9.993712645314237752e-01 -8.872640378627487667e-01 1.271479296962645944e-01 -4.433913971757280081e-01
-3.990058376903551918e-02 6.694551400401003993e-02 -7.828726987619945010e-01 -8.696535731225459864e-01 1.594729777366319379e-01 -4.671948545596369406e-01
3.638769612861209035e-02 -1.244804453265289101e-01 -1.026379057817558449e+00 -8.437055624622147310e-01 4.137231332532905759e-01 -3.420439926111809026e-01
3.568947067968331749e-02 8.071043117698849245e-02 -9.079721409288917799e-01 -6.148261967390632465e-01 3.332352296135603908e-01 -7.148027906687104416e-01
9.262933835457337964e-03 7.896497873003244239e-02 -8.717905159229779599e-01 -7.401857026964270281e-01 2.719865980127025851e-01 -6.149377334537804440e-01
-1.286236142486288240e-03 2.060027583087998548e-01 -8.214773992741752906e-01 -5.991307736836405384e-01 -3.530054298124874479e-01 -7.186302822370785881e-01
-3.040638078745380030e-02 1.206553520805506152e-02 -8.190666400466063424e-01 -8.635241320411947141e-01 2.290551972329156749e-01 -4.492880924341212112e-01
2.960931951998436659e-02 2.017317126168230099e-02 -9.344216415857756752e-01 -4.742501393948900801e-01 6.501732939985545023e-01 -5.936004490016802970e-01
-4.514835212351388238e-02 -8.281249302917975674e-02 -8.422509603118008004e-01 -9.824360671199483530e-01 1.773333201962880579e-01 -5.807122841863087553e-02
-1.539239149309927501e-02 8.438646929221392534e-02 -8.231969614764479415e-01 -9.169726439643024474e-01 1.075349613852300962e-01 -3.841840734608782393e-01
4.329439713541725909e-02 -7.481924783832054338e-02 -1.000346244389080708e+00 -7.416381429009243353e-01 4.911504840795775650e-01 -4.568851792112158527e-01
-3.114394248660595430e-02 -2.192042505565915678e-01 -9.500804024272189174e-01 -8.481136758907967810e-01 3.760992844602307761e-01 -3.731655410076103463e-01
1.460609842765610636e-02 -1.789816958377773437e-01 -1.035127810165247908e+00 -9.280127011526154712e-01 2.770827866148602991e-01 -2.490332424821434520e-01
5.886381981414242487e-02 7.111471314971630486e-02 -9.459791714946751418e-01 -8.232221482563508719e-01 2.314730212380008700e-01 -5.183874372119280372e-01
-1.664201492771126556e-02 -1.887038995064019842e-01 -9.695782799584247158e-01 -9.047134864676229515e-01 2.477170821729669792e-01 -3.465973955518271699e-01
6.732223252385545476e-02 -7.656847460010027251e-02 -1.044553783024271487e+00 -1.859185035955208398e-01 4.209862525939394029e-01 -8.878090364192707806e-01
-2.125374328420449497e-04 -1.868794485761046953e-01 -1.013607040616109067e+00 -8.608082643853397498e-01 3.924666941072935122e-01 -3.240046696922608271e-01
1.737477698805911172e-02 2.267911352860077848e-02 -9.127280603987650842e-01 -8.649738829108593041e-01 1.221171794403861782e-01 -4.867315239098816138e-01
-4.428952086764740420e-02 -1.540411804346575597e-01 -8.830759728131435393e-01 -9.480264002779544841e-01 4.812056530281076661e-02 -3.145319627175611754e-01
-3.283165238766725530e-02 9.682301253636996230e-02 -7.854339420161012830e-01 -9.128659513449648433e-01 1.310491476235380870e-01 -3.866547242465768197e-01
-2.885811141227591012e-02 8.371406760106514522e-02 -7.994777680318492230e-01 -9.107216321992072094e-01 1.893549832155958235e-01 -3.670569424160687322e-01
2.605647879726507785e-02 -1.830654225596627938e-01 -1.053972239925287102e+00 -6.889730292038154236e-01 5.973474248161445566e-01 -4.104780372873057526e-01
3.753404802396691914e-02 -1.561348659339052147e-01 -1.051807057416632496e+00 -7.670328946888410604e-01 1.874362426192545672e-01 -6.136189317630553752e-01
3.584414953411884514e-02 1.032286901845659577e-01 -8.981204577674750666e-01 -7.815301990068070914e-01 4.029397832561320558e-01 -4.762878112128021701e-01
-1.172770824368572253e-02 -1.137055154936828655e-01 -9.352298641220632147e-01 -9.353393317192234546e-01 1.427113266487113064e-01 -3.236878307647677033e-01
-3.222429830523097088e-02 -1.440464340178667091e-01 -9.050417962610819433e-01 -9.232088583413831095e-01 2.408594381591367961e-01 -2.994530596431848601e-01
2.889038741023540816e-02 4.825235466213602387e-02 -9.181192930518945472e-01 -7.321736377453363920e-01 3.620682224159441631e-01 -5.769127893428251941e-01
-6.839492284569355894e-03 -1.389526943280663118e-01 -9.564603913142636360e-01 -9.025019400537642733e-01 3.153074646144944371e-01 -2.933793635509679976e-01
4.190643676741786366e-02 -1.333825179819356221e-01 -1.044357325608386233e+00 -5.272807817033720035e-01 6.331288680836830718e-01 -5.666769923381000940e-01
-4.848070391972659349e-02 2.341817130821600632e-02 -7.880730769349177933e-01 -8.847478507788820723e-01 7.806427221145784134e-02 -4.594858103861798604e-01
2.312291756666677231e-02 8.340408482527725265e-02 -8.880372671618366187e-01 -6.942107761435473146e-01 1.969412273197281016e-01 -6.923045220623456064e-01
-2.847002529079624769e-02 -1.492051656043951180e-01 -9.160898722536778838e-01 -9.284620409000787777e-01 3.390631025107381236e-01 -1.516392136732871432e-01
-2.352327101223909006e-02 -4.603653037869653158e-02 -8.619935227521766663e-01 -9.002788678168335279e-01 3.599216700167316985e-01 -2.448557771726188603e-01
5.226348250467398315e-02 1.441484910316185863e-01 -8.937412482632719479e-01 -6.871540999345527867e-01 3.681015593422529153e-01 -6.263549193172640583e-01
3.573671856179726908e-02 -5.088574074367468308e-02 -9.767019639050588120e-01 -6.848314535534683056e-01 4.379353922215546979e-01 -5.824246496016430852e-01
1.649566638407672786e-02 -1.437522564199947839e-01 -1.009191568376343939e+00 -7.688754102241811550e-01 4.602302524396049699e-01 -4.438679063550037829e-01
5.484773280847183435e-02 -1.205445296441352149e-01 -1.050982212644107294e+00 -1.696573850397547489e-01 5.570914765235572830e-01 -8.129363188382439098e-01
-1.418659269644755548e-02 1.066280660019982146e-01 -8.222101755163516712e-01 -8.118945669858251835e-01 7.032943088700521761e-02 -5.795523990546578297e-01
-3.021119432134422578e-02 -2.328249588805278436e-01 -9.673514386776296270e-01 -7.968181050514256958e-01 3.989181001652619685e-01 -4.538119178941785181e-01
-4.226389594193357552e-02 6.706659326139807753e-02 -7.794669116901871142e-01 -8.596235478397217245e-01 1.334351448648773697e-01 -4.931961254048318199e-01
-9.325505706315706219e-04 -1.273411651013195978e-01 -9.635389676891703559e-01 -9.697564549012865909e-01 2.172992490462543058e-01 -1.111460954834787018e-01
-5.132007280733211219e-02 -5.559964212213438367e-02 -8.150960752903527728e-01 -8.641034803701652667e-01 1.626444198182283307e-01 -4.763107892061222426e-01
6.053764242778981314e-02 4.772110782482401987e-04 -9.797407017936536899e-01 -8.307208926392264381e-01 1.588248152943587399e-01 -5.335517562330759356e-01
2.206089803182193637e-02 9.982264814799352015e-02 -8.808939407524033482e-01 -7.909215661989855706e-01 1.913687264400665278e-01 -5.812237836341958008e-01
-1.402732797771922071e-02 -2.082245354861166908e-01 -1.004868609228880327e+00 -9.259867361063799374e-01 3.627818658591345780e-01 -1.045843313255769291e-01
-1.255160248779859863e-02 1.324554852914326675e-01 -8.234703427050210633e-01 -9.721633978849438806e-01 -1.421991239771979998e-01 -1.862195933647083912e-01
-2.584478211105955409e-02 1.730755296722585324e-01 -7.944043315275005623e-01 -9.503107222143692967e-01 -6.591679521218554716e-02 -3.042441574679098371e-01
6.020794336696046883e-02 3.153064818887799797e-02 -9.682491092717923076e-01 -8.247494563306934090e-01 4.055327186448980936e-01 -3.941212356505334191e-01
-3.286821299284312103e-02 1.725605312584174433e-01 -7.775136056441084298e-01 -8.094205680170719619e-01 -3.588703497106327522e-01 -4.648122375427398700e-01
4.348484248730283969e-02 -7.294743546012554848e-03 -9.614231089645622896e-01 -6.701816012800703160e-01 2.006356075039436582e-01 -7.145641848757914305e-01
3.784132581043216786e-02 -4.721540221134635368e-02 -9.772548712964496120e-01 -8.232978157099760663e-01 -6.314709934479950659e-02 -5.640861197472601951e-01
-2.687825260113033826e-02 -2.110069505853250371e-01 -9.551151455941158108e-01 -8.594587729272155086e-01 2.343689396315119244e-01 -4.543146682360644228e-01
1.079879054949870604e-02 -5.497002810362520975e-02 -9.400495018678814985e-01 -8.194912943450295417e-01 5.255781337687898125e-02 -5.706765237380535538e-01
-1.822643681971290730e-02 -1.875715903516109451e-01 -9.637953195097831438e-01 -9.340739938444007073e-01 1.222701980430658669e-01 -3.354933273465801058e-01
-5.064787400630521574e-02 -9.031670373106683025e-02 -8.355303199744509302e-01 -8.483528230395989134e-01 3.196798231338827678e-01 -4.220216799192101909e-01
6.163898657267990328e-02 1.751840780927661073e-02 -9.767344259057384459e-01 -8.209754243353402092e-01 -6.957253005466504381e-02 -5.667089338445273627e-01
-2.650364723058123290e-02 -2.639904517725620223e-02 -8.362245832173388349e-01 -9.990463617942846319e-01 2.027977747564189276e-02 3.866649209770094825e-02
-3.373879129624520606e-02 1.569223455330070460e-01 -7.729561852644829534e-01 -9.561117933875848962e-01 -1.472095863846747954e-01 -2.533368828686994867e-01
2.811932863171488078e-02 -8.830601756145396719e-02 -9.860716076019545584e-01 -8.200662354407634025e-01 2.371968220521041559e-01 -5.207965409815973334e-01
-6.666886026773575884e-03 -3.521454138406458854e-03 -8.813682289650393020e-01 -9.384526066233126462e-01 2.195024044176119293e-01 -2.666934561941796678e-01
-1.658949829493778713e-02 -2.166128475122914843e-01 -1.006901599638702960e+00 -9.628952489408569848e-01 2.603209131746633820e-01 -7.117416477229882021e-02
3.726699355250853718e-02 -1.695970800042770343e-01 -1.060192368024545750e+00 -2.728319403090668782e-01 6.500345868450553288e-01 -7.092374554776191831e-01
-6.433443484384768684e-04 -9.238206145166853733e-02 -9.435661504115161469e-01 -8.827962552901658100e-01 2.396547020302603748e-01 -4.040252410932357874e-01
-1.508565957232389093e-02 -5.008518661543125833e-02 -8.871361411000195929e-01 -9.432785561070887725e-01 1.507883489930146315e-01 -2.957844475230003156e-01
6.557886122390627071e-02 7.933807916507139291e-02 -9.516124943614988618e-01 -7.822239503561213558e-01 2.656215204207384439e-01 -5.635342929925730715e-01
3.730952227086890838e-02 1.892093503949192693e-02 -9.445649844750427793e-01 -8.138105746408963448e-01 3.287010121067782675e-01 -4.792368863543723378e-01
-3.365972689627871189e-02 2.455605629334102757e-01 -7.984832830606896081e-01 -9.508117150202458623e-01 1.420180108280125475e-01 -2.752961445075344238e-01
7.582118948550868598e-02 9.300417020268510193e-02 -9.584572697518061180e-01 -7.549248337017385735e-01 4.295377376832093530e-01 -4.955661685046637288e-01
-4.450825173204329965e-02 -2.232745495250225073e-02 -8.080034304558720848e-01 -8.342093454993204649e-01 1.906523374883279109e-01 -5.174422229503812254e-01
-5.130501744524083169e-02 -7.747492493414041836e-02 -8.260259282929568458e-01 -8.556282203847792589e-01 3.331213332247839887e-01 -3.961445769308446496e-01
7.086306785841806066e-02 5.308870300223750283e-02 -9.741405418418132012e-01 -8.209188856039850712e-01 1.457779563412403834e-01 -5.521240537267712023e-01
-1.569032929059147735e-02 -2.133331537690608126e-01 -1.004537213374203652e+00 -9.774358225281113421e-01 2.099253940787964845e-01 -2.346362631087151734e-02
-1.902004099939369475e-02 1.366523122290182746e-01 -8.080165049491000451e-01 -9.163435159365513893e-01 1.107500628823036848e-01 -3.847713403732209714e-01
-3.208168237278380408e-02 1.847902975400238512e-01 -7.821841333195556079e-01 -9.182340075423109926e-01 -9.287710626122712421e-02 -3.849937019294312202e-01
-4.543680232060896135e-02 4.701232167672206308e-02 -7.822048423805401107e-01 -9.362005462321743021e-01 -3.601119656099260186e-02 -3.496165484596284734e-01
-4.869229379731513513e-02 -1.177953011150758428e-01 -8.585301595252142759e-01 -9.056868311116089698e-01 2.530077048542464513e-01 -3.401741689714226635e-01
-3.822732962240107252e-02 1.813768663173733475e-01 -7.648650951427027334e-01 -9.682394652870441876e-01 -3.648633962026138350e-02 -2.473481046658202454e-01
-4.836501229071450171e-03 1.410511643579269170e-01 -8.323711497645416291e-01 -4.496005622563853388e-01 3.416418572065741954e-01 -8.253121687114427507e-01
-4.243594614252368252e-02 -1.889956177584145025e-01 -9.055110373240643495e-01 -8.239747563282067144e-01 -3.032352510949348767e-02 -5.658145321205582112e-01
-3.473889145564876962e-02 1.857188986168883948e-01 -7.757867735150211219e-01 -8.528420802602680872e-01 -5.904872681634235065e-02 -5.188194618542247838e-01
-2.980383678982191295e-02 -3.498419131159662826e-02 -8.366835165916176598e-01 -8.470730583190151375e-01 3.917853175416301514e-01 -3.591260208184227087e-01
-3.090191074004500563e-02 -2.471613425749518422e-01 -1.028141666629668327e+00 -6.429879149729216259e-01 7.144512091322879899e-01 -2.759094252978435136e-01
2.777183225813861095e-02 -1.668603617351543944e-01 -1.047767377594007510e+00 -7.227015119969255608e-01 5.884934378733881477e-01 -3.624610298188184476e-01
-2.092335072955588821e-02 1.139502940992053737e-01 -8.059304086526788424e-01 -9.147853221146379221e-01 -2.988818308422331108e-02 -4.028331055853549558e-01
5.699522142402690603e-03 2.322783409763970741e-01 -8.238722749360578579e-01 -5.030132711058822315e-01 4.170819323691102309e-01 -7.569810504778896609e-01
7.055171143378459464e-02 2.830387165456656889e-02 -9.862159373571893761e-01 -8.397858627122795072e-01 2.314924161087501542e-01 -4.910916065997521507e-01
-5.075333452384311189e-02 -2.757801202343330982e-02 -8.005971383901269167e-01 -9.229744976772263909e-01 -9.689381310122113788e-02 3.724643145593644622e-01
-3.116985700204431484e-02 8.978007394088596826e-02 -7.915938627455159082e-01 -9.486863648438749186e-01 2.339669442129272692e-01 -2.127290534341251815e-01
-5.166220581841684222e-03 2.342288210246710467e-01 -8.173757522740643378e-01 -5.260811005436613064e-01 1.469372564353375044e-01 -8.376443865519698218e-01
-3.158919377450360860e-02 6.506169513134758831e-02 -8.013305963447542313e-01 -7.981717420445036959e-01 1.398208331781790603e-01 -5.859795259315823124e-01
-3.925374868331987094e-02 -1.423605064553870869e-01 -8.893392897789116347e-01 -8.732895105710131167e-01 1.761074067790056041e-01 -4.542594104740308447e-01
1.856581295894437975e-02 -1.870065945180283962e-01 -1.049834022721751081e+00 -4.223297932004258515e-01 4.155708207469920867e-01 -8.055671534508820342e-01
-8.682562337045772807e-03 1.311513991919284125e-02 -8.632075407413080104e-01 -7.833701935714362241e-01 3.390167740944426966e-01 -5.209594674314386165e-01
-7.549972220751169361e-03 1.321000648060625948e-01 -8.320056326074531938e-01 -9.229269744092374328e-01 -5.234192206429181399e-02 -3.814002138206349923e-01
-1.348162462948167620e-02 1.118759150006809304e-02 -8.472102662949747565e-01 -8.910584650035882071e-01 1.685162109994204072e-01 -4.214464361883344945e-01
-2.079928805913540402e-02 -2.306524818430596147e-01 -1.018720574426227765e+00 -9.587642626871126783e-01 2.539334142736135447e-01 1.276280130276349900e-01
-3.251711269315307740e-02 -1.156723317337091522e-01 -8.909849250074556304e-01 -9.021580261895609798e-01 2.280891826780565013e-01 -3.661778536818023899e-01
1.237504266467838107e-02 2.157716669957300826e-01 -8.303381578486520587e-01 -6.066516033995624779e-01 -4.965907873135633199e-02 -7.934152809168052434e-01
-5.040311372398052943e-03 6.339621094640769672e-02 -8.517970449550961165e-01 -9.537554723708131510e-01 7.861847333354872458e-02 -2.901200347673850155e-01
-5.440215062093215620e-02 -1.132735128982350487e-01 -8.419116964946792292e-01 -5.674498369707247081e-01 3.619412258147046701e-01 -7.395939639948709843e-01
3.830482372045688165e-03 2.026795096636696270e-01 -8.259780710436671614e-01 -6.877280234056476482e-01 2.030906875929503752e-01 -6.969823085527947493e-01
4.785333413529565399e-02 -1.497342484587057578e-02 -9.688965606510266948e-01 -7.694535168717152596e-01 3.331443704120555238e-01 -5.449367980201961226e-01
-2.766523784467482192e-02 6.346092905371018833e-02 -8.070160488033568669e-01 -9.181673059560274686e-01 9.968254742427691550e-02 -3.834477643857858720e-01
-5.128759768070967340e-02 -1.470304918019501028e-01 -8.674910040079845119e-01 -6.925476705877265937e-01 3.975650329728375731e-01 -6.019300362341292177e-01
6.303354688081878876e-02 -4.412765788190036592e-02 -1.013516694470978363e+00 -8.624327214145641740e-01 4.189886068939085995e-01 -2.840041343476719105e-01
-3.624062114823085184e-02 -1.393905999793792171e-02 -8.168207244570047099e-01 -8.384209796768573586e-01 1.022739848917829514e-01 -5.353412863324236159e-01
2.150046986597144508e-02 1.291610883734909121e-01 -8.615985001424867340e-01 -8.136099233819729104e-01 3.645116566112141521e-01 -4.529571114012102551e-01
7.080557872794900932e-03 -1.813359766589690558e-01 -1.023492267117243726e+00 -9.842780233889705244e-01 1.310428455489985877e-01 -1.184252730793653452e-01
-2.308566817437856036e-02 -1.267703406682782752e-01 -9.156247814582010314e-01 -8.765088217790819591e-01 3.174610730957809768e-01 -3.618711820694217596e-01
-9.404078187113012327e-03 -1.044476450109622923e-01 -9.329959484409174886e-01 -8.931424042802734720e-01 3.028046553904222837e-01 -3.325747830944791872e-01
3.519540959525462032e-02 1.569821838879856823e-01 -8.675252662592596309e-01 -8.288757891563787172e-01 1.979748420462341674e-01 -5.232311994397496058e-01
-3.676238857151023498e-02 2.036154504448661196e-01 -7.783111079542265331e-01 -5.771607052943692473e-01 2.170678973184686500e-01 -7.872528489741048574e-01
4.733672196313727654e-02 -8.963877251090437981e-02 -1.020283993845405357e+00 -8.808125816818960230e-01 2.563257032847511274e-01 -3.980782960504762324e-01
-4.987583573995692937e-02 5.234905912266379219e-02 -7.713294370812306955e-01 -8.389563395784976896e-01 1.781676137559266571e-01 -5.142067304981212672e-01
-7.281879899914948766e-03 1.120600345530208854e-02 -8.663166704687974562e-01 -9.979839761089337458e-01 -4.171246610777384900e-02 -4.783360326183543065e-02
-2.612203003967549300e-02 -1.249337475316066870e-01 -9.078396473577243775e-01 -7.833694142453484499e-01 2.849171904337933214e-01 -5.524079610398580087e-01
1.368434368487261724e-03 2.374896573790856447e-01 -8.209929287137511800e-01 -4.283535955658850369e-01 -5.215987017078129728e-01 -7.378671909920525573e-01
5.106108501372013525e-02 1.195465510052075020e-01 -9.078262249173523202e-01 -7.000377221079955303e-01 4.466979561334745163e-01 -5.571428215565781272e-01
4.330241031155907146e-03 4.620791523783349120e-02 -8.825535024985285970e-01 -7.601421412089370833e-01 5.120091784954032832e-01 -4.000381560485878341e-01
-4.455209174666300426e-02 -7.792858491968138179e-02 -8.384039475033685518e-01 -8.382968113425779411e-01 3.872041483626472158e-01 -3.838377307973037111e-01
4.835997284664877993e-02 2.306168890004269348e-02 -9.571303617248074769e-01 -7.963836422753632904e-01 2.910081871536489007e-01 -5.301766963246996589e-01
1.651825601933741214e-02 1.998101997718102762e-01 -8.360326018067306686e-01 -6.356398710105982675e-01 1.223098514952490334e-01 -7.622350389537601023e-01
-3.031726003959095417e-02 -2.362542566445988701e-01 -9.798903665570786181e-01 -5.566703246398383431e-01 7.576667283450290169e-01 -3.406747399269818843e-01
-5.305385543024489919e-02 6.100668593765858072e-02 -7.581850168181610838e-01 -8.379818278469781667e-01 3.604719002877901923e-01 -4.096906946723915532e-01
9.920155402087351207e-03 2.183333832177138667e-01 -8.273618621432726750e-01 -5.298351530140558152e-01 3.129863151547429556e-01 -7.882349124191517786e-01
-1.855989986417128437e-02 -1.989136002488560151e-01 -9.726684417059432430e-01 -9.260352077947586746e-01 3.016924402483333045e-01 -2.268049060790435778e-01
3.454983390268325655e-02 6.980262890571228840e-02 -9.130094858015473935e-01 -6.995523844548190429e-01 3.052207630041151032e-01 -6.461166668913305156e-01
6.788678160868219513e-02 9.362841376733599397e-02 -9.458206622831724086e-01 -8.041763671203329134e-01 3.567196694869246287e-01 -4.754486806862362469e-01
8.282752319176257816e-02 2.995413302105734768e-02 -9.999224066037254444e-01 -5.596268226148840563e-01 4.137643334316223886e-01 -7.180646877474579082e-01
1.199752573645718710e-02 -1.612981430315045539e-01 -1.014842320161016831e+00 -8.040855868750772517e-01 3.902680792754733008e-01 -4.484832162728004112e-01
1.438752603126763766e-03 4.635042569110976902e-03 -8.987805449500693156e-01 -9.864534381865356361e-01 -1.446858013279055666e-01 7.730221978743168076e-02
-5.039425943968529886e-02 5.924705978715684440e-02 -7.673487427756152668e-01 -8.896062103085402573e-01 2.252898458287572181e-01 -3.972974653165206038e-01
-1.615629624209975052e-02 -6.318495077892340162e-02 -8.950166249577219402e-01 -8.527717954691179658e-01 6.429658041784350186e-02 -5.183109246378553303e-01
-2.598819941742743986e-02 2.201891355390375449e-01 -8.046863141904091465e-01 -9.998928783075337057e-01 1.398023053331020477e-02 -4.334173982512446593e-03
3.866695104514004944e-02 -1.596985599372822973e-01 -1.059344759462309549e+00 -7.212497301679963169e-01 6.307400464645380733e-01 -2.862967350818109713e-01
2.571831783406418326e-02 -1.436146564394631953e-01 -1.024291513379391283e+00 -8.203072812540354031e-01 3.834092416745326082e-01 -4.243740304497584104e-01
-2.723517104355556440e-02 -2.395904335639449101e-01 -1.006514819602883248e+00 -8.175337909168285400e-01 5.690332660368840889e-01 -8.854175767713147460e-02
1.338863479578378778e-02 1.909559177841055888e-01 -8.363826562639106177e-01 -6.328496276861793612e-01 2.537444509940275927e-01 -7.315156200158707822e-01
-3.803343839359276139e-04 -2.426699647948248051e-02 -9.103672029259737286e-01 -9.998716175355020219e-01 2.485305097704559874e-03 1.582945689245320031e-02
1.092710583423465651e-02 -5.251856353673052709e-03 -9.184873827356150322e-01 -7.497225231158102243e-01 3.171092774368627909e-01 -5.808251410677176541e-01
-1.540602284685749050e-02 2.955786179271952321e-02 -8.361481039485351152e-01 -6.351784249821689210e-01 5.023212238441916444e-01 -5.867041473458701750e-01
5.097771993748563546e-02 1.328712475021777140e-01 -8.986284974881408871e-01 -7.169410780887899293e-01 3.448570662009148857e-01 -6.058622734914109742e-01
3.108533262124827529e-02 1.202887781512211179e-01 -8.799022949540237226e-01 -7.529890209460078365e-01 3.638518990344117854e-01 -5.482876342795127700e-01
-1.871659421765100098e-02 -1.297637129401288392e-01 -9.295600125619706278e-01 -7.628260487080218422e-01 1.336204931511857930e-01 -6.326468076443131361e-01
-3.815760413977822146e-02 -1.929168011257272053e-01 -9.147304943702770919e-01 -7.799055172755126053e-01 5.394693636688964178e-01 -3.173644431657256515e-01
6.933700493823304056e-02 3.557858230082683922e-03 -9.934084833151506366e-01 -8.628875436229209717e-01 9.761209018029856632e-02 -4.958799924488129784e-01
1.645191370285186902e-02 -1.913653804905612044e-01 -1.050180933948024586e+00 -4.422591235038614288e-01 5.093573771922137450e-01 -7.382153682885945756e-01
4.934189279553993779e-02 1.598263226424928227e-02 -9.602699747142976472e-01 -7.366165935871840098e-01 1.735781170464745504e-01 -6.536563556905214956e-01
-3.619655131763857558e-02 -1.973895315025271935e-01 -9.230882176359496150e-01 -8.268875233740801134e-01 3.728091152821188525e-01 -4.210349002765017556e-01
-3.471334088838241155e-02 -1.270683164837996260e-01 -8.918289652981750137e-01 -9.627561941497487785e-01 -8.175053134118465126e-02 -2.577156596944105149e-01
3.506401858482745856e-04 -2.013218898707406709e-02 -9.116724305414453111e-01 -9.716897176383314516e-01 1.097866179703961380e-02 -2.360054271009160154e-01
-4.167706345522887573e-02 7.423130568710815946e-02 -7.766207838322817247e-01 -9.493012053860692134e-01 1.907572921937430444e-01 -2.498777239520696414e-01
-3.012786315741592530e-02 8.106944756934576779e-02 -7.979902424731201149e-01 -9.211427507520233426e-01 7.790368387725557509e-02 -3.813489855438826348e-01
-2.541199744086630047e-02 -6.486534880412131443e-02 -8.723229192630036488e-01 -9.369535542787212901e-01 2.554244920066487401e-01 -2.384876642671828473e-01
8.011387134291723944e-02 -1.260580619645768584e-02 -1.018510478446544409e+00 -7.959211539323813867e-01 3.039408895205429340e-01 -5.235737315798105751e-01
-5.137795977112120938e-03 8.311551593434677622e-04 -8.842022103802138489e-01 -9.438134247300754565e-01 3.009196866571559048e-01 -1.366146459258500701e-01
3.422410349225828152e-02 -1.241603901296366996e-01 -1.024089973665208930e+00 -8.586473603901710883e-01 3.465760089968248359e-01 -3.776371015708394618e-01
-3.410294961186161045e-02 1.299093773946569663e-01 -7.768851691830295225e-01 -9.620144187775584443e-01 4.231725860247168014e-02 -2.696989204436082699e-01
-1.309044943641525169e-02 -1.522276904255587260e-01 -9.496702770396486804e-01 -8.477911520055263495e-01 2.374852885973930128e-01 -4.741844580761322425e-01
-1.329727182488824218e-02 -1.560568570362609597e-01 -9.523510528106328143e-01 -6.199387705487866551e-01 2.785277363426380548e-01 -7.335517847148247395e-01
-4.888932003587402597e-02 -1.163805820819478476e-01 -8.553436918685598522e-01 -7.170010852803855306e-01 3.657056885215063669e-01 -5.934381122659380114e-01
2.840184223014235315e-02 -1.108232965849639956e-01 -1.004686605207684824e+00 -8.278098741786491521e-01 5.066178174230231424e-01 -2.409755159385729983e-01
-1.088433236133881481e-02 2.830138539292548217e-02 -8.446328326529954911e-01 -7.769177763089718525e-01 1.413651364887460460e-01 -6.135264191871776518e-01
3.125091518578197031e-02 4.950326521332172602e-02 -9.204775321516680542e-01 -6.248742214389062521e-01 3.819580239480963035e-01 -6.809113564354657422e-01
-2.246128046636209838e-02 -1.590178026021035473e-01 -9.327151008308585123e-01 -9.180989359521413151e-01 1.260507985616355908e-01 -3.757732560807378053e-01
-1.044881101458153619e-02 4.508465072089489628e-02 -8.432328820308470085e-01 -8.192849317306326595e-01 1.674759646884685371e-01 -5.483830795081111598e-01
7.551942335079596391e-02 -8.241917277945815315e-03 -1.009842230215956649e+00 -4.578593258752658435e-01 6.180612320526635006e-01 -6.390345461261001114e-01
8.752504854712965694e-04 1.351746915401406401e-01 -8.378784941605575964e-01 -6.315589936420672457e-01 2.290454614658816723e-01 -7.407235747103642076e-01
-3.187525468157360181e-02 -8.813182751473425114e-02 -8.756908697371071915e-01 -8.417274734714522699e-01 4.257214319425072779e-01 -3.320483741688653456e-01
-2.086193731548913188e-02 1.031455230503725423e-01 -8.093527314878783407e-01 -8.093477161886382110e-01 1.302063789233499913e-01 -5.727150890171345266e-01
1.044049097514520436e-02 3.149955136366860281e-02 -8.992341746189443930e-01 -7.910225198756594134e-01 2.341699844277329856e-01 -5.651971261804832336e-01
-1.940568058300185666e-02 -1.575777301883768688e-01 -9.371363796728993112e-01 -6.619963226668538203e-01 3.485392939441867011e-01 -6.635369088094876799e-01
-2.154317985878108008e-02 2.257882820728362716e-01 -8.067233938945242988e-01 -5.818429388159029880e-01 -9.883581526270904249e-02 -8.072733590125644731e-01
2.818192440646939256e-03 -1.917619429275597420e-01 -1.024016277541668130e+00 -7.815434526970214124e-01 4.944144506064006572e-01 -3.804526022752235948e-01
-6.785934748410110337e-03 2.380471465543633480e-02 -8.595734319466109552e-01 -9.587664597447567161e-01 1.480787908609234593e-01 -2.425686446465671886e-01
1.376110690455173424e-02 -8.527261366730863948e-03 -9.239609711357028576e-01 -7.549909543482390406e-01 3.577763893728159172e-01 -5.495313585771846032e-01
4.204522678143737813e-02 2.176588188885223915e-02 -9.497455349957331094e-01 -6.848972334615620605e-01 3.227641500967301513e-01 -6.532526946052605865e-01
-2.813849848921818123e-02 2.960815121917531254e-02 -8.170490454506089684e-01 -8.023733358072493438e-01 1.993839818319043944e-01 -5.625327170702179025e-01
-6.920216083482526532e-04 -9.753874238749635217e-02 -9.474117232678913592e-01 -9.341225965561945621e-01 2.608968110227378179e-01 -2.436140977063491475e-01
-1.875526415162086236e-02 1.333625136509610232e-01 -8.081127466299753426e-01 -8.302148159829154661e-01 1.297827758460187719e-01 -5.421252534388668609e-01
3.135932962814151626e-02 1.997106321924210781e-01 -8.493704830164762187e-01 -6.931510009170261943e-01 2.219429492789857239e-01 -6.857718404783545996e-01
1.499312799522283489e-02 1.219517151875523925e-01 -8.578926268756098539e-01 -7.028135441177745246e-01 3.681238245015820976e-01 -6.087183026975131472e-01
-4.043831226885244434e-02 -1.795850687022162162e-01 -9.048317689776812500e-01 -9.542847584852038878e-01 2.107883769779181349e-01 2.119171060906858972e-01
-5.666689488367453176e-03 7.863906607266077375e-02 -8.476257258007339201e-01 -8.609822966956318657e-01 1.347493870284152406e-01 -4.904610967978818015e-01
1.343566144590248833e-02 -3.940937135108205092e-02 -9.366309848486947809e-01 -6.080983147331057159e-01 3.109413053908833824e-01 -7.304327102619174727e-01
6.012113194209757483e-02 7.824529666314060383e-02 -9.439783367900855815e-01 -8.411830662705638284e-01 1.676548039632378417e-01 -5.141039931061617274e-01
-1.059484431402436463e-02 -1.795678256798338424e-01 -9.815908906177492899e-01 -7.929280015543538340e-01 3.381255781839673236e-01 -5.068888218621281361e-01
5.044149369095769775e-02 -1.345750548240998434e-01 -1.055051682793767931e+00 -7.295356402999583212e-01 4.752166241124424206e-01 -4.918809913986340598e-01
1.262110133805026055e-02 1.409686797003372183e-01 -8.471599701170812180e-01 -6.595626512849863676e-01 3.693137643203999732e-01 -6.546636178324066746e-01
5.831120269651115379e-02 -1.804016876608017725e-02 -9.875453283948472105e-01 -8.447020326605971796e-01 2.959872996772732745e-01 -4.459484212874973985e-01
-8.302736843483204954e-03 -2.249580701718097708e-01 -1.043262765846754148e+00 -6.279454338636040189e-01 7.473811235426681687e-01 -2.170391399309100078e-01
-5.040120525916906569e-02 -5.865996295730886712e-02 -8.174043424851510364e-01 -5.772440314620576052e-01 4.541387002239837822e-01 -6.786364041961656657e-01
-3.054083090753928822e-02 -1.303692536015926551e-01 -9.017412411647752757e-01 -8.182566679352401007e-01 1.903861377515386200e-01 -5.424104939357002886e-01
6.628172218423891704e-02 1.304338578750497135e-01 -9.205018170102192698e-01 -8.712696422088869186e-01 2.570937865449388071e-01 -4.180813264009570762e-01
-4.939790159400044012e-02 -1.270909379804858463e-01 -8.589621772882138906e-01 -9.279774186846079242e-01 2.164805244803529594e-01 -3.033052800927854564e-01
-4.367830649521563940e-02 2.812916262700910011e-02 -7.934596924601462486e-01 -7.884897926244183175e-01 2.274372140242770512e-01 -5.714509258055121554e-01
3.327183118365210218e-02 8.932890737963623817e-02 -9.007950712671679572e-01 -8.152338769979439181e-01 -7.909816592560919846e-02 -5.737048073200242682e-01
-7.380971747251574046e-03 -2.157096087587264954e-01 -1.030937488893262532e+00 -8.625685594723947469e-01 4.782415149323745451e-01 -1.651076424787928931e-01
2.325537923782911714e-02 -1.623251765514442391e-01 -1.035369920618140593e+00 -8.913258434885421577e-01 4.337754873588616222e-01 -1.318221047321753159e-01
