-5.353116990004519460e-02 3.010023026993732809e-02 -6.045478953426564050e-01 -6.622116946438948437e-01 3.521229350975185746e-01 -6.614265719300743696e-01
2.550325114056870360e-02 1.130135309660028897e-01 -6.592923080710400008e-01 -5.443231132848186382e-01 5.241930342510106033e-01 -6.549305392075109866e-01
7.035669496380973775e-02 -8.844600821495272880e-02 -8.185350616449679206e-01 -4.475259572664711527e-01 6.417960337226812362e-01 -6.227506472662741599e-01
1.486111657477451851e-02 -6.241698050591918540e-02 -7.443491346159186728e-01 -5.675335499926219551e-01 4.054106170886237481e-01 -7.166225653610087676e-01
-1.857453693061725600e-02 -1.422965397489951433e-01 -7.460561472247934089e-01 -8.489810690052668196e-01 1.849734197092521015e-01 -4.949908872613101307e-01
-5.277869654617568622e-03 -1.753011126309131362e-01 -7.991237157153618931e-01 -2.792192626472153605e-01 6.172289503009831257e-01 -7.355712244759794460e-01
3.074743537935202900e-02 1.058360469250529540e-01 -6.688644990488453734e-01 -6.696277175116184255e-01 3.997272874942328080e-01 -6.259527263082118598e-01
5.252816272388731444e-02 3.501052987913068348e-02 -7.303889807619077246e-01 -6.413970729521787373e-01 5.423282690915349757e-01 -5.426691840823073543e-01
5.666771079371667880e-02 6.974706764196375586e-02 -7.121830745942038243e-01 -6.486605035115449169e-01 3.724860060661979722e-01 -6.636970140576204935e-01
-5.789425067138179865e-02 -1.808139658321061272e-01 -7.132914176781728344e-01 -6.214862605649045246e-01 4.084822072487673816e-01 -6.685036382026851021e-01
2.337451372205325961e-03 7.997998853845510181e-02 -6.577439481749467465e-01 -1.445335021488034777e-01 4.347834918981521302e-01 -8.888607213334669410e-01
1.702341301497943375e-03 -1.209451014193161922e-01 -7.671843384830838719e-01 -2.523642572140167850e-01 6.417086873448769602e-01 -7.242390781136658351e-01
-1.151243943581784683e-03 -1.080433902815451236e-01 -7.523815706088027300e-01 -7.767826370856213414e-01 3.934106258073580831e-01 -4.917690659488156979e-01
-1.913534452322252985e-02 -2.268649513315043609e-01 -8.308841540025143635e-01 -8.285483720701783961e-01 5.219536899731296309e-01 2.026621342611666376e-01
-4.648032340652408917e-03 -4.232435869490220465e-02 -7.106479314241513912e-01 -9.315096639230833198e-01 3.118387347120762376e-01 -1.872067027407823547e-01
-6.919261370857991353e-03 1.279284316928281373e-01 -6.286123837591791608e-01 -8.453149882258118586e-01 9.706300470539447334e-02 -5.253773346827556034e-01
7.635992830905687437e-03 9.457407232434413002e-02 -6.536944222181390041e-01 -6.289425985861816226e-01 3.050511171872608007e-01 -7.151049039032422172e-01
-2.768142458317273541e-02 -2.065307457452136286e-01 -7.773756055815278510e-01 -8.571281145839405591e-01 3.495294432607755075e-01 -3.783656478640620713e-01
1.369790445215412523e-02 -1.445225281304944598e-01 -7.967569261498277378e-01 -6.782284429044338481e-01 5.059951210213142758e-01 -5.328931569630565024e-01
-7.636036204994905985e-02 -7.186049318426022958e-02 -6.273176638932551619e-01 -5.475409861467769312e-01 3.072402889290758998e-01 -7.783330092885647478e-01
2.644141348295913144e-02 -1.657954006797816293e-01 -8.273570004151450386e-01 -5.625558522186614452e-01 6.896782689430905888e-01 -4.559328881339854145e-01
-6.401414972436557382e-02 -8.738406407708523838e-02 -6.540591351572383472e-01 -8.304378557519161985e-01 3.899849608475874918e-01 -3.978500949438938394e-01
4.668477056166506212e-02 1.956287304743479227e-01 -6.397360897443533645e-01 -2.127291002160757727e-01 -7.078276789094696542e-02 -9.745440624676521280e-01
-2.812537697427982403e-02 -1.431820940813291476e-01 -7.354598722751147788e-01 -7.174438053112852653e-01 2.502056372355761504e-01 -6.501319291620755170e-01
8.753993550667521495e-02 -4.545059079129186441e-02 -8.112695470455754121e-01 -7.903272719717758799e-01 2.701620924917025324e-01 -5.499047617162042823e-01
5.994940142994806959e-02 -1.454766207030007419e-01 -8.466366622566888767e-01 -6.522298826277116435e-01 5.582722228890596439e-01 -5.127653511675193121e-01
8.475256849773379897e-02 1.775686462666699328e-02 -7.698548235839298703e-01 -7.865561435599999207e-01 2.145951149880840625e-01 -5.790322699567544973e-01
-5.657946314803316556e-02 2.889577364628784228e-02 -6.019405686872966177e-01 -7.256844630624033066e-01 3.292578719122411512e-01 -6.041285573896117977e-01
-2.124549906120009116e-02 -2.183177643654458655e-01 -8.062153317511865369e-01 -6.831345110544488897e-01 5.232118298284151869e-01 -5.094866248823423094e-01
-5.415101954771147502e-02 -1.011357877836172592e-01 -6.764565379148878010e-01 -8.091853967735890274e-01 3.993176538717613244e-01 -4.310039500453812789e-01
-1.115925532901549701e-02 -1.790390278232613375e-01 -7.881794235765813283e-01 -9.834521064999277584e-01 1.245057936256651898e-01 -1.316064647899106155e-01
9.167335526510093924e-02 1.721032126114658070e-02 -7.746143058658266911e-01 -3.179392667780644444e-01 5.144334116213662433e-01 -7.964125109817328241e-01
-1.427025383419664589e-02 1.658632895058385903e-01 -6.131810571896483264e-01 -9.190296622898830314e-01 2.247440547010117265e-02 -3.935471775151094254e-01
9.344441453964870414e-02 8.111798450150453643e-02 -7.415611684528041758e-01 -6.679349340551974379e-01 1.746679080202890866e-01 -7.234321293504283323e-01
-3.269874919212931857e-02 1.547581010939001744e-01 -5.872049585857380682e-01 -9.400296663479423831e-01 9.484018698479744491e-02 -3.276424351613578811e-01
-1.767233132785971106e-02 -6.747604507806597915e-03 -6.654506548471023075e-01 -9.014680797258712852e-01 2.157284951749067203e-01 -3.752552699229158573e-01
5.300236542792653716e-02 9.587950604414149924e-02 -6.961306294147681095e-01 -6.500746353758477536e-01 4.998115847794470379e-01 -5.723559628074263994e-01
1.526347016785960763e-02 1.101207043691592308e-01 -6.521594494062996628e-01 -6.196350267896361119e-01 4.673657109944097665e-01 -6.305725380652862366e-01
-2.568170806463433362e-02 2.136545300532423711e-02 -6.364980271849609572e-01 -6.856580363409222612e-01 2.005723072500135151e-01 -6.997455300075281492e-01
-5.011789860167890041e-03 9.322075275940150396e-02 -6.396807470518239835e-01 -8.210651972515764507e-01 2.035982130958231273e-01 -5.332913926611023703e-01
-1.420572445056651582e-02 -5.746905658188643240e-02 -7.061439819137840246e-01 -7.535215337564717952e-01 4.864040708381025535e-01 -4.422854033736770551e-01
-1.164317444030435900e-03 5.553831359900502501e-02 -6.617350052754878975e-01 -9.424571270147558133e-01 1.149997520609503804e-01 -3.139261390279766695e-01
-2.569925983438461556e-02 1.760034122695275371e-01 -5.965515036663308068e-01 -9.673234266117388680e-01 7.470076296739353548e-03 -2.534355663442776629e-01
-4.776431931987927537e-02 -1.609271507915464583e-01 -7.163189180628027897e-01 -7.989812934043465376e-01 3.152889230512064822e-01 -5.120759590052318400e-01
1.405415329828902521e-02 1.437843114497135977e-01 -6.357044499307666907e-01 -5.242607526640838955e-01 2.144871917299750741e-01 -8.241030929440060770e-01
-7.886208314041598388e-02 -8.477204342284391791e-02 -6.321128363652355198e-01 -4.861368003677227212e-01 5.366416299969554160e-01 -6.897004946224435384e-01
-2.566837101207244953e-02 2.159150720401685208e-01 -6.011280278770281260e-01 -8.610068608384493505e-01 1.299485567045996215e-01 -4.917118650180313244e-01
-7.814611914986424601e-02 -3.246813435150457117e-02 -6.042372969451224041e-01 -7.386677408256671074e-01 9.738805512620520022e-02 -6.669974028302062541e-01
6.743378338257464966e-02 -1.242643153517878907e-01 -8.429289912835542520e-01 -7.257413675679453835e-01 5.435973943403571429e-01 -4.216649621049661789e-01
9.726759852349149693e-02 3.641399156103985318e-02 -7.693056626013065058e-01 -6.885024959050233262e-01 3.528123149349635113e-01 -6.336306365405521834e-01
-6.130515704825764689e-02 -6.745512816078254315e-02 -6.421409120887813238e-01 -6.276529910170337567e-01 3.648941069537442461e-01 -6.876801680852812071e-01
-3.881129717399772056e-02 -1.074934284708699422e-01 -7.023465462723484931e-01 -6.843618837308811376e-01 2.690696665302245716e-01 -6.776801064290096654e-01
1.929884690240713527e-03 -2.253339943562694334e-02 -7.125304725882961598e-01 -7.755670676769496064e-01 3.157090886813062047e-01 -5.466475051246435513e-01
-3.716859148119223966e-02 1.623791890479336919e-01 -5.785303991527450673e-01 -8.418075813274472630e-01 1.887815386274261653e-01 -5.056891601498834099e-01
6.963163868880682672e-02 -9.076079125059108386e-04 -7.606243816033052552e-01 -6.401525854093843559e-01 1.763642437458045609e-01 -7.477301123544853878e-01
2.874905291894949352e-02 -7.743116850691826591e-02 -7.660615861510092772e-01 -5.642710367863880139e-01 4.959282291696125444e-01 -6.600404446370744527e-01
5.874384888063651118e-03 -7.720895651943146532e-02 -7.441581329201859552e-01 -4.893526298944252395e-01 4.456719092940253368e-01 -7.496069322529157475e-01
8.106921809368318466e-02 -9.787234521864460191e-02 -8.351837254441690783e-01 -8.529283840038449638e-01 5.649139659250859008e-02 -5.189623241350160843e-01
2.913492949667542339e-02 1.948589396525970130e-01 -6.295958946688844371e-01 -4.145762518683533404e-01 4.358089363792982951e-01 -7.988723942900595176e-01
-7.432049380093713742e-02 6.142852580416564845e-02 -5.655599987675767881e-01 -4.148954028137131766e-01 2.355344889595143154e-01 -8.788545438436482504e-01
6.935292265411893654e-04 -2.246255711971922864e-01 -8.552389248745181360e-01 -8.504933568736822158e-01 4.712388536613812962e-01 -2.336557140616134232e-01
-2.464766632424655185e-02 -7.488924327023060989e-02 -7.028431589259581669e-01 -8.570025439663870870e-01 3.015790193371285510e-01 -4.178477410861483055e-01
4.493070686701257366e-02 1.480870694997629966e-01 -6.564821388814046088e-01 -6.868814177653804753e-01 -7.800624122847792628e-03 -7.267276437510239440e-01
-4.787120119624026227e-02 -7.684191587239837251e-02 -6.679969840485601162e-01 -7.791941869638921991e-01 4.181628589576309452e-01 -4.669006772216762746e-01
-6.920162911739814737e-02 6.829544056704960064e-02 -5.665886169263539829e-01 -7.728758630431399324e-01 3.816060997617230499e-01 -5.069908134768988939e-01
7.528131706244514665e-02 -3.264112149509123401e-02 -7.848413182339319949e-01 -4.792165217336107341e-01 7.197240670504135851e-01 -5.023433015438263372e-01
-6.662356932775971574e-02 -1.381105419828259906e-01 -6.798840231335153694e-01 -7.658773613053049267e-01 3.559236789816719315e-01 -5.354906181999599113e-01
-4.663421339462948262e-02 9.162878725535110458e-02 -5.857348509302487960e-01 -7.582325525884202611e-01 2.893099035723178392e-01 -5.842800491974928789e-01
-2.950980158162237743e-02 3.652588739212608848e-02 -6.278276388873634817e-01 -6.416171651762300199e-01 4.462654087261668789e-01 -6.238385995797995909e-01
-3.420044670018516919e-02 -1.342644102306169429e-01 -7.217274241117521694e-01 -7.963696427196879091e-01 4.372480314744527918e-01 -4.178630770075679179e-01
8.252886090705419120e-02 -2.706054062467002155e-02 -7.916736090668070602e-01 -6.777149013845933379e-01 6.893785430652837887e-01 -2.558510050839308825e-01
5.973261581913871798e-03 1.395913010161322909e-01 -6.328708438978586370e-01 -2.962855097694456208e-01 3.139542798226545584e-01 -9.020241720052174506e-01
-4.941759418404783472e-02 -1.643874404894214991e-01 -7.160302410762594549e-01 -9.443374679620035739e-01 1.679578215780629658e-01 -2.828726158076521058e-01
7.792032384135764989e-02 1.349410024985120415e-01 -6.920053551418827720e-01 -5.900842410431900165e-01 4.724512126424686986e-01 -6.546681908762204127e-01
-2.810308419236692487e-02 1.395429101681645023e-01 -5.963698334953299041e-01 -8.684197742201741343e-01 1.041488756275223554e-01 -4.847680965667032216e-01
-4.027638683330673347e-03 1.528524375285719022e-02 -6.772445056976635902e-01 -7.845795179783014994e-01 4.940411403852577599e-01 -3.746442733791218727e-01
-7.646572227722657489e-02 2.598636174929890366e-02 -5.817451087353517902e-01 -5.562891940146799108e-01 5.601034708287768726e-01 -6.138619018867804700e-01
3.612160975626343973e-02 4.967586145714009138e-02 -7.063969550609854320e-01 -6.674395105871652190e-01 3.176874816745934305e-01 -6.734977087521680783e-01
-3.353690953553987303e-02 -4.786280575841568574e-02 -6.681795461169169892e-01 -6.597945189414717859e-01 2.775710843309856513e-01 -6.983018587388356568e-01
5.801266345675895608e-02 -1.054779730970892421e-01 -8.168386551036767029e-01 -6.081926757159320518e-01 4.311735975138854537e-01 -6.664765547357452968e-01
-4.137676804082529580e-02 -1.007871357267880602e-01 -6.948548625338091256e-01 -8.110852129422002621e-01 2.308368930469256730e-01 -5.374524222244677629e-01
2.673812602363334970e-02 1.468725489137639173e-01 -6.430128707317085412e-01 -3.847538047877728795e-01 1.526442495531439014e-01 -9.103099707131027118e-01
-2.494725877160808639e-02 -1.086879599988890659e-02 -6.539840956316680387e-01 -8.733146491385347376e-01 2.283066090462503028e-01 -4.303459258153151668e-01
5.209493981140137647e-02 4.560968785802997638e-02 -7.230167411802816968e-01 -6.239947173812804282e-01 3.595985816750386643e-01 -6.937719025281700036e-01
-3.490353849165116901e-02 -1.808978750919242318e-01 -7.456902944976219194e-01 -7.254422896513449404e-01 2.463075927713746227e-01 -6.427021503998449070e-01
1.641691515831449066e-02 1.871127356217478499e-01 -6.254656627941227454e-01 -4.640372300362478053e-01 3.236024378543250202e-01 -8.245913602233679862e-01
-6.171734405968777593e-02 -5.988296078609346706e-02 -6.374600649110669925e-01 -6.394085992877296398e-01 4.358887705061647022e-01 -6.333700521050292798e-01
4.484160568135443087e-02 -5.712151512346503712e-04 -7.413716263725702582e-01 -5.922925780102825666e-01 2.896995859594004297e-01 -7.518401771180398541e-01
7.283164012829759781e-02 -1.951044043592735019e-02 -7.730580825981151483e-01 -7.255338697360562694e-01 3.177364662647631510e-01 -6.104458549874874906e-01
6.198812719144844961e-03 -1.701549119280886813e-01 -8.072775394699056584e-01 -6.588877158208181761e-01 3.924233997733635460e-01 -6.417716519532002950e-01
-7.136712373396336684e-02 5.764120438751036551e-02 -5.702617556562943335e-01 -7.745009144172838589e-01 4.088689668368550856e-01 -4.826743224209817384e-01
7.141254980652947393e-02 -8.750746725031768869e-02 -8.221920499217146849e-01 -5.872554522842510227e-01 5.285738541937090584e-01 -6.129769281345159859e-01
-5.187482834394674391e-02 -1.593650265738254523e-01 -7.093729479814606664e-01 -7.198258831618564724e-01 5.642571678277471525e-01 -4.043074900187514920e-01
-3.682755859161450374e-02 -1.239901586836656827e-01 -7.125758755122288957e-01 -6.278883028483385198e-01 3.993724503774490620e-01 -6.680253925007230142e-01
5.732441034671077219e-03 1.362760148365405322e-01 -6.337934955148020189e-01 -2.958501773981188632e-01 2.082775068147542930e-01 -9.322516573804154882e-01
2.244986969422660406e-02 -5.374941473693870680e-02 -7.457918025599167278e-01 -7.186511205820266257e-01 3.126439397454817137e-01 -6.211234449178527628e-01
7.627637444779448994e-03 1.543662960467025724e-01 -6.287110333354979375e-01 -5.205920922254577698e-01 2.613181604545865566e-01 -8.128325119782988661e-01
7.849496547633708077e-02 6.241536852865074356e-03 -7.686456906039198511e-01 -6.847776032811634384e-01 1.478214464178363441e-01 -7.136024481624515525e-01
5.840545894432722790e-02 -1.116417314375319769e-01 -8.242558184783843611e-01 -2.982357480365977476e-01 2.647317488519720929e-02 -9.541250492490743751e-01
-2.164077491922281396e-02 -1.576516318809292883e-01 -7.519445398718418438e-01 -7.029569808934106323e-01 3.567780554217095390e-01 -6.152730305992004656e-01
-2.970426611962404678e-02 -2.109838779572446865e-01 -7.776930798705935510e-01 -8.799207828807297238e-01 4.481625839428857172e-01 -1.577647432356162616e-01
-6.671112984171925775e-02 -4.575337375949391910e-02 -6.236853680324340177e-01 -5.502076198803802498e-01 4.559943327703082638e-01 -6.995289440094156763e-01
8.140254370865071532e-02 -6.698810495751647553e-03 -7.775509460792869865e-01 -6.185415605178661291e-01 5.132947121202386942e-01 -5.949242610799496678e-01
7.212139380418393364e-02 3.206757049270658744e-02 -7.498084862576768206e-01 -7.456892045832670401e-01 2.872909455189990857e-01 -6.011751182399137639e-01
6.281272741870382904e-03 -2.178301985792747697e-01 -8.520984705366024814e-01 -5.668827969455899618e-01 6.986872819163806314e-01 -4.364401180178619222e-01
-1.262162805328264671e-02 -9.418913585228311236e-02 -7.291602172257642955e-01 -6.981965376989019978e-01 3.892575677615298102e-01 -6.008328725075250398e-01
-2.876132372712934815e-02 -2.378111498400256318e-01 -8.209030588005840068e-01 -6.283558608239455667e-01 7.324644686784410608e-01 -2.620395281094197726e-01
1.912160503033226780e-02 -1.070789135729676989e-01 -7.766202680836429284e-01 -6.331881621813797434e-01 4.507115832073825268e-01 -6.292311340326869340e-01
3.948609021129517033e-02 -6.710035556624502351e-02 -7.707265756052132932e-01 -6.684989205223059727e-01 9.904985540081399920e-02 -7.370877284323688050e-01
1.560713967826141482e-02 -1.151057889085273234e-01 -7.785155932064992124e-01 -7.405842892118145171e-01 8.889082271932058354e-02 -6.660580546836091242e-01
2.687672504014730276e-02 7.308583504520346774e-02 -6.814708056428252503e-01 -3.373747951865483374e-01 6.434510715884599330e-01 -6.871309671703763611e-01
6.054861346267868122e-02 4.702732117913290683e-02 -7.302229330510008332e-01 -7.426732164718485851e-01 3.942170570949977138e-01 -5.413219055522492384e-01
8.929327926991419140e-02 6.152646527135094412e-02 -7.493018927502665960e-01 -5.827894417692176532e-01 3.199076460179328119e-01 -7.470043939506572084e-01
-1.839646954754815475e-02 -4.854327928101141026e-02 -6.926631829645402139e-01 -8.372798390929407919e-01 3.475233026710732309e-01 -4.221256035223270309e-01
-8.851343185618316955e-03 -1.584504459929871323e-01 -7.772610614055841527e-01 -1.264024626058604384e-01 3.753627238118759091e-01 -9.182185159425305665e-01
8.599822764787147522e-02 2.989593009985627020e-02 -7.638133937243374305e-01 -9.455690563724088449e-01 1.296265490034972379e-01 -2.984897275023654095e-01
-1.724495547284013094e-02 1.775989001188764127e-01 -6.090567986819407365e-01 -8.499160175440990672e-01 8.091616894238425062e-02 -5.206681637335494051e-01
1.080925111224884799e-02 -1.367707431146004127e-01 -7.872684795078033204e-01 -6.631362626611357891e-01 5.257541727165159218e-01 -5.327596522025604964e-01
-4.492286576034695833e-02 1.428342775576816603e-01 -5.694182262485565360e-01 -9.670306187208920212e-01 4.950515728513518732e-02 -2.498019652814261748e-01
-5.984902837382664875e-02 -6.188320361003767436e-03 -6.117954330027354226e-01 -8.493779745095115796e-01 1.464377706333691298e-01 -5.070631476946911853e-01
3.098915905783332717e-02 1.135143897101593691e-01 -6.640739232797213676e-01 -6.951605268199930743e-01 3.575150930817810879e-01 -6.236463742940185906e-01
8.569704862028869330e-02 -9.416416308981681582e-02 -8.401082946518553252e-01 -9.450403581839125211e-01 1.898491213992803406e-01 -2.661879646181315451e-01
-3.646132252456951023e-02 -7.853106683030958157e-02 -6.871170854640180625e-01 -8.464795503360798001e-01 4.585585265937183186e-01 -2.705484218232042104e-01
-3.986235499753871397e-02 1.537620551583742390e-01 -5.756036669220453428e-01 -8.587891669045918386e-01 -3.908244731695065255e-02 -5.108363036424045101e-01
5.158809312162612910e-03 -2.200027047407479286e-01 -8.548044323895334085e-01 -4.967908385413231098e-01 4.743311492267519580e-01 -7.267797627993213272e-01
-1.411725841679646425e-02 2.915637152761732173e-02 -6.489058143833360548e-01 -8.414435158437930662e-01 2.155061181730666964e-01 -4.955097604229534158e-01
-5.007350766521314472e-02 7.084073732356879760e-02 -5.904894855931603903e-01 -7.135058672288022708e-01 3.112166825132374748e-01 -6.277368508822223081e-01
3.686453209894306055e-02 -1.397433901200652306e-01 -8.205925868885705077e-01 -7.233612423735948926e-01 4.184656268631233300e-01 -5.492131026894595536e-01
6.675148114827889056e-02 -1.313930065137380865e-01 -8.478701972641221607e-01 -5.512053864994562735e-01 6.597034383494355669e-01 -5.108463519727997060e-01
-6.126440450351391259e-02 7.673461393149962062e-02 -5.729393431185884067e-01 -8.127321787249764951e-01 1.569171336384363458e-01 -5.611090970886588591e-01
7.296371318058088307e-02 3.033099285586131171e-03 -7.619295137693238296e-01 -5.575696682585197239e-01 6.348760731170588478e-01 -5.348349622281131088e-01
2.846680528950464029e-02 -6.771257380180194241e-02 -7.598253053244690136e-01 -7.915166540522354799e-01 3.682863072591711084e-01 -4.877156776682058381e-01
-3.559689740069348681e-03 -6.719864662910683684e-02 -7.276150527363791642e-01 -7.826297657886533976e-01 4.061570055246175315e-01 -4.717278204270692887e-01
9.437652528891499193e-02 -5.287706954994483323e-03 -7.894145754724549713e-01 -7.189962954603145162e-01 3.490361743221728208e-01 -6.010142062621199877e-01
1.413216455117116341e-02 -5.901742471234214249e-02 -7.408205702269863302e-01 -7.036935336038713240e-01 -5.251433936634686273e-01 -4.785810556799263149e-01
2.772919895437166160e-02 -2.349809216273917450e-02 -7.355987469252287525e-01 -5.151168479798212685e-01 4.771540595143117236e-02 -8.557907880797875899e-01
-3.497523330488518101e-02 1.372059897481125168e-01 -5.877706555508037667e-01 -8.006294682877843627e-01 1.646610921131382022e-01 -5.760895583616563176e-01
3.493038207664225792e-02 -1.864799047513214514e-01 -8.553778946962014018e-01 -6.240291208745661899e-01 6.639979659119632505e-01 -4.119397499213826030e-01
-3.352930431419835072e-02 1.032906595218437140e-01 -5.981037810919797026e-01 -8.906121931465922348e-01 2.329576951098238369e-01 -3.905645064617824236e-01
2.759883474748651977e-02 1.830206262120982752e-01 -6.321633819512065822e-01 -2.510163936250930372e-01 7.992468160765218987e-02 -9.646775706946687512e-01
-1.806985506421972818e-03 -1.231120394025466969e-01 -7.595952028397052747e-01 -8.148651441489869196e-01 3.161856704177967714e-01 -4.858203563803178970e-01
4.142779805827503242e-02 2.018411439629396731e-01 -6.349420421269070802e-01 -3.025367993530177491e-01 4.101242354814501057e-01 -8.603892122219966021e-01
-6.257521977315642914e-02 1.365397911714633095e-02 -6.018970750111624080e-01 -7.156784644418194841e-01 2.464472851728171932e-01 -6.535044538219667576e-01
-3.497692661893293115e-02 -8.493441279927863019e-02 -6.934082693368232020e-01 -7.316757653351341206e-01 4.851731096791910280e-01 -4.788085505350434534e-01
9.794436342259540962e-02 5.197146456720605490e-02 -7.628413967563925091e-01 -4.514225759338121868e-01 3.127681208295062798e-01 -8.356995635574191450e-01
-3.060125222723463628e-02 -2.413393368810045347e-01 -8.319110701383664042e-01 -7.298430849502397511e-01 6.807460536736756884e-01 -6.256102427257875798e-02
8.353487159307385057e-02 3.251466606108158186e-02 -7.584121158887391356e-01 -6.256490806697124762e-01 3.423943311369100906e-01 -7.009488924753726202e-01
-4.511462750797088500e-02 -9.834705506642431316e-02 -6.865401495549388056e-01 -6.679244407288063012e-01 2.803473586192045675e-01 -6.894072091241476574e-01
9.270571842855548916e-02 -7.650949408700315202e-02 -8.322292814355792823e-01 -6.609648375583886404e-01 2.396533235385486516e-01 -7.111200798939236734e-01
-8.192183150108778289e-02 1.904276570381445780e-02 -5.795559918142513256e-01 -3.067940307437389547e-01 4.770303436299632160e-01 -8.236015261983727909e-01
-2.224980732558858726e-02 -2.171690725686748272e-02 -6.677177560578243520e-01 -9.122856102946921286e-01 3.458299686223516023e-01 -2.194005425059483150e-01
5.867565859331879546e-02 -1.321773349012553833e-01 -8.365658551613839311e-01 -6.338497131517201177e-01 5.780551813490463209e-01 -5.138937131868839270e-01
-3.570561230433719896e-02 -2.447259088275277050e-01 -8.210540662564976833e-01 -6.156641184419029411e-01 7.784444792317568584e-01 -1.224005147732366572e-01
8.285109783152647123e-02 -8.068850857184044212e-02 -8.288243239358394909e-01 -6.794212448120540149e-01 6.056461990106738469e-01 -4.142215032104949457e-01
-3.446288827388101651e-03 9.804524591828088498e-02 -6.405035074533933503e-01 -6.933964740277522854e-01 6.490113892871687828e-02 -7.176274604358698905e-01
1.576852303074485415e-02 -2.295503101168690566e-02 -7.241314285106382753e-01 -5.918625204821199581e-01 2.557744256791745774e-01 -7.643809259898108888e-01
-4.898323081980513610e-02 1.418626099519386397e-01 -5.620918234376166556e-01 -9.242861782753528654e-01 2.053785394460301839e-01 -3.217370295507779865e-01
-2.484745091680852849e-02 -1.784333404546297186e-01 -7.610946855731187677e-01 -9.040149990596503260e-01 2.952018847614751307e-01 -3.092130797822969512e-01
-2.751587914247170807e-02 1.822410771115418743e-02 -6.362649863534534100e-01 -7.144923117512654853e-01 1.772117672384775078e-01 -6.768284317318150611e-01
3.868537695399430071e-02 7.222214605562427697e-03 -7.321783554885091805e-01 -5.469661462879302771e-01 4.410905770254070490e-01 -7.115245165658903304e-01
-3.688607643760474092e-02 -1.488476329133134601e-01 -7.266042919136915801e-01 -7.014993910484873529e-01 5.869682938029168184e-01 -4.041866232678839044e-01
3.830667535706651361e-02 -1.845495654269141694e-01 -8.544750390595681200e-01 -5.506746043066097496e-01 6.190593241881591213e-01 -5.599312755217896731e-01
3.823188875365043926e-02 -4.212712728320611860e-02 -7.538971326285703878e-01 -4.168480679420422108e-01 6.540009560175499281e-01 -6.312847517413334719e-01
6.092368202839214958e-02 -1.256123659391956970e-01 -8.374607556039637135e-01 -5.394780643416392518e-01 6.827906883236235513e-01 -4.927071077554597833e-01
1.417970141040539225e-03 -2.131769719796244578e-01 -8.425097625589084149e-01 -9.400850539021492480e-01 2.593109512781478082e-02 -3.399524521683374712e-01
2.808294407984824551e-03 -1.923149984395885748e-01 -8.224234520743552990e-01 -4.364887199106907145e-01 7.886324593828428764e-01 -4.330547787503278290e-01
-2.185646702555456983e-02 9.233425553190545421e-02 -6.181271431351650358e-01 -6.496721457703628078e-01 -1.341580627686070684e-02 -7.600961249421509525e-01
1.696090575874666800e-02 -2.071031523295299159e-01 -8.537681587281432671e-01 -6.101239033598777617e-01 5.112167322579820317e-01 -6.053150214626901171e-01
9.291733689160528928e-03 -2.109224587576803422e-01 -8.478933708706065664e-01 -5.290027266820341856e-01 6.670461830345488785e-01 -5.246003286903392349e-01
1.298654631611020904e-02 -2.753953241871502297e-02 -7.241161477677354741e-01 -5.894966551126958887e-01 2.809561287151340347e-01 -7.573356900003777037e-01
-2.437250802801256208e-02 -5.177838080411764632e-02 -6.858234220408585546e-01 -6.728990337551596923e-01 3.795764414845584911e-01 -6.349241021108678051e-01
-3.392736116864628147e-03 -1.458876156592884554e-01 -7.762067721977133905e-01 -8.153864092059308621e-01 5.277151085011636544e-01 -2.380373246822091726e-01
-2.307415345292896107e-04 -1.535898023259896911e-02 -7.039696339167202943e-01 -7.611485753398379295e-01 2.089984914839927432e-01 -6.139808440135168244e-01
3.997969548569190595e-02 1.822844493953005018e-01 -6.408677369568513971e-01 -3.414455638595665365e-01 5.078894624519399992e-01 -7.908623273686146149e-01
3.352451542963454101e-02 -1.395498793967934470e-01 -8.155372924426171899e-01 -4.286787616321733330e-01 7.077065435287397399e-01 -5.615923499942910846e-01
5.709616763364360609e-02 -8.107153828303269305e-02 -7.990492737441589055e-01 -9.030061798725717015e-01 1.148218880856626267e-01 -4.139997260003784874e-01
-5.871818031117073677e-02 -1.732315454958121559e-01 -7.076587645161421802e-01 -3.432080585280439244e-01 5.749602380275812274e-01 -7.427172767942574749e-01
1.078448303503349616e-02 -2.162734167134685859e-01 -8.552429594004122837e-01 2.859310620952558724e-01 7.753460094138876491e-01 -5.631003404501176979e-01
8.620240696888002707e-02 7.833690833345736959e-02 -7.363602464970852024e-01 -5.860001502663303441e-01 4.257667389637297961e-01 -6.894392706250705993e-01
7.675391198518723146e-02 -1.094261865642391640e-01 -8.389570340680617688e-01 -8.413531377271190603e-01 2.985373088212325832e-01 -4.505556268414672716e-01
-5.924646775753841105e-02 6.782700904586985713e-02 -5.802681800488314057e-01 -7.952640133131294586e-01 2.530532408694798896e-01 -5.509257721458922230e-01
-2.668336574650968102e-02 -2.035597716535058332e-01 -7.767255950367880635e-01 -8.386764013662063588e-01 3.871447635065320969e-01 -3.830676518330689562e-01
8.884095873540266697e-02 -9.191939221924834078e-03 -7.894200678429730278e-01 -8.165398518226953950e-01 1.986960888440363615e-01 -5.420170981283278788e-01
-3.504364830318802693e-02 -6.049222369733971150e-02 -6.746527802527779727e-01 -7.618122572069897513e-01 4.107755063236404602e-01 -5.009047496019057855e-01
-3.770672979830588800e-02 -1.837048466501658983e-01 -7.426369754918721311e-01 -6.568925277289471287e-01 2.171045484985503482e-01 -7.220511214831779601e-01
4.198377124179562131e-02 9.673454220428565065e-02 -6.856442905444072311e-01 -5.709962939853471253e-01 5.846976750200922890e-01 -5.762741197391201275e-01
-7.985568885350875779e-02 3.466472526644850255e-02 -5.736706798791184614e-01 1.930322813398599180e-01 -2.035441169440871667e-01 -9.598480769466493090e-01
-5.697386309845811798e-04 -2.411793947636890149e-03 -6.953685714600649215e-01 -8.112953156849185277e-01 2.797797267854452152e-01 -5.133451229217728118e-01
6.855036003058063987e-02 -5.114257522528357219e-02 -7.926056126857208284e-01 -8.030433025436224392e-01 3.045839508782398064e-01 -5.122012017823014407e-01
-5.345506100393505183e-02 8.231844422495122882e-02 -5.801938952580468767e-01 -8.247293330372650333e-01 1.721669114590480554e-01 -5.386836565430218604e-01
3.599344599674086237e-02 -1.753747851768566041e-02 -7.403274338266613297e-01 -6.437315391018862965e-01 3.048689796689499354e-01 -7.019007129225115493e-01
6.972120745028945708e-03 5.277516436058073135e-02 -6.749928339998354510e-01 -6.308245957664991854e-01 2.008196409241224112e-01 -7.494876924907701854e-01
-5.399821419555339563e-02 -7.727311336932503327e-02 -6.598853847368145731e-01 -8.140970548439049326e-01 4.360776756822504208e-01 -3.835130324591931594e-01
7.155523706573656273e-02 6.867624838593659742e-02 -7.278929037219192821e-01 -8.224256829961514859e-01 -6.139516254316858268e-02 -5.655498474622829841e-01
4.545400840464788872e-02 7.516989733829541886e-02 -6.997714921726019277e-01 -5.510971067356822406e-01 4.762178764184175628e-01 -6.852069126381409303e-01
2.210084954351407630e-02 8.534062065998448965e-02 -6.712365231235293273e-01 -6.763388469071520692e-01 3.308255675679330765e-01 -6.581186883896087414e-01
6.319923295420044884e-02 -4.533216573489923934e-02 -7.814669386646887483e-01 -5.998197739305332066e-01 4.502280772496642935e-01 -6.614460803859933957e-01
-8.133567993385472372e-02 -2.955801179301470807e-02 -6.005564954236023434e-01 -6.767634082732195688e-01 1.836212562741970367e-01 -7.129337440931670100e-01
-4.490510311108364405e-02 1.280933695710540776e-01 -5.736279603482923317e-01 -9.134658582046011333e-01 3.707566661097724814e-01 -1.676890587656163778e-01
8.067756690856064949e-02 -2.112566672960516576e-02 -7.828222293716662339e-01 -5.454283782858444507e-01 6.352138699387549492e-01 -5.468191872986027935e-01
1.257682788476788618e-02 1.909287098567651608e-01 -6.214607066720712059e-01 -5.531329420428224841e-01 2.160976876837370497e-01 -8.045779873976131036e-01
-2.858285307013749832e-02 -6.419322064995319765e-02 -6.892420261140309590e-01 -7.625392164611765056e-01 3.839120392488351574e-01 -5.207163234224329029e-01
-1.183936691764264811e-03 -1.953071929016483854e-01 -8.192208387521350277e-01 -4.628988931568935317e-01 4.880684957024103432e-01 -7.399417262304572862e-01
6.605894951160437914e-03 -1.975061013853599279e-01 -8.320545498115988758e-01 -4.330721861866364542e-01 5.443531849103084852e-01 -7.184205534570478058e-01
-5.591501282463775917e-03 9.002985579831723761e-02 -6.404050314609426309e-01 -8.998990447128011327e-01 1.323520304724541963e-01 -4.155293604004494656e-01
-1.570346264371281012e-02 2.373472947525373244e-01 -6.034834726581419506e-01 -5.020035157911180157e-01 -5.269643820836147213e-02 -8.632586840185907384e-01
9.856197731198718115e-02 -5.565375112336563151e-02 -8.252222500690439277e-01 -6.548788131914537458e-02 6.422181173418680666e-01 -7.637193379496134416e-01
-3.515772774932792583e-02 3.932050716323880202e-02 -6.205986432692329746e-01 -7.399116007687791541e-01 2.967181004189423654e-01 -6.037294029046103017e-01
7.105194282175730791e-02 5.062059316426811145e-02 -7.379215297623216152e-01 -6.046404402394718325e-01 4.127236808443444094e-01 -6.812261748474682799e-01
1.346729496122926924e-02 -7.641006793480416281e-02 -7.506526678591197710e-01 -4.288955328943363510e-01 5.388197893213810818e-01 -7.250667945085786936e-01
7.477838853378544759e-02 9.467895770645871900e-02 -7.161498127168606231e-01 -5.869332699690388983e-02 4.217512702622196463e-01 -9.048099023542118813e-01
1.527910104416432477e-02 7.802968818686352448e-02 -6.680240648430485484e-01 -7.226142496637895096e-01 3.639576077170779134e-01 -5.876763615866306134e-01
-2.472106429304855510e-02 9.233080678795213547e-02 -6.148047535342795467e-01 -9.186854146946388244e-01 1.447648118571269737e-01 -3.675054531232293531e-01
8.015463268851034939e-02 -6.976266937910487187e-02 -8.163190285622587972e-01 -4.736174888340695666e-01 4.052053709390013858e-01 -7.819815097767313095e-01
-1.260409761496038457e-02 1.223386804248238618e-01 -6.224422070675668106e-01 -7.345464764160892779e-01 -3.854906933625490417e-02 -6.774625031970523681e-01
4.358679736213932204e-02 8.305105147501570112e-03 -7.364184601487828719e-01 -5.541007800424871954e-01 4.032164667637334055e-01 -7.282779733637962938e-01
1.678438111733318583e-02 -9.964703642475265799e-02 -7.677189896789007317e-01 -6.506919079465027789e-01 4.899867571986494807e-01 -5.800974217343940476e-01
6.399890998153062727e-02 -1.167677300188991463e-01 -8.312078686201759270e-01 -8.398411027167734799e-01 2.330975958329948028e-01 -4.902371191620968904e-01
2.559630328550359379e-02 2.218211169847174313e-01 -6.207700092111831935e-01 -5.608798012340105998e-01 3.194168201388934980e-01 -7.637975802397221070e-01
-4.394380955277024832e-03 -1.508445191420004217e-01 -7.787484421783179567e-01 -8.862836445660479123e-01 3.208851350044751305e-01 -3.339671114165029819e-01
2.814945772244107497e-02 -1.264473634003014657e-01 -7.999726831682845152e-01 -7.198685556807293828e-01 3.627894745850410718e-01 -5.917542223528703405e-01
9.712236107383952211e-02 -2.897316897516463360e-02 -8.063828280247642422e-01 -6.799789752384239883e-01 3.673753264913061090e-01 -6.345580845904563727e-01
6.033561634613283584e-03 6.067154117992307194e-02 -6.698994194748800757e-01 -4.976127891963793015e-01 4.007558889583284767e-01 -7.692699327891475702e-01
-1.537672194874482173e-02 -1.008928474151156718e-01 -7.283602767039137893e-01 -7.613647164236813092e-01 2.732011432083643609e-01 -5.879497460963224453e-01
-1.855596315519652054e-02 -1.370032570935544869e-01 -7.445648020131107048e-01 -7.090370592140158301e-01 2.290585788228628739e-01 -6.669322425320209913e-01
-2.759350304251592667e-02 -1.466429721323947721e-01 -7.367955926767855157e-01 -5.944195394893476703e-01 3.679769250723856078e-01 -7.150233518477167038e-01
6.470328956966715783e-02 -6.230837089798185735e-02 -7.970066808599413077e-01 -6.043563541137235706e-01 6.562924834840984101e-01 -4.517007564357644611e-01
7.248640886270860118e-02 1.035391527645078968e-01 -7.082665345389652645e-01 -6.388544898288162077e-01 4.881778889027500457e-01 -5.945984271859598991e-01
-1.133693262412927873e-02 -2.197559598421872651e-01 -8.335382390338912373e-01 -6.097400273626123468e-01 6.398349303507249175e-01 -4.677909372090524598e-01
-5.441051855198460879e-02 8.803493951975700782e-02 -5.769464866470569442e-01 -6.564376035513699303e-01 -5.153341659025949782e-03 -7.543627215825817744e-01
6.247737582295427583e-02 -7.405459178775679330e-02 -8.018530473656609869e-01 -8.425087599485776568e-01 2.577883288733119893e-01 -4.729948909942000568e-01
3.082432052577872839e-02 -2.371696059039631028e-05 -7.287163140836545594e-01 -6.883453906557174262e-01 4.042144741493274296e-01 -6.023215769430896316e-01
2.244368722697626453e-02 -1.261465522333695688e-01 -7.935644602145573989e-01 -4.960522367660235021e-01 5.976282789306174292e-01 -6.298988955553526115e-01
-1.110657492243527153e-02 8.813604906413283202e-02 -6.325710759882835488e-01 -6.556959794685994769e-01 -1.293025199190452890e-01 -7.438707151456489530e-01
8.329200266247584195e-02 2.101939448515856290e-02 -7.658050833542736635e-01 -5.408356041305140138e-01 4.320424023748606901e-01 -7.216898307825465597e-01
2.665314803406826361e-02 -1.880199024269274821e-01 -8.453803079528448006e-01 -4.288246421266023733e-01 6.283527438767118056e-01 -6.490625975725289321e-01
-4.921526116106034578e-04 -8.468589432415417340e-02 -7.403339161103740240e-01 -9.519701726819390641e-01 2.611567262503101672e-01 -1.598435317995071936e-01
-9.279821001782756831e-03 -1.872558346569204724e-01 -8.008896882848438592e-01 -9.477060282482588915e-01 1.942754144271371108e-01 -2.532002120280992252e-01
-2.790679658178337255e-02 -8.308046511756922436e-02 -7.036086629925216718e-01 -8.003929051433763542e-01 2.451696544348001827e-01 -5.470493925967444548e-01
-9.158443610417017766e-03 -1.763817824318086869e-01 -7.888385355321853032e-01 -8.011350788928337519e-01 5.471865182904228631e-01 -2.424242140723113226e-01
3.515714957502529686e-02 -8.625164693291013929e-02 -7.783556915453140324e-01 -6.892586947416123877e-01 4.916364763339089450e-01 -5.321804457710432867e-01
5.481766115140442042e-02 4.814191283127936677e-02 -7.237430810621393595e-01 -6.445483684315511663e-01 3.566226225628491564e-01 -6.762970544284671037e-01
5.384170880977656032e-02 -7.403137740151783351e-03 -7.500312969635164473e-01 -5.274563376055092512e-01 2.790693962609861467e-01 -8.024400812461400800e-01
3.516595493240908671e-02 7.867430455052755456e-02 -6.870549881999848951e-01 -5.692901014517990355e-01 4.366825650141391568e-01 -6.965752779145070184e-01
1.867197514143409832e-03 2.072443801128116270e-01 -6.133123561495807952e-01 -2.849251150123527365e-01 2.065351495155291761e-02 -9.583272463805582175e-01
3.152262078804581730e-02 -1.719211329018255907e-01 -8.389383944680167682e-01 -6.065810944940849270e-01 4.077806315440518081e-01 -6.824766166982516591e-01
-2.289211145226161676e-02 1.543849804279409654e-01 -6.018571840872338763e-01 -9.031297009075613946e-01 6.382415458370878369e-02 -4.245977162330168420e-01
-3.742951428336329517e-02 -8.490894079685525064e-02 -6.894958868285968601e-01 -8.031953312247541721e-01 3.096778063733993669e-01 -5.088977462501843574e-01
-3.863288084380549908e-02 -2.004692866984300603e-01 -7.532768170033010691e-01 -6.361663532764447737e-01 4.272903354606845672e-01 -6.424292491635521518e-01
1.538645802902556666e-03 -2.174592647782885302e-01 -8.455788955149660113e-01 -3.366776771939175017e-01 7.992802192912478176e-01 -4.977944080933841553e-01
6.728531941573789865e-02 -8.434831320265553933e-02 -8.116914910309719344e-01 1.722359692232896533e-01 8.509320638994658514e-01 -4.962352199647956374e-01
5.031303464608685716e-02 -1.643360579427300960e-01 -8.497823730177506141e-01 -4.333304418331239694e-01 6.415911856753803155e-01 -6.329182242947103409e-01
5.404965174088590535e-02 1.608236514864823108e-01 -6.591425163031525702e-01 -5.741817314443378173e-01 4.057784001184899791e-01 -7.110972010019874778e-01
6.537554864767297635e-02 5.736567243698616203e-02 -7.282324451209518656e-01 -6.372592940939491024e-01 5.709778021624742905e-01 -5.175760248780774120e-01
2.636337617931466121e-02 -4.225361111522889235e-02 -7.433364658066986541e-01 -3.191388568694680794e-01 1.790512414486989112e-01 -9.306401253823785025e-01
8.039774302651664373e-02 -3.550526153660790718e-02 -7.949852260003039683e-01 -6.776805482478241993e-01 4.346041878667278868e-01 -5.931848568660786913e-01
-1.059998987584328048e-02 -1.532412976633411306e-01 -7.683545631584950408e-01 -8.089860228310893353e-01 4.034179443659016151e-01 -4.275459940492095101e-01
7.865004773667677584e-02 -5.279994698950116194e-02 -8.061230186450600854e-01 -5.663262118488530117e-01 4.901028175431330070e-01 -6.626264784999240653e-01
5.386751108188535253e-02 -1.521128440776541024e-01 -8.454285452587376737e-01 -7.264821870674693649e-01 2.273890522080481702e-01 -6.484734773370395278e-01
-5.470774405913019639e-02 -1.865806488709932653e-01 -7.194817877048873545e-01 -6.697397223225205476e-01 4.697425141979912899e-01 -5.751440469119913912e-01
1.358358304153530448e-02 2.149732589912060066e-01 -6.172378655590529117e-01 -5.509422942374545551e-01 4.979504255184315498e-01 -6.697073705331181293e-01
-7.518410873470678102e-02 -4.621594978108074098e-02 -6.146886482393797424e-01 -7.364282880882051519e-01 3.756414609226305101e-01 -5.626427546315577732e-01
-1.293429753973300393e-02 -1.246708714855715222e-03 -6.716396997803891766e-01 -8.380451721335490101e-01 2.521253223370266139e-01 -4.838523651901485145e-01
-2.834305234223216674e-02 -4.731544861003942476e-02 -6.762500242588919130e-01 -8.554861517183391939e-01 3.741951703723684908e-01 -3.579405239535483063e-01
-4.551564446054225804e-02 -1.397198407915311094e-02 -6.285012277817318971e-01 -8.248568480945245307e-01 2.103653366031437155e-01 -5.247452765937130614e-01
-5.720235089018770730e-02 1.022788704050065917e-01 -5.643276969356160189e-01 -8.649952947241538181e-01 2.806090960868378170e-01 -4.159827824542768893e-01
4.104359852897542654e-02 1.759603082138243985e-02 -7.293051074740560802e-01 -6.098243514698377110e-01 3.949175377434485101e-01 -6.871349203300932684e-01
-9.661889050261735640e-03 -5.060979221167725278e-02 -7.077538626656528775e-01 -7.999379309865692900e-01 3.161947383406086831e-01 -5.100197976693071622e-01
-9.294653771392354449e-03 -2.408035151924457079e-02 -6.932244458464248416e-01 -8.050799867712317148e-01 3.398722088113575457e-01 -4.861410254011920840e-01
-3.078422634020323498e-02 1.275324934969504775e-01 -5.948175022864475858e-01 -8.344874772150447928e-01 3.535332677547430025e-02 -5.498916190097614676e-01
3.081274868232392744e-02 -1.832284261508851930e-01 -8.458467901703270453e-01 -7.038574657251762678e-01 3.313261909246447701e-01 -6.283371890556044281e-01
-8.838132577908421050e-03 -1.190890184905771393e-01 -7.481399459362860771e-01 -6.888196093504401762e-01 3.352597207504983134e-01 -6.427507023851508627e-01
-3.547736466606785793e-02 -3.146361749902881755e-02 -6.514198470107828154e-01 -6.861291792237240728e-01 3.617639029112101334e-01 -6.311526186020520734e-01
8.565772522100649749e-04 1.011547039628874073e-01 -6.464266879100021290e-01 1.523453900529078142e-01 5.609923727397440052e-01 -8.136820262593117414e-01
2.784264826276764207e-02 9.261490318649275022e-02 -6.728070890381384617e-01 -8.112953156849185277e-01 2.797797267854452152e-01 -5.133451229217728118e-01
8.643492604120346645e-02 5.111045012342214922e-02 -7.525599390086000762e-01 -6.575195370694022490e-01 3.093147978718974178e-01 -6.870170406834943400e-01
-4.842671187450616616e-02 -1.383141430224337776e-01 -7.043520480430589537e-01 -7.349238362053173157e-01 -3.165231331848341045e-01 -5.997499988629559908e-01
-5.480078686503444402e-02 -6.141557617397861747e-03 -6.162232995106117217e-01 -5.187796810147740079e-01 3.377996240399949723e-01 -7.853400897475228959e-01
6.605219835843863241e-02 -9.607049225531857917e-02 -8.217027617137070417e-01 -8.112953156849185277e-01 2.797797267854452152e-01 -5.133451229217728118e-01
-1.915527109179017765e-02 -2.048581556911507062e-01 -7.963949522676736503e-01 -5.001887361687102906e-01 5.178050942131140477e-01 -6.940382645192529898e-01
-2.355715715191813303e-02 -2.172077924831821993e-01 -8.003983548179428587e-01 -9.608933080767404489e-01 1.817529854591769523e-01 -2.089255914674278403e-01
-1.268427122844596744e-02 1.801122349851516369e-01 -6.103995025615704950e-01 -2.417364507634923165e-01 4.420970221506244635e-01 -8.637787398274050510e-01
2.954785450100096481e-02 -1.487750821328895079e-01 -8.182930226104727645e-01 -6.753318993840499163e-01 3.733754841798170299e-01 -6.360169600630306563e-01
1.717570949267452005e-02 -3.206323146987184736e-02 -7.290470319402250210e-01 -6.924954418716761095e-01 1.764190044921361000e-01 -6.995186901298316995e-01
3.361545718141861153e-03 -8.755219987639301094e-02 -7.478007771157204608e-01 -3.492305081919925280e-01 5.266854421438188494e-01 -7.750099981172711150e-01
8.874261562211345489e-02 -6.055265141136953466e-02 -8.227452506991428383e-01 -3.820701652885056809e-01 7.762504907792761033e-01 -5.014554460381768219e-01
6.058635789348707640e-02 -3.023582558372120074e-02 -7.673759223992037137e-01 -7.150120794430241400e-01 4.140109276638535563e-01 -5.633406411980924622e-01
5.136104908938775998e-02 -5.435169073465753557e-03 -7.474832566952742674e-01 -4.589124286502430095e-01 5.488576146954529111e-01 -6.986806864520826998e-01
-5.690439068347026563e-02 -7.841869430201610369e-02 -6.569478065315057513e-01 -5.047681717264451695e-01 4.162545021770367448e-01 -7.562679963011056383e-01
5.764410522368176859e-02 1.464770585164002770e-01 -6.686257114988438666e-01 -6.551665278796162672e-01 3.959773440750337103e-01 -6.433962727009305826e-01
4.694059985780112826e-02 1.464907873532988736e-01 -6.595816835634384923e-01 -7.188623388899216815e-01 3.799726985801400447e-01 -5.821148392365869118e-01
7.596260336149154857e-02 -3.537979250548292653e-02 -7.898366246477539487e-01 -5.999913834079005914e-01 5.719516424830334289e-01 -5.593582559480407834e-01
-1.718261581081559700e-02 -6.956656075718228860e-02 -7.111034408100578297e-01 -8.526821644093949271e-01 4.147104995628587698e-01 -3.177236661793290118e-01
-2.345842592571398613e-02 -1.904131208025662270e-01 -7.731643896773597868e-01 -9.705189995280688597e-01 1.993771382765444911e-01 -1.354312677622563355e-01
7.932229338882276770e-02 -1.065271084772013016e-01 -8.422231357853180445e-01 -7.758750914992585956e-01 4.490779859390293671e-01 -4.431103755679412504e-01
6.214323358407570358e-02 -1.270361336938152508e-01 -8.400754785479531694e-01 -4.407058420073067806e-01 5.861479148334397538e-01 -6.798595316365294572e-01
1.636727500543829275e-02 -6.600901440749235016e-02 -7.466966137290695915e-01 -7.615851060833868091e-01 3.234844588249272124e-01 -5.615567033619138781e-01
-2.169182491884654590e-02 9.918969698244504973e-02 -6.168469526146689308e-01 -6.960163199470359441e-01 2.107791384052604688e-01 -6.863916062864706680e-01
7.862902802913880607e-02 5.840420515950207891e-02 -7.401861217446242813e-01 -4.134407183097408289e-01 3.683780272368691877e-01 -8.326850554036610008e-01
1.429676354025282911e-02 1.061455634834926193e-01 -6.543344176520961009e-01 -4.530755890130619967e-01 6.052236522636161853e-01 -6.545432311017786997e-01
-2.804192813915586894e-03 2.284224389170153580e-01 -6.077073166558579764e-01 6.270944708017602842e-01 2.659650003553420405e-01 -7.321305507051614203e-01
3.984547721972669931e-02 1.349756344153842658e-01 -6.583977999458093811e-01 -5.100576070178990395e-01 4.006000702144481562e-01 -7.611575535113301871e-01
-2.540016467736179798e-02 -1.579512124661189565e-01 -7.455252990139411562e-01 -6.616137711484434414e-01 2.479624843337723816e-01 -7.076593984324371922e-01
-3.705683367672618633e-02 -4.728292546617266466e-03 -6.329830495501354015e-01 -8.064719233402305454e-01 3.124047705416188592e-01 -5.020022870533039638e-01
1.173709374386952206e-02 2.274765451262412280e-02 -6.961262022323106979e-01 -5.632292184338829610e-01 1.627174875504413254e-01 -8.101208963775895500e-01
-6.251378953804414933e-03 -1.030486507815893578e-02 -6.900499967977805627e-01 -7.061620426974846154e-01 4.836824960100310489e-01 -5.170942008056386152e-01
1.750181450259759297e-02 8.842455889584466266e-02 -6.649553163400887534e-01 -1.841985146358032233e-01 -1.393658872176964936e-01 -9.729584043966053031e-01
8.475643144567085452e-02 -6.862581636794057305e-02 -8.221741402039935975e-01 -7.251962473380468843e-01 2.699795158016686236e-01 -6.334046604614707032e-01
1.734399801124778331e-02 2.296779320082656117e-01 -6.162886315087441336e-01 -4.350693991820954731e-01 -6.641250255423244986e-02 -8.979443175385735110e-01
6.234450614233551929e-02 -1.352574224812080061e-01 -8.425118369783648475e-01 -6.615642263223597830e-01 4.670541193730859963e-01 -5.866798309360300445e-01
-7.251557355096382475e-03 -1.647969772646536435e-01 -7.830963957272643050e-01 -7.487295937691554881e-01 5.630042327122442014e-01 -3.499003134642384438e-01
