1.395675763496908195e-04 -1.937873521269497246e-01 -9.871212345790295606e-01 1.639584765388190646e-01 -5.722145635450003320e-01 8.035472053576407925e-01
-1.283563577244992426e-01 -1.128887733552811079e-01 -9.319039013447700803e-01 -8.219853749056034442e-02 -5.022694999750351164e-01 8.607954169425168223e-01
4.780544132724001000e-02 -2.972234425877659774e-03 -9.229980947185356666e-01 3.295589660517962982e-01 -3.599868669967711821e-01 8.728117457302692062e-01
-9.161337363942670398e-02 3.933652755653122002e-02 -8.604921406218599689e-01 3.350346630063557596e-01 -2.890596855066087656e-01 8.967699107346533971e-01
2.482855047098220247e-02 1.298072228558334873e-01 -8.311491743998357107e-01 3.756890866812588325e-01 -4.320314935838996395e-01 8.198820029127769082e-01
7.744264718054330891e-04 -1.396083194993665844e-01 -9.685545215924065143e-01 4.394488151889253680e-01 -2.670771474700233683e-01 8.576447610335676819e-01
5.691410151930471201e-02 -4.081046621349406628e-02 -9.411996843855208184e-01 5.266820050957738975e-01 -4.101348537812528616e-01 7.445773749061450619e-01
5.305105583691457211e-02 1.812818320474141875e-01 -8.065226715933607737e-01 4.981230202075074276e-01 -2.749201440600754220e-01 8.223699721714908817e-01
1.383965238664376695e-03 -2.546048963923451813e-01 -1.002469863420604401e+00 5.696219871001407808e-01 -2.420375830169093408e-03 8.219032385828199949e-01
2.210342013579567715e-03 -1.878123573405775931e-02 -9.067189454786913627e-01 2.280405003808663178e-01 -5.963094218280278191e-01 7.696834437774843218e-01
-1.262374844705833055e-01 1.156835321002504073e-02 -8.686600329841184243e-01 3.975143085408437971e-01 -6.076958080696266418e-01 6.875232209604986711e-01
-8.034913414080631366e-02 1.310604676420381864e-01 -8.170126042023122537e-01 3.756890866812588325e-01 -4.320314935838996395e-01 8.198820029127769082e-01
-7.959030170806380422e-02 -2.006160561563972156e-01 -9.773201839566676430e-01 2.863663945053731008e-01 -1.547235974252815227e-01 9.455447617631714818e-01
7.056896922795348470e-02 -8.106762907142792129e-02 -9.656667718909323073e-01 3.904749644428409106e-01 -4.118835697758433945e-01 8.233354280559475047e-01
3.918349255574624795e-02 -6.758805033806128404e-02 -9.453649046695794533e-01 4.830239665442496166e-01 -4.505091858654382553e-01 7.508191001797436259e-01
-8.705566712805809515e-02 -1.712865952297893957e-01 -9.640367936972122909e-01 1.103935654384489429e-01 -4.713023871271583842e-01 8.750356110456471992e-01
7.939942368860537780e-02 -1.004523735172227483e-01 -9.802812946111750803e-01 4.302494188684974352e-01 -3.954342619442666185e-01 8.114907159320516872e-01
1.700924859641207362e-02 -2.469020487077149550e-01 -1.007230892594276783e+00 3.045564282381034715e-01 -4.310952520988858665e-03 9.524845393533749593e-01
-2.833596181297924968e-02 5.107392066682225201e-02 -8.643853339939249203e-01 2.262586436108252885e-01 -4.897911726407375710e-01 8.419689028667278752e-01
6.076649982094540353e-02 1.120757339556374410e-01 -8.583131717355624302e-01 4.321460521373546304e-01 -4.448712089781292067e-01 7.844357188734056852e-01
6.622248750412948470e-02 -1.322493172036266484e-01 -9.912572361096871898e-01 -4.085948143649319464e-01 -4.876232526677585222e-01 7.715399154494877454e-01
-5.700774081417230715e-02 -5.300206969534517615e-02 -9.177025967197285361e-01 3.034695937122812714e-01 -5.968532735323037741e-01 7.427465082825203124e-01
-4.192611897349947381e-02 -2.633469760365352713e-02 -9.019595299099507635e-01 2.029513660267996678e-01 -3.058936863258241434e-01 9.301826679173583745e-01
-1.296211174492896689e-01 -3.539226743135669845e-02 -8.944670293102492398e-01 2.038617076980323572e-01 -5.163521523874523567e-01 8.317576923956203627e-01
8.597019363288452287e-02 -5.748782027062711297e-02 -9.594653729172887280e-01 2.695427269220878053e-01 -5.431493935378794990e-01 7.951952305332563586e-01
-1.708181666633903266e-03 -1.603502657270692577e-01 -9.736285711583315683e-01 7.701978676720212524e-01 -1.643221067314410144e-01 6.162738757020393976e-01
2.262655197749021893e-02 -5.337469989392257252e-02 -9.330636426081072576e-01 3.206239887723291160e-01 -2.858711134560293909e-01 9.030381854136244613e-01
-4.792273387280401864e-02 9.649558402730511186e-02 -8.378212630722056131e-01 6.111371740390901530e-02 -3.833013221545902294e-01 9.215992675667762368e-01
-5.461056397410079394e-02 -1.409577887071827851e-01 -9.559618192645286117e-01 -2.497513950528363474e-02 -6.293770840668441724e-02 9.977049099143528998e-01
-8.382715286968819846e-02 2.887573965687995417e-02 -8.672996120509669504e-01 3.980612572749415989e-02 -4.421872757439963553e-01 8.960389977700021769e-01
6.888877131460109660e-02 -5.361602765993189745e-02 -9.512689545188032225e-01 4.287589691733881270e-01 -2.143363483391784174e-01 8.776250202301663084e-01
-4.354131810518004075e-02 -7.914799398444133383e-02 -9.310480082166593396e-01 1.367197521042250730e-01 -4.300251003784544834e-01 8.924046853468777796e-01
-7.032738131006895099e-02 3.374855490594832336e-02 -8.665589777569340235e-01 8.637604445587049318e-02 -5.071840600702322011e-01 8.574984012549718981e-01
-1.310980733927994413e-01 -1.036120882232591245e-01 -9.270781966098146087e-01 -1.076488673056809481e-01 -3.404944265170647411e-01 9.340638451833038758e-01
8.228500192774002020e-02 1.071296093068748317e-01 -8.690655068170693998e-01 4.682539249501035394e-01 -5.012766924015438219e-01 7.276399792643276632e-01
4.540527231538399495e-03 2.009963619010498859e-01 -7.557052681899437685e-01 9.181036560644300071e-01 -3.660959450353799549e-01 1.518533363142842429e-01
1.370722483263166723e-02 1.302756369186308105e-01 -8.243074378543129299e-01 5.078104588639531514e-01 -5.388015770830933970e-01 6.721766125068271425e-01
1.080009369688565007e-01 5.991163430746660606e-02 -9.033168917549173615e-01 1.996931263014421198e-01 -5.735670163280125466e-01 7.944454248647531136e-01
1.924350063245462705e-02 1.407745924945345284e-01 -8.193801001634556380e-01 3.905719152329329424e-01 -6.159842140296359903e-01 6.841176997400159054e-01
3.035679327742109995e-02 -4.949213183448662734e-02 -9.347034447016432379e-01 4.758745602980370415e-01 -4.100125408218302514e-01 7.780958290788977383e-01
1.204538508704796618e-01 3.667353473515268247e-02 -9.217711800958281465e-01 3.355921136276062700e-01 -5.128290678133972103e-01 7.901799038678458675e-01
-5.305812193371837321e-02 3.769574683144794047e-02 -8.664750698076598701e-01 2.025662756902026351e-01 -3.875261644424182195e-01 8.993277354922113442e-01
-4.409622070506236113e-02 -3.908694935601862708e-02 -9.095780345492719965e-01 1.421199515559181392e-01 -4.525008590537132891e-01 8.803663396140239961e-01
-1.298992258492548957e-01 -9.430250074073782962e-02 -9.223567830340692053e-01 2.888994122823950184e-01 -2.024716852483349483e-01 9.357041980538433057e-01
4.877565180439011328e-02 1.282812216981806530e-01 -8.433907106777868146e-01 3.961295826018044197e-01 -5.392399587833998087e-01 7.431699809861790351e-01
4.046491607996073343e-04 -1.359726129127433458e-01 -9.669732635242960228e-01 3.756890866812588325e-01 -4.320314935838996395e-01 8.198820029127769082e-01
-3.330018042288550306e-02 -1.061970719234972133e-01 -9.461800182681746607e-01 5.710748111096778379e-01 -4.428563058817751585e-01 6.911959580732467412e-01
-4.513901914829449719e-02 -1.258337673411879520e-01 -9.520840628178135479e-01 2.580748596551887819e-01 -4.051419407991896926e-01 8.770731865810404981e-01
8.788862459134983221e-03 -7.487922934338377134e-02 -9.393597464033769384e-01 3.570480046308199262e-01 -3.347179772290366229e-01 8.720553870648654060e-01
-8.408783732759861351e-02 -9.903075647542175508e-02 -9.316908426712972036e-01 4.758745602980379297e-01 -4.100125408218299738e-01 7.780958290788972942e-01
-2.534858817703097150e-02 -1.202915886385727134e-01 -9.537397506538148884e-01 4.429131790145539593e-01 -2.909158991495557345e-01 8.480541583396824512e-01
-8.013209776193902512e-02 -9.690846050370284515e-02 -9.316552619663950319e-01 2.938980703084333457e-01 -3.048343966210556033e-01 9.059248947377791517e-01
1.070882247151334205e-01 9.636426666461726798e-02 -8.823556960114811165e-01 3.593486532590932647e-01 -4.702221409572600042e-01 8.060767231191126037e-01
8.640208962619291486e-03 2.189256534736446769e-01 -7.323307872756439352e-01 3.957466959149605334e-01 -7.913387004901107913e-01 4.660124609696769671e-01
1.219249096634117402e-01 4.021385737370088143e-02 -9.194193235630531147e-01 -2.110600735164467334e-01 -3.017454645300315375e-01 9.297329293957419249e-01
3.798545045304380779e-02 1.178300165439981478e-01 -8.451916873697404853e-01 2.556328529643898118e-01 -3.517824817424551886e-01 9.005003775814900413e-01
1.089634419170515262e-01 1.033504309745227057e-02 -9.342123673527666927e-01 2.771156713993773169e-01 -5.594721595726286356e-01 7.811515904918915343e-01
7.254250156912832315e-02 7.962729809588336982e-02 -8.826864026432753585e-01 2.836854082366804808e-01 -5.400251020502340182e-01 7.923985602644811888e-01
-5.581454128173359702e-02 -2.206211166472489549e-01 -9.858435962635027083e-01 1.416752137896922781e-01 -3.757173577446982961e-03 9.899060649598799833e-01
-1.229195043835447781e-01 -1.107557424087779463e-01 -9.313865705232862169e-01 3.368777339513797098e-01 -5.602917596988924442e-01 7.566944802106740919e-01
6.918563688768790410e-02 3.112606333026498098e-02 -9.148982856964046340e-01 6.810807114082421954e-02 -5.821647825841974599e-01 8.102132167301212551e-01
-9.585513840557358112e-02 1.595121424531487087e-02 -8.719576669434045968e-01 1.668691858021240371e-01 -3.466339022339953724e-01 9.230382509147545544e-01
-8.657931174245554751e-02 -1.825235556653664049e-01 -9.688969641752269712e-01 4.634844672232198426e-01 -4.554538930204095615e-01 7.600946651407056720e-01
1.251039767183512869e-02 1.717457839898508531e-01 -7.862324709563113245e-01 1.328112195916343607e-01 -7.287648435851888928e-01 6.717611053825890410e-01
-1.066071645047661776e-01 -6.462450721349191629e-02 -9.129883803752876226e-01 3.449336305687694115e-01 -4.220818869201840018e-01 8.383720362920895619e-01
4.361251183349656307e-02 6.217938487942996362e-02 -8.849108293095712119e-01 4.631009385589963667e-01 -2.880515872532364297e-01 8.381907919958725417e-01
3.791873869146690501e-02 2.090630193459994401e-01 -7.655643712776016852e-01 3.884929269195315227e-01 -8.352158736332851996e-01 3.892141957386500706e-01
1.643021061499114199e-02 -1.910435172717868113e-01 -9.959784509030866761e-01 4.820191655028562283e-01 -2.880271661238217873e-01 8.274647277453042182e-01
-9.273492059242224861e-02 7.858673871365660230e-03 -8.752805980408850939e-01 1.649401617402524445e-01 -2.541882332012427859e-01 9.529864034429506026e-01
-1.131578279329076009e-01 -7.169415439612901453e-02 -9.144101624361542502e-01 2.185559275807440749e-01 5.525990393961133923e-02 9.742585126833153142e-01
-2.702152344989422472e-02 1.524308221726927148e-01 -8.038413138640317923e-01 7.240010587245142293e-02 -6.694240308995372812e-01 7.393440954818488731e-01
6.810571237791045174e-02 -1.558267501353546303e-01 -1.005676165845077463e+00 4.430092798966746570e-01 -4.556833261775976029e-01 7.720722013964440578e-01
3.446003919315081959e-02 8.694334552883845046e-02 -8.666524257208714221e-01 -5.235520372389388527e-02 -2.615770065934198696e-01 9.637615899508839012e-01
2.847614888178208459e-02 -1.560293135847901358e-01 -9.876514586960738473e-01 3.995578388827749627e-01 -1.970669901261087320e-01 8.952754519084965557e-01
-9.409924810316740162e-02 3.175324696760397410e-03 -8.783571354863640712e-01 1.370178345623314364e-01 -5.037633369380929427e-01 8.529059815529771438e-01
2.239507113565129826e-02 -1.899183605752471360e-01 -9.991770955190995007e-01 3.972902600525741179e-01 -5.155109772267046919e-01 7.592159650758973921e-01
-7.488626288844973944e-02 2.732487282029826686e-02 -8.688031738385629810e-01 2.490009544294093380e-01 -3.840748803444684611e-01 8.890922398613237965e-01
-7.964790959817200089e-02 8.651649610797776391e-02 -8.391204754400017896e-01 8.175447806921774807e-02 -3.697096402829111450e-01 9.255436171232074294e-01
2.907026246803278216e-02 1.360908950520023364e-01 -8.282990959570742939e-01 2.865071656013821189e-01 -5.935625881120027980e-01 7.520618977536643879e-01
-8.082197463597784459e-02 -1.805491492717308244e-01 -9.684179708945077625e-01 2.994631443068805979e-02 -3.077562854651110791e-01 9.509938417301845304e-01
-4.155557618513951862e-02 -1.492833461939745317e-02 -8.950082389800063654e-01 2.561935648395236576e-01 -4.144027410658445709e-01 8.732898863103428777e-01
7.189660122705759937e-02 -5.257411110980680403e-03 -9.331374351797429023e-01 5.556903246262855367e-01 -3.336218798917482964e-01 7.615147433728579607e-01
1.127654595908342411e-01 -6.560732421494663846e-02 -9.722120422722591027e-01 2.733075325206696729e-02 -2.086318531140427257e-01 9.776122850050910085e-01
1.094288660909383398e-01 4.178132798704176087e-02 -9.159375066908803653e-01 1.999256514023180394e-03 -6.512997088205769725e-01 7.588179572622296698e-01
-6.158814410082048482e-03 -3.659669456832262413e-02 -9.128292273712330651e-01 2.753429688598801883e-01 -5.632435036696532560e-01 7.790654690546620076e-01
9.603470816377172870e-02 9.842556542853891921e-02 -8.784660410406045505e-01 2.241555067640849108e-01 -3.414090474141888709e-01 9.127947037155029752e-01
-5.052418371124015560e-03 -1.682012083911396949e-01 -9.781494839812620024e-01 4.446823564965258768e-01 -5.402080072247064102e-01 7.144458767121609766e-01
-9.725106229145569214e-02 -1.060448547857432561e-01 -9.320906665982734429e-01 2.656422544298293054e-01 -3.013813927361012057e-01 9.157529409037603596e-01
-6.865472622549231851e-02 -8.172017038409724876e-02 -9.273993447636599274e-01 1.959347379712594039e-01 -1.987400219725533324e-01 9.602666203312928417e-01
4.138911065464231931e-02 -1.936612819134614916e-01 -1.010254529302940130e+00 -5.272863885530884032e-01 -6.362845772316882975e-01 5.631260970899265583e-01
-6.743529335722218965e-02 9.478249764475060735e-02 -8.370180394621565823e-01 1.546290537262006715e-01 -5.731059033787294643e-01 8.047605104974960843e-01
2.427012717333800959e-03 1.453405785825188090e-01 -8.055008164041154162e-01 -3.696743061702533750e-01 -7.426342204385536494e-01 5.584221718298476578e-01
-8.264946083599727933e-02 -1.421944125839973427e-01 -9.501866524584534623e-01 5.413187806433026328e-01 -3.578928655713685680e-01 7.608460254847642101e-01
-4.905583650689693265e-02 -1.760146480007543923e-01 -9.704214704925945290e-01 5.044221654118224984e-01 -5.747862591067470772e-01 6.443438797593405987e-01
9.594169525349192928e-02 -7.485062536425488022e-02 -9.706947045352679604e-01 3.238151624162468600e-01 -3.367110782744807684e-01 8.841772392210605069e-01
-1.101482160003665056e-01 2.218753847685471167e-02 -8.661760570688644689e-01 5.615508147570490161e-02 -5.627337400688136038e-01 8.247286490795758818e-01
-2.734923380311966162e-02 -9.811957719216565788e-02 -9.427829659002102680e-01 2.071198457356644984e-01 -3.810716742233338228e-01 9.010470290762077061e-01
-5.282012269771013679e-02 1.833642336338731083e-01 -7.797092530273072031e-01 -9.050751438122386916e-02 -3.221451885077125099e-01 9.423538970906115697e-01
1.024702601770721005e-01 3.878011233211790809e-02 -9.169866327107376591e-01 1.825547643786886720e-01 -4.927261108036256609e-01 8.508200383952971846e-01
4.337780124336007570e-02 -1.568609571483068066e-01 -9.947907900062388231e-01 2.484253071159595316e-01 -4.404546709521167669e-01 8.627192762543350879e-01
-8.266645100154797199e-02 -1.051336128006249565e-01 -9.352162097681152586e-01 -4.411934734284275184e-01 -1.278769577943122404e-01 8.882543569661964789e-01
2.241869165528120877e-02 4.063570843072828592e-02 -8.902859550247601561e-01 3.434743729946383994e-01 -1.878733960817111637e-01 9.201787555364796534e-01
4.988829119517400323e-02 1.984493909712601867e-01 -7.903673645686905003e-01 5.095743564897720068e-01 -6.183567573439026077e-01 5.983050190790387690e-01
-3.895101141992085569e-02 1.835149805239458531e-01 -7.786673712654355040e-01 1.361183210920128006e-01 -6.570122683080272807e-01 7.414895022559880866e-01
4.298513650816232490e-02 1.098876034704918681e-01 -8.514558111510004412e-01 3.187085976115668906e-01 -4.869560051147219237e-01 8.132027292693868592e-01
8.222512891887880093e-02 1.609880186069101715e-01 -8.401612854805986519e-01 -3.089595033721684869e-01 -7.949740362454241760e-01 5.220730858526249074e-01
1.123830833003903844e-02 -1.785274076175730890e-02 -9.114790179791478764e-01 5.696557309066851982e-01 -2.716651213696781308e-01 7.756870567931170024e-01
-1.855290169677921777e-02 1.083434356702916157e-01 -8.342677979415001888e-01 -6.040709580211549995e-02 -3.468053207795311343e-01 9.359898782870254008e-01
-1.076110147504514419e-01 -1.203511005580304299e-01 -9.377188897385458910e-01 1.567319354617596472e-01 -4.462210905249051618e-01 8.810912772109230628e-01
-2.797056583968800247e-02 -2.366341263885370638e-01 -9.963777351617927325e-01 2.799365722321608407e-01 -3.239811479218479007e-01 9.036989162979838230e-01
-6.938224871328088628e-02 -1.810106317445949256e-02 -8.935720333216959910e-01 2.748525703406365372e-01 -5.689669627644163841e-01 7.750694548618082269e-01
-5.182624419166607238e-02 5.097372270024038560e-02 -8.607837066154863104e-01 2.431594511151521643e-01 -3.359863675851226805e-01 9.099377133245620808e-01
-4.560384798187737398e-02 1.367282990836821699e-01 -8.159829054164027262e-01 -2.760813068196399378e-01 -7.111073864723453930e-01 6.466106996711628030e-01
-8.886963748719431400e-03 -1.493318555206533393e-01 -9.694784549572902366e-01 1.657340829071430599e-01 -5.704989356620272511e-01 8.044023733004661558e-01
4.265345420702865847e-02 1.185257051771750753e-01 -8.465178512198930916e-01 4.231864886732927267e-01 -7.235005146168899115e-01 5.453991209687315544e-01
-6.737633539943292671e-02 -1.209558747712125293e-01 -9.464744171036297837e-01 3.882815556627300935e-01 -5.147752931702512802e-01 7.643584441043431710e-01
-8.976006335393625635e-02 -1.330478920957061661e-01 -9.451377982784803233e-01 3.147342808111928680e-01 -5.962369017821737838e-02 9.473053087847620457e-01
1.584798916012127371e-02 1.221466809535074471e-01 -8.315762333919124449e-01 4.255985656054219191e-01 -6.923804594743516727e-01 5.826449693361243076e-01
-1.163645176857100449e-01 -1.442438561262869290e-01 -9.452476239073205333e-01 -3.509946957367497955e-01 -2.731587537861858150e-01 8.956489372486545752e-01
-4.373614933441010572e-02 -1.559859068971429508e-01 -9.645419636235577077e-01 1.142661819997497497e-01 -2.222693544693905565e-01 9.682662721147323737e-01
-1.059761086074378078e-01 -5.875450960100030151e-02 -9.120676516648551502e-01 -3.896559129903282015e-01 -4.293345190596341010e-01 8.147638554915814790e-01
-1.903987019700822958e-02 5.190564672515640687e-02 -8.652024274314962238e-01 -2.588374383252247668e-01 -7.985964118699202530e-01 5.433663142574487459e-01
6.676638119816426242e-02 6.536056794583638974e-02 -8.897834743199523055e-01 1.987719613576584277e-01 -6.002278569801345887e-01 7.747362306508356333e-01
-2.115745762332469845e-02 1.770140431908192313e-01 -7.822124943340660330e-01 9.097015108954181750e-02 -4.689073350903544823e-01 8.785501367077510615e-01
5.540611205661544886e-02 -1.432735648429966924e-01 -9.933284248758426083e-01 3.209958560792299798e-01 -1.153700223281433346e-01 9.400273497765723185e-01
-4.024939735073167907e-02 1.465194347065299114e-02 -8.798491160054340288e-01 2.284778551127716884e-01 -5.057160574678366549e-01 8.318949085925790854e-01
-5.260878630482408724e-02 -1.349422818815501635e-01 -9.540296205191459711e-01 9.607783917622039760e-02 -3.349308649306646513e-01 9.373315126122802043e-01
9.526511688829418512e-02 -5.107560442338487938e-02 -9.597088908766122639e-01 1.333130967541608647e-01 -6.986945065894576423e-01 7.028894683344816263e-01
-2.150916991819347771e-02 -1.913577891644193951e-01 -9.829123513087848485e-01 1.211143381476566805e-01 -3.579611897573907742e-01 9.258483157205226188e-01
4.744754218724608896e-02 -1.144823377950193594e-01 -9.740290935239562797e-01 2.478333075970597932e-01 -3.096688001607057483e-01 9.179781510757923924e-01
8.647813473334006740e-02 1.455275132067294641e-01 -8.507637524903169934e-01 4.069235499607728457e-01 -4.526116171903221685e-01 7.934456178413765715e-01
9.669340853238950206e-02 9.084235325672956884e-02 -8.825099250216866809e-01 4.449099236884628827e-01 -5.554730149539723882e-01 7.024990316445072214e-01
-7.006586567846997265e-03 -8.000840954987997744e-02 -9.366612441528270327e-01 -1.903289761649409190e-02 -4.716952266839768981e-01 8.815562159793736141e-01
-2.539196566088241375e-02 4.621716897461991547e-02 -8.671200923523594284e-01 -9.025068923984692904e-02 -5.988838360558024210e-01 7.957342295030543911e-01
-5.053674629971850046e-02 2.020153035974773387e-02 -8.753999146645684570e-01 -2.676053740533653746e-01 -2.297353655709754583e-01 9.357398279349494752e-01
1.070817486256579049e-01 -8.149646177117363111e-02 -9.781319107617126862e-01 2.589921111844008944e-02 -3.303367321871960582e-01 9.435077499582752436e-01
-9.612687616322512091e-03 -8.589690492997108240e-02 -9.400658664281676957e-01 2.751042226719795369e-01 -5.440055885536950742e-01 7.927014483968058967e-01
-5.853597944026422452e-03 1.213729489513888510e-01 -8.262247241384073071e-01 2.016709572769850023e-01 -3.976194467302975322e-01 8.951131775216342179e-01
7.774420716754304461e-02 1.662948144728269295e-01 -8.345255309558833323e-01 -9.782174633298543753e-01 -2.934226482774223224e-02 2.054984815790228125e-01
-4.017061098794801749e-02 -4.408719874476318143e-04 -8.879203874954195719e-01 -6.804422042765405354e-02 -3.859886249952091952e-01 9.199906333440035500e-01
7.607540755554993706e-02 1.686950561684615046e-01 -8.307754010703529701e-01 -6.077479528038809420e-01 -7.517550130780003004e-01 -2.559430135299405884e-01
-1.247582002727998518e-01 1.449429120836523421e-02 -8.675197894287185463e-01 -5.366394857618980163e-01 -2.433388280280426030e-01 8.079630419116610174e-01
-1.247113645894107892e-01 -9.315797329509749314e-02 -9.225309447147691522e-01 1.862538806098396615e-01 -2.538371503588265354e-01 9.491449799980434809e-01
7.534706056977791798e-03 -1.149224704344846137e-01 -9.609841569516269777e-01 1.164528452954052273e-01 -7.068212995422918921e-01 6.977409156240950150e-01
-2.498738729884696650e-04 1.678632143829905110e-01 -7.880299846671474651e-01 -1.643580302700765050e-01 -6.931480183215948943e-01 7.018064281428226803e-01
-1.043904228426714154e-01 -4.637101194418678102e-02 -9.059364068678159576e-01 3.289454415530991827e-01 -4.792087972634332393e-01 8.137283484718782489e-01
6.334989491235873404e-02 1.040050770813657627e-01 -8.637816052117043286e-01 4.838563009586265284e-01 -4.656651075287539521e-01 7.409717185243098747e-01
2.796082785836177462e-03 -1.713490360317761196e-01 -9.814451924820548623e-01 5.506260827831772620e-01 -2.100138360336251397e-01 8.079016682946603689e-01
1.887635363038102712e-02 2.004684798356913544e-01 -7.596152964371211125e-01 4.144219360931194474e-01 -7.358664854417935608e-01 5.354950741961811422e-01
4.925752353927522614e-02 -3.372505182724475081e-02 -9.357036704716553688e-01 1.359645192720876361e-01 -3.489883956516988128e-01 9.272112753841833532e-01
1.287986926304224809e-02 -1.097011362289001535e-01 -9.592123000200838412e-01 1.065801411281008249e-01 -5.047863848323352887e-01 8.566395853595699661e-01
5.887634454731029143e-02 -1.271340479877364205e-01 -9.862094677436268331e-01 3.147223723099190629e-01 -4.486313624738458294e-01 8.364686060890017538e-01
6.664409261684732522e-02 2.200504559135446972e-02 -9.195011191599760103e-01 -2.287908680017208818e-01 -4.234529500085744136e-01 8.765513891655497547e-01
-3.455663523527967296e-02 3.792413510682075828e-02 -8.695792055175769475e-01 1.906590388326261931e-01 -3.385127000634766126e-01 9.214435863400179949e-01
1.446544247415841589e-02 7.580151195253193031e-02 -8.630031288414313773e-01 2.175315325838745317e-01 -5.258703517951996975e-01 8.222775720123370879e-01
-4.550971948078037094e-02 3.676283581152973295e-02 -8.681008409980325302e-01 6.829783262110539210e-02 -3.834809056763122670e-01 9.210199786328929772e-01
1.205230265716544531e-03 1.992514918010951652e-01 -7.545401931529560624e-01 4.664470267290138361e-01 -7.649406826774859391e-01 4.441766802079605281e-01
8.615645759492639166e-02 -7.496692385010506054e-02 -9.680799176588966715e-01 1.857858379729286080e-01 -4.121575560888813827e-01 8.919696022665444257e-01
-4.979011893850128490e-02 3.145446634960375604e-02 -8.699914264296628730e-01 2.368929111193581183e-01 -3.478200067107680704e-01 9.071400066104005067e-01
-8.328714692430683186e-03 -7.548023247058298357e-02 -9.349643934070983597e-01 6.646115605221498968e-02 -3.426872310505260089e-01 9.370957135805960680e-01
-4.047738830934314441e-02 6.168947737292555106e-02 -8.575464274294843925e-01 -3.257777971273550371e-02 -5.803142698169033720e-01 8.137407673920872275e-01
-9.172685046700766731e-02 -2.087221608954117208e-02 -8.916955850929287886e-01 3.153652683810650448e-01 -6.204625753977702773e-01 7.180326872989176712e-01
9.039968576615635409e-02 1.339461379857743717e-01 -8.575087492181596716e-01 5.839663098867965418e-01 -2.106432656571868012e-01 7.839724252487928480e-01
-9.504496888632054524e-03 1.674809329398029012e-01 -7.889107770468059000e-01 -8.651411203795091043e-02 -6.505676181588194718e-01 7.545045278998963045e-01
-2.069739870525065181e-02 -2.174873911022524031e-01 -9.910936322102854579e-01 2.161959404269740009e-02 -3.948445690454225887e-01 9.184935271675919166e-01
-1.180526596396589689e-01 -2.804752080463633959e-02 -8.908007759990563823e-01 6.306760422156613977e-02 -3.509750309320477379e-01 9.342585321847481916e-01
-1.042845623674263922e-01 -1.285164469970921375e-01 -9.415103035771629214e-01 2.954052562257367121e-01 -3.167919932301334618e-01 9.013204577837375941e-01
-9.440561858236445891e-02 -7.284153267631543471e-02 -9.193326399093698642e-01 1.126541328500984263e-01 -3.271530023018133226e-01 9.382323589797477714e-01
7.125404042514786596e-02 8.797466987040596098e-02 -8.762804386099489751e-01 1.649986607199619704e-01 -4.891945644190933695e-01 8.564251981950511405e-01
6.408467502633209689e-02 -3.100086182104438981e-02 -9.397834098968164129e-01 3.756890866812588325e-01 -4.320314935838996395e-01 8.198820029127769082e-01
-1.492105109276495659e-02 2.573953295909169395e-02 -8.792801230480786767e-01 -1.272883036648069822e-03 -3.240266515443412931e-01 9.460470965325865622e-01
1.046302698699770051e-01 -7.778860297816167502e-02 -9.758590493216848794e-01 1.851052234383177286e-01 -4.685955766648622900e-01 8.638022006142239695e-01
-6.961260952808136226e-02 -1.869197076400920532e-01 -9.708355709272948886e-01 2.650816734561560750e-01 -8.496412923670055850e-01 4.558962389651934344e-01
-8.904191165396592444e-02 -4.263582827315844440e-03 -8.823195062024435931e-01 2.037601622542418445e-01 -3.539684645492610082e-01 9.127913903969318010e-01
-1.059467084801153647e-01 -1.549447915071245352e-01 -9.523029812116219350e-01 4.291538249275282380e-01 -7.541485142996874336e-01 4.970784776367278002e-01
-1.045665888639698837e-01 -1.180619747687726706e-01 -9.373594051542319949e-01 -2.380675830844624363e-01 -6.810083386634716573e-01 6.924965476846374202e-01
-5.656538214356992417e-02 1.108399664952830765e-01 -8.307649267536678650e-01 3.009450099135935752e-01 -4.519290609263998948e-01 8.397572416468281897e-01
8.816523309157986432e-02 1.048214040930161295e-01 -8.722352698618305311e-01 3.133653814158658679e-02 -6.382426983522317965e-01 7.691971654766827093e-01
8.757048584611665243e-02 2.382827241135844487e-02 -9.225940711030855557e-01 1.380332616368668552e-01 -4.961063537467323981e-01 8.572195194079579306e-01
-7.560827246424438319e-02 1.114211585443164593e-01 -8.270626229024601317e-01 1.977735105391555115e-01 -4.480931182494792830e-01 8.718361061039378024e-01
8.127256058390744387e-02 1.141065255025269370e-01 -8.646785496353381895e-01 4.068223163610097948e-01 -3.988719527110485830e-01 8.218252662525883379e-01
-6.944542825644628437e-02 1.173952653052335801e-02 -8.773184571350586269e-01 4.260171340947304340e-03 -3.027826578212194919e-01 9.530501104678936741e-01
2.854228483914667339e-02 -2.945660023454209006e-02 -9.254155423789599544e-01 2.618891048172786173e-01 -4.729687752759328401e-01 8.412577692907143856e-01
-1.863685389456127411e-02 2.756036459249721488e-02 -8.772701055208499410e-01 1.532740131588885557e-01 -4.940032867871732569e-01 8.558433440377034573e-01
8.026036141961513659e-02 1.624610451471302508e-01 -8.379590902855602597e-01 -1.720190579315478974e-01 -9.849301576047636564e-01 1.794514834149621429e-02
5.148401445081064037e-02 -1.191403835595203353e-01 -9.784604831690698612e-01 7.993793445357527672e-02 -5.751545272224234395e-01 8.141297172139380089e-01
4.873761237613692676e-02 9.515696888635896689e-02 -8.651897461659646682e-01 2.327178680747945261e-01 -5.099523024424483797e-01 8.281250165961467902e-01
-6.877763830903917130e-02 -1.448066886805647081e-02 -8.908868936674839700e-01 1.113683351804207189e-01 -1.245873001995012747e-01 9.859386890411294679e-01
-7.909061591102981015e-03 -2.249568337721762901e-01 -9.967043979178800139e-01 -1.709939589206067034e-01 6.750073847535097149e-02 9.829571284231781725e-01
-9.294061849334837866e-02 -1.281355310331829256e-01 -9.443693583234690214e-01 1.684968769169870040e-01 -2.383333237229701418e-01 9.564549279879235311e-01
7.532444738513484339e-02 -2.056578492152029772e-02 -9.398113627372812751e-01 2.689604876774211450e-01 -2.419325763184887457e-01 9.322708214806588733e-01
5.518519513553626910e-02 7.448939329261149156e-02 -8.812974659773128439e-01 2.888200644955887242e-01 -4.705165101449680365e-01 8.337848547591665271e-01
-1.819763145068664309e-02 -2.083951047558062764e-01 -9.887364770993124496e-01 8.163371415551293198e-02 -2.568201913751609333e-01 9.630053613636851972e-01
-2.348766561413513643e-02 -1.726579872525540460e-01 -9.749816164452965728e-01 2.378690314969209279e-03 -3.526448727565905661e-01 9.357542068037276728e-01
-7.865352333518210726e-02 -8.085428411687567429e-02 -9.260341664223002978e-01 3.184481617949183052e-01 -4.134894117146784009e-01 8.530048503081838485e-01
-1.457953819144311783e-02 4.543607577295602495e-02 -8.685901965527179636e-01 -1.083109282671787382e-01 -3.555126084620405802e-01 9.283746700779906824e-01
-4.251359075576405938e-02 -1.104835899447579456e-01 -9.463105859718183854e-01 1.712139869196220299e-01 -2.963714404606394570e-01 9.396008407629131698e-01
-8.604627967020100909e-02 -8.743037487837568289e-02 -9.269260897648629038e-01 2.343731678859731909e-02 -2.679536909190977090e-01 9.631466719584218517e-01
1.009440493887904522e-01 -5.177174386537421874e-02 -9.621121865197538314e-01 4.905913142433037111e-01 -5.073933137550837857e-01 7.084293807752914951e-01
1.418811076145102450e-03 -1.209312241354551509e-01 -9.609893608677245735e-01 3.756890866812588325e-01 -4.320314935838996395e-01 8.198820029127769082e-01
-1.509058403593106952e-02 1.703409153781660634e-01 -7.867433749133371235e-01 -1.231615206856322559e-01 -7.728950412117944202e-01 6.224664610182797375e-01
-1.678284344568313437e-04 1.710468796195203089e-01 -7.839801306841581718e-01 -3.327648625359214685e-01 -6.794887543208636416e-01 6.538826951471727877e-01
-1.079606323763849934e-01 -1.604966962545918419e-01 -9.540995491885273516e-01 1.706234021925090438e-01 -1.871507646626499322e-01 9.673997342931404120e-01
4.261029105251096238e-02 -7.727251887533324870e-02 -9.523516314943544225e-01 4.277792633717379389e-01 -5.346806301650991466e-01 7.287808487847263761e-01
6.397694921096835907e-02 2.339422481810734047e-02 -9.181370049739208117e-01 2.281168919337268342e-01 -3.835016876545039866e-01 8.949240968823242159e-01
2.020753587644164712e-02 -2.623150412418182031e-02 -9.194891161137201951e-01 4.035289051979727426e-01 -4.790095349783792256e-01 7.795603171464814407e-01
-8.039031755238625065e-02 5.151097939249726226e-02 -8.556136145160865292e-01 1.305225176404891940e-01 -4.761897903488786499e-01 8.696017226042503934e-01
-5.852223526142214666e-02 -1.930705553554762366e-01 -9.759923265980076090e-01 3.255334485030702552e-01 -2.201956156511155338e-01 9.195335038777681103e-01
-6.713060669513157882e-04 1.575979937663870845e-01 -7.974427223007152232e-01 -2.212118277857540449e-01 -5.971046912003026286e-01 7.710585678106932628e-01
-1.230144261593176108e-01 1.183909847720360752e-02 -8.705456700739950815e-01 2.814847939190435744e-01 -4.473315271366477552e-01 8.489174374589959493e-01
-1.376606477233809599e-02 5.401563265165647970e-02 -8.643199436276569614e-01 6.158737560128677013e-02 -5.483863048038138954e-01 8.339541089713299327e-01
-5.670901204654788669e-02 1.487434872133828190e-01 -8.085931270727166886e-01 4.617162929086468526e-02 -4.579570865453700401e-01 8.877744575800227134e-01
1.881685683229464019e-03 -2.353360536815577164e-01 -1.000413142194735094e+00 1.106454901367480148e-01 -2.251153347390132398e-01 9.680292669014406437e-01
6.500644083662224237e-02 1.136871387118611049e-01 -8.591453368635686427e-01 2.103192444872785949e-01 -6.009673686298184769e-01 7.711057237762226624e-01
7.645026187216201474e-02 -1.061767380128063147e-02 -9.367082479234891679e-01 3.037902466018165826e-01 -3.524684553028694656e-01 8.851426292332872370e-01
-6.518844340887636202e-02 1.022882884523683422e-01 -8.332873805853316940e-01 1.753949150025521930e-01 -3.284583267978005150e-01 9.280903788685865852e-01
-7.769746362787156857e-02 -1.519285813702746790e-01 -9.557980906215524097e-01 -1.708762663858501563e-01 -3.389287527795647459e-01 9.251640947017565342e-01
-1.030689904936655937e-01 1.897341520066884394e-03 -8.779914103076068566e-01 1.177499885711961736e-01 -4.295962453712574569e-01 8.953111225459011724e-01
-4.728588356198783205e-02 -1.581619042351733451e-01 -9.642092250930829334e-01 3.065001224755716791e-01 -3.231194107518419734e-01 8.953499434957495895e-01
-1.869586620648698572e-02 6.374773553547438687e-02 -8.595815372497990214e-01 -1.314599842867489043e-01 -3.814550324606593712e-01 9.149919839767806096e-01
-2.072363246811109727e-02 7.815122064218667230e-02 -8.520587098248172397e-01 3.756890866812588325e-01 -4.320314935838996395e-01 8.198820029127769082e-01
2.778796285985514133e-02 -1.931354387123252192e-01 -1.002566069754896372e+00 3.504153339721267080e-01 -3.261374478792090081e-01 8.779769124572920358e-01
1.124089313392881845e-01 4.273565395651190285e-02 -9.163932030803194628e-01 1.364979343703548453e-01 -5.196418790075778560e-01 8.434101205784172439e-01
-2.045251646245284383e-02 2.071109109422783479e-01 -7.493926122090657227e-01 -3.147318815530037450e-01 -2.048069981434616216e-01 9.268214155087107775e-01
2.438833190481968713e-02 -6.432942076567110812e-02 -9.385139853307601365e-01 3.328136425126527742e-01 -3.988617505313777900e-01 8.544848643015890977e-01
-1.021812062457828074e-01 -1.455258625467132361e-01 -9.484751971713879515e-01 2.802524260995195027e-01 -1.122780268825794708e-01 9.533374126429153828e-01
-1.183460051975023519e-01 -1.121874511455697859e-01 -9.330256773453016184e-01 6.939863015117284095e-02 -2.696562166861757315e-01 9.604526822991537038e-01
-2.049242501101886799e-02 1.047855891112766114e-01 -8.363572506456000699e-01 5.145999602172196541e-02 -3.971823964768367299e-01 9.162958107174566935e-01
2.842054800111900800e-02 -2.237249237956503711e-01 -1.011085344730406899e+00 3.754125376732945774e-01 -1.729263040650928784e-01 9.105832855483809718e-01
8.932320209136146438e-02 -3.653094507290992332e-02 -9.506408223120698109e-01 1.590164877827966450e-01 -5.412867510536337745e-01 8.256648289390950968e-01
-1.127335954651981220e-01 -1.027851247745352609e-01 -9.280187109528250655e-01 -1.397812379868016985e-01 -2.170001042930813084e-01 9.661118777055114348e-01
3.498766733741824619e-03 -6.325651430434592326e-02 -9.319061403268008581e-01 2.963584805934730837e-01 -4.259555040114769708e-01 8.548295500172280459e-01
-5.020372393225931013e-02 -2.352922668847380605e-01 -9.931653400385183073e-01 2.539434307138944136e-01 -3.142118156846978594e-01 9.147588036643228282e-01
-9.566258859843784768e-02 -1.623081171547162971e-01 -9.559783512335778832e-01 2.855350555739132878e-01 -4.313918942366721798e-01 8.557866355729670804e-01
6.574828544912188211e-02 -1.190385873825016219e-02 -9.336516000952785888e-01 2.009164952901662249e-01 -2.191891372004837191e-01 9.547715350038586957e-01
6.803701384266683250e-02 8.650092582094393023e-02 -8.765747939391886900e-01 1.750736287751484266e-01 -5.549474061395149871e-01 8.132543273334154055e-01
-4.337517927251743899e-02 -2.265205128067692697e-01 -9.897416768500044704e-01 3.580298657647911775e-01 -3.209321071640519607e-01 8.768222156239470211e-01
1.085816434053376023e-01 6.956265711584933009e-02 -8.972533041436115964e-01 1.868688417756064757e-01 -5.335303021302695292e-01 8.248790533661446434e-01
-9.911053538368680416e-02 -1.007373637963294155e-01 -9.294445083559966791e-01 1.095281150156467709e-01 -2.142243516611083420e-01 9.706242935227291646e-01
7.467256607690009318e-02 -6.882846874301318252e-02 -9.610238871341675315e-01 4.262685261258659097e-01 -3.008512022394518870e-01 8.531023958151555675e-01
-1.989767964766493702e-02 -2.399071056029182525e-01 -9.977544399960133203e-01 4.449932301506240306e-02 -2.396158350315719943e-01 9.698474425667801269e-01
1.008092756363565407e-01 -5.424158698327375197e-03 -9.405070355458152731e-01 4.653061581695076138e-02 -5.113989575654127595e-01 8.580827512499624721e-01
2.593131695687948476e-02 -2.022997076116440085e-01 -1.004840222304319575e+00 7.717164856855920352e-01 2.458081666102041735e-02 6.354915020465317088e-01
7.484864664303345072e-02 -1.388482949047734616e-01 -9.990774058291694848e-01 4.780752284083228942e-01 -4.527617284293988797e-01 7.526293199523610422e-01
4.003870406442384261e-02 2.053497942091654649e-01 -7.734596803052714575e-01 5.127386513734843998e-01 -7.513565778677364637e-01 4.154062689495489624e-01
-1.245984785360010894e-01 -1.557148290882818913e-02 -8.823016256941345059e-01 1.475999802386445681e-01 -5.713372704295244242e-01 8.073338647992492900e-01
-1.228727173732926531e-01 -8.956675656263980712e-02 -9.213236051001089111e-01 -4.973694439483731800e-01 -1.160079627918079587e-01 8.597475145619096759e-01
1.500377739586207342e-02 1.908297567342985834e-01 -7.685432588795939601e-01 5.297882142678772555e-01 -7.332028349802456324e-01 4.263074604083125774e-01
3.372507947676657569e-02 6.314093479558806343e-02 -8.809297607489384729e-01 3.686507378227463216e-01 -6.091257348101235536e-01 7.021840732277911945e-01
5.248219764860614228e-02 -1.786610880108845389e-01 -1.009235810552540302e+00 2.866692707150464980e-01 -4.920245723281644334e-01 8.220295307669855944e-01
6.846395742912400606e-02 -6.568505637012156395e-02 -9.570480933957128400e-01 2.303091769709341152e-01 -5.729115665687437575e-01 7.865939358364767431e-01
5.894790667556694397e-02 -1.350761735202027081e-01 -9.907744624083019147e-01 2.890292252174476717e-01 -5.116524045060357739e-01 8.091192272671525743e-01
-3.122554433847977550e-03 6.343148128274177233e-02 -8.610324334408679947e-01 4.326315517917739828e-01 -5.030423621841618731e-01 7.481833480119831625e-01
1.906859707571889606e-02 1.432035237240165786e-02 -9.008932055053757715e-01 4.517259521832897584e-01 -5.466553969036481719e-01 7.050613740379028105e-01
6.485064746786725620e-02 -9.257865405646548140e-02 -9.693780528843468636e-01 3.036155689988037643e-01 -4.245712611835157912e-01 8.529694194041024247e-01
2.120186738191566500e-03 -2.029833799465663446e-01 -9.904758393348637169e-01 4.965850499094610071e-01 -1.247807382481997546e-01 8.589720924271362357e-01
-1.898740791778688944e-02 -2.571038434807591463e-02 -9.050568261809867066e-01 2.320645708304599764e-01 -5.041998212887709441e-01 8.318224420978590494e-01
-1.370359036750286828e-02 -1.606034880869604831e-01 -9.722138399626168992e-01 3.905206882604844165e-01 -3.056611899128306442e-01 8.683690626810872670e-01
4.754819581723618294e-02 4.061930142902519386e-02 -9.028174028797404382e-01 4.891228843656945657e-01 -3.593586790764705108e-01 7.947453326457464273e-01
-1.176211236226912815e-01 4.974938853851500892e-02 -8.518442511378917503e-01 2.829053701325539016e-01 -2.181468589145455494e-01 9.340109739697282087e-01
-1.420588286131715949e-03 -1.739434951053961953e-01 -9.795043206850172490e-01 -1.645179333148356904e-01 -3.958736472995682543e-01 9.034477876399679142e-01
-6.607797964647406375e-02 -1.919929683634259976e-01 -9.733915914169507522e-01 6.325483232009104784e-02 -3.333768784877051972e-01 9.406692740160864652e-01
-9.253911945534273875e-02 -7.560119388990686751e-02 -9.210663313539472208e-01 9.121645376167512864e-02 -6.571182826959726109e-01 7.482480344844484321e-01
-5.472646031227575841e-02 4.786317549848226327e-02 -8.621492107794723747e-01 7.375227728372490965e-02 -6.065982335032105155e-01 7.915801821080725720e-01
4.323454209168374474e-02 -5.404780262129103841e-02 -9.417479306939753325e-01 3.660942152138363381e-01 -4.011115643624915128e-01 8.396931216353034078e-01
2.218140747132534008e-02 2.096292734968411564e-01 -7.494767740429842950e-01 6.274128559248126624e-01 -4.630863724532025549e-01 6.260224595558887550e-01
4.583690679998431161e-02 9.317481606743388545e-02 -8.649569123830667117e-01 1.458455138108877003e-01 -6.269090847593856708e-01 7.653195969968283885e-01
-1.025306974096259300e-03 1.460821705259228998e-01 -8.070253489601874053e-01 -1.036025881105959862e-01 -3.156309817569215026e-01 9.432091958266459741e-01
5.076421161292658801e-02 1.392981019511666529e-01 -8.370414546006179624e-01 3.054646959831198716e-01 -6.098556702507649252e-01 7.312779095329836609e-01
2.297717028342995821e-02 -1.975728850290780353e-02 -9.183264067450679358e-01 -1.065080866826382394e-01 -6.172627809958179945e-01 7.795143915724151995e-01
-4.399755226488977905e-02 7.929529893568788845e-02 -8.461515796734468964e-01 2.078719963842983187e-01 -4.127289449672361110e-01 8.868168080869006653e-01
9.739927165344350324e-02 -1.005932571985397039e-01 -9.870837044595428544e-01 6.433960483591294466e-02 -4.149143427181218313e-01 9.075827804979267333e-01
6.574149833722495173e-03 8.841486877961407531e-02 -8.509544337899330735e-01 4.658661276318272759e-01 -4.125029054433646536e-01 7.828218853137084432e-01
-8.934896656775614260e-03 -4.918606807255546109e-02 -9.204697258722677189e-01 2.595875696548298195e-01 -4.574057214275426553e-01 8.505258959526442730e-01
-1.042857077486298439e-01 9.155435894008587261e-02 -8.335091845606330541e-01 4.214717354452736098e-01 -2.842612043196462990e-01 8.611371226114306054e-01
4.905332963512405720e-02 -7.772280448354902671e-02 -9.552998478779085589e-01 3.756890866812588325e-01 -4.320314935838996395e-01 8.198820029127769082e-01
-1.052190904367324570e-01 -4.106921622682589701e-02 -9.028131150292192375e-01 4.667980815071697820e-01 -4.649921067921534701e-01 7.522512158329957010e-01
2.201439072466059715e-02 1.043352367153608240e-01 -8.477524092086292651e-01 2.813054077468056247e-01 -5.451990810960961609e-01 7.896994552007593482e-01
2.236628610382026747e-02 1.167260719498870308e-01 -8.384853512494101491e-01 4.075689394003735311e-01 -5.419539119339888966e-01 7.349649766999112321e-01
8.155262061025030096e-02 1.782015070429262757e-02 -9.248948041817737220e-01 1.112056819063390045e-01 -4.718373899103179281e-01 8.746443698980544967e-01
-1.415548519708462530e-02 1.135894304152756662e-01 -8.313576287417218103e-01 -1.109517357224249212e-01 -5.111077707528464131e-01 8.523253832992639945e-01
-3.901968300634523629e-02 -2.186596778577968095e-02 -8.994953333489911218e-01 1.494090633136926360e-01 -2.801618347067390546e-01 9.482543320088124839e-01
-3.883191832326348542e-02 1.526617241796091873e-01 -8.042234739358883333e-01 -2.569337389815197215e-01 -7.161411663763690427e-01 6.489428970210479042e-01
-4.058500197078702791e-03 -1.465619060655740657e-01 -9.684187580830895259e-01 -1.981291836127674951e-03 -4.103868115469334055e-01 9.119093920949613574e-01
-1.012436653698785827e-01 -1.974780312553225253e-02 -8.896498338325997679e-01 5.575024947428566247e-01 -6.713822704732238210e-03 8.301481150615114268e-01
-5.679052956682281023e-02 -7.439698910563087575e-02 -9.259861228475668726e-01 -4.221207864039448754e-02 -2.718348319024680992e-01 9.614176847663113978e-01
-2.590656159975089287e-02 -1.700563636417891933e-01 -9.734017630739504323e-01 -2.661534681870471597e-01 -4.182157537333867636e-01 8.684802327636605979e-01
1.679188283074310034e-02 -1.555685238194729481e-01 -9.827627761675340468e-01 4.769253685854601965e-01 -1.582645963498756359e-01 8.645776485324114802e-01
-3.993910776567348442e-02 -2.433025018334421252e-01 -9.970430613623891825e-01 -2.535794925709323744e-01 -4.348916115792091364e-01 8.640409290800447062e-01
-5.592140673513589649e-02 1.157119452420319328e-01 -8.279108847349079259e-01 1.619483323219160498e-01 -4.137664936610156996e-01 8.958627274206797386e-01
-5.815919139029743917e-02 -3.843190506003085066e-02 -9.081998562251486495e-01 7.056067569630498915e-02 -5.724809913755398716e-01 8.168761874108954046e-01
9.771001490622949204e-02 -9.238166467781537550e-02 -9.817523776161524163e-01 3.926680276903087852e-01 -5.953328883381527881e-01 7.009925620809079883e-01
-1.254273800603158684e-01 -1.644335120140360575e-03 -8.755598146793293068e-01 1.898593986598774153e-01 -2.703678140884887560e-01 9.438509701459878443e-01
3.958660642118271879e-03 2.171403548406849182e-01 -7.317870461454246689e-01 6.855251726918082378e-01 -7.011945873773551829e-01 1.959116847933464745e-01
-1.146327328433420917e-01 -1.365172866912782662e-03 -8.784151062319041081e-01 1.931811607958492938e-01 -5.439175557091833202e-01 8.165994928390024610e-01
2.368334277175235258e-02 -3.067897463327830254e-02 -9.244041427204804373e-01 5.114680289940007896e-01 -4.359252378143240181e-01 7.405198460227230273e-01
6.659319731903014239e-02 6.976228033751739888e-02 -8.866569105943845619e-01 2.734592919039982029e-01 -5.865223230465532733e-01 7.623723370108850261e-01
4.183595780509293503e-03 -1.130344717121487819e-01 -9.589934612049256790e-01 -5.895001306123977269e-02 -3.156567340351509321e-01 9.470405071686964771e-01
-1.271684913484913970e-01 -1.065364025414008847e-01 -9.266002620861694128e-01 1.670354419963885340e-01 -5.455165367344787519e-01 8.212861068265379094e-01
-1.290850707808400000e-01 -5.995612910415092089e-02 -9.059110540893305918e-01 4.359060043744677482e-01 -5.255567659617400578e-01 7.305997817561429297e-01
-8.297644194738978962e-02 -5.111597773475966972e-02 -9.130243390610602860e-01 -3.675713946137842275e-02 -5.743564452359193329e-01 8.177796686850167251e-01
-1.323905346589281662e-01 -8.272344532932146555e-02 -9.171430364221565545e-01 2.785852949199357775e-01 -3.064057717641942569e-01 9.102229048337341366e-01
-9.150014945823906065e-02 8.870622896287629067e-02 -8.364504023166527968e-01 1.410189409400860461e-01 -4.030780055848536825e-01 9.042354669608316797e-01
-3.338647998413309115e-02 1.248974315036542604e-01 -8.248594077105678712e-01 4.205019936113734563e-02 -4.952846041302846336e-01 8.677124763682932951e-01
-7.164488980641824101e-02 1.553107044463821916e-03 -8.807628984065740685e-01 8.563866415225214468e-02 -3.249916317766339269e-01 9.418314384630503966e-01
1.163510387853985695e-01 8.256871474159109547e-02 -8.919357104628401478e-01 -2.674779105230660689e-02 -5.159571564924668730e-01 8.561966878807873993e-01
2.965146244251638460e-02 -1.413143280416178727e-03 -9.126130683469746430e-01 6.201202671708233582e-01 -2.871125210143986584e-01 7.300803068983189315e-01
6.299386917373470118e-02 -6.373605730059113406e-02 -9.538830064712756629e-01 2.851921141719763186e-01 -4.730962105084923208e-01 8.335738921155239067e-01
-7.510900506292964192e-03 1.153722743656290517e-01 -8.297535334245794703e-01 4.088030223945965380e-01 -6.227903855340546357e-01 6.670923658440311987e-01
-9.018880646395621703e-02 -3.974948999826938278e-02 -9.057883695626937071e-01 2.800352503674203297e-01 -3.662931734906624270e-01 8.873610142471868301e-01
4.640097653502007341e-02 -1.218192541983749433e-01 -9.780828558378221738e-01 4.819846308852254735e-01 -4.481087774261893752e-01 7.529205397543882183e-01
-4.113971778139410146e-02 -2.106735073409489456e-01 -9.854088551671654761e-01 -7.540108356344804585e-02 -2.034518237076400615e-01 9.761772544100244531e-01
1.085136719705770830e-01 1.101372295617474434e-01 -8.762895454474698420e-01 -3.161385981241560672e-01 -5.300531290590129174e-01 7.868291219514200741e-01
