-1.593085992609859225e-02 -1.965378508155220250e-01 -8.150032344373657756e-01 8.283862807150921270e-01 9.133121326824649930e-03 5.600828117500534775e-01
-1.056291483631987757e-02 -8.590058172609689457e-02 -7.870857897449475837e-01 7.369658273311517904e-01 -3.013075504203669985e-01 6.050579554107101687e-01
-5.383706537571305434e-02 9.813882781833857538e-02 -6.440533502678013056e-01 7.330842411894940014e-01 -2.393991132181639003e-01 6.366125665661811484e-01
-2.006046502081227853e-02 -2.053088834207189572e-01 -8.132326746753516522e-01 4.963435538161385940e-01 -4.063400253964039727e-02 8.671746965996958156e-01
3.448663221962629255e-02 1.761857095022055786e-01 -7.329062932998336999e-01 9.673995929800792704e-01 -1.733565680874836201e-01 1.846226632970791592e-01
-1.467459775312191135e-02 -8.808021752977505947e-02 -7.830965980200549348e-01 7.983925370455496884e-01 -2.587829997051619424e-01 5.436917470898090521e-01
2.111586051375049025e-02 -1.292809599168567858e-01 -8.679605588759010670e-01 8.046160775244729502e-01 -5.684940576807840928e-01 -1.714860757343537045e-01
-8.216148972999721967e-02 -9.786740253181080984e-02 -6.934185853379335462e-01 7.860489815198647978e-01 -4.056574098620707725e-02 6.168317593232559570e-01
-1.067541520291824704e-02 -4.496239585681556170e-03 -7.463891451065243210e-01 7.609195571208003939e-01 -2.309850126179906205e-01 6.063393039684558117e-01
2.095148719270403890e-03 -1.751286192483968163e-01 -8.371868856837334505e-01 7.692707662882674047e-01 -1.703041178056008756e-02 6.386959004165022602e-01
3.932089469580270918e-02 2.012687748868926541e-01 -7.294305606424864585e-01 8.350272483803227175e-01 -5.386116925711991188e-01 1.123696537681543456e-01
4.430079007621744343e-03 -1.069653852309910558e-01 -8.210182709815300184e-01 8.505948551794931811e-01 -2.292197268663327403e-01 4.732300805712804093e-01
1.636854749682708360e-02 -1.601896615760269593e-01 -8.638848422758833578e-01 8.379286294797223533e-01 -8.484079056859972212e-02 5.391452978130559792e-01
-4.081633372275261101e-02 -1.607006439336428616e-01 -7.714924204412284547e-01 7.185056411208253779e-01 -1.163820834876952010e-01 6.857148491323595829e-01
-2.712028483398927839e-02 -2.407359352462442870e-01 -8.095403532392170254e-01 -2.327286392647791302e-01 -5.987960642741160244e-01 7.663423868453269616e-01
-3.118036109499464775e-02 2.117143166566476040e-02 -7.053916336535849263e-01 7.094085655740106633e-01 -1.924878260817283748e-01 6.780028937257972510e-01
-4.012910043879470284e-02 -1.391342111349566368e-01 -7.661396750923660237e-01 6.458236310771257038e-01 2.304125117725244754e-01 7.278886672843812855e-01
-1.503117291141760001e-02 7.932210659477918757e-02 -7.009575564204292286e-01 7.842795033016702888e-01 -3.957206612636006704e-01 4.778188139347211982e-01
-1.025150781142483876e-02 -1.628190610543891748e-01 -8.146928149374836892e-01 9.030899542065814467e-01 -1.420784409834310036e-01 4.052681226285534954e-01
-2.353823303554556864e-02 1.655547686981103106e-01 -6.357868554741809008e-01 4.349459081785149173e-01 -5.491590649171806948e-01 7.136150071138179785e-01
8.467892997552638884e-03 1.823904062028568196e-01 -6.522683611149344696e-01 5.313190991024806520e-01 -6.484619187608255952e-01 5.451579173468514838e-01
3.782621304850765365e-02 -6.343419923604755317e-02 -8.684888183494730018e-01 9.000091694674585696e-01 -5.351610793596946886e-02 4.325731395566314585e-01
-5.515474478107709050e-02 1.017429390761642911e-02 -6.791153801967475534e-01 7.888978292952775195e-01 -3.069526156063592803e-01 5.323723384113920876e-01
-5.134747371772594576e-02 -1.687329171212335610e-01 -7.578423496834292283e-01 8.990835825869670783e-01 -2.720119007708315384e-01 3.430134652774196047e-01
-2.392898224262355808e-02 -6.923011502366761653e-03 -7.272504789577022288e-01 7.936998657730375273e-01 -5.239486555136433354e-01 3.090603977498698196e-01
1.627834285167398254e-02 8.936053425294984698e-02 -7.597980707754093954e-01 7.674428585342564224e-01 -3.918034919620046463e-01 5.074657452194665241e-01
-1.312457674957746671e-02 -1.758905531391538324e-01 -8.136201529267363952e-01 3.030868706671150381e-01 -3.536236347461555463e-01 8.849229761838783848e-01
2.887995894239051486e-04 1.481047938256867258e-01 -6.761075431504605104e-01 6.979008225135104881e-01 -5.513131818250925908e-01 4.571522913437685021e-01
1.611920571544553718e-02 -1.055138873345576600e-01 -8.437101368948861646e-01 9.128684341597778085e-01 -1.002566409625442190e-01 3.957522303886396031e-01
-7.681491257771275172e-02 -9.629878601987771833e-03 -6.573753688568421127e-01 7.922526132081771921e-01 2.376956609046117219e-01 5.619933893311683804e-01
-6.175244956469128771e-02 -1.655393597175782439e-01 -7.445465411550387103e-01 6.901743960618765827e-01 -1.202591862356400809e-01 7.135804307480448916e-01
-4.956193493519288340e-02 -1.662150006821477566e-01 -7.590510687072243856e-01 7.207049385215563708e-01 4.906993533473375663e-02 6.915030969105522285e-01
5.418893672577241444e-02 5.059187779739802299e-02 -8.522016198661691577e-01 8.675016232844136033e-01 -3.316231768487351572e-01 3.707654274277200623e-01
2.460942529673883217e-02 9.450480757443323332e-02 -7.728128696809852816e-01 7.926304031580799769e-01 -2.712761834720824883e-01 5.460277248183288412e-01
5.504944460254097838e-02 -1.875928708134047204e-02 -8.861085950096307950e-01 7.874775740069023255e-01 -2.029455961159020438e-01 5.819726414990352703e-01
5.274940590509077237e-02 -1.669392922832788062e-02 -8.794205396937494479e-01 7.657298823793262654e-01 -4.324209216835807612e-01 4.760986176430945238e-01
-5.161622726947204254e-02 -8.437956324131464653e-03 -6.925606970124900119e-01 7.241146304569469061e-01 -2.223379414959134881e-01 6.528582095137953623e-01
1.236188451448576309e-02 1.208466964753651812e-01 -7.201723437356187807e-01 8.649239216263561181e-01 -2.905672832496407065e-01 4.092398608437454732e-01
5.265504995400206549e-03 -4.493435871879999932e-02 -7.960089847456833789e-01 8.638998783173369445e-01 9.046372481050595632e-03 5.035823302978614802e-01
-6.714223181500263669e-03 1.370062423094516035e-01 -6.774103003957715474e-01 7.180675160086238407e-01 -4.988277183224343880e-01 4.853348842669756302e-01
-3.582323807233409041e-02 8.073466409454692350e-02 -6.738617751300801650e-01 7.740640282108958159e-01 -3.035312685303275249e-01 5.556020601602299491e-01
1.164086150032510314e-02 1.150792530755228998e-01 -7.241300808824779889e-01 7.631147326881068116e-01 -4.186650499666046410e-01 4.923164436526774046e-01
3.963356635813394813e-02 -1.445646194690160345e-03 -8.505491029744420839e-01 8.178946612441120312e-01 -1.917142791416400205e-01 5.424886711089740299e-01
-2.698021344543980946e-02 -7.666769481764235117e-02 -7.614863985907855959e-01 7.346187140478622757e-01 -8.690779031613755923e-02 6.728910617276997463e-01
3.298415217451865222e-02 4.249257030997925788e-02 -8.246871220637492783e-01 6.536527467605183217e-01 -4.106010260930469946e-01 6.357239054996803862e-01
3.423296819803121199e-02 1.969987500793238255e-01 -7.097923779880003226e-01 9.656789290172478335e-01 -1.114603666320627545e-01 2.346077422472399032e-01
3.333545379753127813e-02 -1.002539610013663401e-01 -8.776790150279845104e-01 9.089575332082114878e-01 -2.930809259442508363e-01 2.964789599140280618e-01
3.528742539933579260e-03 2.927364246695372124e-02 -7.638085589667653608e-01 8.976965451580972699e-01 -1.439990359377120166e-01 4.164194885691898662e-01
-5.104294232925680325e-02 -1.961792053324023788e-01 -7.695424470503037240e-01 6.003612038498521430e-01 3.246523969130099378e-03 7.997223799507390263e-01
-2.219451920564874219e-03 1.704317537550626982e-01 -6.533931886034232139e-01 5.891601596041138311e-01 -5.161143625914345057e-01 6.217043276848668309e-01
-1.581853318412449610e-02 -2.054410237016642271e-01 -8.174999252797400251e-01 5.666348664035251170e-01 -5.563196320924124194e-01 6.078103282475726399e-01
2.389769419577678078e-02 -5.587591518956595144e-02 -8.361744356863924921e-01 9.651391081181814879e-01 -1.743413903221167349e-01 1.952218778759002848e-01
-1.433401961432873191e-02 -1.577972743514238219e-01 -8.074640386952460780e-01 9.335166377726408227e-01 3.163208621365589113e-01 1.687832905795116911e-01
-3.032972942726374146e-02 1.291514018823284038e-01 -6.541540545065477330e-01 6.073009830186487656e-01 -3.553469503668033602e-01 7.105730510578031067e-01
-6.680415721329091561e-02 -1.153915874758350835e-01 -7.182946911807956969e-01 7.785881070973660334e-01 -3.888491658136897927e-02 6.263294043464671113e-01
-3.434688005820028117e-02 -1.928153795822398764e-01 -7.879583985425329118e-01 9.692206160076271004e-01 1.230748953218455122e-01 2.132228122113402624e-01
1.425043245683084263e-02 -1.642262821377464266e-01 -8.601862884747796256e-01 9.573389907706476576e-01 5.076380847784364714e-02 2.844733599110159106e-01
4.520994197102605472e-02 -4.726106716737894786e-02 -8.765383902911090264e-01 9.204260284935913417e-01 -1.666851929663210052e-01 3.535986036698886559e-01
1.762061644782465797e-02 -3.590238385672222393e-02 -8.179844632800293835e-01 7.054382157876769588e-01 -5.024104407123022309e-01 4.999406692494310356e-01
-3.998810397446872500e-02 -1.443326145827401874e-01 -7.686468710821304784e-01 7.686781062720232649e-01 -2.500022163648773499e-01 5.887553488085737197e-01
2.067642225691798674e-02 5.824581198839095392e-02 -7.930702613834692549e-01 8.361723534844219818e-01 -1.155145075131091409e-01 5.361643347168164597e-01
5.527012875359520877e-02 7.174229382197344629e-02 -8.406731602099766221e-01 4.347481500988467085e-01 -3.977105961929124911e-01 8.079729745860986245e-01
-4.642894047500833316e-02 -1.884184142726842426e-01 -7.704271097820836189e-01 9.507679053320645668e-01 -3.098522938726795961e-01 5.652094507056891134e-03
2.986126434036846800e-02 -2.242358302992328578e-01 -8.987773829524184910e-01 9.385448699376561787e-01 2.086686088479837997e-01 2.749380635618772772e-01
-1.718022353633543928e-02 -8.955721227528945505e-02 -7.792415069460049137e-01 6.691514066282272521e-01 -4.835734828521123796e-02 7.415510514282127597e-01
-7.981064473831625539e-02 -7.979113964832112993e-02 -6.855983911718052104e-01 7.065298674494179254e-01 -3.041438895230568762e-01 6.389929896858762559e-01
-7.572842157766500326e-02 -2.695657394437782697e-02 -6.682376921210366749e-01 8.234111336748811683e-01 -4.635424305206101714e-01 3.272957684530798939e-01
-3.034859348033675658e-02 -6.662230935065822923e-02 -7.537508209550420890e-01 7.794968120026269931e-01 -1.768024325752597381e-01 6.009372845091339732e-01
-6.386412924863991113e-03 -2.357706485667687146e-01 -8.368566025940489261e-01 9.075257543279297012e-01 -5.979523349754937295e-02 4.157180959285942112e-01
5.098031493515064322e-02 7.101365591534165855e-02 -8.342389715466730360e-01 8.134868553654815981e-01 -4.235371635230348319e-01 3.985666911100851362e-01
-4.662677254204094374e-02 -7.835613496697066416e-02 -7.376233573262691579e-01 8.447926035867370231e-01 -1.124795694636797627e-01 5.231384170354984597e-01
-2.150275200701399353e-02 9.514237039406630778e-03 -7.227545601706736322e-01 8.426128066151290508e-01 -3.433454680623406197e-01 4.148705191854769603e-01
5.671470031622357147e-03 1.469690928965345644e-01 -6.820751892926717463e-01 4.914041967993033611e-01 -5.160591447971341061e-01 7.015731426154239170e-01
2.700825082206363692e-02 1.973352537382362937e-01 -6.541807232503378255e-01 4.697168144459698547e-01 -1.930571662365436758e-01 8.614493860880312326e-01
8.187006301227702648e-03 -1.958182276685295764e-01 -8.480346047155676859e-01 7.910286896530051015e-01 -3.756250431935943546e-01 4.828865695705979455e-01
-7.749506743090307792e-02 -1.493843479250838990e-01 -7.191656254822651473e-01 6.246248540278022121e-01 -3.739961810355958982e-01 6.855440527796419214e-01
2.066192998345974668e-02 7.739552377442479418e-03 -8.133527911649993669e-01 8.854339865019300593e-01 -1.162662378031662780e-01 4.499875748222358918e-01
-5.615808207486079617e-02 1.555976784410328419e-02 -6.748892162359083624e-01 8.812535980125740798e-01 -4.420077345113809092e-02 4.705724042229990634e-01
1.727708912401160549e-02 1.396380985191584267e-01 -7.175098867264608771e-01 9.098416217641162040e-01 -1.783371890825186101e-01 3.746786226832121147e-01
2.578299612950297765e-03 -1.417791918699572995e-01 -8.299012522221381749e-01 9.262643700473160990e-01 1.737113993657452091e-03 3.768704010874584509e-01
2.833442838037346020e-02 -2.793713757035338335e-02 -8.360310605970214803e-01 9.667148721560377966e-01 -1.239589090124862680e-01 2.238225744395989092e-01
3.625852129698159398e-02 2.001492918374230545e-01 -7.119681760793847847e-01 9.499481912797359540e-01 6.555833035585678127e-03 3.123386862647140605e-01
1.924451279486363853e-02 -2.551054149337440013e-01 -8.653164911766674239e-01 9.142891799897145955e-01 2.849428456426122414e-01 2.878938520893173925e-01
2.506482094478539122e-03 -1.830123332214856832e-02 -7.735268511778981004e-01 8.247057697792901099e-01 -3.843521367603251471e-01 4.148901399895171260e-01
-7.737758084779487733e-02 -2.207277342178459723e-02 -6.618454540207989734e-01 9.014986419093674597e-01 -3.569380918121300428e-01 2.447353616645568386e-01
-5.092733511085583559e-02 1.118002317458601652e-01 -6.411098326162519845e-01 9.098416217641162040e-01 -1.783371890825186101e-01 3.746786226832121147e-01
-4.157942702512756189e-02 -2.243990103033540184e-01 -7.914131880422990983e-01 8.325174432322293150e-01 7.534393464316528621e-02 5.488515265775966157e-01
3.627451792552007642e-02 -6.546221586193838593e-02 -8.666015761591419064e-01 9.162260653585262427e-01 -1.544431256730846580e-01 3.696986855399425620e-01
2.150237724478389761e-02 -5.906477358421489965e-02 -8.302729429140571771e-01 9.517341161823466011e-01 -1.740787146874162306e-01 2.527820665857936078e-01
-4.832250619099948824e-02 -1.969840918661767137e-01 -7.742274222365472802e-01 7.632557846306653460e-01 -2.858027418350317927e-01 5.794457696690911153e-01
4.001343778689592234e-02 -8.327530666550503335e-02 -8.849330734205498317e-01 9.326447151421182191e-01 -1.288750910719481668e-01 3.369941338045432944e-01
2.523139213177588019e-02 -2.439049650705568673e-01 -8.781561928835827091e-01 8.017569450071715398e-01 2.237636065339121960e-01 5.541801598069925339e-01
-1.632284698852477442e-02 4.477147168379353587e-02 -7.163233157616638591e-01 8.332352614473876873e-01 -2.738245524180437096e-01 4.803531134215346388e-01
3.254588877777146727e-02 1.295767819646570784e-01 -7.623368687760826434e-01 9.334115914769873790e-01 -1.789168772835158239e-01 3.110169640381583167e-01
3.395607105641285789e-02 -1.187837613790023727e-01 -8.876910652509942823e-01 3.285743614872748686e-01 -4.694967083314163236e-01 8.195192065102530066e-01
-3.622212905962360341e-02 -6.969955964807511561e-02 -7.478988560484867154e-01 8.632910433978211451e-01 -3.664844502737109044e-01 3.470125676350599986e-01
-2.423907737650691022e-02 -3.778255163415738388e-02 -7.429836474061010110e-01 8.110216149648611372e-01 -9.427650756458418047e-02 5.773697950024866410e-01
-8.048075079057855075e-02 -7.115509060495862903e-02 -6.833871902268662257e-01 8.192680687237802184e-01 -3.070011589244386330e-01 4.843037476508504913e-01
4.367723170239246749e-02 -3.774771637682661218e-02 -8.695627908611038848e-01 8.533315477869291010e-01 -3.181985729394216644e-01 4.130071884736140064e-01
4.335571451870566008e-03 -1.628346361247080265e-01 -8.338658352265205798e-01 9.868249924716724353e-01 1.615324182960422572e-01 -9.149430185316892103e-03
1.240149902910409399e-02 -4.875240499024126317e-02 -8.093372860065176644e-01 8.735757864977347076e-01 -4.453896543484530540e-02 4.846458767005635271e-01
-2.895140266111297794e-02 8.572500415050277045e-02 -6.800500919428023039e-01 7.275768714701064122e-01 -2.105152140736541444e-01 6.529282048933832128e-01
-2.956272447266158898e-02 -1.575905100146129389e-01 -7.858007853877484461e-01 6.086734522999529551e-01 7.760728587655528476e-02 7.896161964170512748e-01
-5.128991432387103311e-02 6.995648053901023546e-03 -6.858140402428202220e-01 7.154251279640706507e-01 -2.761179257475422366e-01 6.418144415315595319e-01
3.501294310390241915e-02 -3.795049951774545627e-02 -8.522759165606802467e-01 9.137499864371518843e-01 5.127744686024484494e-02 4.030280210228552318e-01
-2.617775939939987265e-02 -9.234447633670579692e-02 -7.686201564860697388e-01 7.797142105787140398e-01 -2.365320511856318642e-01 5.797398887290148295e-01
-4.259494101533257970e-02 1.569209525408489514e-02 -6.932508369342170740e-01 7.466433012580430129e-01 -3.293204854493732014e-01 5.779894450159797081e-01
-7.952463787639892090e-02 -1.407352402202929897e-01 -7.130064779965210597e-01 5.988552490700528308e-01 -2.181358122654999399e-01 7.705771590622936262e-01
4.322327551968370429e-02 1.297056827389855560e-01 -7.844524648254825872e-01 9.431777443167114194e-01 -2.297390202193014819e-01 2.400744159928656363e-01
2.560425436932072668e-02 2.117934462571778864e-01 -6.407274375537940214e-01 8.765211320555825747e-01 -5.254956500138200509e-02 -4.784864138908913045e-01
1.320882476949380643e-02 1.377857529343828047e-01 -7.052326437288197747e-01 9.502096216101967308e-01 -2.615197410633413599e-01 1.694375992321938695e-01
5.620522482145792059e-02 8.775349923689540477e-02 -8.306637961196298159e-01 8.118845245757869700e-01 -3.676643358453846044e-01 4.535046360311224545e-01
1.686236415388329274e-02 1.500489977652084417e-01 -7.040403556670693508e-01 8.970407933766604280e-01 -3.673088620917038805e-01 2.457682136629333602e-01
1.577549260658238015e-02 -4.303988911937183665e-02 -8.151254848594835511e-01 9.501510940040389652e-01 -1.339991800589177551e-01 2.815264078314247409e-01
6.147529808462937756e-02 6.681569269594860028e-02 -8.545275694926356413e-01 8.885439029294022184e-01 -2.707817237160705659e-01 3.703606224591629581e-01
-3.126464669748029584e-02 2.453280944856468804e-02 -7.036084856659864384e-01 8.181361877114093906e-01 -1.759461568261873887e-01 5.474450915435594700e-01
-2.636189076726919850e-02 -5.156893772958024563e-02 -7.485334312718313621e-01 7.835182835262515244e-01 -2.579044709761155185e-01 5.653179487957253890e-01
-7.876583357734291690e-02 -1.309061835261998707e-01 -7.093717481275142456e-01 8.436726003475109037e-01 2.957682101130909916e-02 5.360426802799699297e-01
2.771722565126116117e-02 1.434985925364850312e-01 -7.420404327351542983e-01 9.123949182211843478e-01 -2.846458937022940949e-01 2.941296115704444269e-01
2.106278516629051661e-03 -1.382261498498965346e-01 -8.281667311902605189e-01 9.098416217641162040e-01 -1.783371890825186101e-01 3.746786226832121147e-01
-1.927311606366894497e-02 -1.170535925400343902e-01 -7.888017501653791230e-01 9.769865752098965128e-01 -1.494735935868815313e-01 1.521672654675137182e-01
-2.517078773795825702e-02 -1.399491053332724833e-01 -7.875255785098097538e-01 8.505687159313447543e-01 -1.794067222311248322e-01 4.943137541048064909e-01
5.411984343672408999e-03 -7.405898308853058054e-02 -8.072657767819980679e-01 8.968451800081762570e-01 -8.439327371857054116e-02 4.342194127939975612e-01
-4.965010872883004328e-02 -1.231905430137504170e-01 -7.454398482703603612e-01 9.501510940040392983e-01 -1.339991800589173110e-01 2.815264078314238527e-01
-1.357796906217415001e-02 -1.291092656567350005e-01 -8.006869855754584764e-01 9.305873458296249900e-01 -2.113994430989558568e-02 3.654590189560907865e-01
-4.743511452705582304e-02 -1.200127466597582238e-01 -7.477089213648465682e-01 8.619939043360611564e-01 -6.992344831147637163e-02 5.020729232528930996e-01
5.660798351515065885e-02 1.249420981895531940e-01 -8.110208566809571362e-01 9.018145783801788662e-01 -2.212275290072425737e-01 3.711992007404238958e-01
3.705025625434836545e-02 2.333194395835438972e-01 -6.236905981530885823e-01 8.243663801197177454e-01 -5.629473946947881613e-01 5.924780278342260675e-02
6.283953600248499971e-02 7.093395559321961918e-02 -8.533410227719028240e-01 5.086910709036611689e-01 -2.127160344080598342e-01 8.342573242642795650e-01
2.213302875027810951e-02 1.301810690824057870e-01 -7.375282308953132748e-01 8.459430316930564020e-01 -1.263469395130990269e-01 5.180896042246300182e-01
5.400313271404454801e-02 3.674799817113687944e-02 -8.590695151842628885e-01 8.555230909129598604e-01 -3.334088962464596406e-01 3.961297121126522991e-01
3.667632727314507762e-02 9.888447258438999576e-02 -7.910866725065496263e-01 8.609029120205496932e-01 -3.114754705116024591e-01 4.022800111167760817e-01
-2.308217553009423231e-02 -2.375016121896100785e-01 -8.143110328619532767e-01 7.060204691119629228e-01 1.815911198193928267e-01 6.845142528813134009e-01
-7.391474165535955043e-02 -1.456891844316710316e-01 -7.219770060233110520e-01 8.843244053887886480e-01 -3.200704223004605664e-01 3.398900863546481244e-01
3.019176430340083164e-02 4.742806446516689006e-02 -8.177593594853111991e-01 7.286465914716391268e-01 -4.123691566350307092e-01 5.468325368820653454e-01
-5.871797458315651530e-02 -9.436741671155509867e-03 -6.829480749159358988e-01 7.935216382913945488e-01 -1.444417281164672440e-01 5.911514160873418966e-01
-4.733131333710133282e-02 -2.081585216782523562e-01 -7.791535877291853041e-01 9.447653614401365640e-01 -1.831772197032006388e-01 2.717802752311013204e-01
2.220350983228033814e-02 1.821059680062419306e-01 -6.716808513139458370e-01 7.384317526012950106e-01 -5.517398716611339182e-01 3.876875813971024098e-01
-6.565961558787147823e-02 -9.464362015340266332e-02 -7.143036785307201875e-01 8.955564583497819253e-01 -1.753494434319530226e-01 4.089391184468654239e-01
1.990012884191594972e-02 7.354013738223555419e-02 -7.761687002896818788e-01 9.383361412073863983e-01 -1.389966006139246868e-02 3.454447648383304759e-01
4.127001092489411549e-02 2.278434106987118624e-01 -6.685367990937131077e-01 7.864591107004434978e-01 -6.176421149480741946e-01 5.338901922859591543e-04
1.375541550440033921e-02 -1.896972143186723414e-01 -8.648539381105891932e-01 9.455481354951473794e-01 -9.841100312779786641e-03 3.253334846066170405e-01
-5.587912182644872577e-02 -1.663827053284074389e-02 -6.880808847764466885e-01 7.807101827825435603e-01 -5.337545485142089485e-02 6.226095657143819739e-01
-6.901721545660274848e-02 -1.034605959316387686e-01 -7.118746811836953459e-01 7.334409821529910278e-01 2.577680831737725331e-01 6.289832597099662692e-01
-1.102987831009047404e-02 1.496399359773577242e-01 -6.623314896780005956e-01 7.166309450844666751e-01 -5.037630325712260104e-01 4.823514233025395503e-01
3.411097870349242417e-02 -1.425799940868210935e-01 -9.018707241617613946e-01 9.372490664026112972e-01 -1.877081285691672430e-01 2.938194105168931980e-01
1.641941632590458722e-02 9.686542846403371765e-02 -7.543924232796912488e-01 6.317912427625606009e-01 -1.229785919232679881e-01 7.653209075264502115e-01
1.634974589814107079e-02 -1.518680594104040715e-01 -8.632222590637653736e-01 8.977380459462916962e-01 6.151518311986544502e-02 4.362135751054329602e-01
-5.724023944649302142e-02 -2.190932234746290411e-02 -6.899844612244149245e-01 7.795398676787016479e-01 -3.117961825309916724e-01 5.432317509669081224e-01
1.578272187363906343e-02 -1.873357667849907537e-01 -8.709687120584271858e-01 9.153917930232128297e-01 -2.595719109391678714e-01 3.077016222205144480e-01
-4.521279347525190839e-02 7.954428087624450597e-03 -6.926517842193631314e-01 8.445357748959350097e-01 -1.604525474728613899e-01 5.108955910265733369e-01
-4.958843605553125977e-02 6.674212744229437999e-02 -6.621191084828131901e-01 7.406133196344552028e-01 -1.910120413307214715e-01 6.442098344846209912e-01
2.007782069742404876e-02 1.472375636601706561e-01 -7.174495850767921290e-01 8.555797635910563637e-01 -3.670388796599911574e-01 3.650557888205722690e-01
-4.349068265226798541e-02 -2.045240392889874637e-01 -7.822055935340073152e-01 6.986058099072566252e-01 -1.441256859063616558e-01 7.008407158733334086e-01
-2.339788639565117123e-02 -2.589529387915691372e-02 -7.369381230385007031e-01 8.498689814992077540e-01 -1.892554961257063850e-01 4.918384607487624738e-01
3.272818011151829021e-02 1.122996865223257340e-02 -8.363883038544271953e-01 9.735693403027184667e-01 -4.068364971573096289e-02 2.247389157852668073e-01
5.799165587295820878e-02 -3.934561394893037328e-02 -8.967461347635419244e-01 6.811311474539724076e-01 -4.743709883624427220e-02 7.306230776686671868e-01
5.537758459328950139e-02 6.922708085038832559e-02 -8.427515479218795624e-01 6.715273098919272154e-01 -5.046236489380726553e-01 5.425919691644321974e-01
-1.579830897511136974e-03 -3.848183155396971838e-02 -7.744292915707988723e-01 8.541753455285184815e-01 -3.377959588061988372e-01 3.953205905406860232e-01
5.028360779636352473e-02 1.241867026185898421e-01 -8.009714663593096029e-01 8.272304408435243728e-01 -1.240690267548624492e-01 5.479933159646471763e-01
1.672963975333715018e-03 -1.718909101939588013e-01 -8.359040437563871606e-01 9.305071148639630918e-01 -2.753762918485453959e-01 2.415044659530914406e-01
-5.720731643700804891e-02 -1.337603668108639232e-01 -7.381053160915518330e-01 8.463390892854117942e-01 -7.358625513932254281e-02 5.275369266715934646e-01
-4.137684680689008437e-02 -1.016634239018421038e-01 -7.503785265671376603e-01 7.898846999042660189e-01 9.196120988797559792e-03 6.131864253356454908e-01
2.404321241005646578e-02 -1.868633626901995415e-01 -8.916818399510804127e-01 1.632665902422701376e-01 -6.751126877959341410e-01 7.194212113133807707e-01
-4.208757973502762206e-02 7.845984845753148362e-02 -6.674414371614848518e-01 7.852753546321702416e-01 -3.790469009301442593e-01 4.895570082253675737e-01
1.162353072465005174e-02 1.514026385874915615e-01 -6.824301892342915510e-01 3.089670076108489982e-01 -7.296689468399627509e-01 6.100185376080444755e-01
-4.602172549928439105e-02 -1.662045524103782368e-01 -7.639842529801371684e-01 9.705001359865955690e-01 -6.794584578869919400e-02 2.313284420257433194e-01
-2.308761778287075558e-02 -1.911487295523978669e-01 -8.031454903206997065e-01 9.423545799518998622e-01 -3.005315420113823799e-01 1.471347610183908194e-01
4.965548854268971024e-02 -5.282433132161920564e-02 -8.858093862223952453e-01 8.807148696493551920e-01 -9.433720141130327863e-02 4.641570971216559816e-01
-6.758279642036486845e-02 -6.932500078321081685e-03 -6.691005290094472757e-01 7.225644514746668579e-01 -3.954490305278690054e-01 5.670279338089810883e-01
-1.547300298625673039e-02 -1.071760782088221758e-01 -7.892416397336363687e-01 8.204211467112179079e-01 -1.682569455938749681e-01 5.464418928746863635e-01
-2.500721546466937520e-02 1.747245909452870283e-01 -6.251805252327721218e-01 6.104678470732622930e-01 -1.945444593653632148e-01 7.677769604644139045e-01
5.064670992296504276e-02 6.418556987662260571e-02 -8.394755520378043290e-01 8.078120686543481810e-01 -2.882243087279970362e-01 5.141657413661969711e-01
2.309937853271518821e-02 -1.492851638974916073e-01 -8.781048675631524247e-01 8.461460761756122162e-01 -2.176823476563516102e-01 4.864681010009127005e-01
-4.880584169244422260e-02 -1.290442230996625417e-01 -7.495282526295635739e-01 2.605984879179454872e-01 -1.225049150890934330e-01 9.576434481966106249e-01
8.139836216652438297e-03 4.615703078903175827e-02 -7.688160833541703987e-01 8.691970098919478138e-01 5.723586709234115832e-02 4.911421520426492160e-01
3.828373888140315651e-02 2.177657533559696768e-01 -6.961163344846221790e-01 9.320635360428234373e-01 -3.468196656801467159e-01 1.047553544066346931e-01
-1.434781533778117096e-02 1.791144579685424454e-01 -6.329629892589860862e-01 7.602420367297879622e-01 -4.729101836066956221e-01 4.454076827245183612e-01
2.450060380480286251e-02 1.232507318869582313e-01 -7.461121139062522056e-01 8.819891656309181149e-01 -2.480030095697653703e-01 4.007363459358483926e-01
4.349832922951104436e-02 1.847331004959302247e-01 -7.578424387331540446e-01 3.477368627442420923e-01 -7.664235259602044659e-01 5.400685633727626556e-01
5.872348411806451243e-03 -1.544673455672966426e-02 -7.827760322046927177e-01 9.724796076627515440e-01 2.400179228542467097e-02 2.317484123941047636e-01
-9.253309402958804705e-03 1.061032267286237535e-01 -6.946205727717537082e-01 6.363636956060048089e-01 -2.098623052760998642e-01 7.422931090471397431e-01
-6.357095278971353070e-02 -1.511453091427964190e-01 -7.371347022381876668e-01 7.925608017072141021e-01 -2.475531120493057458e-01 5.572834398328394556e-01
-4.131555956519778611e-03 -2.459236993554365924e-01 -8.410058637711231855e-01 8.566338319654440703e-01 -9.245087224215500776e-02 5.075739494436887211e-01
-4.172067721284269254e-02 -3.690308132432330163e-02 -7.187844305932440392e-01 8.532232026007906533e-01 -3.439241904601444966e-01 3.920794788814943033e-01
-3.116356966556281180e-02 3.825957033074143393e-02 -6.989416237603814919e-01 8.375598168813657152e-01 -1.137482411360930395e-01 5.343733627194550140e-01
-2.687909321233523247e-02 1.275648511988412004e-01 -6.614464581524460707e-01 4.204719237923293385e-01 -6.594853898249846136e-01 6.231230872867460358e-01
-1.885823390332049248e-03 -1.539491564125177181e-01 -8.253507758231612979e-01 7.922887317264286633e-01 -3.733566203454121157e-01 4.825799411740802625e-01
2.449448538999119546e-02 1.320249248618839133e-01 -7.414085234979708172e-01 8.708329187693758522e-01 -4.792878277868603543e-01 1.092392133025623241e-01
-3.947542712801054010e-02 -1.410991804295534113e-01 -7.689833344652097225e-01 9.117392267291304364e-01 -2.607937993599871995e-01 3.173612715167839493e-01
-5.104736019500159816e-02 -1.589365576998480467e-01 -7.549493383411164382e-01 8.237231790312160573e-01 1.737857081587046715e-01 5.397023735045870518e-01
1.294863165132186487e-02 1.296893500015771916e-01 -7.128404518656686895e-01 8.852611075010534680e-01 -4.437957256394915451e-01 1.391334806943511360e-01
-6.685173068074612424e-02 -1.773838524630229618e-01 -7.393583841687728642e-01 3.771619969132397610e-01 -2.319881718622954780e-01 8.966216126105857054e-01
-2.206583479257690286e-02 -1.698121847725034550e-01 -8.003659293467378921e-01 7.429656886390698656e-01 -3.598930207271038711e-02 6.683612463641142032e-01
-6.652216538846549010e-02 -8.878061065499973092e-02 -7.135394977029334562e-01 3.499371994210507819e-01 -4.026008008765148971e-01 8.458466478002619748e-01
-1.033370794180818279e-02 4.818454012924427987e-02 -7.226682276223695967e-01 3.982521911963981531e-01 -7.519568902835412905e-01 5.253151695528825993e-01
3.273648987071630517e-02 8.267821264770203182e-02 -7.941043541009105144e-01 8.077736132312450801e-01 -3.959665271277863496e-01 4.367061931799212093e-01
-1.495664158730880501e-03 1.777180448356963649e-01 -6.472567949427986411e-01 7.505166843825492595e-01 -2.887695809779816658e-01 5.944214292614504735e-01
2.837216669603338098e-02 -1.326892823055712267e-01 -8.834162159442141560e-01 8.417075283851689349e-01 1.219377496891301399e-01 5.259844311959062102e-01
-2.270936010052442000e-02 4.618961548033600692e-03 -7.237129912185348291e-01 8.338242204753663067e-01 -2.896659228090219806e-01 4.699264011649542661e-01
-2.886121776029518596e-02 -1.510387893000088022e-01 -7.850868720817796298e-01 7.470417318158724118e-01 -1.522315294529490159e-01 6.471122100269457444e-01
4.822626354689512479e-02 -2.898203417600072121e-02 -8.750437156210252310e-01 7.480890484207454172e-01 -5.186888279561930881e-01 4.139138501987751351e-01
-5.757372248038319235e-03 -1.993092886938306052e-01 -8.311333589191337579e-01 7.656243825739322828e-01 -1.682470723955636904e-01 6.208963097318317415e-01
2.510124994785351699e-02 -1.050575097708661698e-01 -8.612684388516814726e-01 8.374114538080908998e-01 -8.635081468019338569e-02 5.397088046670042161e-01
4.509446296077060379e-02 1.698545166991433930e-01 -7.699092400364386801e-01 9.230490603022039053e-01 -1.923726173068510681e-01 3.331264150224806930e-01
5.073291034570889813e-02 1.166347087191810100e-01 -8.051015397282934583e-01 9.282991861307966497e-01 -2.914539035653281318e-01 2.309009379050524224e-01
-2.777224406324886076e-03 -8.317781008776570228e-02 -7.957388314729445522e-01 6.733341962461749652e-01 -3.234601816419393483e-01 6.648267225809150194e-01
-1.429112567583091208e-02 4.065874454307361746e-02 -7.206466984183147462e-01 6.101715895218985386e-01 -4.770300783638753428e-01 6.325606181833285380e-01
-2.925464657937268745e-02 7.465037139165730910e-03 -7.134425513911096806e-01 4.481979731220250840e-01 -1.605463245872797706e-01 8.793994851890829523e-01
5.535456246147337639e-02 -5.688629494319562968e-02 -8.990230524487736741e-01 6.983491055952510962e-01 -1.677285896530428255e-01 6.958273111392752064e-01
-4.853691628617683336e-03 -9.000123038510790541e-02 -7.972176190420449116e-01 8.561292830347028149e-01 -3.177253306541137912e-01 4.075454146364790309e-01
6.869845780746248109e-04 1.233230454403936999e-01 -6.952530025728990148e-01 8.181571504816859131e-01 -1.863522697520922644e-01 5.439592895373065451e-01
4.196996101438271037e-02 1.892367702307775623e-01 -7.502672476012181013e-01 -5.761999964497377391e-01 -2.869115228460740186e-01 7.652942846705892421e-01
-2.272400882779528758e-02 -1.077899104113013741e-02 -7.311861131019882221e-01 6.336425502695038903e-01 -2.514368344140127109e-01 7.316260224922426225e-01
4.226898181142944161e-02 1.915533413118406803e-01 -7.461255557379677938e-01 -3.562120926704492319e-01 -9.264859129334490628e-01 1.213952147788887326e-01
-7.654723104337959882e-02 -1.870765801326578631e-02 -6.616555388733496024e-01 1.794426704694426777e-01 -2.713566924280960690e-01 9.456034440976188726e-01
-7.547010636501640113e-02 -1.283181556245186206e-01 -7.126419887208481629e-01 7.937437104146740641e-01 -4.730426053794405811e-02 6.064101162679464974e-01
4.182449800896260311e-03 -1.153744286172148498e-01 -8.263490522475672728e-01 7.353154830314290180e-01 -5.320888494851959694e-01 4.197530186523696361e-01
1.308578173321349285e-02 1.744101089295637952e-01 -6.654542375011425204e-01 5.294322268898562500e-01 -6.015346640034323622e-01 5.982119734113697795e-01
-6.561002751311578729e-02 -7.573036736133093028e-02 -7.088154389824563584e-01 8.872623174431065740e-01 -2.375870672305604447e-01 3.953706685254596565e-01
3.368323337068467038e-02 1.219267850647427903e-01 -7.688096728030735516e-01 9.512070917826574989e-01 -1.895707719246762235e-01 2.434501817092382114e-01
6.378569007497566536e-03 -1.730223086780954822e-01 -8.435817193512221701e-01 9.584914592460408445e-01 8.126425142509106914e-02 2.732951591095508781e-01
3.380911858084886812e-02 2.149635114344475850e-01 -6.527155061617329057e-01 8.624065762859638440e-01 -4.949881526854084113e-01 1.060265338479429303e-01
2.384449250445141652e-02 -2.271209181765656768e-02 -8.264617437435111125e-01 7.743650079928412477e-01 -1.551898418778679956e-01 6.134125425634605611e-01
7.469473566647854418e-03 -1.086083161105017153e-01 -8.278942945850705781e-01 7.600286459012867146e-01 -3.212126176169761149e-01 5.649592124154688699e-01
3.005031918762328044e-02 -1.153924085071310335e-01 -8.788109983025780281e-01 8.809609455607273487e-01 -2.096208340766047284e-01 4.242250797840430021e-01
2.846934061669867053e-02 3.739763889049137896e-02 -8.204542263098346666e-01 5.024708058459889104e-01 -3.405859361301312727e-01 7.946850378501185697e-01
-1.978624109423804400e-02 2.976417642505286773e-02 -7.174963160986775890e-01 8.072303134200824459e-01 -1.299761957955903324e-01 5.757476961501641899e-01
7.684658725986038240e-03 8.096582925064110814e-02 -7.399650716295894659e-01 8.264828448449745846e-01 -3.133241022229233952e-01 4.677115715301011223e-01
-2.647130041865332697e-02 2.564614903946875815e-02 -7.096314534504456484e-01 7.325005462119182909e-01 -2.086465938535060349e-01 6.480042813690131132e-01
2.444905796597118819e-02 2.093291370408663921e-01 -6.378780729379824876e-01 8.539862087083711639e-01 -5.202955597961412826e-01 2.929032645248561863e-04
4.417489686195400639e-02 -5.544605177768940907e-02 -8.777043749046646859e-01 8.093652329533064238e-01 -2.052285532334013063e-01 5.502809833386620442e-01
-2.902921104737281321e-02 1.909517139497956748e-02 -7.088461482529934132e-01 8.350983816141434035e-01 -1.271793329051993104e-01 5.351972629855529240e-01
-4.156676960885377983e-03 -7.904653965625538237e-02 -7.932566090485813071e-01 7.278706880391520029e-01 -1.683386366893700192e-01 6.647302948497046948e-01
-2.438500639437457887e-02 5.219984539151657776e-02 -7.026596495509673801e-01 6.570628011316009820e-01 -4.398518598730603579e-01 6.122081482104788641e-01
-5.592240317493253621e-02 -4.584860644816222269e-02 -7.036592815386686350e-01 8.644692107094916755e-01 -3.888434796888921574e-01 3.185808092756726162e-01
4.755245683592549538e-02 1.590996577696053849e-01 -7.784703772789772769e-01 9.683606220048917024e-01 8.705417072706773951e-02 2.338787658367508238e-01
5.950369537407095878e-03 1.711879501516424262e-01 -6.604269552248672737e-01 6.043760001036444507e-01 -5.307019903272003347e-01 5.942095993514977526e-01
-1.770244965304197280e-03 -2.249292380905777433e-01 -8.399690499538187138e-01 7.006993758516636417e-01 -2.335315142854822168e-01 6.741538522597186889e-01
-7.220174989899411089e-02 -6.027126386312191969e-02 -6.871576533465086900e-01 7.263360146132235018e-01 -1.775783001262667415e-01 6.640044737801429342e-01
-6.084382721557906465e-02 -1.584224880375038891e-01 -7.427666149025863307e-01 8.641202607618228004e-01 -8.143690315412308034e-02 4.966530033590710325e-01
-5.802152129132898128e-02 -9.971758274835178237e-02 -7.274399366924321209e-01 7.571380406830635623e-01 -1.398597599550868154e-01 6.381075417952032369e-01
3.696099123851970952e-02 1.073139954348173580e-01 -7.846650501415350920e-01 7.973363984306048868e-01 -2.892637055139866686e-01 5.296991376338356927e-01
3.126107059244032788e-02 -1.635037113117797022e-02 -8.386450431964188601e-01 9.098416217641162040e-01 -1.783371890825186101e-01 3.746786226832121147e-01
-7.518005836650349175e-03 2.265343803107572676e-02 -7.381616566041401262e-01 6.781342022126527480e-01 -1.694282581534526100e-01 7.151419922843964549e-01
5.376785125796730569e-02 -5.377990360297273120e-02 -8.954514219468747704e-01 8.098268471330891671e-01 -2.628040967080867985e-01 5.245135693344136207e-01
-3.477731772685380834e-02 -2.075789731115087744e-01 -7.915234967843064462e-01 7.419837840112184502e-01 -6.580659415052823036e-01 1.280987154313412979e-01
-5.359254549230429293e-02 -2.801396222774730702e-02 -6.967698926441876495e-01 8.164378404261398714e-01 -1.419544165743453767e-01 5.597126015513124164e-01
-6.014582145853951400e-02 -1.854333117880304638e-01 -7.521277153743987087e-01 8.556061147503948305e-01 -5.134621091420988881e-01 6.553502023408060151e-02
-6.187442006239778775e-02 -1.480322676786050839e-01 -7.385729666683448214e-01 4.663409365441477106e-01 -6.131907100013891387e-01 6.375917848209146088e-01
-3.553466179367648081e-02 9.773964435511008075e-02 -6.681103398638236213e-01 8.740096376238644105e-01 -2.163285714923652847e-01 4.350966587974142707e-01
4.630673753851994451e-02 1.288040193037507941e-01 -7.907478276138665274e-01 6.949646955925887770e-01 -4.821251332788806798e-01 5.334598651639331779e-01
4.120494573987118492e-02 4.485298503865547265e-02 -8.357194356861666895e-01 7.804469361149604101e-01 -3.036409818842714103e-01 5.465388678119116328e-01
-4.730201076471545613e-02 9.319946889847535720e-02 -6.533593122797357600e-01 8.173446659511310886e-01 -2.385376949409501179e-01 5.244496783615104629e-01
4.291988827184222560e-02 1.366302928961231622e-01 -7.798802092836619737e-01 9.230131533242723618e-01 -1.375454863010564521e-01 3.593437880200367474e-01
-4.144474865231111138e-02 -6.389061261131769552e-03 -7.038357862579454061e-01 6.796047392927664355e-01 -1.467184353984937184e-01 7.187566340876645476e-01
1.368544838783902935e-02 -2.331087757749720005e-02 -8.052574599474290329e-01 8.532939880845629155e-01 -2.475166477372053586e-01 4.589388619322599672e-01
-9.578299173335339325e-03 2.356630967263646098e-02 -7.341510898746541613e-01 7.900068423143423724e-01 -2.973523020680466922e-01 5.361630326228717935e-01
4.293823709082516399e-02 1.858625661133525009e-01 -7.547944252150330380e-01 2.015377075797173401e-01 -9.783321484636788856e-01 4.742108925314084816e-02
2.683122553346480033e-02 -1.089054812141072304e-01 -8.675793827676674397e-01 7.373748052716624368e-01 -4.016877681405068845e-01 5.430702841040707662e-01
2.504798951188908288e-02 1.090510326614902298e-01 -7.614995261530226323e-01 8.359691161276058269e-01 -2.929596914423817644e-01 4.640369124011728408e-01
-4.080881093621107486e-02 -3.291689323989428761e-02 -7.167940567372882432e-01 7.203085418731037803e-01 5.795883920581045012e-02 6.912281659933700029e-01
6.500547997248810189e-03 -2.290177186728784009e-01 -8.528412347749213529e-01 4.518484162919406688e-01 1.555205713793435252e-01 8.784340388283616852e-01
-5.446433937426611860e-02 -1.551258196653024501e-01 -7.520099079390769603e-01 7.803227175750655498e-01 -3.685021152907375086e-02 6.242904118649645895e-01
3.606492167425502660e-02 -3.180023971933328229e-03 -8.448650966066961754e-01 8.397452732772816564e-01 -1.407465186812894425e-02 5.427981025973234175e-01
2.655914373651842297e-02 8.910649879813963004e-02 -7.796133502596688247e-01 8.675264057526237416e-01 -2.383276328055004001e-01 4.365751650784323590e-01
-1.434434324166643021e-03 -2.152633514526673675e-01 -8.390033614604057721e-01 7.271336469245240908e-01 -7.901795934287002277e-02 6.819331503978450781e-01
-8.363776639010485001e-03 -1.810865643967208283e-01 -8.223224243728408656e-01 6.836975075731142049e-01 -1.968651650495792660e-01 7.027103421242020254e-01
-4.808707797093195874e-02 -1.036015836747858493e-01 -7.430432863534918164e-01 8.824623812952694379e-01 -1.729403639112979396e-01 4.374377397172203308e-01
-7.080860708365679067e-03 4.290212267950100494e-02 -7.285624570280392343e-01 5.997269748426141689e-01 -2.333373051554602229e-01 7.654288064012968462e-01
-2.467148438819274925e-02 -1.238419451862617648e-01 -7.835051378124634480e-01 7.906440378039578665e-01 -9.329555212478807258e-02 6.051263879874885232e-01
-5.189231416109831019e-02 -1.121245112656614473e-01 -7.396413419096194986e-01 6.885143355221409189e-01 -1.067016253039506923e-01 7.173303095074123892e-01
5.111303922537965838e-02 -2.830985661761308003e-02 -8.804958177778395845e-01 9.496819817304591460e-01 -2.316979422220082352e-01 2.107609953160078931e-01
1.662082371673719201e-03 -1.228560747064549180e-01 -8.230050966029273107e-01 9.098416217641162040e-01 -1.783371890825186101e-01 3.746786226832121147e-01
2.294294084639377646e-03 1.725524755033248647e-01 -6.550554857777405315e-01 5.366654955483070033e-01 -6.761596031614101054e-01 5.047755312418524820e-01
1.458780700973365610e-02 1.780270605314657750e-01 -6.621067975458931887e-01 3.735892733155960488e-01 -6.453170542756337946e-01 6.663309645548100013e-01
-6.092222185128082224e-02 -1.915311850845272112e-01 -7.526936976802884871e-01 7.721231470505076633e-01 1.369643270942128878e-02 6.353253131426891409e-01
2.284623322783231603e-02 -6.820942185668364688e-02 -8.385744903349015011e-01 9.251744176812768394e-01 -2.730743818652803245e-01 2.635956730240567314e-01
2.691633384794465955e-02 3.811913984509288089e-02 -8.176307733293732838e-01 8.327284692977539038e-01 -1.652358705307246933e-01 5.284509471190047547e-01
1.020148150248130665e-02 -2.186933837066403624e-02 -7.952187472348054564e-01 9.205984185616816751e-01 -2.203141207739388319e-01 3.224286586662808984e-01
-4.894031938966444950e-02 3.107797740178925433e-02 -6.771394065273631524e-01 7.761388745364684594e-01 -2.852589810819519678e-01 5.623484339316244807e-01
-2.788631051343902142e-02 -2.108580691598985479e-01 -8.028893670426697771e-01 8.661290191835153696e-01 2.131955605428972889e-02 4.993655961896550366e-01
1.034532820955008647e-02 1.632291574079546281e-01 -6.733046022516554485e-01 4.994706086893328512e-01 -5.176054418188777984e-01 6.947040504092312219e-01
-7.626972857682649820e-02 -2.113800934031162190e-02 -6.652973976138976120e-01 8.639709389260075145e-01 -2.164091470728448929e-01 4.546661387815422173e-01
-6.642403163175169406e-03 5.186263613908007747e-02 -7.250951023008433971e-01 7.275228386666039437e-01 -3.789600287830258707e-01 5.719264076813156406e-01
-3.430203099703151709e-02 1.367007998299478166e-01 -6.478916554641561687e-01 7.200763965218534013e-01 -2.903261873561563955e-01 6.302385961739730424e-01
1.468278561898717777e-02 -2.364641607080848473e-01 -8.625851154569684764e-01 7.411034621626488850e-01 -3.978069863340537304e-02 6.702112759322786939e-01
3.460338401501109745e-02 1.322304587594010095e-01 -7.654977130814610842e-01 8.141907152785466950e-01 -3.937795402957074975e-01 4.266510902349945344e-01
3.558209215304396211e-02 6.996197645175500704e-03 -8.424007338248912236e-01 8.718049977687039043e-01 -1.149929431639499372e-01 4.761645397213051245e-01
-4.059200895214290505e-02 8.675163875704522409e-02 -6.653647745370792066e-01 7.969628938113889616e-01 -1.240279748861265047e-01 5.911575148244524458e-01
-4.271784052857497543e-02 -1.747465421704911814e-01 -7.721624747676503198e-01 5.470152876848403123e-01 -2.366218019360821767e-01 8.029846809794024542e-01
-6.312379523371415557e-02 -2.571275199980052953e-02 -6.842276419084587502e-01 7.675648662025723601e-01 -2.413096888928549233e-01 5.938129421104432204e-01
-2.374475569087300050e-02 -1.728674521339197412e-01 -7.980653080396249432e-01 8.705763030848849837e-01 -8.499920907898157740e-02 4.846359819111677458e-01
-1.046034611622842676e-02 6.028285818408622015e-02 -7.176122929324910693e-01 5.830868725572702083e-01 -2.666110192749180374e-01 7.674166166122354804e-01
-1.197400308362812395e-02 7.437475881822724899e-02 -7.094091026506762487e-01 9.098416217641162040e-01 -1.783371890825186101e-01 3.746786226832121147e-01
1.867010964409607579e-02 -1.892714067643795905e-01 -8.772004300393015930e-01 8.928786732011800842e-01 -7.739227883926849683e-02 4.435967877685378924e-01
5.695937763064863602e-02 7.094259475045561203e-02 -8.448855884522850079e-01 7.784758841776538985e-01 -3.283191893363484604e-01 5.349596318109831605e-01
9.329151219010596921e-03 2.110989750782887586e-01 -6.198341779749557690e-01 4.005564364402270372e-01 -1.522165435363301289e-01 9.035400738761721895e-01
1.387711125184948845e-02 -5.936603846689424147e-02 -8.155008374726770981e-01 8.891102572858724518e-01 -1.546691907749857819e-01 4.307672130212101269e-01
-5.810106112708812720e-02 -1.748722078435967220e-01 -7.507752364804786138e-01 8.192149011601750352e-01 1.147494287431035515e-01 5.618892367008430089e-01
-7.113058496047451607e-02 -1.459275493914763688e-01 -7.262013414183737803e-01 7.208069621145289929e-01 -9.512319014277655083e-02 6.865776737298445731e-01
-1.079266067949216992e-02 1.018680222908502214e-01 -6.953128707165310285e-01 7.217874696990500549e-01 -2.272430270075711523e-01 6.537457114672944325e-01
2.375053480925624905e-02 -2.192048983081358315e-01 -8.865208469759713328e-01 8.817725245681159452e-01 7.939616300875035337e-02 4.649445818764415539e-01
4.476380582901170330e-02 -1.568931067262876317e-02 -8.631947400120798530e-01 7.909780196388448426e-01 -3.446765883269768405e-01 5.055213367480018150e-01
-6.702196017485831381e-02 -1.346658907465089483e-01 -7.250757999569613643e-01 5.554334779108855980e-01 -1.063663420231624884e-01 8.247301697527678055e-01
2.377533151084672367e-03 -6.356675672075481898e-02 -7.972991247355770694e-01 8.715206673211040034e-01 -1.909734917374463214e-01 4.516423938092886670e-01
-1.875784710443927777e-02 -2.507588038733331581e-01 -8.246007804222780235e-01 8.413477992095863556e-01 -8.930219144156752165e-02 5.330656614047831754e-01
-5.255122505790318921e-02 -1.898811309014111215e-01 -7.619271562654690300e-01 8.659825898844689673e-01 -1.991658561308642661e-01 4.587015541380336514e-01
3.007911240043993281e-02 3.062867002111994107e-03 -8.334690043791529446e-01 7.967140744599540136e-01 -9.438890120604757211e-03 6.042827077707172423e-01
3.491743444031707166e-02 1.049294036384518652e-01 -7.830081179785323142e-01 7.994723464224913201e-01 -3.546304640998501623e-01 4.848517311901039406e-01
-1.452653163094568510e-02 -2.399625868734724388e-01 -8.255128271636938964e-01 8.960397606022084682e-01 -7.039456194143572931e-02 4.383575630338894524e-01
5.722173046068835395e-02 9.791668431801274497e-02 -8.255723384476423288e-01 8.082463074924319812e-01 -3.292384300012775045e-01 4.882007401009781367e-01
-5.864955829452933589e-02 -1.289144599802868885e-01 -7.344905713370236677e-01 7.383801921047207228e-01 -2.945022239873592435e-02 6.737413274455267276e-01
