6.228068821087517221e-02 2.072941253615575088e-02 -7.385978021204019361e-01 -5.248471167439590079e-01 -4.874082883018890922e-01 6.978314012282448298e-01
1.233560994688097379e-02 3.047473781493042350e-02 -7.567754468684622093e-01 -2.960667055433587880e-01 -4.474531644351628090e-01 8.438780548785832503e-01
9.637658415772841491e-02 -8.030730206510001967e-02 -7.659316637912825243e-01 -3.703298384839716073e-01 -3.745954548447560928e-01 8.500200326686928598e-01
1.172137045065665961e-02 -6.601731474999049214e-03 -7.729246504294977616e-01 -4.433999525354800908e-01 -3.704533586560563863e-01 8.161867379172375037e-01
-1.539346186795215003e-02 1.311038218004065281e-01 -7.122655928178243112e-01 -7.127297907974737834e-01 -5.946392180018548190e-01 3.720489829631736245e-01
-3.350532630446610011e-02 1.266650756877538142e-01 -7.341514863761339216e-01 -6.315302840073288015e-01 -4.145607232800260222e-01 6.552166871311844165e-01
-3.574894278641822798e-02 2.059785387324896966e-01 -6.642393990541290982e-01 -7.222119845077981104e-01 -5.748915204426771064e-01 3.845901573836947307e-01
4.908478074568240618e-02 -1.951098984262635283e-01 -8.485467646395709052e-01 -3.186645410146771162e-01 -3.638582369102891789e-01 8.752485896774933050e-01
-6.641256990575239438e-02 4.311485115145998609e-02 -8.017369805291824081e-01 -4.561591639755303573e-01 -6.772896865379899323e-01 5.772326200332208446e-01
8.241365041449774664e-03 -8.382620178505902075e-02 -8.140819919016636375e-01 -4.779454463427238453e-01 -4.303207077628958266e-01 7.657625211452274705e-01
-1.043602530876811124e-01 2.098990379588992067e-02 -8.426122166895387844e-01 -5.383887302117250639e-01 -5.035466908899538518e-01 6.757057830704010781e-01
-1.008616466896116864e-01 3.338227850823542731e-02 -8.335276519225141012e-01 -3.750966186809822633e-01 -4.502084348331148456e-01 8.103177721481930051e-01
4.201430078529792139e-02 -1.410293128367354487e-01 -8.261845343483383841e-01 -4.382768456786301781e-01 -4.257884288947906271e-01 7.915918268661543689e-01
-7.874634229357156678e-02 2.149661609663992487e-02 -8.229319589077439545e-01 -5.593489671044190592e-01 -7.825987832786825971e-01 2.732542358499595592e-01
-7.446259010471817374e-02 -1.191007891527111895e-01 -8.866025940242087122e-01 -3.771089690139062811e-01 -3.498999006098814091e-01 8.575306904376446271e-01
4.879010357339213372e-03 1.722233240475732619e-01 -6.570910041566148108e-01 -2.150766157623336949e-01 -6.242094723196348616e-01 7.510689608941806261e-01
-6.243528261580788552e-02 1.303612602224570316e-01 -7.571757008558663848e-01 -4.617995722707862738e-01 -2.733566180336960971e-01 8.438111841091576748e-01
-9.362745695364185772e-02 3.362618857367445646e-02 -8.302093639941000580e-01 -6.870016616295804290e-01 -7.674214553678633532e-02 7.225921117868684407e-01
-7.133268914056654919e-02 1.254193306374063455e-01 -7.669885919694174881e-01 -5.253997794707691016e-01 -3.386596790488097808e-01 7.805540939093359443e-01
6.591938218420971551e-02 -1.421995509824928831e-02 -7.561274650173320788e-01 -4.793902505757287047e-01 -2.434526094667050500e-01 8.431582381716922203e-01
-2.488202897137717015e-02 -1.035860837143866980e-01 -8.459536679952551763e-01 -3.584175644283620343e-01 -4.315693426212307005e-01 8.278192749741454248e-01
-6.054291029441962596e-02 -7.010265116366716509e-03 -8.258388481610003939e-01 -6.052352384945951513e-01 -4.556059027686523155e-01 6.527737490484371019e-01
-2.347080255854754396e-02 1.592518357454132949e-01 -6.988724333800236943e-01 -7.090066344894095929e-01 -4.418480221786709738e-01 5.496179741846124456e-01
5.642823221101460340e-02 -1.815646728970874701e-01 -8.404796549260702410e-01 -1.576352411198284897e-01 -4.485827423093576849e-01 8.797298756205280679e-01
-3.719105934069396463e-02 -1.608150724100603224e-01 -8.747790934556041176e-01 -3.451337716717266524e-01 -1.764012838543102535e-01 9.218271349370226186e-01
6.484827672689984224e-02 -3.470136193813006410e-03 -7.521246302143183016e-01 -4.123404348258500329e-01 -2.713653891558609477e-01 8.696759116911982890e-01
-5.337327725763559710e-02 1.668252139475828455e-01 -7.288027983103350094e-01 -6.344844712615645976e-01 -4.725056528520978905e-01 6.116926219521904295e-01
-3.779800875227085077e-02 1.912060118445333134e-01 -6.876693299710785467e-01 -5.756490702991237107e-01 -5.903095848377611921e-01 5.658292515524666610e-01
-8.566806242708407959e-02 -1.071427118581838173e-01 -8.867758462400819885e-01 -8.056996006569270286e-01 -4.551866937714612454e-02 5.905727764123589463e-01
7.289652778917649067e-02 -1.703555921149044194e-02 -7.535845338331766952e-01 -4.858628747832377526e-01 -3.848770033999948104e-01 7.847336867760986712e-01
-2.616980470071791215e-02 1.750328866828889107e-01 -6.846783499388890970e-01 -7.587174222417621960e-01 -3.228846510996334906e-01 5.657679517886139431e-01
2.717891839542067520e-02 1.353897389970088461e-01 -6.798501398877494495e-01 -3.594955258740650805e-01 -5.893475514615593713e-01 7.234863028854066069e-01
-6.133198645281845440e-02 6.088001129594416277e-02 -7.896084091282723483e-01 -7.318808232276829973e-01 -2.826695880392563476e-01 6.200390024742687967e-01
-7.619782657489894417e-02 5.564179288405644158e-02 -8.042915990332492049e-01 -6.554626344834429963e-01 -3.559621863856177182e-01 6.660778157689950518e-01
-1.067346845432095605e-02 5.625162407675907139e-02 -7.509508636975118501e-01 -7.073270857146423118e-01 -4.124221980944204891e-01 5.741048025695288937e-01
-8.719769986317525701e-02 5.835776546679236759e-02 -8.112390624692821239e-01 -5.405578502101207050e-01 -3.971820553445528645e-01 7.416492604246897047e-01
3.258009203830052047e-02 4.672115924618264887e-02 -7.390192279282808974e-01 -4.686713016076472504e-01 -5.991442370924979777e-01 6.491328016733113326e-01
-5.209132363736204696e-02 1.910523915046953847e-01 -7.057895474368551803e-01 -5.586687853176908192e-01 -2.953178091797632465e-01 7.750332766358621894e-01
-1.118848209153261580e-01 3.115182520017530446e-02 -8.436510845334400654e-01 -6.632569933415762842e-01 -3.459685972547419941e-01 6.636233046669460789e-01
-4.326282912657107571e-02 2.114842985503780914e-01 -6.709514278015288324e-01 -8.544723071086146593e-01 -4.451141508708263417e-01 2.678627803167595856e-01
2.879543099229183931e-02 -1.309580163002458941e-01 -8.274239943852090828e-01 -5.003702141349514187e-01 -4.619146753575198439e-01 7.323008135294537535e-01
6.308183987232345025e-02 1.212042164856818455e-01 -6.732059880864470491e-01 -3.059980406240337958e-01 -4.455679186108287837e-01 8.413289660050141672e-01
-2.242603441409730600e-02 1.293128299896262046e-01 -7.221275953791049806e-01 -6.863009297765468864e-01 -4.584141519390378394e-01 5.646658295752099432e-01
-8.799466963628335692e-03 4.642551494655162980e-02 -7.540723426982220978e-01 -3.704365907962472448e-01 -2.795176173286782473e-01 8.858028188045872220e-01
-6.484493928674651964e-02 -2.112039127524343446e-02 -8.389502185215383934e-01 -5.541246651462653494e-01 -2.990562559656671504e-01 7.768598401541532139e-01
-1.118522012943329175e-01 2.259006130635476603e-02 -8.485346076762270151e-01 -4.475020277199756591e-01 -6.742536754126829956e-01 5.874724813801907031e-01
7.567335068838134532e-03 -2.457407606779342391e-01 -8.759896147108297004e-01 -1.933563124631445806e-01 -8.444673170337636120e-03 9.810922606593639461e-01
2.629563529379951373e-02 -1.621018791660181479e-01 -8.437845887475241557e-01 -7.683383192199101375e-01 -3.118126177477760219e-01 5.589535925563078322e-01
4.889885195147697372e-02 -1.047589969021126277e-01 -8.031719112010373696e-01 -4.523222905217088585e-01 -5.148431683443156492e-01 7.282451905137317105e-01
3.455460622958347883e-02 -1.916307939752489309e-01 -8.531602212640202465e-01 -3.584175644283620343e-01 -4.315693426212307005e-01 8.278192749741454248e-01
1.457585715844856005e-03 1.483256903941753690e-01 -6.799788018382294519e-01 -2.933980368416255202e-01 -6.497971694360935579e-01 7.011998506633619899e-01
6.240189021525082563e-02 1.510091301634646777e-01 -6.564923967601886678e-01 -6.159309054429641384e-01 -4.990084381778413514e-01 6.096061829964670720e-01
3.805232824293610511e-02 5.108221907378927146e-02 -7.320648807983766160e-01 -4.120383827304929247e-01 -3.131222903050158157e-01 8.556744722562319438e-01
-2.618540905504347302e-02 -7.716671265329669294e-02 -8.350528013312971121e-01 -5.226814327715813002e-01 -1.619745433608089646e-01 8.369996219466916410e-01
2.195505956749049109e-02 9.981629212321964373e-02 -7.078364740077359718e-01 -4.426427263193044026e-01 -5.335425430074169917e-01 7.206939514369412603e-01
-3.399966030976715736e-02 1.933035095913692158e-01 -6.784085998549086449e-01 -7.472875913254211078e-01 -5.171498549603328332e-01 4.172736312847448170e-01
2.011828998205717530e-03 7.704733945632856462e-02 -7.313537695261391747e-01 -2.505722217966851462e-01 -4.674469122744464578e-01 8.477658555691889308e-01
-6.228121521997054266e-02 8.723706819634101384e-03 -8.163833575579585444e-01 -5.398464870107192448e-01 -5.246653497248420644e-02 8.401267958886721177e-01
8.731731929667499448e-02 8.097465211281482111e-02 -6.838856632259963098e-01 -4.407125065988161672e-01 -4.697385350389519654e-01 7.649301897734509526e-01
3.170380384636820037e-02 1.761009310506757297e-01 -6.449669747110523543e-01 -3.268893965733103424e-01 -6.339215678136903565e-01 7.009185175671776014e-01
-4.640998371223299668e-02 2.102759586809468395e-01 -6.781398073983808672e-01 -5.749431548950900694e-01 -7.306701099931720567e-01 3.681868533799736998e-01
1.667401181738617857e-02 -2.369487839212028601e-01 -8.725060767327225131e-01 -1.940124939554799810e-01 -2.201562915352717476e-01 9.559761291405822758e-01
-1.337850244515637575e-02 -2.053318169338804455e-01 -8.758612050154344075e-01 -4.451613752524677392e-01 -1.708927015339664346e-01 8.789920560197084232e-01
4.593870794910308308e-02 -8.786726293218428963e-02 -7.950405517528040811e-01 -3.746439106341852288e-01 -4.686296665848767029e-01 8.000176096944816573e-01
-4.461212837526212088e-02 1.972940981500551638e-01 -6.906234939881383816e-01 -6.056561560324142945e-01 -6.074782875528845771e-01 5.139559813951529721e-01
1.065490169618389521e-01 -1.938603794359922486e-02 -7.304004708085691799e-01 -5.165981668295110962e-01 -2.307711893304205397e-01 8.245428989466903058e-01
-3.807433056641857522e-02 -1.470378689351503100e-02 -8.094201532734782711e-01 -7.378239046841180704e-01 -3.351463039187493331e-01 5.859119734621256459e-01
-3.842357123158452598e-02 -2.031675541054119571e-01 -8.897751712431308801e-01 -7.238505939072585882e-01 -1.862052566607617088e-01 6.643552664742028435e-01
-1.897396473613258182e-03 -1.976773655332681942e-02 -7.856129751218381418e-01 -2.331498243707418594e-01 -5.975648474283552503e-01 7.671749556090962097e-01
-5.450663531046064103e-02 -1.126438682594172180e-01 -8.692052887836930752e-01 -3.659492298128317334e-01 -3.390785041282915468e-01 8.666642540439265519e-01
-4.458243071387254369e-02 -8.288247179970648082e-02 -8.511855245323062258e-01 -6.978251124140447681e-01 -4.287831732033260401e-01 5.737465493247104753e-01
-7.682653174054364376e-02 1.170256398894055083e-01 -7.754461353570226700e-01 -6.430582555303316905e-01 -2.449807762124776855e-01 7.255759776071827316e-01
8.208571631912246758e-02 -1.507068008174218760e-03 -7.389598151731037179e-01 -5.564766381818403440e-01 -5.945658116329957110e-01 5.803664762846265646e-01
-4.404133210676520332e-02 -1.572817527521931380e-01 -8.785146380110736564e-01 -4.522176980430376303e-01 -3.647898823922822720e-01 8.138964892914092308e-01
-1.160986517568992141e-02 2.154633744692792952e-01 -6.145271054201957295e-01 -5.468644737515458987e-01 -7.677853103894932696e-01 3.338337378075412754e-01
-1.686776573107179669e-02 7.959019684838010422e-02 -7.446987158797536699e-01 -5.243149738462512532e-01 -4.163225659937790368e-01 7.428117724194740479e-01
-9.667150842274449540e-02 -1.643407497468095044e-02 -8.587465497714115159e-01 -4.817293411573065343e-01 -4.589187051909113801e-01 7.465456877472704811e-01
1.412525588616314089e-02 -1.469288264241918988e-02 -7.768126772181378481e-01 -1.029041454651436066e-01 -3.769910111942315067e-01 9.204827615576727240e-01
-1.453808356479430013e-02 -4.146126874009874869e-02 -8.050772262173220284e-01 -2.399925676407693165e-01 -5.844078648276803678e-01 7.751587031084296031e-01
1.237962394766308274e-02 1.009007253516597535e-01 -7.133978140968652015e-01 -8.919839954520284442e-01 -2.988770021350312667e-01 3.391711801615997501e-01
-1.000062099092866447e-01 5.831609460877437701e-02 -8.207853024191270608e-01 -7.830380528874740786e-01 -3.662209109109606509e-01 5.027262198669767423e-01
-2.390835604290191679e-02 1.931240531348656364e-01 -6.613080412937271113e-01 -7.683229955213632945e-01 -1.815536647971437156e-01 6.137736075718843720e-01
3.121016727955972306e-02 -5.383046897728324676e-02 -7.872022708424275539e-01 -4.906735034499242198e-01 -3.146951015647618810e-01 8.125309262196248605e-01
-9.945953908638806990e-03 -1.055397033417421609e-01 -8.345218648166589093e-01 -3.646888639137507160e-01 -1.891271465678861785e-01 9.117197787524338182e-01
-1.055202331071472960e-01 -6.180352685251506301e-02 -8.826297210179839814e-01 -5.264566456973434061e-01 -3.509590254792245290e-01 7.743843765442165461e-01
-5.379661949116744390e-02 -1.947289502797966976e-01 -8.996294760150711500e-01 -8.012906504158812115e-01 -3.355125150416697899e-01 4.953429577641206838e-01
-3.867729371019999057e-02 -1.550751577172599371e-01 -8.735764725743709880e-01 -2.678514615616163219e-01 -4.283986368687907609e-01 8.629775214154004059e-01
-3.538228497568614295e-02 1.956404114499898234e-02 -7.881213503758416339e-01 -5.050201610545649311e-01 -3.810897966495106481e-01 7.744192687543719478e-01
-8.145801682778594510e-02 -4.174883294423487046e-02 -8.600840193949845780e-01 -5.637408393715824806e-01 -2.684025318929392223e-01 7.811250520230952343e-01
1.146590390881062765e-01 8.263652634343794309e-03 -7.066523265092533590e-01 -8.303031991419443925e-01 -4.904090297630985806e-01 2.647557006401734525e-01
-5.985654232445212358e-02 8.370329302349945044e-02 -7.749481751899985893e-01 -5.839087699353228134e-01 -4.516295785222327885e-01 6.745971184317708369e-01
-9.275410946597141548e-02 -1.353296049835288339e-01 -9.074130533714310776e-01 -5.183180281642519871e-01 -3.895687047118728819e-01 7.613032549444639363e-01
-9.000091579895838634e-02 4.937249784203444694e-03 -8.407247938286385169e-01 -6.833987976467237324e-01 -5.733894472017853072e-01 4.518745680082511540e-01
4.722740885027129631e-02 1.419347942929205242e-01 -6.667568667479543132e-01 -4.981288383162263966e-01 -5.041812228924003048e-01 7.054565577840004043e-01
-1.319860681697253638e-02 -3.021534624277085260e-02 -7.986774484597655155e-01 1.118610954221161725e-02 -6.989460095407988849e-01 7.150869504474983707e-01
9.351353764888321049e-04 2.092903585830853119e-01 -6.172147133747825087e-01 -4.202269488475893766e-01 -6.063031830604451722e-01 -6.751338842577954136e-01
-7.417325566387858449e-02 -1.624064495248259687e-01 -9.030286237478647449e-01 -4.959109497157369595e-01 -2.220715303964491683e-01 8.394978054404995671e-01
2.900192038430100469e-02 -6.997159654418903807e-02 -7.947444988066766358e-01 -3.977311868095632086e-01 -3.337756334601080233e-01 8.546366067208682749e-01
7.183837282342608876e-02 -1.379559576156492162e-01 -8.090520184913027046e-01 -3.467779859815636051e-02 -3.658633781107009098e-01 9.300222786803614694e-01
-1.209215720541837423e-02 2.190427730498997749e-02 -7.703502795124936853e-01 -4.904287095028594945e-01 -4.207036071655710363e-01 7.632091166995037534e-01
6.908477219053231477e-02 -1.463543060718271449e-01 -8.158244570117849648e-01 -7.361194077210115871e-01 -2.391699306996915853e-01 6.331871459731094332e-01
3.141595085595015081e-03 -1.925074289842977349e-01 -8.637724926855999685e-01 -2.453976747526182001e-01 -2.268219484165580613e-01 9.425135462912587192e-01
-6.632841657817782621e-02 1.120418871769240238e-02 -8.179551786955648884e-01 -3.584175644283620343e-01 -4.315693426212307005e-01 8.278192749741454248e-01
-3.399371246792094129e-03 -1.459969982274974543e-01 -8.484767006146809454e-01 -2.347346510720498269e-01 -3.940110705585205264e-01 8.886252977849614654e-01
-3.203059177454471024e-02 -2.497359522508070528e-01 -8.934841962001918159e-01 -5.177904572815982265e-01 1.696036084849231185e-01 8.385270766868572201e-01
6.728035442602711691e-03 -1.457691528096832501e-01 -8.444309035273337427e-01 -3.432305926561013409e-01 -4.042590157489248104e-01 8.478015147725628253e-01
-6.064886966994879371e-03 -1.878498687372994191e-01 -8.641836344903250922e-01 -6.332577215887623678e-01 -2.798292199795174851e-01 7.215817803228294913e-01
6.134959579370383859e-02 -8.417062284921664195e-02 -7.863132950676716693e-01 -6.748776560467796559e-02 -5.855138284666059345e-01 8.078483509719296407e-01
-3.145212823805826341e-02 -2.224739493098122078e-01 -8.910115575481354355e-01 -8.145018339302093624e-01 -1.573839280364395798e-01 5.584058217104710398e-01
-6.624512254346048845e-02 -1.296993202213629626e-01 -8.834292776070905573e-01 -5.356651132451449859e-01 -1.183820329821914236e-01 8.360912514307690113e-01
-2.575081882651254761e-02 1.615190156580109948e-01 -6.997581793637144276e-01 -6.736120978715147700e-01 -5.167636467428261549e-01 5.283957560448345747e-01
2.741443324799398493e-02 1.769779579607821118e-01 -6.452896937225429674e-01 -1.185121821902151151e-01 -6.047233627540946621e-01 7.875687380869639265e-01
7.124922181654588793e-02 -1.804127779433798706e-01 -8.328021280316221242e-01 -2.025299269558266113e-01 -4.345425080173264121e-01 8.775844332104344447e-01
1.457232604996878955e-02 9.675527743818976636e-03 -7.649411453256360627e-01 -2.022428503726513283e-01 -3.624034409004724400e-01 9.098140334687320196e-01
4.489908613997058151e-02 -1.070424465614258497e-01 -8.069052970118243406e-01 -4.192382909504827060e-01 -5.719396027012688677e-01 7.050704548219511869e-01
-4.806489991537190448e-02 1.899727323074035801e-01 -7.028476880489571421e-01 -6.930505639596554746e-01 -4.464935300412911090e-01 5.659721224817260143e-01
4.882236421906219898e-02 -1.244740789271726322e-01 -8.130285565775318135e-01 -5.450159683216542206e-01 -5.228215220017972120e-01 6.554504179616745807e-01
6.810763730674429528e-02 1.057410125801180878e-01 -6.800963702947000478e-01 -5.140781607959189481e-01 -3.796030095339233412e-01 7.691717621867519838e-01
1.452410792565740280e-02 -1.084496122584088507e-01 -8.227231695075022389e-01 -5.421897512273480269e-01 -2.061934823449246279e-01 8.145640070015983669e-01
2.272449559340855324e-04 -1.795927322093484879e-01 -8.602234463343745308e-01 -2.032365109362727629e-01 -2.822551616770390126e-01 9.375643680991291307e-01
1.906896700109451254e-02 3.382025987400080064e-02 -7.524669311740925792e-01 -4.243792698452936718e-01 -4.286149398836203717e-01 7.976161160822514695e-01
2.301546643409282944e-02 8.964519905943571509e-02 -7.150543239686627528e-01 -3.015559792306452547e-01 -5.086098760476506220e-01 8.064613973260222890e-01
-1.513252150176049721e-02 2.243067824091776741e-02 -7.719191571579898659e-01 -4.944283275090772256e-01 -3.783899057468786964e-01 7.825354357378615511e-01
9.761939558381102500e-02 -2.977421026398884354e-02 -7.419999965229199246e-01 -5.746346676351423710e-01 -3.042123456872953824e-01 7.597696015788489854e-01
-8.849898332121895750e-02 -1.541418824353910921e-01 -9.073133333879709328e-01 -5.572277516628765248e-01 -1.414581393469477311e-01 8.182217471989088331e-01
8.698413071080889764e-03 1.031389047256780489e-01 -7.133342262682665913e-01 -5.153051507565203915e-01 -4.115354328219952840e-01 7.517307956548097136e-01
4.198208336283597297e-02 -2.853363907149116321e-02 -7.716058020446030508e-01 -3.584175644283620343e-01 -4.315693426212307005e-01 8.278192749741454248e-01
-1.976891619340809605e-02 -2.047456638110461621e-03 -7.881991143518892740e-01 -6.792271188389722436e-01 -3.862698279833628456e-01 6.240562002122979068e-01
4.392702622808846574e-02 1.544277308541339433e-01 -6.590981104672137825e-01 -4.590989770799668301e-01 -4.879475163767184598e-01 7.423849072455069864e-01
2.048115591477096820e-02 6.154190321347455250e-02 -7.336421884950651284e-01 -3.610245642274003686e-01 -6.515096580958416039e-01 6.672304170466565321e-01
1.498155084311280673e-02 -5.364968774465108531e-02 -7.951404275726257076e-01 -5.296389996662373978e-01 -2.555609321156748215e-01 8.088084692983344981e-01
-6.923214713600324421e-02 -5.461882170953877985e-02 -8.558849835534673156e-01 -6.462590506348518948e-01 -2.460783007880645579e-01 7.223535902546611709e-01
-3.682947394876903008e-02 1.829008230867144313e-01 -6.941378288185849899e-01 -6.872945982319593750e-01 -4.279165110965263419e-01 5.869528045525856941e-01
-1.717973294084487040e-02 1.762375107120113249e-01 -6.680246065855941495e-01 -6.788410101579984701e-01 -5.233218942790250905e-01 5.150816225569314621e-01
1.072511981613474968e-01 3.086716927264265831e-02 -6.981741594931875072e-01 -5.525342494666218851e-01 -6.136128443216531947e-01 5.640790551419608834e-01
4.988652591080269122e-02 -1.662052721932908705e-01 -8.349246119691173806e-01 -3.152367869067557726e-01 -2.663314763632971260e-01 9.108750259387131676e-01
-2.270461112725535857e-02 -1.246991928448795556e-01 -8.522125552820226657e-01 -4.583745806276084966e-01 -4.154146609759450937e-01 7.856993084384793491e-01
-2.640307397343938378e-02 -2.236732359156387018e-01 -8.874894846820460259e-01 -5.568539500950745458e-01 -6.965610278594204507e-02 8.276845447440628334e-01
-1.895445962946789784e-02 -6.019792319842281504e-03 -7.900064808051129317e-01 -5.498471874590299402e-01 -2.608616014898975655e-01 7.934855356662275927e-01
4.404248287289618674e-02 -1.835276028067020504e-01 -8.471093975767347573e-01 -6.837868297367261095e-01 -7.296818289266860935e-01 -3.578277949770842819e-06
-7.469371112379420696e-02 -1.168560386169017196e-01 -8.835952130761957068e-01 -1.976302787030332353e-01 -3.688461803736261535e-01 9.082371761624538076e-01
6.195762482360430562e-02 -1.998428394778088424e-01 -8.432300736111318917e-01 -6.180511461004584151e-01 2.701324896945510590e-01 7.382690693882097976e-01
-4.042920918118862728e-02 -1.640086366029866183e-01 -8.776902682966492009e-01 -4.333337716317678390e-01 -4.883643595999763720e-01 7.574444498680360516e-01
-1.100938584754365263e-01 -7.379139018179146914e-02 -8.916928088635039940e-01 -4.695079345423404105e-01 -9.795264245213050613e-02 8.774779651013639992e-01
-6.735658395810058263e-02 -1.167346050308804561e-01 -8.791574078144581694e-01 -9.075253143198227512e-01 -3.641036429164981048e-01 2.093474171888492774e-01
-3.339677986868448689e-02 2.287441305379330284e-02 -7.857093899764396872e-01 -3.987926120306469202e-01 -4.607694993999476019e-01 7.928782510653800131e-01
-3.535762128879529897e-02 4.249227058039990040e-02 -7.765737721000331995e-01 -4.246956879397851270e-01 -3.145426396501355693e-01 8.489384550644869520e-01
-1.465861567533909178e-02 1.134429226031947319e-01 -7.235079279222760285e-01 -7.014226326897289310e-01 -3.083740424920236589e-01 6.425820883496030644e-01
-6.151191054231761198e-05 3.582248756751008067e-02 -7.577031043156549073e-01 -1.466189215080976604e-01 -5.163431888156729821e-01 8.437372832934816325e-01
-6.379778649198433738e-02 1.054285967437326443e-01 -7.693611633453306675e-01 -7.146469821397878341e-01 -3.394405129001129562e-01 6.116043076373824938e-01
9.936944960207763633e-03 -2.932646267714989277e-02 -7.851431219025809538e-01 -5.065774633816717554e-01 -4.238617046659813870e-01 7.508132450293079074e-01
6.989594292602570313e-02 -3.569176603147685561e-02 -7.625082711533360813e-01 -3.609719660249962048e-01 -4.037515189069991184e-01 8.406449611603818983e-01
-1.649117662025654032e-02 1.800992955043438648e-01 -6.646682290426521034e-01 -5.543002530573430953e-01 -5.420264457873988917e-01 6.316316660266847460e-01
-4.817428686944527638e-02 -1.886587574754530483e-01 -8.929511515261903121e-01 -6.192409965525507154e-01 -3.578307235577686263e-01 6.989261487930805705e-01
-7.868274545862016800e-02 -1.698463265662400745e-01 -9.070307473725255365e-01 -6.233849120692517287e-01 -5.188187022027200834e-01 5.849943637754955184e-01
-2.563377640580897371e-02 2.054243588669819320e-01 -6.455219013836615005e-01 -6.806568268291069979e-01 -7.325635525785381130e-01 7.544900558832001725e-03
3.928477910224656422e-02 1.151250226752401212e-01 -6.888284572715389631e-01 -5.379648128275745789e-01 -3.822667267678879210e-01 7.513095299312778641e-01
-7.136406833358283075e-02 -9.030970424435132149e-02 -8.717394017096385950e-01 -3.714832338698991626e-02 -5.699208063552532177e-01 8.208594743029486995e-01
-3.351532219155329423e-02 -1.174717416956137517e-01 -8.563902856344605130e-01 -6.751405029276585923e-01 -7.924114388454525648e-02 7.334208494598833949e-01
-9.464924571243406304e-02 8.222740086063737297e-02 -8.059271487945148804e-01 -7.845580332404127333e-01 -3.122683046029970932e-01 5.356838605169145229e-01
-4.836984899784292635e-02 -2.016037218114147267e-01 -8.967700964605961333e-01 -4.510628730149339738e-01 -1.411812348655082927e-01 8.812548686443461010e-01
3.851227359961851421e-02 -1.760985306236657610e-01 -8.451200612739039331e-01 -9.074293870803671336e-01 -3.639480078252091966e-01 2.100327475966797808e-01
-7.744865971018967399e-02 -1.162667108457268728e-01 -8.855840669975987289e-01 -8.900779230022409783e-01 -8.831566322920894607e-02 4.471706996353873587e-01
7.903574014302866546e-02 -7.235648932473971728e-02 -7.722009123090872729e-01 -6.637972119631437851e-01 -3.457471114013170310e-01 6.631984592470058226e-01
9.317812696327094912e-02 7.636460331143676838e-02 -6.838160547086875596e-01 -4.023660820118675208e-01 -3.639935465347301502e-01 8.400060917204640321e-01
-1.021806099921415134e-01 3.914322023458813304e-02 -8.329082586044114223e-01 -7.013568107469780877e-01 -9.543504930683580079e-02 7.063927911457119624e-01
9.233350419926508734e-02 -1.304659207296167689e-01 -7.939798897230331276e-01 -5.166174324482049052e-01 -3.025958916028874679e-01 8.009632668703841052e-01
-7.508505200350618081e-02 1.045082564277867304e-01 -7.793687786300622644e-01 -7.065895767250154336e-01 -2.288205927521423377e-01 6.696060830041209444e-01
-8.166765331879766165e-02 -9.650257659091339424e-03 -8.459490468622500314e-01 -4.581054027435908504e-01 -4.382413884327942544e-01 7.733588594188530729e-01
8.293818604344268750e-03 7.187088751294906652e-02 -7.329992694673769238e-01 -3.484171324393697811e-01 -4.662305208837266290e-01 8.131633312067236830e-01
6.498056190160852660e-03 -5.125331587603207395e-02 -7.980744876995791159e-01 -3.417143935242671349e-01 -3.696798243383574989e-01 8.640417239552170559e-01
8.360438619332080656e-02 -1.551615998751613990e-01 -8.120290291282863393e-01 -4.100448742096569621e-01 -2.791718123119887318e-01 8.682892953070573405e-01
-8.579817616917391476e-02 -6.284394564954534634e-02 -8.694195860611160231e-01 -4.964755073027337096e-01 -3.020302758851723390e-01 8.138118843425795612e-01
3.926111482954103976e-02 3.490262929899090594e-02 -7.435622402849699775e-01 -4.282780680219958058e-01 -4.960510350465091034e-01 7.553219625303065898e-01
-5.368364164211765488e-02 -1.003610697154135173e-01 -8.643681183963018988e-01 -2.101483334283492654e-01 -3.135272827009665253e-01 9.260336500146394423e-01
-8.101789915274658013e-03 -1.646202883893785884e-01 -8.566742865525018846e-01 -5.175691452552604321e-01 -1.392879207851913104e-01 8.442280823350272190e-01
1.659220562985430289e-02 1.483729994057272072e-01 -6.734967610636471980e-01 -1.446072566850095942e-01 -6.736154132785371340e-01 7.247972242687061861e-01
6.483702102654083366e-02 -9.650247680692455865e-02 -7.908365592607564665e-01 -5.639604367141678454e-01 -4.025640774003964584e-01 7.210345271954268220e-01
1.038830066001514502e-03 -1.587404597588702726e-01 -8.514873081964070556e-01 -6.607911531204874178e-01 -4.617582561895884341e-01 5.917215263943396142e-01
7.694116024124203479e-02 -1.390006556446458374e-01 -8.072531172034134173e-01 -2.604307853481619417e-01 -3.450640239549559452e-01 9.017242513179699603e-01
-6.901826804827368433e-02 9.858842403845292923e-02 -7.766028671987104115e-01 -6.057706631411939879e-01 -3.615478193638345106e-01 7.087489527263756139e-01
4.036097823472068608e-02 -1.890741955059326018e-02 -7.689319447282807474e-01 -3.505867739427090402e-01 -3.730739751276704874e-01 8.590138083982596928e-01
-4.492471237744921631e-02 9.213573038998097708e-02 -7.586639820388977329e-01 -7.003995038583511468e-01 -1.603010213873118650e-01 6.955171583341133168e-01
3.150825774306362931e-02 1.463136221642237778e-01 -6.688124188336000975e-01 -2.985656066930939545e-01 -4.790948196173648865e-01 8.254251827487391058e-01
3.126049661825938686e-02 -1.173499069239220260e-01 -8.179468982802681198e-01 -3.048508928187920741e-01 -2.929784585575458955e-01 9.062171682156709984e-01
-7.438750041900547838e-02 1.481069449425909124e-01 -7.586724159782503030e-01 -1.005803761554241310e-01 -8.154780756667066033e-01 5.699816628974642141e-01
-3.893288020246769843e-02 -1.833978038633208296e-01 -8.833506472269644361e-01 -5.284243010484279690e-01 -2.182705502538944131e-01 8.204423958775791670e-01
5.346578898010594799e-02 1.277756905840992385e-01 -6.729058016683561183e-01 -4.860002979350988572e-01 -5.987112577076014741e-01 6.366698832999542201e-01
-9.048098430105082357e-02 -1.011654884563385898e-01 -8.877680306797892662e-01 -1.067913875576231159e-01 -4.639630834016150729e-01 8.793940281716629004e-01
-5.255657235353566187e-02 -2.966799708753297370e-03 -8.139818494135842020e-01 -5.321837678420963114e-01 -4.753696580848689734e-01 7.005741398436460265e-01
-5.919754200711840192e-02 1.812032379226605483e-01 -7.224322233889590716e-01 -3.898874683455221257e-01 -5.711862020373714710e-01 7.223116257054448264e-01
-5.246806207950345524e-02 -2.634619541587759212e-02 -8.312148566545456418e-01 -6.514632089720268082e-01 -2.456051432301368520e-01 7.178257455502505824e-01
-1.197540508328003017e-02 7.428886875097846787e-02 -7.433105430565476457e-01 -6.805445668985792285e-01 -3.855143124094350671e-01 6.230873192356796153e-01
-3.105225240477369614e-02 -1.760242758977984545e-01 -8.772947925538231440e-01 -2.049488066548200427e-01 1.682194108936338472e-02 9.786281259746989480e-01
1.099996943803467492e-01 2.917451552816340346e-02 -6.978271573176124676e-01 -6.443304098482074416e-01 -7.002175950931678328e-01 -3.074632375858640243e-01
-9.333776638592621022e-02 -1.988480064103291187e-02 -8.565002171597316805e-01 -4.990983640283832568e-01 -3.625457320200861089e-01 7.870587114175228161e-01
-3.370540800947426086e-02 -2.432407000885782600e-01 -8.955529296991423527e-01 -9.014336642593426818e-01 -7.926959255954525718e-03 4.328446745160776654e-01
6.726808503303595421e-02 -9.475561786534393571e-02 -7.881637580597705695e-01 -4.100136574011977730e-01 -3.684556136937694459e-01 8.343436111591202575e-01
-2.618792814755185189e-02 2.035117658593167123e-01 -6.485930742538759119e-01 -6.213374279521489685e-01 -6.983378265116521044e-01 3.553365738124771300e-01
9.445194552912573871e-02 -3.879976590377268858e-02 -7.487940133323526259e-01 -5.488166320508192086e-01 -3.286424439850046397e-01 7.686315426756561431e-01
-3.162575035533175816e-02 -3.952070958773950399e-02 -8.203965055798969619e-01 -7.781862291260712716e-01 -3.391607685348666523e-01 5.285793846579568411e-01
-4.196359784222276901e-02 1.412947851030118551e-01 -7.335522773144866893e-01 -6.150439390382501648e-01 -3.243632260564422998e-01 7.186859193239912846e-01
-3.450753250234313285e-02 -1.938110015711129452e-01 -8.843089193728175257e-01 -8.267175315465737917e-01 -1.918726856375057577e-01 5.288884528327220114e-01
-1.455492226107013218e-02 8.772068966025452219e-02 -7.375816387809581709e-01 -6.317964154065963678e-01 -5.271209107765377766e-01 5.683105092301996564e-01
-5.613913257428449627e-02 6.176813572759433379e-02 -7.849607709282568901e-01 -5.716905052470547810e-01 -2.965005253221985604e-01 7.650211792454034709e-01
-2.999493456023526530e-02 -2.459381261488007842e-01 -8.915861006706602421e-01 -6.399117052706533304e-01 -2.126533763319799764e-01 7.384385898585026364e-01
2.574657997789378538e-02 1.730014090556342699e-01 -6.499266030993444687e-01 -2.202677284102984578e-01 -6.652027542953313777e-01 7.134335452576309189e-01
6.019908230549610856e-02 -1.840891191315145170e-01 -8.402687242224898823e-01 -2.860240555908229454e-01 -1.751911294854551215e-01 9.420712859295673480e-01
-1.118628589524559708e-01 -3.108054108246481595e-02 -8.774092915461756403e-01 -5.462631763752080483e-01 -4.972615546560533173e-01 6.740381950583463899e-01
-3.724016329849204332e-02 1.612495760206395790e-01 -7.133040211884542625e-01 -6.240864416426976646e-01 -5.238997239888707469e-01 5.796940508252098612e-01
-1.837786754566378411e-02 6.264506982039194649e-02 -7.548549703188430771e-01 -6.627727395981568570e-01 -4.659422831034710777e-01 5.861996967432503425e-01
1.823888906613015462e-02 1.686375690580463327e-02 -7.613350705030123011e-01 -1.704442132178614622e-01 -3.172358901392705044e-01 9.329041538057856187e-01
5.085063348256765869e-02 -1.097313695580510312e-01 -8.047669494887149666e-01 -3.584175644283620343e-01 -4.315693426212307005e-01 8.278192749741454248e-01
-9.454605591563044684e-03 -1.815676237380867974e-01 -8.642484364301274979e-01 -5.712640522584644387e-01 -2.585288868345435032e-01 7.789866476835981546e-01
-5.708028657005485840e-02 5.105133699131442215e-02 -7.904991149371272119e-01 -5.908509466495976969e-01 -2.477727107072223434e-01 7.677915359471405576e-01
-1.939710823114601523e-02 1.637450499838036255e-01 -6.897780772320083464e-01 -6.519612125637723743e-01 -7.467664971956673448e-01 1.314776634204042893e-01
-6.378998346458812641e-02 -6.141141410278380675e-02 -8.540437351529029941e-01 -5.749061032716901165e-01 -2.165059640636796956e-01 7.890552198330721412e-01
-8.536083287600393366e-02 -1.580124909515642495e-01 -9.064851613383752005e-01 -6.849014068884066164e-01 -5.441736639083556010e-02 7.266008622877948575e-01
3.481135621619634718e-02 -1.785012187987518595e-01 -8.469049575757676696e-01 -6.029566403425740129e-01 -2.711998546586344427e-01 7.502625731701745293e-01
2.030090461309889613e-02 2.240837732586300687e-02 -7.569183035150779393e-01 -4.395529094885281540e-01 -3.034091579768470326e-01 8.454206778970753122e-01
3.878425533713288770e-02 9.277677236012216166e-02 -7.027708325528490008e-01 -4.539953419447161909e-01 -5.848935892268841696e-01 6.721515593776400399e-01
-7.067189364404945218e-02 1.436404297558083742e-01 -7.578635900945133175e-01 -7.031710597739437851e-01 -3.810177748111550633e-01 6.003131815763709245e-01
-6.492988484079076361e-02 1.182681773418710613e-01 -7.652610661478703724e-01 -6.130064474250148665e-01 -1.572847728061932404e-01 7.742639056927984598e-01
4.528626868661725369e-02 1.328853031824856201e-01 -6.730874756764131384e-01 -4.034425741365667006e-01 -4.628833446527768070e-01 7.892864490266633393e-01
-6.304632591423037224e-02 -1.277325386109647853e-01 -8.816579835990890901e-01 -6.166842080893965017e-01 -2.426103450931988148e-01 7.488930550799047792e-01
7.909365931170422859e-02 -4.633219976222836128e-02 -7.617826321516325550e-01 -6.444654170197741117e-01 -2.795841487659109226e-01 7.116860473722731451e-01
-6.288115517200609794e-02 5.904915572769029591e-02 -7.918092663836562295e-01 -6.150397883771464569e-01 -3.347174667854064811e-01 7.139259598458059797e-01
2.493730020015922852e-02 4.626406388032542477e-02 -7.439853316138035355e-01 -4.630250546564144698e-01 -4.553173083715798541e-01 7.604564073355447595e-01
-1.095000423513993459e-01 3.838265942049108592e-02 -8.377045614046675359e-01 -6.447123919162914829e-01 -3.891424906570934428e-01 6.579620457707026082e-01
4.314171925221699927e-02 1.264840595007495905e-01 -6.796445083417302913e-01 -4.392769116045669442e-01 -5.712512207500420880e-01 6.933309727127010547e-01
3.041304084306698224e-03 -1.290587287704866859e-02 -7.793623828911518947e-01 -2.798110438212391138e-01 -4.436631346067478887e-01 8.513922731306547975e-01
-3.222790414128735154e-02 -1.151967224398063941e-02 -8.028278778843007668e-01 -5.879356484756782519e-01 -4.933952607333049745e-01 6.410091964530599817e-01
-3.104975078744834360e-02 -2.575929137234116983e-01 -8.910727194814741514e-01 1.044382702331624335e-01 -1.158293431733414813e-01 9.877632362923501885e-01
9.836541779432261823e-02 -1.051195800564909827e-01 -7.773678053216823702e-01 -2.969138724640200677e-01 -7.149392627994453076e-01 6.330118504784927325e-01
6.732733514787235529e-02 7.216696814020141793e-02 -6.995792434700631723e-01 -3.236571787772243858e-01 -4.131553017181735510e-01 8.512042805861194106e-01
-5.032337676199741955e-02 1.374334263142541757e-01 -7.436503088629161651e-01 -6.912805142474693909e-01 -3.495075791413922994e-01 6.324363230748829556e-01
-1.076235085545152459e-01 1.196076936378516128e-02 -8.521056560331012886e-01 -3.006224466138309737e-01 -5.844943417113859230e-01 7.536527775436697718e-01
-1.202469181440372036e-02 1.046563636150536769e-01 -7.250279473779295270e-01 -6.857782494938488016e-01 -2.737188557755895757e-01 6.743783659890452142e-01
-2.538308650221540730e-02 -2.159416511377456882e-01 -8.855024520114900266e-01 -4.333539898282952607e-01 -3.228213146389792843e-01 8.414218432597639907e-01
-3.019894552505464087e-03 1.637835983747959467e-01 -6.678412342051028849e-01 -1.743208857516279908e-01 -5.668234332318478064e-01 8.051853353918145828e-01
-4.266174757924075245e-02 1.712373666451852128e-01 -7.120244495490141157e-01 -5.563800205227179552e-01 -6.611069839734363685e-01 5.033674885257157783e-01
3.836126024960184039e-02 -1.905239919979740959e-01 -8.514367298962268737e-01 -3.860170817380189634e-01 -3.343710422159349438e-01 8.597597447740230603e-01
5.052562778255739739e-02 -6.605283767301170506e-02 -7.831855732911512380e-01 -5.587084836466909010e-01 -3.142967558119880156e-01 7.675039932060775394e-01
-2.994525733161722270e-02 2.107356611978101479e-01 -6.416509281959834610e-01 -6.716336320358688994e-01 -6.862669814434915194e-01 2.791879196862668833e-01
-8.555007455302687802e-03 -6.368243992121769281e-02 -8.137394325540486806e-01 -6.060547196285377414e-01 -4.599842598923292170e-01 6.489315506794848254e-01
1.634604949171215155e-02 8.569455623830470048e-02 -7.216912451043125953e-01 -3.584175644283620343e-01 -4.315693426212307005e-01 8.278192749741454248e-01
-6.731694648453656615e-02 8.713458582765769289e-02 -7.792167952224096084e-01 -7.158514279300139949e-01 -2.223125169543690646e-02 6.978986348880573676e-01
2.270727058969703241e-02 7.986869862349274540e-02 -7.226952482794284371e-01 -3.357902665964141442e-01 -5.849038549837913825e-01 7.383308047780541283e-01
-2.268652127843926239e-02 2.483232418204107343e-03 -7.885193185637374702e-01 -5.048342468062672062e-01 -3.958001237588504861e-01 7.671275286965183460e-01
-5.182305344753389970e-02 -1.786318693384655876e-02 -8.250314112687789914e-01 -6.057871875568652253e-01 -4.913565732270814834e-01 6.257720042783019299e-01
-5.973113456684278622e-02 4.620832594727450338e-02 -7.944939802480291968e-01 -5.054203479367986862e-01 -3.914803963436450096e-01 7.689560268117208164e-01
-3.099892913369720754e-02 1.346457394530424234e-01 -7.275560427750895620e-01 -5.990042423373604930e-01 -5.233848789559523151e-01 6.060216053426707994e-01
-2.205684318196285063e-02 -6.775732176698501252e-02 -8.260430681289457899e-01 -7.204067397388517202e-01 -3.253798647125160648e-01 6.124884268118891972e-01
-4.075475301836803399e-02 2.056686488837536630e-01 -6.750361508421609535e-01 -9.102060124272484121e-01 -7.151992591683091482e-02 -4.079337141474568273e-01
-1.175033046717984669e-02 1.563681960300817853e-01 -6.830309470564924768e-01 -8.476850793137457041e-01 -3.887175240903041340e-01 3.610106546543364603e-01
-5.858740726445473002e-02 2.610634576271550142e-02 -8.025964434025553151e-01 -6.261502519060263561e-01 -4.448252436556725531e-01 6.403642437274986721e-01
4.165622523935816508e-03 1.159232228188018660e-01 -7.058602028068892142e-01 -6.925705639205257391e-01 -4.827560196574181561e-01 5.359968651730450118e-01
-8.877741496060338744e-02 -1.550983469921940472e-02 -8.535506312473125634e-01 -3.882245043947911700e-01 -4.092699429441482017e-01 8.256996112327489312e-01
-6.721302512726466498e-03 -1.026088238423061155e-02 -7.814677088039601038e-01 -2.604421261131699694e-01 -3.543103610495750289e-01 8.981280905297259753e-01
-5.225587521907491470e-03 1.225944344035459314e-02 -7.697667573392191764e-01 -2.457775383110177569e-01 -5.817080712017093092e-01 7.753767610397951371e-01
9.327860169993010264e-02 -1.022552992556509943e-01 -7.788213650666166998e-01 -3.919814160189623031e-01 -4.702333396977118607e-01 7.907156098955587797e-01
6.003053608454245876e-02 3.147206055973902211e-02 -7.318134758518858307e-01 -5.422392206513763080e-01 -3.404470552179671428e-01 7.681617213717452097e-01
-4.351857686089711380e-02 2.944625740410608886e-02 -7.888660480276119547e-01 -5.766214104416385045e-01 -4.717173360517327163e-01 6.670760855318920157e-01
-2.699408273357239985e-02 1.276468256673044151e-02 -7.863557566882289906e-01 -4.870481417552935954e-01 -3.179813731954692080e-01 8.134322060955289091e-01
-8.459053692398306457e-02 -5.952269517021686190e-02 -8.674850409440306720e-01 -7.386026091787740722e-01 -4.698182413169598171e-01 4.834635517183754061e-01
-7.277271502511610535e-02 -1.202787863223017673e-01 -8.840391343232296695e-01 -3.265526547329072882e-01 -2.363318556876026211e-01 9.151560619228532589e-01
3.249277149584923335e-02 -1.032616207745628012e-01 -8.112883508311938829e-01 -3.855716054307211649e-01 -5.066755298748941705e-01 7.711124720243937025e-01
9.712520592396857444e-02 -8.921485702985603589e-03 -7.314510970560594849e-01 -6.175216410806962930e-01 -5.063643693987449623e-01 6.018821713594906253e-01
-3.051769923555534489e-02 9.570441037563832964e-02 -7.450779253195308760e-01 -5.723414780033566629e-01 -4.011983502431237247e-01 7.151678937977634654e-01
-6.511661324228847081e-02 1.822217664887043967e-02 -8.132903370062458670e-01 -6.311453753041514902e-01 -3.820884219836241380e-01 6.750288534709056876e-01
2.735365013741214782e-02 1.491097127907571873e-01 -6.682523105788195084e-01 -1.610710590254241514e-01 -6.501970788623547826e-01 7.424957054308727322e-01
-1.894502294736565701e-02 1.151934360682767625e-02 -7.813938147217630581e-01 -5.437647809619153838e-01 -4.055537592402657099e-01 7.347421393601492046e-01
3.022968484625512126e-02 -1.588552174126566519e-01 -8.406915609434542080e-01 -2.558359091481898773e-01 -4.101953819344846264e-01 8.753786244991028642e-01
-5.036531590349926230e-02 1.623040796157614041e-01 -7.286351226114108348e-01 -6.454086778664465118e-01 -4.626727779862464529e-01 6.077676686408838291e-01
1.912953236171548513e-02 -4.447329771386956260e-02 -7.890805143865984306e-01 -4.330875462067106385e-01 -3.936789331510460177e-01 8.108341845986171137e-01
1.179765851905390482e-02 -1.746138165130382280e-01 -8.536727888440970302e-01 -4.179926819414718775e-01 -3.037831294491728507e-01 8.561529817184793112e-01
7.928817853893922740e-02 1.743434070417497483e-02 -7.275387627190180728e-01 -2.335978292799794909e-01 -6.087039857683456123e-01 7.582291948121038239e-01
-4.879005551510884331e-02 -2.176282694135300289e-01 -9.003535368794289839e-01 -1.301305374816764211e-03 -2.902458952276221749e-01 9.569512144868397296e-01
-6.865486953008437254e-02 -1.585176167821403248e-01 -8.951197911144066488e-01 -6.556157761430221331e-01 -1.889926129928015675e-01 7.310606994679277326e-01
-1.001220558108343317e-01 -1.098066313295762014e-01 -8.995785833105733875e-01 -4.482648302138379504e-01 -3.147153419612210290e-01 8.366677330503374810e-01
-1.012513211429630078e-01 7.054291794606820654e-02 -8.164374038528008359e-01 -2.248527324917156123e-01 -3.993680484841559686e-01 8.887892947943094590e-01
-7.371651600903826596e-02 3.059360774310854268e-03 -8.302465226313696656e-01 -7.084662207218275221e-01 -4.531136325498666406e-01 5.410763810162068088e-01
1.053809664970851295e-01 -7.346440492607200778e-02 -7.579368865297471114e-01 -2.387761887841970965e-01 -4.639891865466982401e-01 8.530533198091586611e-01
-2.182720670038184457e-02 4.689380311793210632e-02 -7.645301005703993846e-01 -5.091212624371318496e-01 -3.223017628632831588e-01 7.980708701548009376e-01
-1.376312567076747907e-02 2.025317550443122283e-01 -6.322158293006597818e-01 -7.610816330046791256e-01 -5.928365216907770519e-01 2.632481841390588717e-01
-3.251695820091221600e-02 -9.996568815965570232e-02 -8.499210045892294785e-01 -3.900170693047201320e-01 -2.553785838341000591e-01 8.846855173279636331e-01
3.476120113470137357e-02 -1.183917965852047810e-01 -8.168053118721444461e-01 -4.270535698216897935e-01 -2.783377829736921050e-01 8.603216416386612053e-01
-7.289960501869061082e-02 -9.717187834046690786e-02 -8.769423665172492166e-01 -4.717245748349290224e-01 -2.714534269135747135e-01 8.389213088923668238e-01
-6.459247232062780009e-02 -1.437928206967425959e-01 -8.862234439561469390e-01 -2.224871109637014954e-01 -4.744372021517006544e-01 8.517093557484807231e-01
-6.418659852935795773e-02 -1.329818713513998274e-01 -8.826771160283596318e-01 -5.236247559599648271e-01 -1.957499202407710082e-01 8.291556450218494634e-01
7.416385964453146851e-02 -2.858927685058246931e-02 -7.577303283714251769e-01 -6.202148987992763818e-01 -2.774600656759648176e-01 7.337229662907469585e-01
-7.429629666279917617e-03 -1.519099499327069280e-01 -8.538110792811144378e-01 -2.950647330215152575e-01 -1.869124884679312926e-01 9.370168221444411527e-01
-7.200640736845806411e-02 -6.400365763804595487e-02 -8.606847696408778114e-01 -6.393751219766411475e-01 -2.468522775647428724e-01 7.281918747544869897e-01
-6.624990920595372375e-03 1.178800410905517237e-01 -7.085908719454060423e-01 -9.969517086486445745e-01 -5.410828264848719510e-02 -5.621018031797900272e-02
-6.618783832094732311e-02 1.092512419328723339e-01 -7.701464920734095720e-01 -6.706225980418017985e-01 -1.894638302190104484e-01 7.171950836658086414e-01
-1.009905164136753464e-01 -9.783089002876285689e-02 -8.973607873178723882e-01 -5.676061819238594763e-01 -1.726132002384192232e-01 8.050018045602568284e-01
-3.601839315159240801e-02 5.311117286721384056e-02 -7.729907339862261972e-01 -5.941939721251020545e-01 -2.581774066061986450e-01 7.617597719808333334e-01
-2.638196826742500792e-02 1.957735008409241528e-01 -6.609752997841097377e-01 -7.299015486232102168e-01 -5.902642320267342813e-01 3.447199815898824293e-01
5.724798835324475949e-02 1.119023195581664298e-01 -6.820481994976868023e-01 -4.002456704862519254e-01 -4.444839804368977410e-01 8.013971514748365887e-01
5.818662261338061054e-02 2.054923331175562487e-02 -7.428315807811356475e-01 -4.844502476024745152e-01 -6.120262296802672086e-01 6.250854755801464879e-01
-9.671293272587928869e-02 -9.919829957813364185e-02 -8.943959325701322793e-01 -4.764392969364140695e-01 -3.596014219056771766e-01 8.023044395353615688e-01
6.237577250827226749e-02 -6.353598484086532550e-02 -7.769747812869235437e-01 -4.996077698549726276e-01 -2.590434677955814613e-01 8.266127013861935824e-01
-7.134651425076628251e-02 -1.513779929433029525e-01 -8.947389494875482852e-01 -2.664641186319907096e-01 -6.181617360552978946e-01 7.395085811258560460e-01
-6.609532337069941310e-02 -4.376581615599856728e-02 -8.500631354440164600e-01 -4.198909007699694884e-01 -3.868228281335759355e-01 8.210114074026777509e-01
9.075124535337930620e-02 -3.452649031137414865e-02 -7.491889652369819741e-01 -5.845965402399013744e-01 -1.950752545454173259e-01 7.875230347130032227e-01
-1.860673378451271204e-02 1.877790563472343105e-02 -7.768870406140780949e-01 -4.989780162514114714e-01 -3.538727427461880737e-01 7.910720708248372146e-01
2.697663722773774309e-02 -8.556514323399913580e-02 -8.043449792346588634e-01 -3.866849584812684371e-01 -4.290844255258430828e-01 8.163095605562248336e-01
9.183257146980293439e-02 -2.681277282113742402e-02 -7.446156518954831771e-01 -6.005776498894064286e-01 -3.628483261386097891e-01 7.124939148313667037e-01
-2.638453211839912604e-02 1.981857860541821892e-01 -6.587759529186475449e-01 -8.048772930117119584e-01 -4.314940342527020523e-01 4.074131092619216465e-01
-8.672213754114282969e-02 -1.141273581506435375e-01 -8.927764191134541782e-01 -6.220861731335457501e-01 -4.856827668081394045e-02 7.814409227166927430e-01
-4.294860073518873278e-02 -2.254062875813064859e-02 -8.192769910925215004e-01 -6.349558795557211921e-01 -3.848393028082034428e-01 6.698729297648297054e-01
