-7.924801960053505859e-03 -2.057103512955216207e-01 -9.865869935951636638e-01 -9.506949442515246762e-01 2.326884875708594702e-01 2.050248539240468459e-01
2.703476172316564025e-03 -1.120479110581336368e-01 -1.055804890430039888e+00 -7.935203833302769683e-01 5.234769350497615603e-01 -3.103180621721497445e-01
-4.589776824578596648e-03 -1.609818495406208916e-01 -1.067337560446926403e+00 -7.888345841096380262e-01 3.401543536076908070e-01 -5.118935579144441306e-01
1.124524831126726132e-02 -2.517662857984259359e-02 -9.873002246851370067e-01 -9.880432608074646295e-01 9.354450141405479258e-02 -1.225558690073564050e-01
1.470512958974007182e-02 8.012477149125049602e-02 -9.677356346225592931e-01 -9.941708427613308308e-01 1.018914065745940706e-01 -3.524878252473525458e-02
-2.772305493887386799e-02 1.987093189844954533e-01 -7.844114827507331356e-01 -9.286247576095213452e-01 2.627972261395734588e-01 -2.619039470645748713e-01
3.552356847853014796e-03 -6.454918278464638615e-02 -8.465546389962543827e-01 -8.454824625783174952e-01 5.489088383119337250e-02 -5.311745441422567326e-01
1.547422462901739716e-02 1.324307341961990453e-03 -1.021901889642770511e+00 -9.869394186276355674e-01 1.028612410430512630e-01 -1.239764052149748830e-01
1.655710282791684335e-02 1.565068861129088537e-02 -1.019238416910614786e+00 -9.646895702566701258e-01 2.442141619175599854e-01 -9.865838107786313593e-02
-5.464687667624824538e-03 1.235681859265769927e-01 -7.337865865328704329e-01 1.843270123603444124e-02 -2.660039745175523107e-01 -9.637956842951769243e-01
-1.544753476510612273e-03 -1.038563574171392639e-01 -9.550496698069740331e-01 -9.533779044157828508e-01 -1.925311626369425599e-01 2.323839985572107303e-01
1.334146109710565200e-05 -1.128152410841582881e-01 -8.633342485280718348e-01 -9.888805718160450509e-01 5.613514119952477122e-02 1.377100599349268817e-01
9.855152390085570452e-03 4.898233278667134954e-02 -9.572100686868066921e-01 -9.073271514061339582e-01 3.023197750819079377e-01 -2.921646691775973692e-01
6.854862317650548854e-03 -6.728454340797941635e-02 -9.940513622928971449e-01 -9.935544169138035286e-01 1.130605781309040325e-01 -8.180849820036525250e-03
-1.124822948041728950e-02 -2.358173422127120278e-01 -9.863148762689613047e-01 -9.568344760222095013e-01 2.736336742125415333e-01 9.794078737813127766e-02
-3.413157831532781430e-03 -1.567094699574557437e-01 -1.052746264515664443e+00 -9.904169268023055306e-01 1.265261998545143818e-01 5.536634224736211585e-02
9.429588963182380240e-03 1.797905190722231261e-01 -8.649584287232562341e-01 -9.909975903949022058e-01 -2.008926496575760487e-02 -1.323638820246410552e-01
-2.795828497120985637e-03 -1.376491122745473195e-01 -1.034541231506867165e+00 -9.078557608665408507e-01 -3.775264243726780822e-02 4.175795199126006163e-01
-3.939308926701645848e-04 6.943894515355301944e-02 -7.359891210421589669e-01 -9.677269484551985768e-01 1.389873197238482294e-01 2.102072267776977366e-01
-1.311633011706052343e-02 1.451480490039184224e-01 -7.981825404965691151e-01 -9.492924381709474391e-01 -3.096011015985455916e-01 5.469026165986922566e-02
-7.002116796711885065e-05 -1.397051127519406966e-01 -9.433583171323384198e-01 -9.680893837732356122e-01 -2.116092106433247744e-01 1.342553052823837467e-01
2.454141857742650088e-04 2.430919608633904522e-02 -7.814870288661377451e-01 -9.991963328572183167e-01 6.206404152001639141e-03 -3.960011303252756326e-02
1.625272172929314446e-02 -7.097923151622513062e-03 -1.034710050471566500e+00 -9.683023603141663882e-01 2.492380275081030327e-01 1.646039652877165360e-02
-3.903541629876584179e-02 2.359794715785826502e-01 -7.728406335318741549e-01 -8.403486999539858671e-01 9.671931362355609685e-02 -5.333473885356838640e-01
-5.994515472372621660e-03 1.813233931054686054e-01 -8.241948269301496710e-01 -9.442517217064456680e-01 -7.983955270052259245e-02 -3.193968250922255003e-01
-1.656000889644270585e-02 -2.091446714616659042e-01 -1.013966984454653275e+00 -7.806758556736160815e-01 1.779457436957754268e-01 -5.990663741763719852e-01
3.990346241488754858e-03 1.447672052067747739e-01 -8.500640663518643780e-01 -9.350081501069699152e-01 1.758806000196401209e-01 -3.079379381795517845e-01
9.165889722438386872e-03 5.459608159352926510e-02 -9.473561677046257179e-01 -9.907838854558357333e-01 1.339613679963779502e-01 2.004106298519798060e-02
7.361292539156992672e-03 9.934191491728797119e-02 -9.083873993218636311e-01 -9.735421793767252696e-01 3.024817907784440110e-02 -2.264965179354659630e-01
-1.309429697325665068e-03 -1.015835635217252897e-01 -8.964933146983975476e-01 -9.481145553587075891e-01 -1.397711502126101069e-01 -2.855570266780423916e-01
1.427333369494917549e-02 -6.616493216460737903e-02 -1.071864534819469528e+00 -2.678573384232327270e-01 5.972290186111329779e-01 -7.560224504481364294e-01
8.639694871068804606e-04 -1.889381213044579177e-01 -9.211270985150400437e-01 -9.949570776287056662e-01 1.000979605591610089e-01 6.388424566556368846e-03
7.453715611279126789e-03 -4.811035427929474806e-03 -8.366842675943011454e-01 -9.820360491241506562e-01 3.775997558456281600e-02 1.848766682534120631e-01
-1.297475879857797922e-02 2.220529429376507935e-01 -8.108732589030115401e-01 -7.082854466710236663e-01 3.780953810989221564e-01 -5.961338849836413933e-01
-6.970459950248384350e-04 -1.000317961586584536e-01 -9.263387421309233760e-01 -9.188588704545588293e-01 3.658272339966655018e-01 -1.478810706389470653e-01
5.696427584316485389e-03 -5.633251223492680149e-02 -8.192392758407816000e-01 -9.629593137346295073e-01 1.759938213660908191e-01 -2.042927676955108574e-01
-7.666072942660220185e-03 1.598938359097590578e-01 -8.180803427893972302e-01 -9.233793285363501857e-01 4.393508902206681721e-03 -3.838636642237520102e-01
8.149634203559255607e-03 -5.846109930747366012e-02 -1.010022159706311040e+00 -9.875274812533368918e-01 1.434295032525352009e-01 6.494190762651819160e-02
2.122439520362757765e-04 -8.371982392802827799e-02 -8.827667333823873141e-01 -9.796114815921658225e-01 -1.827155442341002814e-02 2.000687267709622408e-01
-2.915408786042653078e-02 2.291853583630904523e-01 -7.875041964374686065e-01 -7.934119887184291064e-01 -2.512822780142803802e-01 -5.543957367384970691e-01
-1.416088839157806202e-03 4.813462651144732873e-02 -8.663745212694951014e-01 -8.802286255920762637e-01 -2.701136140696779320e-01 3.901745791085080017e-01
4.077714166659049812e-04 -1.758278019366405209e-01 -9.353466016420562967e-01 -9.872290463224429047e-01 5.323491988136425622e-03 -1.592183109140784814e-01
-6.203560394153945917e-03 1.138222190579456783e-01 -7.872502122358535637e-01 -9.815022228869639820e-01 -1.901403375600508872e-01 2.236154065573802904e-02
-3.320955267802173450e-04 -1.849910857053255198e-01 -9.434824202290619244e-01 -9.780774815878513495e-01 2.729382776272834543e-02 2.064448763637031781e-01
-3.319024950007785218e-02 2.102718488866123780e-01 -7.690339971095392357e-01 -4.301110849406107328e-01 6.573342548350710191e-01 -6.188021751994998709e-01
-1.559845510640826827e-02 -2.300606210407500352e-01 -1.003923541933216868e+00 -8.508272619375355506e-01 4.445514781454559805e-01 2.801195345251134006e-01
3.700955843162180396e-03 -5.522927523812565243e-02 -8.547030331921321444e-01 -9.984406001454795287e-01 -4.596343214475188954e-02 3.168171217925407068e-02
7.238104746583560144e-03 1.258778343841616965e-01 -8.821789374550389473e-01 -9.184984263325148834e-01 1.884109573129131576e-01 -3.476520559253536979e-01
6.517719600725085070e-03 -4.347005237997529636e-02 -8.179173156795527255e-01 -9.830692471461023318e-01 1.502964955821813609e-01 -1.048132564674482126e-01
3.100885966979158477e-03 5.692889506360618995e-02 -9.070257316962525573e-01 -9.740055407586086789e-01 2.243940623248513455e-01 -3.099211778632056033e-02
-3.524646026280473226e-03 1.978657614825987329e-02 -7.430484854013611473e-01 -5.277736005413827813e-01 1.211431487694242248e-01 -8.407017093344191228e-01
-1.488743110189826935e-03 -1.365237873482474107e-01 -9.296659158521285438e-01 -9.773529391484439000e-01 6.476165348398728316e-02 -2.014625537808895639e-01
2.958503705938068983e-04 -1.142288595477528174e-01 -8.661552714832085886e-01 -9.974583932779451656e-01 4.068749278064922627e-03 -7.113507544588741627e-02
3.815570508531554873e-03 4.884365120691556029e-04 -8.069357271532541231e-01 -9.838409343127737516e-01 -8.049883935674971569e-02 -1.599279613850696224e-01
-5.492669736432158681e-03 -1.681250759543519435e-01 -9.826916643014566022e-01 -9.616028213315598316e-01 -1.203303183648168212e-01 2.466589315013874018e-01
-2.155114906108712008e-02 1.732298414032288625e-01 -7.867773927685673963e-01 -9.415122696259763391e-01 -3.109881263846321353e-01 1.297729994703013257e-01
-9.857174906667386799e-04 -4.130309729482090075e-02 -9.131147099460122929e-01 -9.975082848333122199e-01 1.354550739819817239e-02 -6.923684653585078508e-02
-2.711090146837237449e-03 1.004841624385899128e-02 -8.960556149341559751e-01 -9.927446765057404976e-01 1.190956201762768396e-01 -1.656020906693805167e-02
-7.858100796075746797e-03 1.900204252570954211e-01 -8.190147852451625798e-01 -7.852499524698368649e-01 -2.144850740710324555e-02 -6.188072993074065220e-01
1.280535055261476781e-03 -4.693587663731567383e-02 -9.378048862730091750e-01 -9.375796805171927595e-01 -2.302535296355766314e-01 -2.606293436503978600e-01
7.563905987470138752e-03 7.547093465118810685e-02 -9.196288307952454888e-01 -9.961157158286448876e-01 8.505931099067137735e-02 2.276827382518546369e-02
9.398295497479090127e-03 -6.820467957010413473e-02 -1.049741215533815941e+00 -9.878019495273633321e-01 1.425623013560332608e-01 6.263624144225175827e-02
2.753880301764794359e-03 -7.129114063806342438e-02 -8.594179260410802490e-01 -9.020407066257798423e-01 8.716059988016165369e-03 4.315629663077554801e-01
-5.823219242868449448e-03 -2.061483309122805752e-01 -9.750879659649570597e-01 -9.724260930353071375e-01 1.689740423385210633e-01 1.607335266827296383e-01
1.051871516673137490e-02 5.043148375589991822e-02 -9.607038682550014252e-01 -9.567552073529768109e-01 -6.296309543206458914e-02 -2.839984538982123219e-01
5.419635604373628304e-03 1.075356444145949240e-02 -8.202781276079085249e-01 -9.684584553802384477e-01 -1.727193152353353189e-01 -1.796002737947783034e-01
9.276079271702319939e-03 -4.608790369766305878e-02 -1.024790512319705638e+00 -9.384184169731205616e-01 -9.633571550311216536e-02 3.317985904191967927e-01
-6.201212053768819475e-03 1.127979458334504997e-01 -7.573511061854235615e-01 -9.781163215850544601e-01 -1.768016386897219849e-01 -1.096797246784976670e-01
-3.226984603759563302e-04 -1.985047950332650968e-02 -7.708772935070475896e-01 -9.945846269382191407e-01 8.903668165999290007e-02 5.360866699648981354e-02
-9.979448843955920911e-03 1.317266842468829968e-01 -7.633861712976863778e-01 -9.963597516631481632e-01 -4.262017183607003101e-02 7.382930460469994127e-02
-1.856441094180530252e-03 -7.084014918511470638e-02 -9.379417488690507954e-01 -8.630633147272863681e-01 3.877516544232610940e-01 -3.236825130648438575e-01
-1.684933890548692735e-03 -4.972175775106468278e-03 -7.596362170302325412e-01 -9.215019062326814669e-01 2.348560305803685244e-01 3.093167982983907605e-01
-1.304785306595724432e-03 -5.537321206032963516e-02 -9.226684461677419069e-01 -9.688708178004834526e-01 1.918198915842763974e-01 1.565070848467221554e-01
-1.910200125823194664e-02 1.672366013732335954e-01 -7.718306193448730701e-01 -8.088914648230060012e-01 -4.562852808274300287e-01 3.708076868630488798e-01
-2.508476762755039446e-02 1.917074690382230273e-01 -7.870628664897346694e-01 -5.812237942607595409e-01 -6.534245891659650196e-01 -4.849899042850439046e-01
2.583832246985018257e-03 -4.436083674374163843e-02 -7.877889420527817155e-01 -9.546954494556008086e-01 -2.619106614347400663e-01 -1.412777555582803157e-01
2.809480370668112140e-03 1.697791568305075938e-01 -8.463714852786883291e-01 -9.722863632560250213e-01 -2.272103312318568547e-02 -2.326864467049769847e-01
3.610555917679392213e-03 -1.290436035336700038e-01 -1.071877910248525634e+00 -9.615216674913327211e-01 2.709794437578108561e-01 4.523520758650792506e-02
3.946297662979721121e-03 2.129554886306100903e-02 -9.350624104278066895e-01 -9.975884250678869192e-01 3.470033554688996269e-02 -6.011007306189374011e-02
1.081940517922388469e-02 -6.707007091663223786e-02 -1.069223603991897642e+00 -9.493416674773464958e-01 3.125477710565270351e-01 -3.262344554040862155e-02
1.673930571525128995e-03 -9.535659188894414495e-02 -9.809897742737054838e-01 -9.858666184700989321e-01 1.379928056374745693e-01 9.499997988752717504e-02
1.110462350344303909e-03 6.247082028704009811e-03 -7.918096319324766652e-01 -8.711450995426773813e-01 1.847704194714440140e-01 -4.549352785079713302e-01
7.229280222848056235e-03 -5.942406502953693354e-02 -9.919020244239228346e-01 -9.692338807893061681e-01 1.121256451553005601e-01 -2.191198850597744774e-01
6.139177701809638184e-03 1.974861384169223494e-02 -8.425329801635903504e-01 -9.963597516631481632e-01 -4.262017183607003101e-02 7.382930460469994127e-02
-3.625512660630012506e-03 9.743069913063528986e-02 -7.627379701577943205e-01 -9.951184819399634396e-01 -9.784594400416997406e-02 1.285994336828161916e-02
6.106159282349515839e-04 -1.631417927637947018e-01 -8.647203042552032981e-01 -9.956472300095190464e-01 -8.650151039525319496e-02 -3.469988578816558811e-02
1.748603618054865583e-03 -8.726334286307951826e-02 -7.995725486646666491e-01 -9.982322731744409650e-01 5.396370641744842322e-02 2.490476224900550761e-02
-9.932526930224441428e-03 -2.020205065245010423e-01 -9.935924328312042419e-01 -8.939472288839925840e-01 1.352086877144859645e-01 4.272902558415732632e-01
8.952275784577580844e-03 -5.136649963349832620e-02 -1.016138807071286676e+00 -6.086662318805697858e-01 4.255032325884774980e-01 -6.696808323560295984e-01
-1.750515784597674041e-02 -2.125774029382097585e-01 -1.015530318666953091e+00 -9.329454944423846152e-01 3.213143278169640071e-01 -1.623878294059837579e-01
1.759743491260467446e-02 1.137840831583140228e-01 -9.629576449350146783e-01 -9.865084402886328263e-01 -1.311133194759802056e-01 -9.803262056722908402e-02
-2.489808376295311789e-03 -1.318017047129930730e-01 -1.005917203083140476e+00 -9.877865755716530582e-01 1.001001911424897889e-01 -1.194053300890042385e-01
1.543395554463420152e-02 -4.752228113362885753e-02 -1.065015415051939085e+00 -9.692419236355730439e-01 2.880216327848589622e-02 -2.444187571723851760e-01
7.248878266229340922e-03 9.305449837387781697e-02 -9.056635951940875673e-01 -9.987130770186378736e-01 4.963378711956527994e-02 -1.042482460927177633e-02
-1.142783922499382302e-03 -1.102440689567042581e-01 -9.747287278171038460e-01 -9.887542994371242289e-01 -1.431865976234323601e-01 -4.315708059666509971e-02
-3.593262840389992684e-03 -1.395268626672218348e-01 -9.859964356113591899e-01 -8.600683938859144950e-01 5.073275597452334695e-01 5.386190640378441669e-02
2.756918142807895412e-03 -4.713304743814474007e-02 -8.721817422534495767e-01 -9.863343317513919573e-01 9.236458223102020360e-02 1.364308248081211317e-01
-2.508789669273564851e-02 1.860391522206662485e-01 -7.639864903491044856e-01 -9.210094572260768553e-01 -3.889311612720314226e-01 -2.177456065495393667e-02
-1.333743893623910411e-03 2.922477400515540932e-02 -7.435374504107650218e-01 -9.907145888697881375e-01 8.653213052072133982e-02 -1.048655986876124019e-01
-1.602419813445608290e-03 2.544335858558985190e-03 -9.002917469212898816e-01 -9.641495338772695378e-01 6.048775225592929045e-02 -2.583735825336426206e-01
5.893833595757951883e-03 -7.339013936365511304e-02 -9.956849939785983317e-01 -9.936806023774720220e-01 1.118642840751412904e-01 9.232681468590599877e-03
3.968820141655417071e-03 1.282969310376211036e-01 -8.593825812589394042e-01 -9.774476415946541374e-01 1.920902089003186930e-01 -8.773516732576876198e-02
3.977537653749524740e-03 -1.103456120304439486e-01 -1.047917668569348537e+00 -9.691633476649459400e-01 3.582120426255902546e-02 -2.438016547689032809e-01
-7.233808279418640561e-03 -1.647056633747936705e-01 -1.011047214864587929e+00 -9.959024330640362521e-01 -7.548450695003902644e-02 -4.980394590433958463e-02
5.862124375020520521e-03 -3.398451551286454236e-02 -8.085694051004121974e-01 -9.589341142134416573e-01 -3.252753388084128790e-03 -2.836102681375948786e-01
3.625297392765710561e-03 -1.065332090599202530e-01 -1.049629500484195566e+00 -9.830112274220734747e-01 -9.203460053585503509e-02 1.588035234695812925e-01
-1.808764676948137681e-02 1.608209366128338924e-01 -7.919642501432766490e-01 -9.279747225309364911e-01 -3.408669218762070963e-01 -1.505744198536765333e-01
-2.004790414699314169e-03 6.562790843130261731e-02 -7.896849562250023435e-01 -9.813497719358117433e-01 -1.042875572065033313e-01 -1.614829109640721350e-01
-8.075368350591669714e-03 -1.693179582278123152e-01 -1.001649872149980025e+00 -9.977071639376101642e-01 6.752141734532846051e-02 -4.612290889424847801e-03
-3.790884319360309472e-03 1.962319689700015302e-01 -8.275512588537893288e-01 -8.145062162825535967e-01 3.543823415577766478e-01 -4.593395036670643305e-01
1.477434575082961629e-03 5.649856620979154531e-02 -8.421152150097965805e-01 -9.972079229774479803e-01 -6.956923597434212792e-02 2.713816052997328893e-02
3.918363925268482720e-03 2.467141697337471573e-02 -8.111484557932172601e-01 -9.982187294522766319e-01 -5.427920926528332496e-02 -2.476157531778455656e-02
-3.874359747308310249e-03 8.932061452874136276e-02 -7.950505129217905198e-01 -9.903942457818651901e-01 -1.547438572992443535e-02 1.374037165015981055e-01
4.890332710753958999e-03 -1.571334647506799839e-02 -9.473135435432600282e-01 -9.691570093049839407e-01 -1.576263770870824643e-01 -1.894429110878000644e-01
7.137039146040838680e-03 1.763205415663742781e-01 -8.579737336467624376e-01 -9.920146139757162196e-01 -1.006020750812511577e-01 -7.606726068393046547e-02
5.269574197875702762e-03 3.249866881746218961e-02 -8.365755253022068016e-01 -9.780438059274617624e-01 2.012180506902971899e-01 5.423660906917759233e-02
-9.445759162174707443e-03 1.414573113558108552e-01 -8.170035746536010723e-01 -9.409918129500531858e-01 -1.835705511512141508e-01 -2.843171832848153668e-01
-3.358324667074988768e-03 -1.909481303639815331e-01 -9.614675573634858807e-01 -9.304244868058085816e-01 2.066888539130027069e-01 3.026383849089159805e-01
5.958945496571019761e-04 -1.068002633555692193e-01 -8.390451413025842298e-01 -9.666207254942520422e-01 2.562026583328543827e-01 -2.137968228136901804e-03
-2.591499970322302948e-02 1.895967890355704788e-01 -7.371743820218150667e-01 -4.743818025873189903e-01 -5.757848784126154973e-01 -6.659081612094684965e-01
2.981810166885332045e-03 -2.174495099268341364e-02 -7.884429288933080260e-01 -9.920409551852436003e-01 7.238297169684712595e-02 -1.030312993390019860e-01
1.882295366159050451e-02 2.803930655629625554e-02 -1.022966822335692028e+00 -9.711933036792166352e-01 1.677824996206361829e-01 -1.692117008652180843e-01
-1.744610119856984318e-02 1.746604747589495521e-01 -7.993554490861833894e-01 -9.558534145024670803e-01 6.911209520967921682e-02 -2.856007147744966113e-01
8.960950947331229599e-03 -5.211805584435096061e-02 -1.032850073147413950e+00 -9.694696500710787701e-01 2.139716378254862550e-01 -1.197695111342562541e-01
-3.784805120272410547e-03 -1.597386621311443489e-01 -1.048485894001407459e+00 -7.301784671104528668e-01 6.573295983348447225e-01 -1.864328439979962004e-01
2.547865365647665318e-04 -1.933841842185016757e-01 -9.301161346882632630e-01 -9.891614865139214396e-01 -1.309094029287689309e-01 -6.650023926575551747e-02
3.225949525432290649e-03 -6.269210837504510248e-02 -8.635880047522663805e-01 -9.783688553859496428e-01 9.987517087300519514e-02 1.811610693661167282e-01
-1.417332242587871285e-02 1.493530912335688243e-01 -7.847110882035895907e-01 -9.681252572825632674e-01 -2.488774971519810419e-01 2.816873484799187546e-02
-1.185085130115821330e-03 -2.243123947117949685e-02 -8.963402197874025257e-01 -9.826194901803708692e-01 -1.570463710049612716e-01 9.897158618431821375e-02
-4.999472182407023978e-03 -1.690248309817089511e-01 -9.745187379664921323e-01 -9.772154654445251998e-01 1.840377843867122276e-01 -1.057356515753779536e-01
1.294096225779920416e-02 -1.623593644074379505e-02 -9.934658715474689039e-01 -9.747743183590180660e-01 2.199486393540460993e-01 3.791601658950104203e-02
-1.187656053654504752e-02 1.403298922138923599e-01 -8.057565030226203628e-01 -9.583745735037678681e-01 -1.957374193296758103e-01 2.078582197932751230e-01
-5.947455509666749705e-03 -1.620573497608592817e-01 -1.035646948728889294e+00 -9.974368529937759353e-01 4.231898170246550794e-02 -5.769599706685875351e-02
2.828662509300841534e-03 2.712052936084688448e-02 -8.059580038300496740e-01 -9.823888673597166443e-01 -1.391702508021772089e-01 -1.246745947631360124e-01
1.062485089695027439e-02 -8.163999983958346307e-02 -1.069659554826422498e+00 -8.794894122877437992e-01 1.570574444415684112e-01 -4.492564221235380018e-01
8.771521710357842866e-03 -4.893901751374120368e-02 -1.003210150459929340e+00 -9.635018455507250446e-01 1.414586813040379087e-01 -2.272743608594455511e-01
2.708956107542696314e-03 -5.106942070664562128e-02 -9.466904149269925739e-01 -9.934300027749125572e-01 -7.905444833822436457e-02 -8.274795335581475175e-02
-1.453224171708817312e-02 -2.001018924039987823e-01 -1.043338429335224138e+00 -9.963597516631481632e-01 -4.262017183607003101e-02 7.382930460469994127e-02
-3.786459986174574993e-02 2.177747354341620922e-01 -7.667988897013626737e-01 -8.495081606834160581e-01 -3.178649844227701138e-01 -4.210673777558547326e-01
-5.900806760607282212e-04 -9.477036321096400651e-02 -8.861893859490643788e-01 -9.923435012563780466e-01 7.571284980683828936e-02 9.758042779348657936e-02
-3.270697294938677141e-02 -2.449430025976144509e-01 -1.038389070487914845e+00 -7.440936609601737084e-01 6.562470582511249484e-01 1.251575896844878688e-01
8.082574809274050906e-03 -9.824944809877471374e-02 -1.066640101920911743e+00 -9.694508863728497072e-01 -1.727215471177872066e-02 -2.446766265553541875e-01
9.621905476366779397e-03 1.455283409715374121e-01 -8.748014427070430754e-01 -9.770534747886917559e-01 -7.277549759019419362e-02 -2.001755088761932033e-01
-5.426418851521614035e-05 -1.424560231627576279e-01 -8.508716283891027965e-01 -9.901651142918473925e-01 -1.229667478550009185e-01 6.672499802455868212e-02
-1.584578314993435530e-03 7.378507427704221466e-02 -7.436674747782798800e-01 -9.983347872856664917e-01 5.031071580993424358e-02 -2.822205467316661262e-02
-5.497785518118875753e-03 1.211616948024913237e-01 -7.401056749579072447e-01 -9.708753144173241090e-01 -1.880053229807741866e-01 1.485096710182772506e-01
8.322168137447077821e-04 -1.816125898937573646e-01 -9.101566238853252555e-01 -9.846518479005429425e-01 -1.141741457910517982e-01 1.320037986534093599e-01
-1.066844003866627023e-03 -9.399319220439295020e-03 -9.128499291774997415e-01 -9.992067767951063884e-01 3.109126006197112518e-02 -2.488274009214654081e-02
1.805757284870248549e-03 -1.265864649904807071e-01 -8.308182728433426423e-01 -9.988116607863483098e-01 3.049839922845754003e-02 -3.801465403917572011e-02
1.467087883545794419e-02 6.820817811514107154e-02 -9.825651789590501561e-01 -9.261993222405838777e-01 -1.204668014957068108e-02 -3.768417346558862735e-01
7.542954901011278543e-04 -2.087740158322607120e-01 -9.231398517668027992e-01 -9.409084957123636794e-01 3.305682713424203389e-01 -7.359225963361193390e-02
-2.776225987597520303e-02 -2.356390683032187905e-01 -1.042351765067989433e+00 -8.623293592431423571e-01 3.230046488373945479e-01 3.899436792881030289e-01
-1.525870826878428710e-03 6.798743620903208162e-02 -7.510977061735654159e-01 -9.842051882389372119e-01 -7.504724335109354272e-02 -1.603373278714600725e-01
3.479346604222653596e-03 -7.545287451788373900e-02 -8.146768471826029145e-01 -9.855859644167065392e-01 6.549621238243191756e-02 -1.559825403958599588e-01
-3.563723030521531027e-03 -1.464835250103006525e-01 -1.032794982361077141e+00 -8.530471269888842967e-01 -2.608930802923472569e-01 4.519351721116438569e-01
1.915468991069685031e-02 5.689778016432247426e-03 -1.042151693801855572e+00 -9.745112608072005189e-01 1.719821181819583822e-01 -1.440484418020809010e-01
-2.242065657199083465e-03 -1.457851751798434348e-01 -1.061027078909062116e+00 -9.158754435091897017e-01 3.286357714740100744e-01 -2.305877309930585983e-01
-8.677680742690173582e-04 -7.465733400753520044e-02 -9.191331321803346555e-01 -9.944317290711462975e-01 1.038128098710821290e-01 1.812282326904326654e-02
-4.356062717411372798e-02 2.221908898057930459e-01 -7.616122191249733442e-01 -7.192532942607878788e-01 -3.377228585774418312e-01 -6.071391681396332007e-01
6.016984112248541586e-03 -1.005590814325105636e-01 -1.045942784537280401e+00 -8.442014545987590601e-01 5.340841903607620456e-01 4.558488411775079435e-02
5.202706349512009262e-03 -2.610316863653700664e-02 -9.478765473065680069e-01 -8.989009985821286852e-01 -2.775933029371404626e-01 3.389969806834582378e-01
-5.026066135382810905e-03 -1.481932284473656547e-01 -1.000099130655702551e+00 -9.956425772227696092e-01 8.681932849631619764e-02 3.403325756741571589e-02
-2.597758241388435532e-04 -1.361590452655259131e-01 -9.363420891348515074e-01 -9.789956900754169800e-01 6.098833721083197351e-02 -1.945452686086610039e-01
-2.639006145199645006e-03 9.267411477692982791e-02 -8.295389829383141844e-01 -9.520236853970011071e-01 -1.353942588083299758e-01 2.744436137439797974e-01
4.577474110262360653e-03 1.464546587797295185e-01 -8.531986801135632570e-01 -9.063322858771190038e-01 -9.717167497265553899e-02 -4.112413563344095024e-01
1.683049268985373909e-02 5.734094348028799699e-03 -1.004691038218614052e+00 -9.993954271188616456e-01 -3.018580910674070056e-02 -1.725100525997242187e-02
1.002357017921643237e-02 -4.258330560583300367e-02 -1.023667664096429286e+00 -9.650099793314751428e-01 1.942436129210187712e-01 -1.761395998350602510e-01
1.565331028654500314e-02 1.586699659414022856e-01 -9.065098573235538248e-01 -9.930835007523950431e-01 5.412592091564496360e-02 -1.041899477800093815e-01
4.803050121037743527e-04 1.429329233767472063e-01 -8.371183001781324906e-01 -8.943338463146085493e-01 -1.984859746342254871e-01 -4.009617054153921112e-01
-2.905271976438465308e-03 -1.454464829902316070e-01 -1.055671994483116993e+00 -9.911399828497434727e-01 1.120379870458882571e-01 -7.133739450887841005e-02
1.654495811530140234e-02 5.532508467562116672e-02 -9.903405672130445314e-01 -9.939205333255277663e-01 8.750026880765349180e-02 -6.682571655049293624e-02
-1.156714494164605943e-02 -1.865477136022882509e-01 -1.002859811283369762e+00 -9.842073498499821493e-01 1.745345684044480039e-01 2.955633490722161041e-02
6.925704686772916722e-03 -8.378487213219280860e-02 -1.060512723947355740e+00 -9.421618110608240837e-01 -3.295874879261683765e-01 -6.085400217821133884e-02
1.389470552923124588e-02 1.040734815720867623e-01 -9.426597216389799305e-01 -9.394152360504546273e-01 2.100503192674275932e-01 -2.708835130677400560e-01
8.788712448590520697e-05 -6.282593818367455951e-02 -7.781296644697802689e-01 -9.995643659510101697e-01 2.941817635644802115e-02 2.376808956526310634e-03
4.941492695274535447e-03 2.962879707944182650e-02 -9.390973587998024952e-01 -9.548807719646750236e-01 1.167795193121763941e-01 -2.730663933942866217e-01
-4.544284059382348021e-05 -8.872446366651898231e-02 -8.801907284608377902e-01 -8.016421159685592768e-01 4.885198273267004065e-01 -3.445552150441809069e-01
-1.139240694368549682e-02 -2.014519860923764671e-01 -1.000102918164900823e+00 -8.556008504569618811e-01 2.456321469113096623e-01 4.556446346672637371e-01
-3.487252305878429611e-04 -1.333987446881681471e-01 -8.523768276789451814e-01 -9.871478727670801590e-01 1.516524226197239200e-01 5.040456333504871045e-02
2.890943029334311441e-03 -5.965429773263680735e-02 -8.656362027896589151e-01 -9.800798583306737921e-01 1.798998694015870314e-01 8.413981390410986416e-02
-1.507997805512738612e-02 -2.254520003080996149e-01 -1.004432281408739414e+00 -6.310606399575972025e-01 -3.299894497378099700e-01 7.020466022694257235e-01
9.648224987614722808e-05 -1.245395205926397020e-01 -1.031675832966718831e+00 -9.275681249292178077e-01 3.577959440447590622e-01 -1.077006779942199372e-01
-8.594765187457002265e-04 8.065444100171384467e-02 -8.277069712401162738e-01 -9.984111356284365302e-01 -3.868278604897553222e-03 5.621601794658203505e-02
1.819818451730079514e-03 -1.084821987980134350e-01 -1.026498833653615161e+00 -8.772050581405304026e-01 4.745046119115131078e-01 7.318920171290982379e-02
-4.623792466385018111e-03 1.062613798519119607e-01 -8.293801116796079009e-01 -9.768768554564544182e-01 -2.057757625531498880e-01 -5.803399709807285228e-02
2.035587696588510992e-03 -4.437380720866641870e-02 -8.773824216607600812e-01 -9.647998113906290918e-01 -1.603624385501657423e-01 2.084351511690170078e-01
4.290354784320111591e-04 5.374089653292649787e-02 -7.368124347810786068e-01 -9.506351612416867880e-01 3.060545940532033438e-01 5.121889953836390730e-02
-1.869247933519099358e-03 -1.269375993680927073e-01 -9.986340243582016996e-01 -9.782171270136659214e-01 1.971058578395804561e-01 6.511937670503853415e-02
-2.990235687284063804e-03 -2.275376024874458392e-01 -9.561030541503134916e-01 -9.176062134620931454e-01 3.036063152457515457e-01 2.565580682002746027e-01
6.356965245934871438e-03 -4.577274329950138665e-02 -9.763543689657724345e-01 -9.997025412017861434e-01 2.433829758310203373e-02 -1.573653534704488963e-03
-2.194010377491769151e-02 1.769244949507052522e-01 -7.849619974332663341e-01 -7.125303350635151522e-01 -4.088329510891957064e-01 5.702246396973511544e-01
5.600838264760611349e-03 2.972158542006030080e-02 -8.345668373382231220e-01 -9.887421981043738040e-01 4.023525427152620237e-02 1.441179725136213507e-01
-1.547377050209375890e-03 6.652248233474919448e-02 -7.560334708353128041e-01 -9.950159110755097958e-01 -1.365934148275857810e-02 -9.877630837822615195e-02
1.275628185542364117e-02 -7.033122012392221956e-02 -1.071295982748863063e+00 -7.394871221639053305e-01 -1.204064842188378170e-01 -6.623149361986365724e-01
6.709759000419947099e-03 -8.262478489200301979e-02 -1.029162033061092218e+00 -8.553868988323269917e-01 3.844083939207642020e-01 -3.471936635212010125e-01
5.055579759891948993e-03 1.841329180149431921e-01 -8.525592818273377560e-01 -9.612506551930108945e-01 -3.666109267608323036e-02 -2.732272720187404191e-01
-4.035832600011477617e-03 1.290434713464913841e-01 -8.301160536685797675e-01 -9.075468976762254281e-01 1.468927709557994732e-02 -4.196937617557213174e-01
-1.678257481079225080e-02 1.570746672777264819e-01 -7.935895544467321816e-01 -9.337835221379553463e-01 -3.572355541639008480e-01 2.076277016308884435e-02
7.577200679597865043e-03 9.136303552462309019e-02 -9.086002869088908307e-01 -9.927899929252713696e-01 3.309851663887906220e-02 -1.152064153758163151e-01
1.403363464395613464e-03 -9.440397165885133779e-02 -8.514203549834566953e-01 -9.935767154545545043e-01 6.737922141939912957e-02 9.091397597429540234e-02
7.750762243439607464e-03 7.913008487538848723e-02 -9.187601607688026251e-01 -9.502517189448951296e-01 2.957958042492772055e-01 9.760385663894405317e-02
5.096191924129248735e-03 -4.155339011925597570e-02 -8.543084409074734875e-01 -9.969762393390618760e-01 2.469466721850961666e-02 7.367870522958905322e-02
-5.915082639986609173e-03 1.073134531285553361e-01 -8.071902533278206837e-01 -9.602454199936698576e-01 -2.769959711778300360e-01 -3.466937167633057232e-02
1.980825106982993071e-03 -7.775770058733037782e-02 -7.953741968246944571e-01 -9.699539444550167033e-01 2.001917297867689405e-01 -1.382483886384772431e-01
-1.518849379845145509e-02 1.564517593869101941e-01 -7.601181405143873082e-01 -9.242134914888023856e-01 -3.739963327778009772e-01 7.717619593394026145e-02
1.249999527697647286e-02 -3.611374028541678577e-02 -1.048890019170262367e+00 -9.931660148329812809e-01 1.142361467475147691e-01 2.390334196414110185e-02
3.259444588980584911e-04 1.329503934320298147e-02 -8.791311731409143793e-01 -9.366425049317904650e-01 9.234518820154072327e-02 3.378952266178421038e-01
-1.145960345789481805e-03 7.114839842067338660e-02 -8.381489451215174968e-01 -9.789150795280227024e-01 -1.651429082592890674e-01 -1.202209920284690453e-01
-7.847424235350430313e-04 5.765323516427094813e-02 -7.910173395107631400e-01 -9.853378998490648355e-01 -7.224131020235519118e-02 -1.545652490739153340e-01
8.879939379921987855e-03 4.707857475665825492e-03 -9.624904656817739879e-01 -9.097695536248850967e-01 -8.006713509157792341e-02 -4.073188102400924770e-01
1.421286486788774124e-03 4.206065566718927146e-02 -7.973977983312803275e-01 -9.963452378095417616e-01 -1.044452194388445412e-03 -8.541121831387950281e-02
-6.678972646579518259e-03 1.115659428262661401e-01 -8.317053020272817676e-01 -5.521396410555938772e-01 4.548463357356887227e-01 -6.987536244219539894e-01
1.512826211719019371e-03 1.886479008320118486e-02 -7.950303066784164541e-01 -9.968664766855682702e-01 4.581622379398181399e-02 -6.448334124222493413e-02
-2.792292670276558947e-02 1.992637933523539462e-01 -7.795774208280158435e-01 -9.591816312593749450e-01 -2.366903318508790099e-01 1.547523345960417074e-01
4.039233452737923469e-04 -7.942819614594491540e-02 -8.785680499007081368e-01 -9.913134037593491765e-01 4.893657134519355245e-02 1.220776290400099051e-01
-2.853391672946688218e-03 8.723056833127261489e-02 -7.648580454567658338e-01 -9.626633324763508304e-01 -2.622704927618889070e-01 6.703355079333685185e-02
-7.213571348813284899e-03 1.189755449113270858e-01 -8.140981945090097760e-01 -9.953348586269232801e-01 6.664888925566443689e-02 6.975990799240512630e-02
2.162968072188637802e-03 -1.036762767946389080e-01 -8.280152037524612929e-01 -9.937600443122467375e-01 -2.207911171187174060e-02 -1.093320042555517013e-01
-2.844816249585220558e-03 -1.544015296694792316e-01 -1.046016059888599914e+00 -9.750043495177718178e-01 -2.161101709689828287e-01 -5.160341485971531306e-02
-3.262960756274303677e-03 9.595610886714352195e-02 -7.574900015671169884e-01 -9.705345408029906196e-01 -2.395891607847731031e-01 2.568538772875404719e-02
1.639523083623793329e-02 1.221032914105173589e-01 -9.423276539606293412e-01 -9.529372813090769556e-01 1.849963847145070506e-01 -2.401809225018244898e-01
5.950679185052759959e-03 1.289168009872700138e-01 -8.714788108200511862e-01 -9.687965765454895628e-01 1.352526200776962562e-01 -2.077015215058806707e-01
-1.234100658340414255e-02 -2.105095026414657844e-01 -9.993833816464035014e-01 -8.662552006498575041e-01 4.211379903074197739e-01 -2.687837801410316585e-01
1.689825044416835842e-02 4.789663326888338873e-02 -1.004241243481833523e+00 -9.632608989084849860e-01 1.309032797302157325e-01 -2.345053773155113819e-01
7.188341536213736609e-04 -1.321518508032611117e-01 -8.581814785916314081e-01 -7.846441417371069482e-01 2.537883315301870391e-01 -5.656191772003160700e-01
-4.088031620482057552e-04 -9.768201806043837199e-02 -9.633372402460955719e-01 -9.376882823641775611e-01 3.472968375447448297e-01 -1.120677243177147647e-02
2.117954650318270389e-04 -1.954420070126807740e-01 -9.212564544839094705e-01 -9.626214902668481788e-01 -4.445675269876194630e-02 2.671768395948897479e-01
4.523755465855681251e-03 -7.888673760413891789e-02 -9.886692998176511704e-01 -9.932667287719373350e-01 1.158370115085438079e-01 -1.729820645050021829e-03
2.784252344431331194e-03 4.843497136962649635e-02 -8.183862997656636828e-01 -9.969167297519940796e-01 -7.734535678487150512e-02 1.321853715093299422e-02
1.191942106484143900e-02 7.662619962318631406e-02 -9.473690453186293103e-01 -9.772518785114641116e-01 5.734848403872309236e-02 -2.041810895364090661e-01
2.442179298908604083e-03 -9.662393985073415570e-02 -8.116159313650010976e-01 -9.911913534049237029e-01 -9.526538762141508951e-03 -1.320944586064414228e-01
-1.279644914457219416e-02 1.515831339603320449e-01 -7.419420655186496072e-01 -8.943196453085091591e-01 -4.335420696708937593e-01 1.106058128704827809e-01
1.795555690770361161e-03 4.964530649576444354e-02 -8.343848548708322488e-01 -9.984741499333839032e-01 -5.438024309915796134e-02 -9.600056004159859130e-03
4.300859739183877060e-03 3.346188816379225273e-02 -8.506623498718486331e-01 -9.506189976894419136e-01 -1.583400444082109504e-01 2.669306118989102639e-01
5.349416540417399266e-03 7.547904492422007061e-02 -9.043564765275416972e-01 -9.533149187070774078e-01 2.432485885731270059e-01 -1.789435383792888357e-01
2.100998370083108878e-03 1.116572811225605838e-01 -8.625464931133696167e-01 -9.752985110669222246e-01 -2.636500008187321609e-02 -2.193118808485464699e-01
-1.667506963218311124e-03 -5.679845794981004670e-02 -9.182314545982350751e-01 -9.981673146236483829e-01 -4.240297511532411384e-02 4.317406302843956184e-02
6.161010447894376720e-03 1.379788031071715881e-01 -8.617619499666271388e-01 -9.795985796161400527e-01 7.734865994261709565e-02 -1.854826342791220384e-01
9.765561924036943175e-03 1.277827501278080702e-01 -8.957797868670535069e-01 -9.711415362408267749e-01 5.162642003709125987e-02 -2.328493704993870594e-01
1.279697679935635525e-02 1.500064598550087946e-01 -8.945682835571212577e-01 -9.859317894847131614e-01 5.536356857444299506e-02 -1.577129727009621563e-01
-2.294247106740155469e-03 -4.080791446196800620e-02 -9.236067289713190132e-01 -9.861764832383929091e-01 -9.329689475739397220e-02 -1.369366033468903954e-01
2.326198761701739684e-03 9.203323390651649283e-03 -7.995561357126919066e-01 -7.732043682772410387e-01 -5.570740296058405150e-01 3.030239766350245612e-01
-2.784956928735277462e-02 1.909673533644894450e-01 -7.773529356701145421e-01 -9.156290634027408615e-01 -4.018916334208805230e-01 1.032149400601745613e-02
1.276003360155046618e-02 -2.572346739117368705e-02 -1.010412520132134562e+00 -9.713238437564438721e-01 2.284223728068525139e-01 -6.597886139889699852e-02
2.633091114833575105e-03 -1.562768780509438127e-02 -8.680949199855714227e-01 -9.994639485958966008e-01 -5.847906114105512303e-03 -3.221206996111245641e-02
9.434886856674951430e-03 -2.862452188091593047e-02 -9.752315000407290047e-01 -9.524271170484885918e-01 1.287229082197498264e-01 -2.762480762107756838e-01
-1.250686683545719838e-02 -1.955004701982710480e-01 -1.060752387158210075e+00 -8.801027462331484363e-01 3.756123966225860533e-01 2.904040006203554847e-01
1.181887435572072289e-03 -1.445529658330853007e-01 -1.066237725881714393e+00 -8.190073953149937802e-01 4.238329243813298564e-01 -3.867719465391969424e-01
6.302025727292148542e-03 -4.094152616547722112e-02 -8.457686229338644557e-01 -9.428820669588230396e-01 -2.591354972290862979e-01 2.093375309954997876e-01
-1.661285759538628018e-02 -2.171688516782867284e-01 -1.011330005335031368e+00 -9.406510085357639994e-01 1.911508901553877204e-01 2.804229258342705311e-01
-3.522938499169057415e-03 -1.665987446181785847e-01 -1.068631970823339383e+00 -8.745241247012141006e-01 4.216675697951812185e-01 -2.395913518860840752e-01
1.806888702699215379e-02 9.832042738518645408e-02 -9.774776318473672454e-01 -9.872249686461639362e-01 7.965898942304844299e-02 -1.379902412697337211e-01
-5.605139663623459438e-04 8.167336990614168513e-02 -8.587362279400209131e-01 -9.940994601144393927e-01 9.983315037442505591e-02 4.242175723019512429e-02
-1.155309440972148317e-03 1.829736247158285367e-01 -8.353052743316664586e-01 -9.387245899074436739e-01 -3.878383713145729800e-02 -3.424791355403453696e-01
-2.839917457495816713e-02 1.949323423616900752e-01 -7.467889248949670655e-01 -9.032423139584742078e-01 -4.187064096137139146e-01 9.401204616076440368e-02
4.187527360981340438e-04 -4.774506203761764295e-02 -9.339791004121048568e-01 -9.945466121567163587e-01 1.731858585173442003e-02 -1.028450428153648150e-01
1.440231957654776159e-03 4.462231671346702372e-02 -9.044494721907363477e-01 -9.871806555107602854e-01 -5.039576948470715634e-03 -1.595272893567926398e-01
-1.671734575856201679e-02 1.605804530075515824e-01 -7.690430606042834016e-01 -8.920080004458400547e-01 -2.635615109464501948e-01 -3.672288892342737143e-01
-9.948907812754200636e-03 1.411371141954449737e-01 -7.464819277977098322e-01 -9.881064100966792108e-01 -1.488982036976146672e-01 3.840634402643356565e-02
-3.191222367249941030e-03 9.122894823865776437e-02 -7.570171719088358842e-01 -9.988089438190753677e-01 -1.249431258752474114e-02 4.716551600468934374e-02
-9.644547492169390154e-03 -2.227754979527398760e-01 -9.871994942572072107e-01 -9.625098408882005740e-01 6.892431345648764029e-02 2.623437538953856674e-01
-1.682853487758271486e-03 -2.162454491295983383e-01 -9.428629782378754598e-01 -9.817663633692084169e-01 1.892484667277187782e-01 -1.788366847173769592e-02
-7.011361386867869796e-04 -8.363481356774880859e-02 -9.234254776518320273e-01 -9.949469422588045342e-01 -1.001326555997702622e-01 -7.350739581354282653e-03
1.636564482194853218e-02 7.163837430933010786e-02 -9.922661973246623690e-01 -8.995579155437221086e-01 -3.890366691000284316e-01 1.986102381001260964e-01
6.217184175911777931e-03 2.032857216399638206e-02 -9.532215819506151266e-01 -6.993594760663037757e-01 6.025963778405585280e-01 -3.844137466971025985e-01
-3.933802510931079803e-04 -7.826469050558190754e-02 -9.306548346647876002e-01 -9.885804638448560944e-01 -1.399724234972760384e-01 5.582461074282857316e-02
-7.346675013359156223e-03 -2.349725697436287619e-01 -9.754626144217078965e-01 -9.658257026830009417e-01 -2.587844685690616209e-01 1.453653549907753424e-02
3.204817080088407689e-03 -1.117541786030236059e-02 -8.648993481787928816e-01 -9.993627173374844963e-01 -3.575899658353465065e-03 3.551580123652765125e-02
6.468411229045008953e-03 -9.310234872151545993e-02 -1.047187814578303788e+00 -7.598060508110849876e-01 6.016059793318817572e-01 -2.465055999018892774e-01
1.588134939326474619e-03 -3.876128378003987872e-03 -9.275571001857301212e-01 -9.805702864262387797e-01 -9.575593463408596517e-03 -1.959342271982814354e-01
1.166406701025343370e-02 -6.941054356506816576e-03 -9.738403122227005104e-01 -9.916150930726927992e-01 1.282504058138454472e-01 -1.585372508336615333e-02
1.585539302213057403e-02 3.455865489249333126e-03 -1.014642724575625543e+00 -8.670855227883103034e-01 -4.564735911876210417e-01 1.994857306154985133e-01
1.736834548872609072e-03 -1.705539738946643125e-01 -8.913090113537349701e-01 -9.658521115123303025e-01 1.531642668788221751e-01 2.089746540579647260e-01
7.313232129986108922e-03 -7.209689146310369057e-02 -1.007190629613952781e+00 -4.832383087344522821e-01 7.565619179380881354e-01 -4.405619153959041689e-01
-1.044291438463456224e-03 -2.029412231106182685e-01 -9.410178262493810175e-01 -9.930918517337937734e-01 6.891894790670556603e-02 9.496711346238449758e-02
7.759544056457874997e-04 4.920863299021726450e-02 -8.572789232600847020e-01 -9.662832432225209045e-01 5.533806246193527512e-02 2.514644959240274202e-01
3.036951328120315614e-03 1.798249012297687410e-01 -8.453503830704974797e-01 -9.451030739040163775e-01 -2.329277227783268511e-01 -2.291830178230540305e-01
1.503252547185662293e-03 8.079754698420447967e-03 -9.223058721275936289e-01 -9.842110095161088479e-01 5.759533058469816502e-02 -1.673662649464378593e-01
-8.846328468910380884e-04 1.835883102744057666e-02 -7.709958880257817837e-01 -9.380071421755012961e-01 1.072812244461003551e-03 -3.466142673082533432e-01
2.891644394655872507e-04 -1.832210385734726887e-01 -9.260690828523956419e-01 -6.982983183050304188e-01 -6.313440666661283007e-01 3.373190302041113031e-01
-5.973051799836222482e-03 -1.551806741098243347e-01 -9.955741554676030836e-01 -9.867335301589078567e-01 9.590518695495738044e-02 1.309928836818033127e-01
2.701085577383541790e-03 1.717872146923081142e-02 -8.022883464275035736e-01 -9.949902800129158953e-01 -1.179055942873312966e-02 -9.927399149916628363e-02
-1.664178806169316080e-03 1.891213974877669485e-02 -7.603633840037583580e-01 -9.837622846407332311e-01 1.244811049765463286e-02 -1.790441617687740516e-01
-1.017799545299735708e-03 5.271583630689145178e-02 -7.841890853404470674e-01 -9.978586125949318042e-01 -2.776131892742673881e-03 -6.534892777874781733e-02
9.600056346198035341e-04 -1.102228031533158403e-01 -8.410932443129334191e-01 -9.923565244184492373e-01 -8.433490544389055099e-02 -9.008968957603122329e-02
1.283110431804602341e-03 -6.338970269956678560e-02 -7.836520788210232791e-01 -9.863767880722451586e-01 -1.740622842149838756e-02 -1.635782845136221908e-01
-1.665291716552402129e-02 1.827180045672137376e-01 -7.985194496036620571e-01 -9.069562201806680157e-01 -4.159267720772036325e-01 -6.659831037671821996e-02
-6.848758379417070608e-04 -7.595381646312578117e-02 -9.352148363308502299e-01 -9.814111165944782167e-01 -1.712557166683957022e-01 8.662389816426800671e-02
2.229092973728764512e-03 5.588532681167376892e-02 -8.959993837227550051e-01 -9.768437006727562766e-01 1.544704681283841918e-01 -1.480380320463356159e-01
5.472832261988611752e-03 4.966087547605427255e-02 -9.319350985498543460e-01 -7.803646509161393796e-01 4.138373642841297606e-01 -4.687959551050931983e-01
1.602976260866402361e-03 -9.759014805539288628e-02 -8.430659589016963329e-01 -9.974314200895992855e-01 -2.233644059449283945e-02 -6.805619471887741634e-02
-3.752710466657871013e-03 -1.333536139321064573e-01 -9.769524852796952485e-01 -9.585415372093167852e-01 2.755134269794105029e-01 7.273563774698693640e-02
5.597031861994655050e-03 -5.771618246746998415e-02 -8.316739134090208596e-01 -9.914106229102771506e-01 1.307592748700639185e-01 -2.643636909901441508e-03
-6.239984655048821244e-03 1.138074601275913950e-01 -7.823831220937036424e-01 -9.445156707077789759e-01 -2.890182818143091636e-01 -1.560723568238099324e-01
-2.016939825318387128e-03 -2.333574164739312187e-02 -7.589083383285244455e-01 -9.272621631373531015e-01 5.623427600849990188e-02 -3.701656210612173092e-01
-2.369151536625947174e-05 4.346441739002685628e-02 -8.645498829634646887e-01 -9.891802184223494887e-01 -1.465652246677832948e-01 6.413298682834044952e-03
-7.594949747535073049e-03 1.219233706939744089e-01 -7.748601097242183711e-01 -9.837580409308482876e-01 -1.735792609371876183e-01 4.572042296828660729e-02
-5.631970428139893145e-04 -1.468796070086063887e-01 -8.438731266235497408e-01 -9.693385323171482826e-01 2.294670546704426772e-01 -8.790722715516134655e-02
7.542750988941640143e-04 -5.265011343587794324e-02 -8.917270737866004326e-01 -9.985418269564358962e-01 -1.939867502510773251e-02 -5.037768579215805981e-02
-1.062579835918920149e-03 -9.921600765581817249e-02 -8.994468284297040261e-01 -9.906100769302249587e-01 -1.364811843475168540e-01 8.035035992014273945e-03
8.345720427811235270e-03 -1.386764197410337955e-02 -8.301334456333673284e-01 -9.956538939072263616e-01 -5.879244256012004614e-03 9.294491935741207300e-02
3.537812285433460926e-04 1.367052842802291279e-01 -8.396224516903524338e-01 -9.718212625574428332e-01 4.023657092239670691e-03 -2.356846278925755211e-01
1.555452603247339458e-02 2.232002637897719313e-02 -1.009363049703668525e+00 -9.599249323804848189e-01 -1.547015913790014408e-01 2.336911248189066925e-01
4.859200041181112491e-03 -4.288178166510719924e-02 -8.027377793899932445e-01 -9.172210628524164466e-01 -6.197225107300291524e-02 -3.935288578450481523e-01
5.720656312476110270e-03 -6.018771601522561812e-03 -8.490704578558389004e-01 -9.879882141965119491e-01 -1.380379914201725899e-01 -6.946079133922615501e-02
-2.302810498974156017e-03 -1.382804477603750692e-01 -1.048139073830563150e+00 -5.901268255844989152e-01 -4.906287858641378286e-02 -8.058183192695341779e-01
5.403886924049561150e-04 -1.252296952230331772e-01 -8.242755303062455630e-01 -9.679422929346873650e-01 -2.511707014886231937e-01 9.981292767373226710e-04
-2.809857658358496018e-06 -1.311074380659961458e-01 -9.472801599270934680e-01 -9.989759177112756960e-01 -3.655917318816166717e-02 -2.665600661601151555e-02
5.949188931595109759e-05 2.362099126962650779e-03 -7.816446388688615965e-01 -9.859135435668228142e-01 -3.279643034990174094e-02 -1.640087764963036876e-01
-5.994604630491552795e-03 -2.172851516954067141e-01 -9.724797745303137564e-01 -9.003857538607498157e-01 2.757815866491538648e-01 3.365263893216766111e-01
1.147607468537493493e-02 6.896695595913845955e-02 -9.532202544883016104e-01 -9.916315115234025646e-01 -4.101416673438249699e-03 -1.290353584684565402e-01
