-3.648444214881205183e-02 -6.852486876275259986e-02 -8.692142807274142458e-01 9.975845986505188501e-01 -5.378320133131689329e-02 -4.395834152738668787e-02
5.205044218461679639e-02 1.140245048043108667e-01 -9.948213033205310918e-01 7.949070411451556462e-01 -4.032358414041157246e-01 4.533471651449565432e-01
-3.576557265038594891e-02 -1.413601439018459527e-01 -7.637861129242714542e-01 9.975845986505188501e-01 -5.378320133131689329e-02 -4.395834152738668787e-02
-1.224118550935851188e-02 -2.429173878453435437e-02 -6.687213251572106110e-01 7.953080342456874119e-01 3.252868841148379153e-01 -5.115403930161529500e-01
-2.893080217702110810e-02 2.498855236896860114e-03 -6.902644085455185152e-01 9.799421454356203043e-01 -1.933365674660539879e-01 -4.831524893319958519e-02
-3.926281693350847785e-02 -1.304072239918731280e-01 -8.565530370063558774e-01 9.975845986505188501e-01 -5.378320133131689329e-02 -4.395834152738668787e-02
-2.712781469540073015e-02 -5.449291712290402906e-02 -9.546862179105709556e-01 9.497577700374870702e-01 -2.814203142563193039e-01 1.369773155573372481e-01
4.821710043175966702e-04 6.124215030172530660e-02 -9.083471538811906942e-01 9.497577700374870702e-01 -2.814203142563193039e-01 1.369773155573372481e-01
-1.349708762475371540e-02 -2.351357816139743127e-03 -9.420724135570059943e-01 9.497577700374870702e-01 -2.814203142563193039e-01 1.369773155573372481e-01
-4.406888771396105103e-02 -1.239257272266729853e-01 -9.476235221345944426e-01 8.996506529623498061e-01 -4.117204069308847969e-01 -1.453100448733133099e-01
-3.875689432222309549e-02 -1.151347534167306841e-01 -8.637576253424482653e-01 9.975845986505188501e-01 -5.378320133131689329e-02 -4.395834152738668787e-02
-1.508083200526767753e-02 3.526439943970762630e-02 -8.538095379860825007e-01 9.497577700374870702e-01 -2.814203142563193039e-01 1.369773155573372481e-01
5.416459117281028496e-02 3.592498780064459080e-02 -1.134722847474352037e+00 8.908308371664276359e-01 -4.348899411585127051e-01 1.314958502482368730e-01
-6.323391213141452138e-02 -1.973871672780770359e-01 -8.976856597632602019e-01 9.875084951977808334e-01 -1.502553837002650883e-01 -4.743723833973050724e-02
-2.109663399871707437e-02 -1.922007159224662920e-01 -7.477764425198011322e-01 7.398398420166297784e-01 4.037994064516405301e-01 -5.381292107980301109e-01
-3.572394780177657464e-02 -1.608973947549466044e-01 -7.581035174885695227e-01 6.950290778105880918e-01 -7.211532258315034305e-02 -7.153558284144273527e-01
-4.002592517613029477e-02 -9.551856892730600790e-02 -9.165573160080106030e-01 9.975845986505188501e-01 -5.378320133131689329e-02 -4.395834152738668787e-02
9.446262982224731819e-02 1.919376015915793821e-01 -9.959446677427272743e-01 5.448391890751125288e-01 -7.685804612793011303e-01 3.353122911371884673e-01
2.025559688122344562e-02 1.677351317928127139e-01 -8.899997368813159504e-01 9.751761296160846859e-01 -1.257404958775333037e-01 1.822658605539302090e-01
-5.977590927465489118e-02 -1.788595309144114243e-01 -8.954250083093223678e-01 9.406690166997447866e-01 -3.305236356034108591e-01 -7.678494206964396607e-02
1.296141023272345642e-03 1.498784311759615920e-02 -9.797672018555538820e-01 9.205662295524581484e-01 -2.903345096953018900e-01 2.612732085146872718e-01
-9.298271481939313424e-03 6.776339907732484291e-02 -8.271347058182583201e-01 9.497577700374870702e-01 -2.814203142563193039e-01 1.369773155573372481e-01
1.793307048810954818e-02 7.787973958079270898e-02 -9.684981838363988516e-01 9.205662295524581484e-01 -2.903345096953018900e-01 2.612732085146872718e-01
2.824789012567638022e-02 9.252677241038913258e-02 -9.867272696140300114e-01 5.715212904829956031e-01 -6.726593959512638943e-01 4.699922888336915405e-01
-3.234870944036635082e-02 -5.257985713903723379e-02 -7.948673110707898948e-01 9.975845986505188501e-01 -5.378320133131689329e-02 -4.395834152738668787e-02
-8.496164799964198405e-05 1.396394860753371325e-01 -7.802369686901533541e-01 9.303819724096749066e-01 -3.633405731653758242e-01 4.871358441891587843e-02
-2.248564638195847329e-02 1.475845327856307359e-03 -8.718855640521655515e-01 9.497577700374870702e-01 -2.814203142563193039e-01 1.369773155573372481e-01
-5.405721994932406044e-03 4.506157790158326140e-03 -6.397815243149493902e-01 7.953080342456874119e-01 3.252868841148379153e-01 -5.115403930161529500e-01
-1.336704071361830004e-02 2.089832442823085987e-02 -6.525694992881287959e-01 9.207911187472247461e-01 -2.887935820366433481e-01 -2.621869230352240621e-01
1.087867611819316391e-02 1.682953510388880414e-01 -7.758959317241193032e-01 9.303819724096749066e-01 -3.633405731653758242e-01 4.871358441891587843e-02
-3.860678050470354311e-02 -1.281596583820981683e-01 -8.444149411343553346e-01 9.975845986505188501e-01 -5.378320133131689329e-02 -4.395834152738668787e-02
1.857355708722527657e-02 1.166876306294212379e-01 -9.198742450542977123e-01 9.497577700374870702e-01 -2.814203142563193039e-01 1.369773155573372481e-01
1.154674395330440063e-02 1.612240122008461174e-01 -8.413984525231432698e-01 9.303819724096749066e-01 -3.633405731653758242e-01 4.871358441891587843e-02
7.096842434033524827e-02 8.881907197302539581e-02 -1.050411749391720440e+00 7.949070411451556462e-01 -4.032358414041157246e-01 4.533471651449565432e-01
-4.117897190763542686e-02 -1.474692057974083814e-01 -8.630234159919222270e-01 8.996506529623498061e-01 -4.117204069308847969e-01 -1.453100448733133099e-01
-3.375272344283734849e-02 -4.422837717124486479e-02 -8.369478812061426076e-01 9.975845986505188501e-01 -5.378320133131689329e-02 -4.395834152738668787e-02
-3.774259292110506564e-02 -3.044536904636630653e-02 -7.364061774755327194e-01 9.800029453312476546e-01 -1.901049619326031226e-01 -5.877355349715692595e-02
-2.973698462585793248e-02 -2.254108017740361763e-02 -8.709499046210315010e-01 9.497577700374870702e-01 -2.814203142563193039e-01 1.369773155573372481e-01
1.213486617783757354e-01 2.024713855022246822e-01 -1.013910212083021234e+00 3.363245780998516121e-01 -6.501866655172410248e-01 6.812804695201001293e-01
9.658633370392696871e-02 1.544338436758577460e-01 -1.047531005019381123e+00 3.363245780998516121e-01 -6.501866655172410248e-01 6.812804695201001293e-01
1.862411007696960011e-02 -1.813251680152381737e-02 -1.077624639060701162e+00 9.205662295524581484e-01 -2.903345096953018900e-01 2.612732085146872718e-01
-2.696948768910551603e-02 1.400400444353919020e-02 -6.965231226225825356e-01 9.799421454356203043e-01 -1.933365674660539879e-01 -4.831524893319958519e-02
-2.673505338159993562e-03 -2.200060437623069590e-02 -1.006883263330766498e+00 9.205662295524581484e-01 -2.903345096953018900e-01 2.612732085146872718e-01
6.883951750955263904e-02 1.763632134016510089e-01 -9.900089912778978762e-01 5.448391890751125288e-01 -7.685804612793011303e-01 3.353122911371884673e-01
7.805113980460662119e-03 1.330259265268210200e-01 -8.473309616004119915e-01 9.751761296160846859e-01 -1.257404958775333037e-01 1.822658605539302090e-01
-3.394701435449811594e-02 -1.165762883396914418e-01 -1.032242472086638108e+00 8.227618692994680405e-01 -5.534482856924357597e-01 1.294523135789733270e-01
-3.195189194638560493e-02 -2.625750006453448152e-02 -8.180674950210228280e-01 9.975845986505188501e-01 -5.378320133131689329e-02 -4.395834152738668787e-02
-1.074730385266326436e-02 -6.510903594643900616e-02 -7.373131387863438579e-01 4.127451643662933822e-01 3.223708270861372904e-01 8.518911192963812828e-01
1.040033450035929632e-02 8.475875943244784438e-02 -9.288016452081430119e-01 9.497577700374870702e-01 -2.814203142563193039e-01 1.369773155573372481e-01
-2.133339414399810369e-02 -6.783709011771156538e-02 -7.535033182329863299e-01 6.950290778105880918e-01 -7.211532258315034305e-02 -7.153558284144273527e-01
4.137065561193624397e-02 -6.095093043138566716e-03 -1.144260828114743278e+00 9.293526234571097833e-01 -2.704362589535404537e-01 2.513323121220208956e-01
-2.978031623618406995e-02 -6.736762550615478864e-03 -7.926697505051570891e-01 9.975845986505188501e-01 -5.378320133131689329e-02 -4.395834152738668787e-02
3.724592932561626019e-02 -1.679772654073148283e-02 -1.140524957373466375e+00 9.293526234571097833e-01 -2.704362589535404537e-01 2.513323121220208956e-01
1.514928081142553895e-02 1.800923949503292210e-01 -7.694695707346166369e-01 9.303819724096749066e-01 -3.633405731653758242e-01 4.871358441891587843e-02
-2.697145958620186454e-02 2.961542314783532567e-02 -7.734029815107331673e-01 9.975845986505188501e-01 -5.378320133131689329e-02 -4.395834152738668787e-02
-2.769057629527459791e-02 -2.510672042731570963e-02 -7.442416366146895612e-01 4.127451643662933822e-01 3.223708270861372904e-01 8.518911192963812828e-01
-8.574657901705952379e-03 -1.918139099038600193e-02 -9.829584348453705989e-01 9.205662295524581484e-01 -2.903345096953018900e-01 2.612732085146872718e-01
4.374707596978375662e-02 9.270045180439114019e-02 -1.005326059054795884e+00 5.715212904829956031e-01 -6.726593959512638943e-01 4.699922888336915405e-01
-2.086327429936076557e-04 -5.086878222263808980e-02 -1.047766870655549631e+00 9.194219566279109301e-01 -3.044371669080831455e-01 2.489603925838075882e-01
9.711900666607732602e-02 1.841317621937964555e-01 -1.018152961465678352e+00 5.448391890751125288e-01 -7.685804612793011303e-01 3.353122911371884673e-01
-3.471005674403260244e-02 -5.076966966567692668e-02 -8.944639049246881912e-01 9.497577700374870702e-01 -2.814203142563193039e-01 1.369773155573372481e-01
-3.041471076849338109e-02 -3.014691485608694474e-02 -7.784242012422950552e-01 9.975845986505188501e-01 -5.378320133131689329e-02 -4.395834152738668787e-02
-3.443238159164450918e-02 -1.048209218725397185e-01 -7.782367369824396697e-01 9.975845986505188501e-01 -5.378320133131689329e-02 -4.395834152738668787e-02
-2.895363175066961725e-02 9.564339956784372043e-03 -7.190004340294600116e-01 9.799421454356203043e-01 -1.933365674660539879e-01 -4.831524893319958519e-02
-2.088176475218863140e-02 -9.797193893433081557e-02 -7.500266150255504582e-01 6.950290778105880918e-01 -7.211532258315034305e-02 -7.153558284144273527e-01
-6.613488487781241099e-02 -2.205605769355263035e-01 -8.846749038693746403e-01 9.875084951977808334e-01 -1.502553837002650883e-01 -4.743723833973050724e-02
-2.726478028631793352e-02 -6.648905469139161639e-02 -9.696756027947988077e-01 9.205662295524581484e-01 -2.903345096953018900e-01 2.612732085146872718e-01
1.282045910665202508e-02 1.066392729000846008e-02 -1.025176679908790911e+00 9.205662295524581484e-01 -2.903345096953018900e-01 2.612732085146872718e-01
2.143890152191169074e-02 -1.978392737606494145e-01 -7.003162780874601090e-01 7.178188081402009368e-01 1.157428645548830987e-01 -6.865418763519172130e-01
-3.658353586137932933e-02 -9.989334069538201299e-02 -8.330836528478658964e-01 9.975845986505188501e-01 -5.378320133131689329e-02 -4.395834152738668787e-02
-6.701571047965579342e-02 -2.289646878807508890e-01 -8.763915348563607877e-01 9.875084951977808334e-01 -1.502553837002650883e-01 -4.743723833973050724e-02
-2.141059632882235178e-02 1.761633106001127659e-03 -8.787524722769465280e-01 9.497577700374870702e-01 -2.814203142563193039e-01 1.369773155573372481e-01
2.504444598064357180e-02 9.087171053741636972e-02 -9.791172389710585122e-01 9.205662295524581484e-01 -2.903345096953018900e-01 2.612732085146872718e-01
-3.260008688618681871e-02 -5.661621291965575342e-02 -7.956335395415289335e-01 9.975845986505188501e-01 -5.378320133131689329e-02 -4.395834152738668787e-02
-4.099898130337330943e-02 -1.967244776625494962e-01 -7.849393556297048491e-01 9.763327531167116380e-01 8.687530915672653231e-02 -1.980581627968537872e-01
2.083743919301976263e-02 1.437807069231704094e-01 -9.096383021307593575e-01 9.751761296160846859e-01 -1.257404958775333037e-01 1.822658605539302090e-01
1.451047336082815498e-02 1.317713119622358764e-01 -8.840721387213813509e-01 9.751761296160846859e-01 -1.257404958775333037e-01 1.822658605539302090e-01
-8.941576829029676196e-03 3.621482568134209296e-02 -8.944245553825069805e-01 9.497577700374870702e-01 -2.814203142563193039e-01 1.369773155573372481e-01
-3.909793885513329625e-02 -1.172831538068929841e-01 -8.688686671823869778e-01 9.975845986505188501e-01 -5.378320133131689329e-02 -4.395834152738668787e-02
2.763620599331706104e-02 1.509922166068288288e-02 -1.072449637221221996e+00 9.205662295524581484e-01 -2.903345096953018900e-01 2.612732085146872718e-01
-3.354205914376408304e-02 -4.392182312173377456e-02 -8.325421644445913927e-01 9.975845986505188501e-01 -5.378320133131689329e-02 -4.395834152738668787e-02
4.675033074363327441e-03 1.464521377859600293e-01 -8.203346236756777765e-01 9.303819724096749066e-01 -3.633405731653758242e-01 4.871358441891587843e-02
-2.605386324557961569e-02 9.350197372803072463e-03 -7.580737452256030018e-01 4.127451643662933822e-01 3.223708270861372904e-01 8.518911192963812828e-01
-7.796728412152943016e-03 -7.121797377093344594e-02 -7.400104669384123257e-01 6.950290778105880918e-01 -7.211532258315034305e-02 -7.153558284144273527e-01
2.104214366101471705e-03 1.239155956483812965e-01 -8.231144479560962290e-01 9.751761296160846859e-01 -1.257404958775333037e-01 1.822658605539302090e-01
-3.821774002445137153e-02 -1.032142277175227135e-01 -8.661069407696008193e-01 9.975845986505188501e-01 -5.378320133131689329e-02 -4.395834152738668787e-02
-2.338793881955344989e-02 -3.141510562008564822e-02 -9.332039105559798431e-01 9.497577700374870702e-01 -2.814203142563193039e-01 1.369773155573372481e-01
1.634106319935774154e-02 8.692271160930631346e-02 -9.528401107390069846e-01 9.205662295524581484e-01 -2.903345096953018900e-01 2.612732085146872718e-01
-2.353612555805406972e-02 3.281376699501360739e-02 -7.021552714741766676e-01 9.799421454356203043e-01 -1.933365674660539879e-01 -4.831524893319958519e-02
-2.397029587461842540e-02 2.012817933633627779e-02 -6.889594538740850815e-01 9.207911187472247461e-01 -2.887935820366433481e-01 -2.621869230352240621e-01
-1.070519002033541028e-02 -7.076464396309192773e-02 -7.428819853256526384e-01 6.950290778105880918e-01 -7.211532258315034305e-02 -7.153558284144273527e-01
9.975991060375805075e-02 1.426330507971871053e-01 -1.056712623265506412e+00 8.150659787549539015e-01 5.656448516221133094e-01 1.253529102559101660e-01
-1.635499866296628163e-02 2.328957117377833397e-02 -8.695771871147242038e-01 9.497577700374870702e-01 -2.814203142563193039e-01 1.369773155573372481e-01
-3.002730933169540234e-02 -4.933812667684537440e-02 -9.239914982035095647e-01 9.497577700374870702e-01 -2.814203142563193039e-01 1.369773155573372481e-01
-4.021972767477156874e-02 -1.163362773671653277e-01 -8.954848964337636108e-01 9.975845986505188501e-01 -5.378320133131689329e-02 -4.395834152738668787e-02
-4.634835309552636472e-03 -1.731940712377533220e-01 -7.234229710730109009e-01 7.178188081402009368e-01 1.157428645548830987e-01 -6.865418763519172130e-01
-1.953485922365293115e-02 -5.252329388974193158e-02 -7.532996787205107347e-01 6.950290778105880918e-01 -7.211532258315034305e-02 -7.153558284144273527e-01
2.076399732727857508e-02 1.462660291425923464e-01 -9.075308070600787147e-01 9.751761296160846859e-01 -1.257404958775333037e-01 1.822658605539302090e-01
-4.115234600242919510e-02 -1.065750881565118158e-01 -9.285924622352035307e-01 9.975845986505188501e-01 -5.378320133131689329e-02 -4.395834152738668787e-02
2.765312482267845776e-02 4.230514776717717029e-02 -1.042277219778203312e+00 9.205662295524581484e-01 -2.903345096953018900e-01 2.612732085146872718e-01
1.237352821388562445e-02 1.008757396261048683e-01 -9.093707667526740313e-01 9.497577700374870702e-01 -2.814203142563193039e-01 1.369773155573372481e-01
-3.024489675530770555e-02 -1.278812619097468573e-01 -7.561085232929006805e-01 6.950290778105880918e-01 -7.211532258315034305e-02 -7.153558284144273527e-01
2.453956246791201209e-02 -2.683267972322311498e-02 -1.108179480073738343e+00 9.153979023156076922e-01 -2.812511706022272628e-01 2.880007976917112189e-01
2.819220444462090715e-03 6.584823549578526503e-02 -9.150883060068412123e-01 9.497577700374870702e-01 -2.814203142563193039e-01 1.369773155573372481e-01
-3.888666020800385370e-02 -1.252915312224520683e-01 -8.542756575967416222e-01 9.975845986505188501e-01 -5.378320133131689329e-02 -4.395834152738668787e-02
3.306238865943437327e-02 -2.083538380907448348e-02 -1.129412166824014685e+00 9.153979023156076922e-01 -2.812511706022272628e-01 2.880007976917112189e-01
3.162540424459739374e-02 2.339936224517394359e-02 -1.077281758942753687e+00 9.205662295524581484e-01 -2.903345096953018900e-01 2.612732085146872718e-01
3.301541612733125547e-02 5.537558140038123522e-02 -1.045695982452520711e+00 5.715212904829956031e-01 -6.726593959512638943e-01 4.699922888336915405e-01
8.865949875214300391e-02 1.183405223935867362e-01 -1.055173338040617637e+00 7.949070411451556462e-01 -4.032358414041157246e-01 4.533471651449565432e-01
1.536216501447760542e-02 1.468597254687944997e-01 -8.782198347153212792e-01 9.751761296160846859e-01 -1.257404958775333037e-01 1.822658605539302090e-01
8.219596620652932714e-03 -3.842511551492416161e-02 -1.063676166318531902e+00 9.194219566279109301e-01 -3.044371669080831455e-01 2.489603925838075882e-01
-5.079235859000371528e-02 -1.468289624498413104e-01 -9.243563463157502547e-01 8.996506529623498061e-01 -4.117204069308847969e-01 -1.453100448733133099e-01
-2.337510189876440200e-02 -3.826117226789748499e-02 -7.023090091674426549e-01 8.480446421683156544e-01 3.709291189404585465e-01 -3.784598705433223631e-01
-1.055419041526690048e-02 1.817495661570666179e-02 -9.203061644910830452e-01 9.497577700374870702e-01 -2.814203142563193039e-01 1.369773155573372481e-01
-1.428531530783212940e-02 -1.320404861755950128e-02 -9.561953879816278423e-01 9.205662295524581484e-01 -2.903345096953018900e-01 2.612732085146872718e-01
1.368422387933093155e-02 8.088664319320723606e-02 -9.501864992369709606e-01 9.205662295524581484e-01 -2.903345096953018900e-01 2.612732085146872718e-01
-6.623367602059862915e-04 1.094848737076637296e-01 -8.224904483251768150e-01 9.606691075714097749e-01 -2.165104378404999752e-01 1.738910465322061061e-01
1.694444711997292186e-02 -7.307009368288528740e-03 -1.059676915240373329e+00 9.205662295524581484e-01 -2.903345096953018900e-01 2.612732085146872718e-01
-3.709568418502518644e-02 -7.322628420413586359e-02 -8.773335239869801683e-01 9.975845986505188501e-01 -5.378320133131689329e-02 -4.395834152738668787e-02
5.693999237165681820e-02 9.621599632833993665e-02 -1.019234749840335130e+00 7.949070411451556462e-01 -4.032358414041157246e-01 4.533471651449565432e-01
1.656730951909401311e-02 -2.194013329234480725e-01 -7.164053653080834083e-01 7.398398420166297784e-01 4.037994064516405301e-01 -5.381292107980301109e-01
5.836766541034724837e-02 1.120547731710095918e-01 -1.007650040461202989e+00 7.949070411451556462e-01 -4.032358414041157246e-01 4.533471651449565432e-01
-4.604994469044122046e-02 -1.417755266330710251e-01 -9.093132492443463111e-01 8.996506529623498061e-01 -4.117204069308847969e-01 -1.453100448733133099e-01
2.048175754732339468e-02 1.919154996554145731e-01 -7.831295506184817734e-01 9.303819724096749066e-01 -3.633405731653758242e-01 4.871358441891587843e-02
-2.009135663490202103e-02 -1.017750395455896129e-01 -1.055949393938035330e+00 8.396685938975613217e-01 -4.631930941103472588e-01 2.835644723701731817e-01
5.709847363189161570e-03 1.570980981698689993e-01 -7.606934204399395938e-01 9.303819724096749066e-01 -3.633405731653758242e-01 4.871358441891587843e-02
1.709244368953342225e-02 1.463389022318575816e-01 -8.878366385876872435e-01 9.751761296160846859e-01 -1.257404958775333037e-01 1.822658605539302090e-01
-3.251143892080551878e-02 -7.340554868920071141e-02 -7.730799572991021718e-01 9.975845986505188501e-01 -5.378320133131689329e-02 -4.395834152738668787e-02
-2.944735756601504773e-02 1.757472451423509538e-02 -7.534121762396275290e-01 9.800029453312476546e-01 -1.901049619326031226e-01 -5.877355349715692595e-02
3.626248549693028567e-02 6.203949895341479698e-02 -1.040107002501360345e+00 5.715212904829956031e-01 -6.726593959512638943e-01 4.699922888336915405e-01
-6.107761533041055485e-02 -1.793548704757360890e-01 -9.099142018575362423e-01 9.875084951977808334e-01 -1.502553837002650883e-01 -4.743723833973050724e-02
4.475922493912273294e-03 1.379358477431755492e-01 -8.261315774407888002e-01 9.751761296160846859e-01 -1.257404958775333037e-01 1.822658605539302090e-01
-6.264189176128177883e-02 -1.943761421842925274e-01 -8.948987687328060492e-01 9.875084951977808334e-01 -1.502553837002650883e-01 -4.743723833973050724e-02
-3.879847597277250731e-02 -8.254099066385094108e-02 -9.313903638014567887e-01 9.497577700374870702e-01 -2.814203142563193039e-01 1.369773155573372481e-01
-3.033313114048825226e-02 9.369880163439566053e-04 -8.146041200160419882e-01 9.975845986505188501e-01 -5.378320133131689329e-02 -4.395834152738668787e-02
6.676116026945028148e-02 1.005457273264745988e-01 -1.032604223078797956e+00 7.949070411451556462e-01 -4.032358414041157246e-01 4.533471651449565432e-01
-2.689629229879631628e-02 1.198077241936489588e-03 -8.418742031808819082e-01 9.497577700374870702e-01 -2.814203142563193039e-01 1.369773155573372481e-01
-1.198306005815711478e-02 -3.784922251956938412e-03 -9.538403091583814719e-01 9.205662295524581484e-01 -2.903345096953018900e-01 2.612732085146872718e-01
-2.750932938150335225e-02 -9.404687534857888997e-02 -9.997437957686310384e-01 9.194219566279109301e-01 -3.044371669080831455e-01 2.489603925838075882e-01
1.304908838572354200e-02 1.000902420660478437e-01 -9.156686963698494885e-01 9.497577700374870702e-01 -2.814203142563193039e-01 1.369773155573372481e-01
6.308527575800942054e-03 1.430371314624678536e-01 -8.324173118230437929e-01 9.751761296160846859e-01 -1.257404958775333037e-01 1.822658605539302090e-01
-3.926788260605612590e-02 -1.493561510310064677e-01 -8.334839109700381554e-01 9.975845986505188501e-01 -5.378320133131689329e-02 -4.395834152738668787e-02
-1.655558261885039866e-04 1.023852057597292586e-01 -8.340746808238725940e-01 9.606691075714097749e-01 -2.165104378404999752e-01 1.738910465322061061e-01
-3.086494850757472153e-02 -1.097001395847598954e-01 -1.022433559074900744e+00 8.227618692994680405e-01 -5.534482856924357597e-01 1.294523135789733270e-01
-1.235700276959897197e-02 -5.482510235582287866e-02 -6.938542265373347506e-01 8.480446421683156544e-01 3.709291189404585465e-01 -3.784598705433223631e-01
2.379243399801357281e-02 -2.882967249660649267e-02 -1.107754955975586597e+00 9.153979023156076922e-01 -2.812511706022272628e-01 2.880007976917112189e-01
-2.182018696588959236e-02 -1.134295163671907997e-01 -1.069867317481627111e+00 8.396685938975613217e-01 -4.631930941103472588e-01 2.835644723701731817e-01
5.435423240788515853e-02 3.703889218413038836e-02 -1.132323626883042778e+00 8.908308371664276359e-01 -4.348899411585127051e-01 1.314958502482368730e-01
-3.113756161488335714e-02 -3.377698848092165751e-02 -7.903870704633849664e-01 9.975845986505188501e-01 -5.378320133131689329e-02 -4.395834152738668787e-02
8.065724345034193388e-02 8.790545580191219677e-02 -1.068212926804674945e+00 7.949070411451556462e-01 -4.032358414041157246e-01 4.533471651449565432e-01
3.285610946128116744e-02 1.110867834591259123e-01 -9.657676270977156863e-01 5.715212904829956031e-01 -6.726593959512638943e-01 4.699922888336915405e-01
-2.062097429026211667e-02 -1.867289907642529292e-02 -6.781766458860865043e-01 7.953080342456874119e-01 3.252868841148379153e-01 -5.115403930161529500e-01
8.896079709465655808e-03 1.187323415362967760e-01 -8.637824081725301584e-01 9.606691075714097749e-01 -2.165104378404999752e-01 1.738910465322061061e-01
1.517790892785471357e-02 -1.945596698099157640e-01 -7.063096014774932208e-01 7.178188081402009368e-01 1.157428645548830987e-01 -6.865418763519172130e-01
-3.522972965374480264e-02 -5.311183304348086887e-02 -8.595979157120569036e-01 9.975845986505188501e-01 -5.378320133131689329e-02 -4.395834152738668787e-02
-5.712566038363645071e-02 -1.691970503708576379e-01 -9.045501200954735310e-01 9.406690166997447866e-01 -3.305236356034108591e-01 -7.678494206964396607e-02
-2.144885108853643307e-02 -4.820135881377542869e-02 -9.698455352464023793e-01 9.205662295524581484e-01 -2.903345096953018900e-01 2.612732085146872718e-01
5.898631176965099532e-02 4.971874379482292550e-02 -1.121768611020644846e+00 8.908308371664276359e-01 -4.348899411585127051e-01 1.314958502482368730e-01
6.692778365210649838e-02 6.948945909194829962e-02 -1.066734216150121872e+00 5.715212904829956031e-01 -6.726593959512638943e-01 4.699922888336915405e-01
-2.795869318182796562e-02 -3.538217407150544280e-02 -7.402233174177481612e-01 4.127451643662933822e-01 3.223708270861372904e-01 8.518911192963812828e-01
-4.608507215200116636e-02 -1.798525910117504678e-01 -8.026107641824891115e-01 9.763327531167116380e-01 8.687530915672653231e-02 -1.980581627968537872e-01
1.113242486953311058e-02 1.259808547476855833e-01 -8.699932690741380981e-01 9.751761296160846859e-01 -1.257404958775333037e-01 1.822658605539302090e-01
-2.815346528946704313e-02 -3.393227031773421443e-02 -7.087734982081238533e-01 8.480446421683156544e-01 3.709291189404585465e-01 -3.784598705433223631e-01
-3.850399391989845627e-02 -7.761142888706581977e-02 -9.039282712333448488e-01 9.975845986505188501e-01 -5.378320133131689329e-02 -4.395834152738668787e-02
5.530675288130400269e-02 1.142774821143467817e-01 -1.000305962702242368e+00 7.949070411451556462e-01 -4.032358414041157246e-01 4.533471651449565432e-01
-3.520925010846718411e-02 -4.995970233882910533e-02 -8.893385742564299257e-01 9.497577700374870702e-01 -2.814203142563193039e-01 1.369773155573372481e-01
-3.775792164656410765e-02 -1.415075077705236772e-01 -8.088199086572778196e-01 9.975845986505188501e-01 -5.378320133131689329e-02 -4.395834152738668787e-02
8.152096791032897860e-02 8.989331164203137603e-02 -1.067959271160019430e+00 7.949070411451556462e-01 -4.032358414041157246e-01 4.533471651449565432e-01
-7.722501590992878438e-03 1.087622390262617533e-01 -7.843859890780309208e-01 9.606691075714097749e-01 -2.165104378404999752e-01 1.738910465322061061e-01
3.817917199022982655e-02 -1.095270069527872099e-02 -1.137686502586547022e+00 9.293526234571097833e-01 -2.704362589535404537e-01 2.513323121220208956e-01
5.610605596168735665e-02 1.574097264768737348e-01 -9.740803124359920240e-01 8.344663304753744404e-01 -2.492276995625617164e-01 4.914788877192148298e-01
-5.061245649046229589e-02 -1.398828937589504662e-01 -9.509427124481159010e-01 9.406690166997447866e-01 -3.305236356034108591e-01 -7.678494206964396607e-02
-1.255206037646897088e-02 5.030451495219864788e-02 -8.404432844321630958e-01 9.497577700374870702e-01 -2.814203142563193039e-01 1.369773155573372481e-01
-2.776419121752578614e-02 -6.823817026737587221e-02 -9.698596544834042765e-01 9.205662295524581484e-01 -2.903345096953018900e-01 2.612732085146872718e-01
-2.354024272640719770e-02 -2.587784388356302503e-03 -6.724868523998586145e-01 7.953080342456874119e-01 3.252868841148379153e-01 -5.115403930161529500e-01
7.099602906978393080e-02 1.467902113776481665e-01 -1.004746652162167297e+00 8.344663304753744404e-01 -2.492276995625617164e-01 4.914788877192148298e-01
-1.013938507574877260e-02 -1.482239331811558702e-01 -7.263450715236413613e-01 8.293082240103388791e-01 -2.266373142873381041e-01 -5.107674591841568912e-01
-8.159096392989572538e-03 -1.731047928195489360e-01 -7.270927363668765464e-01 7.178188081402009368e-01 1.157428645548830987e-01 -6.865418763519172130e-01
1.525831891097618846e-02 -2.187389875204135692e-01 -7.177080054733707692e-01 7.398398420166297784e-01 4.037994064516405301e-01 -5.381292107980301109e-01
-3.115437992370096582e-02 1.773932285298600049e-03 -7.527355273076805631e-01 4.127451643662933822e-01 3.223708270861372904e-01 8.518911192963812828e-01
5.980529710432492402e-02 1.082847795118374173e-01 -1.013524082092210454e+00 7.949070411451556462e-01 -4.032358414041157246e-01 4.533471651449565432e-01
-2.081828049405618289e-02 -1.556988703122403617e-01 -7.403671005098511060e-01 8.293082240103388791e-01 -2.266373142873381041e-01 -5.107674591841568912e-01
3.004409322522428802e-02 2.179928960361912360e-01 -7.712570631860307113e-01 9.303819724096749066e-01 -3.633405731653758242e-01 4.871358441891587843e-02
-4.814184037514340590e-03 -5.390028155249716041e-02 -1.034788690966879976e+00 9.205662295524581484e-01 -2.903345096953018900e-01 2.612732085146872718e-01
1.029165423506153698e-02 9.758717120675844403e-02 -9.016920790420732690e-01 9.497577700374870702e-01 -2.814203142563193039e-01 1.369773155573372481e-01
-2.048314153100273642e-03 8.297505876065051911e-02 -8.478407240524907795e-01 9.606691075714097749e-01 -2.165104378404999752e-01 1.738910465322061061e-01
-4.113482641512216514e-02 -1.391104231004686720e-01 -8.864338133614346749e-01 8.996506529623498061e-01 -4.117204069308847969e-01 -1.453100448733133099e-01
-2.354641215128345372e-02 -4.067918889672720445e-02 -9.511381936075889998e-01 9.497577700374870702e-01 -2.814203142563193039e-01 1.369773155573372481e-01
-3.858611650726663164e-03 5.459319209549891305e-02 -8.919098325799389437e-01 9.497577700374870702e-01 -2.814203142563193039e-01 1.369773155573372481e-01
-2.241421853930890967e-02 -2.922475454310921247e-02 -9.354552987682263065e-01 9.497577700374870702e-01 -2.814203142563193039e-01 1.369773155573372481e-01
-4.915482597546588089e-02 -1.568415897887291410e-01 -8.858482700625995854e-01 8.996506529623498061e-01 -4.117204069308847969e-01 -1.453100448733133099e-01
2.625178088151439160e-02 2.089226159287396467e-01 -7.664801971824677373e-01 9.303819724096749066e-01 -3.633405731653758242e-01 4.871358441891587843e-02
-5.053553010998626527e-02 -1.425522170037996916e-01 -9.385101096429590006e-01 9.406690166997447866e-01 -3.305236356034108591e-01 -7.678494206964396607e-02
2.002967588221515362e-03 -5.473900379663217824e-02 -1.060667047915741623e+00 9.194219566279109301e-01 -3.044371669080831455e-01 2.489603925838075882e-01
-1.113623874020803518e-02 -2.295710686002751938e-02 -6.661547413233495085e-01 7.953080342456874119e-01 3.252868841148379153e-01 -5.115403930161529500e-01
3.464902375122329292e-02 5.245017657354347079e-02 -1.051869365825008229e+00 5.715212904829956031e-01 -6.726593959512638943e-01 4.699922888336915405e-01
-3.218385512429228906e-02 -1.727012265400989788e-01 -7.521439595384727950e-01 7.178188081402009368e-01 1.157428645548830987e-01 -6.865418763519172130e-01
-3.735601786858618739e-02 -9.164432155230189947e-02 -9.600947373381525374e-01 9.497577700374870702e-01 -2.814203142563193039e-01 1.369773155573372481e-01
1.804646071366631035e-02 1.859609740679680212e-01 -7.810308438029247569e-01 9.303819724096749066e-01 -3.633405731653758242e-01 4.871358441891587843e-02
-1.443683120955253744e-02 -1.741240840552179259e-01 -7.338283077435991952e-01 7.178188081402009368e-01 1.157428645548830987e-01 -6.865418763519172130e-01
2.319501507392466091e-02 1.159165111076182302e-02 -1.060699325656528691e+00 9.205662295524581484e-01 -2.903345096953018900e-01 2.612732085146872718e-01
-1.012881460387463246e-02 4.109269114313674615e-02 -8.761710312677584156e-01 9.497577700374870702e-01 -2.814203142563193039e-01 1.369773155573372481e-01
2.639283917877234542e-02 2.068435421618605163e-01 -7.846814845957230666e-01 9.303819724096749066e-01 -3.633405731653758242e-01 4.871358441891587843e-02
1.570556296787272571e-02 1.703483873234414026e-01 -8.527717595268895501e-01 9.303819724096749066e-01 -3.633405731653758242e-01 4.871358441891587843e-02
8.548210110344864332e-02 9.781339652126201656e-02 -1.067860165160030350e+00 7.949070411451556462e-01 -4.032358414041157246e-01 4.533471651449565432e-01
5.674187644734952907e-02 7.642372284208202859e-02 -1.044423508623503416e+00 5.715212904829956031e-01 -6.726593959512638943e-01 4.699922888336915405e-01
-1.907744117599454760e-03 6.183068722789020893e-02 -8.905670806364049952e-01 9.497577700374870702e-01 -2.814203142563193039e-01 1.369773155573372481e-01
7.740174496442471519e-02 1.592420098449128518e-01 -1.009308437429608185e+00 8.344663304753744404e-01 -2.492276995625617164e-01 4.914788877192148298e-01
-2.535138164492372476e-02 -2.237584779681976374e-02 -6.911681821256457914e-01 8.480446421683156544e-01 3.709291189404585465e-01 -3.784598705433223631e-01
-5.194125831264798793e-02 -1.640572472446948926e-01 -8.826549756632527943e-01 8.996506529623498061e-01 -4.117204069308847969e-01 -1.453100448733133099e-01
-3.000982611994071694e-02 -3.320126136576350990e-03 -6.888644189192886236e-01 9.799421454356203043e-01 -1.933365674660539879e-01 -4.831524893319958519e-02
-4.474540582013474682e-02 -1.782701316103334488e-01 -7.978329804671296932e-01 8.996506529623498061e-01 -4.117204069308847969e-01 -1.453100448733133099e-01
-1.761004611291229482e-02 2.970950865225877036e-02 -8.476853002876927334e-01 9.497577700374870702e-01 -2.814203142563193039e-01 1.369773155573372481e-01
8.725309221758341394e-03 3.991112617339089702e-02 -9.782475366320614318e-01 9.205662295524581484e-01 -2.903345096953018900e-01 2.612732085146872718e-01
-3.590872242861448821e-02 -2.134860167964003352e-02 -7.416820463358092530e-01 4.127451643662933822e-01 3.223708270861372904e-01 8.518911192963812828e-01
-3.679568801438933001e-02 -1.466859327165474514e-01 -7.806472870300342759e-01 9.975845986505188501e-01 -5.378320133131689329e-02 -4.395834152738668787e-02
7.809885589078605084e-02 8.681839321955343858e-02 -1.064693906917338229e+00 7.949070411451556462e-01 -4.032358414041157246e-01 4.533471651449565432e-01
3.321233300456317527e-04 1.409016643465441920e-01 -7.787886615536002699e-01 9.303819724096749066e-01 -3.633405731653758242e-01 4.871358441891587843e-02
-3.271842164040574680e-02 -5.877981269187784047e-02 -7.956718395793747067e-01 9.975845986505188501e-01 -5.378320133131689329e-02 -4.395834152738668787e-02
3.310178345443467313e-02 4.022118825854226892e-02 -1.063790701879460343e+00 9.205662295524581484e-01 -2.903345096953018900e-01 2.612732085146872718e-01
6.852629827955091478e-03 1.548739935331611695e-01 -7.991084063090272416e-01 9.303819724096749066e-01 -3.633405731653758242e-01 4.871358441891587843e-02
-2.094979424061800283e-03 -5.688921141174399509e-02 -1.048162491213878944e+00 9.194219566279109301e-01 -3.044371669080831455e-01 2.489603925838075882e-01
4.929308685777047255e-02 8.746983406306642339e-02 -1.019556265866620626e+00 5.715212904829956031e-01 -6.726593959512638943e-01 4.699922888336915405e-01
-2.973658680917746697e-02 4.189864025183197282e-03 -8.050461308508478631e-01 9.975845986505188501e-01 -5.378320133131689329e-02 -4.395834152738668787e-02
-4.193082600776860437e-03 -2.048996051266170904e-01 -7.340657635146617954e-01 7.398398420166297784e-01 4.037994064516405301e-01 -5.381292107980301109e-01
-2.017482925059213561e-02 -1.722477556025512474e-02 -7.574799225864428109e-01 6.950290778105880918e-01 -7.211532258315034305e-02 -7.153558284144273527e-01
1.463388043171934792e-02 1.498875299362398446e-02 -1.026760188160487974e+00 9.205662295524581484e-01 -2.903345096953018900e-01 2.612732085146872718e-01
-1.510741272900082560e-02 1.104737946625537932e-02 -6.507055081206095659e-01 7.953080342456874119e-01 3.252868841148379153e-01 -5.115403930161529500e-01
-1.849674998544595730e-02 -1.187951428515362923e-01 -7.456101742053219406e-01 6.950290778105880918e-01 -7.211532258315034305e-02 -7.153558284144273527e-01
-4.216414294611589564e-02 -1.131637118493618310e-01 -9.434928372415402054e-01 9.975845986505188501e-01 -5.378320133131689329e-02 -4.395834152738668787e-02
-2.636057143013361553e-02 1.000458144488403436e-02 -8.274957339088291342e-01 9.497577700374870702e-01 -2.814203142563193039e-01 1.369773155573372481e-01
-3.474590539117450305e-02 -4.605383209230248104e-02 -8.572535655145981925e-01 9.975845986505188501e-01 -5.378320133131689329e-02 -4.395834152738668787e-02
-3.632269343728652955e-02 -3.194096621118748536e-02 -7.251272465586150462e-01 8.480446421683156544e-01 3.709291189404585465e-01 -3.784598705433223631e-01
-3.485559326015220949e-02 -8.523142943594284870e-02 -8.118088647491066290e-01 9.975845986505188501e-01 -5.378320133131689329e-02 -4.395834152738668787e-02
2.594412934212980693e-02 -1.148584847700491289e-02 -1.096191420393600069e+00 9.194219566279109301e-01 -3.044371669080831455e-01 2.489603925838075882e-01
-2.374587810198578938e-02 2.968993988380336235e-02 -8.051815686689947071e-01 9.497577700374870702e-01 -2.814203142563193039e-01 1.369773155573372481e-01
5.530457534015788268e-02 8.267830847576848607e-02 -1.033724069297903947e+00 5.715212904829956031e-01 -6.726593959512638943e-01 4.699922888336915405e-01
-2.424833540757806091e-02 -2.954492853175488820e-02 -9.233959057543322801e-01 9.497577700374870702e-01 -2.814203142563193039e-01 1.369773155573372481e-01
-2.363086372136715199e-02 -2.657016534119008636e-02 -6.914237402759041418e-01 8.480446421683156544e-01 3.709291189404585465e-01 -3.784598705433223631e-01
-2.911258971280683561e-02 -1.091740214389112784e-01 -7.568942754169770692e-01 6.950290778105880918e-01 -7.211532258315034305e-02 -7.153558284144273527e-01
-2.145649281641237235e-02 -2.460684582502964055e-02 -6.846272046995726113e-01 8.480446421683156544e-01 3.709291189404585465e-01 -3.784598705433223631e-01
1.419028696897934316e-01 2.139507284592526426e-01 -1.013101689836724217e+00 3.363245780998516121e-01 -6.501866655172410248e-01 6.812804695201001293e-01
-1.491376126411203193e-02 -1.230486388155364458e-01 -7.417001989604932177e-01 6.950290778105880918e-01 -7.211532258315034305e-02 -7.153558284144273527e-01
-1.377762071779488687e-02 -7.704967060155697156e-02 -7.313263867393253737e-01 4.127451643662933822e-01 3.223708270861372904e-01 8.518911192963812828e-01
-1.591271947571999690e-02 -3.297174433705597416e-03 -9.272663626279954441e-01 9.497577700374870702e-01 -2.814203142563193039e-01 1.369773155573372481e-01
-1.172491856770387780e-02 -8.196744530738664380e-02 -7.300958696719378471e-01 8.295759955607178160e-01 4.571956372043992078e-01 -3.205866761278562960e-01
-4.038332026243272865e-02 -1.172304543406101490e-01 -8.981034152794722392e-01 9.975845986505188501e-01 -5.378320133131689329e-02 -4.395834152738668787e-02
-5.814293297518891360e-03 7.915760743695955670e-02 -8.317884785692418737e-01 9.606691075714097749e-01 -2.165104378404999752e-01 1.738910465322061061e-01
5.547946239281695280e-02 2.593629542812303512e-02 -1.161964909578988348e+00 9.293526234571097833e-01 -2.704362589535404537e-01 2.513323121220208956e-01
-4.176331923850223199e-02 -1.382700300248987102e-01 -8.927061323796156023e-01 8.996506529623498061e-01 -4.117204069308847969e-01 -1.453100448733133099e-01
-3.528842635677533618e-02 -1.178204827579595049e-01 -7.817586868047325943e-01 9.975845986505188501e-01 -5.378320133131689329e-02 -4.395834152738668787e-02
-2.908049330562166579e-02 1.793945263934290657e-02 -7.484747271300203897e-01 9.800029453312476546e-01 -1.901049619326031226e-01 -5.877355349715692595e-02
2.857114479898111709e-02 1.024334347939560713e-01 -9.729418038506243427e-01 5.715212904829956031e-01 -6.726593959512638943e-01 4.699922888336915405e-01
-3.633568304059035109e-02 -1.461962145235325694e-01 -7.708071690919069407e-01 9.975845986505188501e-01 -5.378320133131689329e-02 -4.395834152738668787e-02
-2.070980008465630670e-02 -3.977443652128553192e-02 -6.978198115557026071e-01 8.480446421683156544e-01 3.709291189404585465e-01 -3.784598705433223631e-01
-4.289988707430595488e-02 -1.186270527770649647e-01 -9.535052951842372115e-01 9.975845986505188501e-01 -5.378320133131689329e-02 -4.395834152738668787e-02
2.235597781689467600e-02 1.942199727749702731e-01 -8.017369304252197626e-01 9.303819724096749066e-01 -3.633405731653758242e-01 4.871358441891587843e-02
-3.405966051219370613e-03 1.322985185919013651e-01 -7.715631808942227110e-01 9.303819724096749066e-01 -3.633405731653758242e-01 4.871358441891587843e-02
-2.227125480688993409e-02 -2.038117296545684590e-02 -9.182773990447434809e-01 9.497577700374870702e-01 -2.814203142563193039e-01 1.369773155573372481e-01
1.074080149459801237e-01 2.020871762857596732e-01 -9.937150695832721592e-01 5.448391890751125288e-01 -7.685804612793011303e-01 3.353122911371884673e-01
1.028349000008577929e-01 1.886656646531520154e-01 -1.017048241585029489e+00 5.448391890751125288e-01 -7.685804612793011303e-01 3.353122911371884673e-01
-3.342607827137587806e-02 -3.423062334911411431e-02 -8.693870878841140071e-01 9.497577700374870702e-01 -2.814203142563193039e-01 1.369773155573372481e-01
3.255744026109606143e-02 3.711829592845895809e-02 -1.065320796620097488e+00 9.205662295524581484e-01 -2.903345096953018900e-01 2.612732085146872718e-01
-4.731260374566282657e-03 -1.673730434023170677e-01 -7.225424323441914654e-01 7.178188081402009368e-01 1.157428645548830987e-01 -6.865418763519172130e-01
-3.405388413945951293e-02 -6.790418230184142034e-02 -9.342165087643953258e-01 9.497577700374870702e-01 -2.814203142563193039e-01 1.369773155573372481e-01
6.915182065170166759e-02 1.129449797409277784e-01 -1.025767365042430601e+00 7.949070411451556462e-01 -4.032358414041157246e-01 4.533471651449565432e-01
-3.248993519607625002e-02 -1.296682403693136601e-02 -7.005647404953522228e-01 9.799421454356203043e-01 -1.933365674660539879e-01 -4.831524893319958519e-02
-4.278221572854506993e-02 -1.376359329685849231e-01 -9.008110200469070517e-01 8.996506529623498061e-01 -4.117204069308847969e-01 -1.453100448733133099e-01
-1.771285099173913052e-02 -3.375930818306904779e-02 -7.458015965309866546e-01 4.127451643662933822e-01 3.223708270861372904e-01 8.518911192963812828e-01
-1.288764348888835932e-02 4.258057973181713154e-03 -9.327190431844984975e-01 9.497577700374870702e-01 -2.814203142563193039e-01 1.369773155573372481e-01
-3.951323024326667405e-02 -8.250668920930719075e-02 -9.208423725227956602e-01 9.975845986505188501e-01 -5.378320133131689329e-02 -4.395834152738668787e-02
-6.634982172404815456e-03 4.837915680851830741e-02 -8.854261041713968883e-01 9.497577700374870702e-01 -2.814203142563193039e-01 1.369773155573372481e-01
-1.832983653489045697e-02 3.929277368223049738e-02 -6.902597741944386245e-01 9.207911187472247461e-01 -2.887935820366433481e-01 -2.621869230352240621e-01
-3.359562751501290329e-02 -7.070632934531989600e-02 -8.009868905090122837e-01 9.975845986505188501e-01 -5.378320133131689329e-02 -4.395834152738668787e-02
-3.207039815855806941e-02 -5.347951380101872293e-02 -9.183338532197804494e-01 9.497577700374870702e-01 -2.814203142563193039e-01 1.369773155573372481e-01
-1.492950940379731209e-02 -1.685650278548355696e-01 -7.334062396591233268e-01 7.178188081402009368e-01 1.157428645548830987e-01 -6.865418763519172130e-01
5.308587902768104050e-02 9.266496444102109709e-02 -1.016733045533081414e+00 5.715212904829956031e-01 -6.726593959512638943e-01 4.699922888336915405e-01
-3.758250487468951795e-02 -9.253352827414103310e-02 -8.647588782326125489e-01 9.975845986505188501e-01 -5.378320133131689329e-02 -4.395834152738668787e-02
-1.048414352085326462e-02 6.488938095847757159e-02 -8.248169198421457793e-01 9.497577700374870702e-01 -2.814203142563193039e-01 1.369773155573372481e-01
1.118749749517151948e-02 1.387058108157938896e-01 -8.615093062990665240e-01 9.751761296160846859e-01 -1.257404958775333037e-01 1.822658605539302090e-01
-1.842724300051213487e-02 -6.325358345478609978e-02 -7.207511003679816231e-01 8.295759955607178160e-01 4.571956372043992078e-01 -3.205866761278562960e-01
2.833921386699753131e-02 6.228305950889376913e-02 -1.022494530098749799e+00 9.205662295524581484e-01 -2.903345096953018900e-01 2.612732085146872718e-01
7.303555066708068699e-02 1.813401887573865556e-01 -9.854191126707416704e-01 5.448391890751125288e-01 -7.685804612793011303e-01 3.353122911371884673e-01
-2.871780733975923608e-02 1.426054749340857283e-02 -7.305276850552546719e-01 9.800029453312476546e-01 -1.901049619326031226e-01 -5.877355349715692595e-02
1.875965809649004709e-02 -4.764962719464548024e-03 -1.063247805889244724e+00 9.205662295524581484e-01 -2.903345096953018900e-01 2.612732085146872718e-01
3.274357630434111821e-02 -2.656372048169662256e-02 -1.134384900360242865e+00 9.293526234571097833e-01 -2.704362589535404537e-01 2.513323121220208956e-01
-3.834853543186893254e-02 -1.149260782357137134e-01 -8.547456993529511937e-01 9.975845986505188501e-01 -5.378320133131689329e-02 -4.395834152738668787e-02
-2.172633925453609088e-02 -2.080714306810725334e-01 -7.605511927071698652e-01 7.398398420166297784e-01 4.037994064516405301e-01 -5.381292107980301109e-01
2.447640111859918435e-02 2.029517762842713777e-02 -1.055542526794376990e+00 9.205662295524581484e-01 -2.903345096953018900e-01 2.612732085146872718e-01
-1.627726009824460168e-02 2.025136139832984898e-03 -6.582615222374781361e-01 7.953080342456874119e-01 3.252868841148379153e-01 -5.115403930161529500e-01
-3.903277599988823343e-02 -1.411183059937472506e-01 -8.382274691111282205e-01 9.975845986505188501e-01 -5.378320133131689329e-02 -4.395834152738668787e-02
-3.067326219684526553e-02 -2.607063169304887212e-02 -7.892790803015248269e-01 9.975845986505188501e-01 -5.378320133131689329e-02 -4.395834152738668787e-02
-9.913822747919680267e-03 4.709522796864628463e-02 -8.653294871183520032e-01 9.497577700374870702e-01 -2.814203142563193039e-01 1.369773155573372481e-01
2.571524154942578938e-02 5.351116702819744969e-02 -1.022996850257758439e+00 9.205662295524581484e-01 -2.903345096953018900e-01 2.612732085146872718e-01
6.390837738701930781e-02 5.985443538944789504e-02 -1.106922345805677610e+00 8.994247354437397979e-01 -4.236265686970093203e-01 -1.075903135321980703e-01
-1.862245404221071071e-02 -1.152860432542239522e-01 -7.460860602057778346e-01 6.950290778105880918e-01 -7.211532258315034305e-02 -7.153558284144273527e-01
-4.428746804748330546e-02 -1.679108679658153080e-01 -8.243496347727745643e-01 8.996506529623498061e-01 -4.117204069308847969e-01 -1.453100448733133099e-01
-3.525509463260029924e-02 -9.878099600479940678e-02 -8.042971470873930828e-01 9.975845986505188501e-01 -5.378320133131689329e-02 -4.395834152738668787e-02
4.233640249079430318e-02 1.304663730322527110e-02 -1.127235167891523338e+00 9.293526234571097833e-01 -2.704362589535404537e-01 2.513323121220208956e-01
-3.594547123204151068e-02 -6.022170629645612339e-02 -9.053171663113920298e-01 9.497577700374870702e-01 -2.814203142563193039e-01 1.369773155573372481e-01
-1.389360556727058972e-02 3.478184890196908685e-02 -8.630327955241368088e-01 9.497577700374870702e-01 -2.814203142563193039e-01 1.369773155573372481e-01
-1.126820220899982759e-02 1.608147228715513244e-02 -9.196565004864815096e-01 9.497577700374870702e-01 -2.814203142563193039e-01 1.369773155573372481e-01
-6.291225339525026265e-03 -1.825908633249430715e-02 -6.556345896090937098e-01 7.953080342456874119e-01 3.252868841148379153e-01 -5.115403930161529500e-01
-3.317042384326299859e-02 -1.152440619025631857e-01 -7.602248833366065384e-01 6.950290778105880918e-01 -7.211532258315034305e-02 -7.153558284144273527e-01
-4.570752548537828849e-03 5.731335654551118070e-02 -8.813834846255916844e-01 9.497577700374870702e-01 -2.814203142563193039e-01 1.369773155573372481e-01
-4.073959630082588101e-02 -1.322749229677111227e-01 -8.877817293250065411e-01 9.975845986505188501e-01 -5.378320133131689329e-02 -4.395834152738668787e-02
-2.576592025584436424e-02 -1.138555342675437176e-01 -7.531707558922567936e-01 6.950290778105880918e-01 -7.211532258315034305e-02 -7.153558284144273527e-01
-2.292015638327690730e-02 1.434090128233077646e-03 -8.689585940872478487e-01 9.497577700374870702e-01 -2.814203142563193039e-01 1.369773155573372481e-01
-2.320604454004924697e-02 -5.595688391577716136e-02 -7.565204060859220814e-01 6.950290778105880918e-01 -7.211532258315034305e-02 -7.153558284144273527e-01
-2.523238342573402848e-02 9.459014256814194440e-04 -7.552914201624632007e-01 4.127451643662933822e-01 3.223708270861372904e-01 8.518911192963812828e-01
1.307759240476782658e-01 2.086759715496348533e-01 -1.012642717789035585e+00 3.363245780998516121e-01 -6.501866655172410248e-01 6.812804695201001293e-01
-2.444182200914891967e-02 -2.971060021860206721e-02 -7.603669680077800308e-01 6.950290778105880918e-01 -7.211532258315034305e-02 -7.153558284144273527e-01
