1.237822953185011149e-01 -4.663335545545397448e-02 -7.185361555646614384e-01 -1.896120161688892025e-01 4.049749905913308523e-01 -8.944509714455681770e-01
-2.464358679390329376e-01 -1.011800835096295093e-01 -7.723793708375712441e-01 1.800455876163025437e-01 3.630913352357123536e-01 -9.141926868317465926e-01
8.107513828932380595e-02 8.952178539818962666e-02 -6.518464382808355495e-01 8.209418181022694327e-02 3.782403341887694004e-01 -9.220600820476274606e-01
1.535868808141537534e-01 3.215793092593475372e-02 -7.108865635339342015e-01 -7.048109546162518724e-01 -8.595584510181743243e-02 -7.041683825234986704e-01
-1.296245144217737788e-01 -4.761451510317688679e-02 -7.271096818154424435e-01 1.996606210143514748e-01 3.494647145249742404e-01 -9.154288884004817550e-01
-4.164753084262283467e-02 1.760919752654149240e-01 -6.298155540135893515e-01 4.984302725356856006e-02 1.944225520295553289e-01 -9.796507254611283022e-01
9.379875581674163021e-02 -1.701346590491727845e-02 -6.987692209497002871e-01 -1.896120161688892025e-01 4.049749905913308523e-01 -8.944509714455681770e-01
-1.101050774251685904e-01 4.426131993120482888e-02 -6.877788000496976029e-01 1.996606210143514748e-01 3.494647145249742404e-01 -9.154288884004817550e-01
2.161084893222270098e-01 -4.984205753966330227e-02 -7.586805348132146243e-01 -7.737341693889191463e-01 7.600049987552928710e-02 -6.289350993057303274e-01
1.781438889433573092e-01 -1.639067885029697746e-02 -7.295397889360140109e-01 -7.048109546162518724e-01 -8.595584510181743243e-02 -7.041683825234986704e-01
-7.952492720423946782e-02 5.626505123164157046e-02 -6.777197463317872206e-01 8.325074708798668732e-02 3.073625210326647594e-01 -9.479438769113587293e-01
4.448420735490691419e-02 -1.371932396547395350e-01 -7.388786453350731920e-01 -8.856493582078182880e-02 4.765749775896179624e-02 -9.949296533174671886e-01
-2.383167887529709025e-02 2.020563386345326229e-01 -6.237561967049880529e-01 4.984302725356856006e-02 1.944225520295553289e-01 -9.796507254611283022e-01
-2.067815937866128717e-01 1.051476914969062641e-02 -7.529842509470785483e-01 4.411899838270937901e-01 3.046578817456986332e-01 -8.441178669243252219e-01
-1.898498241928931740e-01 -4.108851428766591846e-02 -7.456815959884541822e-01 6.238470144942981355e-01 1.229436674218937695e-02 -7.814497751314282148e-01
-1.176494419920100787e-01 7.696497530343473191e-03 -7.033828823738927927e-01 1.996606210143514748e-01 3.494647145249742404e-01 -9.154288884004817550e-01
2.022622873157319534e-01 3.672578469702700993e-02 -7.276760971133183764e-01 -6.416685238405649416e-01 5.602613812799829285e-01 -5.238021479132324298e-01
2.049689740932027215e-01 3.865410388624723748e-02 -7.289293049115534995e-01 -6.416685238405649416e-01 5.602613812799829285e-01 -5.238021479132324298e-01
-9.383990505855434316e-02 8.557274146918225632e-02 -6.687575897767390476e-01 4.339588294997476225e-02 4.553505006523294041e-01 -8.892540238304602607e-01
5.128084726361160223e-02 -5.561364100737169192e-02 -7.072327359176165951e-01 -1.896120161688892025e-01 4.049749905913308523e-01 -8.944509714455681770e-01
1.061369260650090879e-01 7.675479676037257060e-02 -6.578209813595300437e-01 -1.341670917717283640e-01 2.900128347247914462e-01 -9.475714997721320643e-01
-3.012980053696360030e-02 6.036970098881645069e-02 -6.720508488097239885e-01 8.325074708798668732e-02 3.073625210326647594e-01 -9.479438769113587293e-01
6.658370028439890287e-02 5.097744609840876295e-02 -6.666025894967320120e-01 8.325074708798668732e-02 3.073625210326647594e-01 -9.479438769113587293e-01
9.925148498674424627e-03 -1.390612163084823383e-01 -7.358918032738978043e-01 -8.856493582078182880e-02 4.765749775896179624e-02 -9.949296533174671886e-01
-2.259177736141885495e-01 -7.101790785315666155e-02 -7.595103191862025982e-01 1.622671755544530248e-01 1.652588717757427772e-01 -9.728097805002727805e-01
1.263905684097193782e-01 9.020737779589220462e-02 -6.565714198545815616e-01 -1.341670917717283640e-01 2.900128347247914462e-01 -9.475714997721320643e-01
1.630484962731643950e-01 3.088871477744041527e-02 -6.940617602350996895e-01 5.058029166509364627e-01 8.543322146228966574e-01 -1.194984375000044535e-01
-2.073613872096330135e-01 3.887193019857728554e-02 -7.430526597617189699e-01 4.411899838270937901e-01 3.046578817456986332e-01 -8.441178669243252219e-01
-1.241112307814956905e-01 -1.793246722577418739e-01 -7.719580898649518463e-01 3.157393993113571384e-01 1.968733877819132394e-01 -9.281969084767388578e-01
2.294480241071468474e-01 -5.207595900710114412e-02 -7.753611613303598160e-01 -7.737341693889191463e-01 7.600049987552928710e-02 -6.289350993057303274e-01
2.118540235416902784e-01 9.462406249653072809e-02 -6.923959984868401918e-01 -7.369370791354291628e-01 3.525193704445338527e-01 -5.767615060462440990e-01
-1.445023872843213264e-01 8.979137812648940731e-02 -6.885437264518934342e-01 3.934587858353557621e-01 4.544522972567593966e-01 -7.991641216715260621e-01
2.316536430422541908e-03 1.752919239949672359e-01 -6.277375131969964439e-01 4.984302725356856006e-02 1.944225520295553289e-01 -9.796507254611283022e-01
8.326347276888122761e-02 -1.264189231400046631e-01 -7.418145375136515618e-01 -8.856493582078182880e-02 4.765749775896179624e-02 -9.949296533174671886e-01
2.273121890757344096e-02 1.643935840967071793e-01 -6.288617439582253610e-01 4.984302725356856006e-02 1.944225520295553289e-01 -9.796507254611283022e-01
-4.147697484711819482e-02 -1.539932486463427563e-01 -7.450588591509964553e-01 2.292051127148481415e-01 4.604191641114574463e-02 -9.722886187951409465e-01
1.128490067696251015e-01 -3.698048315849234574e-02 -7.118479692428536509e-01 -1.896120161688892025e-01 4.049749905913308523e-01 -8.944509714455681770e-01
1.218849872263550738e-01 -8.660580008236190563e-03 -7.009412540054686946e-01 -1.896120161688892025e-01 4.049749905913308523e-01 -8.944509714455681770e-01
-1.407284402658899869e-01 2.944538115527395306e-02 -7.053573175871710177e-01 6.238470144942981355e-01 1.229436674218937695e-02 -7.814497751314282148e-01
1.482180550540566355e-01 -6.080047057048233727e-02 -7.301305764010899146e-01 -1.896120161688892025e-01 4.049749905913308523e-01 -8.944509714455681770e-01
-1.911987553812566354e-01 -5.690195234650920197e-02 -7.470072639130432846e-01 6.238470144942981355e-01 1.229436674218937695e-02 -7.814497751314282148e-01
2.179896900555422512e-01 -8.615484498464751062e-02 -7.744336175321542282e-01 -7.874252310999537707e-01 3.704915055687009739e-01 -4.926434306155126341e-01
2.090459647404133980e-01 -4.136234799794697575e-02 -7.532163504241992102e-01 -4.788856940344726754e-01 -3.335237138321103800e-02 -8.772434732571326998e-01
6.596787778884218023e-02 1.688209934923698072e-02 -6.777117908657511736e-01 8.325074708798668732e-02 3.073625210326647594e-01 -9.479438769113587293e-01
-2.661392352566379141e-02 -1.086578743479626463e-01 -7.279457288011227378e-01 1.996606210143514748e-01 3.494647145249742404e-01 -9.154288884004817550e-01
1.352959481049854640e-01 -8.491262187187738342e-02 -7.383083656015804186e-01 -1.896120161688892025e-01 4.049749905913308523e-01 -8.944509714455681770e-01
-5.086458752312744691e-02 -1.139953880417900745e-01 -7.352725407665500201e-01 1.996606210143514748e-01 3.494647145249742404e-01 -9.154288884004817550e-01
7.101378036520736292e-02 -1.616767763900031352e-01 -7.438417496965240572e-01 -7.564777446842189945e-02 1.603002348569922686e-01 -9.841652548849546545e-01
5.815238553873774974e-02 -1.603494808526448601e-01 -7.426369706457904840e-01 -7.564777446842189945e-02 1.603002348569922686e-01 -9.841652548849546545e-01
-1.468480183527771238e-02 2.202557955061102690e-01 -6.196789344845833325e-01 4.984302725356856006e-02 1.944225520295553289e-01 -9.796507254611283022e-01
6.390837585882575000e-02 -1.352343351859889020e-01 -7.405138802948185717e-01 -8.856493582078182880e-02 4.765749775896179624e-02 -9.949296533174671886e-01
2.003012596525845790e-01 -1.074142732981369364e-01 -7.623531865105956928e-01 -3.855782516410316552e-01 4.203692871146529342e-01 -8.213519795508888999e-01
-1.820172012742898027e-01 6.265615879455736954e-03 -7.386836446926814403e-01 6.238470144942981355e-01 1.229436674218937695e-02 -7.814497751314282148e-01
2.481814802523713351e-02 -2.060659141234965838e-02 -6.934810411474130465e-01 8.325074708798668732e-02 3.073625210326647594e-01 -9.479438769113587293e-01
-2.223781879006703766e-01 1.165265003069316518e-01 -7.270510738931769135e-01 8.367818503538431152e-01 2.455872903328954263e-02 -5.469853780007907229e-01
1.694018708866662781e-01 1.159732669028628455e-01 -6.580729818808391807e-01 -2.515766606802489203e-01 8.858067225973124958e-02 -9.637752063126489022e-01
5.137131520703712428e-03 1.742612189212279783e-01 -6.277985607839737803e-01 4.984302725356856006e-02 1.944225520295553289e-01 -9.796507254611283022e-01
-1.360691732467774785e-02 1.672405203400150753e-01 -6.301455628459075031e-01 4.984302725356856006e-02 1.944225520295553289e-01 -9.796507254611283022e-01
-7.288179139817534125e-02 -9.454576522151328377e-02 -7.326497392379571760e-01 1.996606210143514748e-01 3.494647145249742404e-01 -9.154288884004817550e-01
-5.681449929052494185e-02 5.218162397892560367e-02 -6.770492766857072464e-01 8.325074708798668732e-02 3.073625210326647594e-01 -9.479438769113587293e-01
8.079618489132393833e-02 -2.385222579837060694e-02 -6.991091870793907370e-01 -1.896120161688892025e-01 4.049749905913308523e-01 -8.944509714455681770e-01
-6.376084836358811292e-02 5.367219858553299444e-02 -6.771760162363480440e-01 8.325074708798668732e-02 3.073625210326647594e-01 -9.479438769113587293e-01
1.425983897125544797e-01 9.009299352669855598e-02 -6.589013011931875718e-01 -1.341670917717283640e-01 2.900128347247914462e-01 -9.475714997721320643e-01
9.774217943658090879e-02 7.241947445450294153e-03 -6.886232033591314083e-01 -1.896120161688892025e-01 4.049749905913308523e-01 -8.944509714455681770e-01
8.632527576731709174e-02 -1.436113254403020845e-01 -7.429106102425261371e-01 -8.856493582078182880e-02 4.765749775896179624e-02 -9.949296533174671886e-01
-1.310460063492948357e-01 1.719124454803903912e-02 -7.026801377859263065e-01 1.996606210143514748e-01 3.494647145249742404e-01 -9.154288884004817550e-01
5.341150658702876336e-03 1.862259187510343361e-01 -6.254136532389562575e-01 4.984302725356856006e-02 1.944225520295553289e-01 -9.796507254611283022e-01
7.235861985549808806e-02 6.508053381737327614e-02 -6.615226189609203500e-01 8.325074708798668732e-02 3.073625210326647594e-01 -9.479438769113587293e-01
-6.105921652952352174e-03 -6.935991084959455821e-02 -7.120047064216333821e-01 8.325074708798668732e-02 3.073625210326647594e-01 -9.479438769113587293e-01
-1.392139328791876240e-02 7.686875189277375675e-02 -6.652777137650673911e-01 8.325074708798668732e-02 3.073625210326647594e-01 -9.479438769113587293e-01
-1.497782425440485343e-01 -6.187623852860468093e-02 -7.369497415866479439e-01 1.996606210143514748e-01 3.494647145249742404e-01 -9.154288884004817550e-01
-1.604586447434275531e-01 7.635172126552317029e-02 -7.040421857611512957e-01 3.934587858353557621e-01 4.544522972567593966e-01 -7.991641216715260621e-01
2.145596087221798010e-01 -7.693582617705484183e-02 -7.620179424933869461e-01 -7.874252310999537707e-01 3.704915055687009739e-01 -4.926434306155126341e-01
-8.287715542071698305e-02 1.055679696562826786e-01 -6.579838680852938548e-01 4.339588294997476225e-02 4.553505006523294041e-01 -8.892540238304602607e-01
1.393987074095108802e-01 -8.145196131159723740e-02 -7.376112357038457912e-01 -1.896120161688892025e-01 4.049749905913308523e-01 -8.944509714455681770e-01
-1.597709259710027030e-01 -2.221679157986886435e-02 -7.239892243057661769e-01 1.996606210143514748e-01 3.494647145249742404e-01 -9.154288884004817550e-01
-2.791055569734952613e-01 -7.706790685600145574e-02 -7.694099394225645261e-01 1.622671755544530248e-01 1.652588717757427772e-01 -9.728097805002727805e-01
7.097786757990288964e-02 5.918833700056638780e-02 -6.635543733436760627e-01 8.325074708798668732e-02 3.073625210326647594e-01 -9.479438769113587293e-01
-2.092027211192120373e-01 6.894513137133097269e-02 -7.322525699467952176e-01 3.934587858353557621e-01 4.544522972567593966e-01 -7.991641216715260621e-01
-1.150531550704908014e-02 2.509896138713662017e-01 -6.134177002870494499e-01 4.984302725356856006e-02 1.944225520295553289e-01 -9.796507254611283022e-01
5.329555713229228858e-03 -4.925434880885066341e-02 -7.044813620091973094e-01 8.325074708798668732e-02 3.073625210326647594e-01 -9.479438769113587293e-01
-2.336117787938471815e-02 4.528289788642095651e-03 -6.895625015940579638e-01 8.325074708798668732e-02 3.073625210326647594e-01 -9.479438769113587293e-01
-4.184756942542629254e-02 1.452178736761978728e-01 -6.359530395427299698e-01 4.984302725356856006e-02 1.944225520295553289e-01 -9.796507254611283022e-01
-1.142477068529744871e-01 8.735169587700832017e-02 -6.750355491792177087e-01 3.934587858353557621e-01 4.544522972567593966e-01 -7.991641216715260621e-01
-4.414932140782974745e-02 2.539976826664186102e-02 -6.846207725766978447e-01 8.325074708798668732e-02 3.073625210326647594e-01 -9.479438769113587293e-01
-9.530423773576131297e-02 8.045208708687234811e-02 -6.712630888486131875e-01 8.325074708798668732e-02 3.073625210326647594e-01 -9.479438769113587293e-01
-1.885640486879407995e-01 1.021240705774845436e-01 -6.996578475011236975e-01 -3.070986550736534704e-01 8.557949678519535253e-01 -4.162996385432333746e-01
1.181537215926092288e-01 -6.166523086134735598e-02 -7.241488593897090764e-01 -1.896120161688892025e-01 4.049749905913308523e-01 -8.944509714455681770e-01
-2.140069458881598274e-01 -3.313457966356166129e-02 -7.553391685410608680e-01 -5.038233457952794037e-02 5.776414852057329408e-02 -9.970581344675996105e-01
-1.701052362924073136e-01 6.826545215645900277e-02 -7.129715422397261415e-01 4.411899838270937901e-01 3.046578817456986332e-01 -8.441178669243252219e-01
-2.321599434856414790e-01 -8.306938624223783596e-02 -7.625988088955021338e-01 1.622671755544530248e-01 1.652588717757427772e-01 -9.728097805002727805e-01
-5.949734406996395192e-02 -3.414509708963531925e-02 -7.066725720187099213e-01 1.996606210143514748e-01 3.494647145249742404e-01 -9.154288884004817550e-01
-1.101139276807462375e-01 -3.635219365823039867e-02 -7.185549159423681997e-01 1.996606210143514748e-01 3.494647145249742404e-01 -9.154288884004817550e-01
1.612934766100895811e-01 -7.863236515808032234e-02 -7.409760321007553552e-01 -1.896120161688892025e-01 4.049749905913308523e-01 -8.944509714455681770e-01
3.341146648595441637e-02 8.868312985051214625e-02 -6.564341257599396462e-01 8.209418181022694327e-02 3.782403341887694004e-01 -9.220600820476274606e-01
-1.606655716303715398e-01 -9.085908488064807498e-02 -7.503885276780466462e-01 1.996606210143514748e-01 3.494647145249742404e-01 -9.154288884004817550e-01
2.276290060256029590e-01 1.409253509022253270e-01 -6.842523698375618801e-01 -7.369370791354291628e-01 3.525193704445338527e-01 -5.767615060462440990e-01
7.609390212004261966e-02 -2.710204514912980395e-02 -6.995837645103395452e-01 -1.896120161688892025e-01 4.049749905913308523e-01 -8.944509714455681770e-01
-1.769078966112512530e-02 3.802777654334590224e-02 -6.782025983129039703e-01 8.325074708798668732e-02 3.073625210326647594e-01 -9.479438769113587293e-01
1.570116605391744247e-01 3.412753606919587818e-02 -6.964586096051303965e-01 5.058029166509364627e-01 8.543322146228966574e-01 -1.194984375000044535e-01
-1.551557217837014613e-01 7.551810678736020632e-02 -7.019053986254715216e-01 3.934587858353557621e-01 4.544522972567593966e-01 -7.991641216715260621e-01
2.157232857163666334e-02 1.587425680119923244e-01 -6.300422132227215810e-01 4.984302725356856006e-02 1.944225520295553289e-01 -9.796507254611283022e-01
2.195531283210619966e-01 9.543875376181860937e-02 -7.017353203376469617e-01 -7.369370791354291628e-01 3.525193704445338527e-01 -5.767615060462440990e-01
1.932112600342810460e-01 8.355248238919985027e-02 -6.753677689952064522e-01 -6.535812286651372371e-01 4.770568618207786105e-01 -5.875783591371283032e-01
-4.259959549445672261e-02 8.725389809299716193e-02 -6.637879405182426362e-01 8.209418181022694327e-02 3.782403341887694004e-01 -9.220600820476274606e-01
2.681909991386690062e-01 -4.490518192235787992e-02 -8.236520301350738205e-01 -7.874252310999537707e-01 3.704915055687009739e-01 -4.926434306155126341e-01
2.230717419891020126e-01 9.640391123394932704e-02 -7.056411985057633451e-01 -7.369370791354291628e-01 3.525193704445338527e-01 -5.767615060462440990e-01
-7.533171813382867621e-02 -5.242792438160335383e-02 -7.171056095820640408e-01 1.996606210143514748e-01 3.494647145249742404e-01 -9.154288884004817550e-01
1.616352625411137875e-02 1.320738373376559582e-01 -6.395780835630247019e-01 4.339588294997476225e-02 4.553505006523294041e-01 -8.892540238304602607e-01
-5.122324697864297921e-02 -1.677579234952718545e-01 -7.480082379217058985e-01 2.292051127148481415e-01 4.604191641114574463e-02 -9.722886187951409465e-01
3.698199091729013205e-02 -2.940369478094874423e-02 -6.952651666659446228e-01 8.325074708798668732e-02 3.073625210326647594e-01 -9.479438769113587293e-01
1.465562416522139533e-01 -9.570028883026124311e-02 -7.455796666507662485e-01 -1.896120161688892025e-01 4.049749905913308523e-01 -8.944509714455681770e-01
1.890906213835708283e-01 5.369455242456527139e-02 -6.950260122193773205e-01 -6.535812286651372371e-01 4.770568618207786105e-01 -5.875783591371283032e-01
-1.642130889869120036e-01 1.124574855969198428e-01 -6.853587538274747981e-01 3.934587858353557621e-01 4.544522972567593966e-01 -7.991641216715260621e-01
2.129022257740666169e-01 -6.984892482825676152e-02 -7.571537258476132015e-01 -7.737341693889191463e-01 7.600049987552928710e-02 -6.289350993057303274e-01
1.152525683312387653e-02 -1.388446646065829258e-02 -6.924688650339158036e-01 8.325074708798668732e-02 3.073625210326647594e-01 -9.479438769113587293e-01
-1.339824585586667782e-01 -1.151113432352311727e-02 -7.142777207820133478e-01 1.996606210143514748e-01 3.494647145249742404e-01 -9.154288884004817550e-01
-4.056813996489288393e-02 -2.560187025985541376e-02 -7.008431002252751840e-01 8.325074708798668732e-02 3.073625210326647594e-01 -9.479438769113587293e-01
-1.068341652983759854e-01 -7.786680025706971264e-02 -7.336877688872230907e-01 1.996606210143514748e-01 3.494647145249742404e-01 -9.154288884004817550e-01
-7.801330804836464905e-02 1.315188241486145992e-01 -6.444581429107408832e-01 4.339588294997476225e-02 4.553505006523294041e-01 -8.892540238304602607e-01
-4.230191500875939148e-03 -8.395872303036100437e-02 -7.165735125344786516e-01 8.325074708798668732e-02 3.073625210326647594e-01 -9.479438769113587293e-01
-1.553216699821933222e-01 6.544925998071320083e-03 -7.173676728054990681e-01 6.238470144942981355e-01 1.229436674218937695e-02 -7.814497751314282148e-01
-1.973952462727570079e-01 8.053433879594404377e-02 -7.198489892734846185e-01 3.934587858353557621e-01 4.544522972567593966e-01 -7.991641216715260621e-01
5.631490427431382062e-02 -1.658566039355416355e-02 -6.906294352821776839e-01 -1.896120161688892025e-01 4.049749905913308523e-01 -8.944509714455681770e-01
1.655010548400384085e-01 -3.268626786811399537e-02 -7.210652561109196501e-01 -1.896120161688892025e-01 4.049749905913308523e-01 -8.944509714455681770e-01
5.256412897970667158e-02 -1.548753107278772190e-01 -7.413158003219625369e-01 -7.564777446842189945e-02 1.603002348569922686e-01 -9.841652548849546545e-01
-1.908994690511462700e-01 7.062988658161543920e-02 -7.222831331376143860e-01 3.934587858353557621e-01 4.544522972567593966e-01 -7.991641216715260621e-01
-2.206526765108097338e-02 9.684832309608870649e-02 -6.580239480557983356e-01 8.209418181022694327e-02 3.782403341887694004e-01 -9.220600820476274606e-01
1.508877801628488446e-01 -5.618003085949136582e-02 -7.286045558459490756e-01 -1.896120161688892025e-01 4.049749905913308523e-01 -8.944509714455681770e-01
1.333454736568163296e-02 5.167852553398628868e-02 -6.710517413107236484e-01 8.325074708798668732e-02 3.073625210326647594e-01 -9.479438769113587293e-01
-1.961657370541792511e-01 1.442962335958681008e-01 -7.074208504777245166e-01 5.584782233006859720e-01 -1.375032227517438976e-01 -8.180433593837148631e-01
-1.643304738183826164e-01 4.639865849106278306e-02 -7.178454157085345511e-01 4.411899838270937901e-01 3.046578817456986332e-01 -8.441178669243252219e-01
1.585786444575137677e-01 6.215652304451482757e-02 -6.696553993700633534e-01 -1.236139682126202038e-01 2.928665669755061152e-01 -9.481290844661979245e-01
7.323610473855247938e-02 9.785887617353505874e-02 -6.491243977062977066e-01 8.209418181022694327e-02 3.782403341887694004e-01 -9.220600820476274606e-01
6.395219265563710509e-02 1.374257899268833127e-01 -6.337201439152676530e-01 8.209418181022694327e-02 3.782403341887694004e-01 -9.220600820476274606e-01
7.346865866763302444e-02 -5.850391105522804308e-02 -7.132448739909171831e-01 -1.896120161688892025e-01 4.049749905913308523e-01 -8.944509714455681770e-01
3.520535565299760805e-02 -1.578040695867072643e-02 -6.910039630492125218e-01 8.325074708798668732e-02 3.073625210326647594e-01 -9.479438769113587293e-01
-8.270467765932880411e-02 -7.644408756392349902e-02 -7.278818603788972386e-01 1.996606210143514748e-01 3.494647145249742404e-01 -9.154288884004817550e-01
1.370035611807507436e-01 8.707264999242594894e-02 -6.590335302832073250e-01 -1.341670917717283640e-01 2.900128347247914462e-01 -9.475714997721320643e-01
1.648072547791408216e-01 2.812439233437847783e-02 -7.063804529603106008e-01 5.058029166509364627e-01 8.543322146228966574e-01 -1.194984375000044535e-01
-1.594041138499727450e-01 4.890226229702439309e-02 -7.143669876096928606e-01 4.411899838270937901e-01 3.046578817456986332e-01 -8.441178669243252219e-01
-1.817300283433893604e-01 -1.008169576906155357e-01 -7.586362700086209943e-01 1.959996401775266628e-01 3.324890190153311775e-01 -9.225156872836921540e-01
3.497339118125610685e-02 1.500385062768033462e-01 -6.310878066572775946e-01 4.984302725356856006e-02 1.944225520295553289e-01 -9.796507254611283022e-01
1.027692746092744719e-02 -4.787716611049167015e-02 -7.036003322767945267e-01 8.325074708798668732e-02 3.073625210326647594e-01 -9.479438769113587293e-01
-6.723067000728251766e-03 5.005337807221370283e-02 -6.733401898724409307e-01 8.325074708798668732e-02 3.073625210326647594e-01 -9.479438769113587293e-01
-1.357340294031465430e-02 -2.204083504364375262e-03 -6.908858285150061285e-01 8.325074708798668732e-02 3.073625210326647594e-01 -9.479438769113587293e-01
1.931402743019594581e-01 7.258493950887152935e-02 -6.841933946595709637e-01 -6.535812286651372371e-01 4.770568618207786105e-01 -5.875783591371283032e-01
-2.038298706985746112e-01 8.253000973910905314e-02 -7.218821414447812446e-01 3.934587858353557621e-01 4.544522972567593966e-01 -7.991641216715260621e-01
6.780139660439903071e-02 -9.438813944066358486e-02 -7.282905662607259689e-01 -1.896120161688892025e-01 4.049749905913308523e-01 -8.944509714455681770e-01
3.679544495170352508e-02 -8.776049341635215606e-02 -7.187169482919272268e-01 -1.896120161688892025e-01 4.049749905913308523e-01 -8.944509714455681770e-01
-1.065658670750816231e-02 -1.078771930097815884e-01 -7.248932492048080212e-01 8.325074708798668732e-02 3.073625210326647594e-01 -9.479438769113587293e-01
1.477257123582327025e-01 -7.383615370392719590e-02 -7.359282911206973532e-01 -1.896120161688892025e-01 4.049749905913308523e-01 -8.944509714455681770e-01
-6.091808260646872780e-03 -3.676910073999063722e-02 -7.014361814780675219e-01 8.325074708798668732e-02 3.073625210326647594e-01 -9.479438769113587293e-01
-2.349110235173372530e-02 2.081306019454595702e-01 -6.225333638029943994e-01 4.984302725356856006e-02 1.944225520295553289e-01 -9.796507254611283022e-01
-1.614203763663065588e-02 1.152558224428575501e-01 -6.497664208983277012e-01 4.339588294997476225e-02 4.553505006523294041e-01 -8.892540238304602607e-01
-7.727556334316976194e-02 1.050361083523898981e-01 -6.579828529387762304e-01 4.339588294997476225e-02 4.553505006523294041e-01 -8.892540238304602607e-01
1.932941977774452758e-01 6.643495404806734617e-02 -6.893578024550849337e-01 -6.535812286651372371e-01 4.770568618207786105e-01 -5.875783591371283032e-01
2.356195951377370104e-02 -9.100800387575173900e-02 -7.173819759175810162e-01 -1.896120161688892025e-01 4.049749905913308523e-01 -8.944509714455681770e-01
1.325944515461043582e-01 -4.854703426771309754e-02 -7.212706629286007587e-01 -1.896120161688892025e-01 4.049749905913308523e-01 -8.944509714455681770e-01
2.272049951377633492e-01 -4.944213121538431482e-02 -7.722834504704721992e-01 -7.737341693889191463e-01 7.600049987552928710e-02 -6.289350993057303274e-01
-8.953681491928283664e-02 3.948179357792576394e-02 -6.851173194220159246e-01 1.996606210143514748e-01 3.494647145249742404e-01 -9.154288884004817550e-01
2.022991216417907023e-01 1.430414890627451363e-01 -6.641723908884931138e-01 -2.515766606802489203e-01 8.858067225973124958e-02 -9.637752063126489022e-01
-2.719893662168476611e-01 -7.340848174793711267e-02 -7.676012850743427762e-01 1.622671755544530248e-01 1.652588717757427772e-01 -9.728097805002727805e-01
-3.785948981850829204e-02 1.654171598171550184e-01 -6.317413602023252972e-01 4.984302725356856006e-02 1.944225520295553289e-01 -9.796507254611283022e-01
-8.020318131140329737e-03 -1.137692078530639674e-02 -6.933723553971312681e-01 8.325074708798668732e-02 3.073625210326647594e-01 -9.479438769113587293e-01
-1.657042627945420898e-01 -2.920761641753685106e-02 -7.279520666051866318e-01 1.996606210143514748e-01 3.494647145249742404e-01 -9.154288884004817550e-01
1.022719499876579702e-01 5.022210007137430793e-02 -6.701236002432859884e-01 -1.896120161688892025e-01 4.049749905913308523e-01 -8.944509714455681770e-01
2.174871376213046992e-01 -4.008499236709785196e-02 -7.591975443846190608e-01 -7.737341693889191463e-01 7.600049987552928710e-02 -6.289350993057303274e-01
-6.269970308106029289e-02 1.381892257711289096e-01 -6.402951950602252529e-01 4.339588294997476225e-02 4.553505006523294041e-01 -8.892540238304602607e-01
1.730245171172990759e-03 5.427458964269578356e-02 -6.712291083701111827e-01 8.325074708798668732e-02 3.073625210326647594e-01 -9.479438769113587293e-01
-2.181128886604687955e-01 -7.880411103823582730e-02 -7.595311480442399343e-01 1.622671755544530248e-01 1.652588717757427772e-01 -9.728097805002727805e-01
-1.747940360603068288e-01 -8.759987356080113641e-03 -7.331536414669268531e-01 6.238470144942981355e-01 1.229436674218937695e-02 -7.814497751314282148e-01
9.967942535625727574e-02 -7.242784242152208382e-03 -6.955920360649371359e-01 -1.896120161688892025e-01 4.049749905913308523e-01 -8.944509714455681770e-01
-2.242436659073347022e-02 1.338278255724364985e-01 -6.405630397587387392e-01 4.339588294997476225e-02 4.553505006523294041e-01 -8.892540238304602607e-01
1.876006537051458367e-01 -1.737623240451975637e-02 -7.388848795052735952e-01 -7.048109546162518724e-01 -8.595584510181743243e-02 -7.041683825234986704e-01
4.721102296964741624e-02 -1.330539930725675168e-01 -7.389231048755577902e-01 -8.856493582078182880e-02 4.765749775896179624e-02 -9.949296533174671886e-01
9.112239622306383957e-02 6.608214911033812033e-02 -6.605791837782634124e-01 -1.896120161688892025e-01 4.049749905913308523e-01 -8.944509714455681770e-01
-1.061030001298792907e-01 8.369305342404291526e-02 -6.731061232842742159e-01 3.934587858353557621e-01 4.544522972567593966e-01 -7.991641216715260621e-01
1.745468476980899242e-01 2.021947988919761685e-02 -7.216702499527959391e-01 5.058029166509364627e-01 8.543322146228966574e-01 -1.194984375000044535e-01
1.574012425001608817e-01 6.934515201664870170e-03 -7.116254548263375446e-01 -7.048109546162518724e-01 -8.595584510181743243e-02 -7.041683825234986704e-01
-1.418582782348913329e-01 1.007829780841211220e-01 -6.809914532406610155e-01 3.934587858353557621e-01 4.544522972567593966e-01 -7.991641216715260621e-01
-1.361163580980542798e-01 -1.383544131870977079e-01 -7.627032489944971516e-01 2.192448259934995647e-01 3.670512018179967195e-01 -9.039939831210407339e-01
1.213475925761128560e-01 -8.205622350730856773e-02 -7.340582212826106678e-01 -1.896120161688892025e-01 4.049749905913308523e-01 -8.944509714455681770e-01
-8.025649103258766792e-02 -6.482040294834323646e-02 -7.229105576968090086e-01 1.996606210143514748e-01 3.494647145249742404e-01 -9.154288884004817550e-01
-1.252652108772884243e-01 7.289362202894801579e-02 -6.878648843334856933e-01 4.411899838270937901e-01 3.046578817456986332e-01 -8.441178669243252219e-01
3.943916521430231720e-02 2.545346993653180116e-03 -6.846901739216129101e-01 8.325074708798668732e-02 3.073625210326647594e-01 -9.479438769113587293e-01
-7.746964123689564774e-02 1.103343210601995111e-01 -6.552793266537350059e-01 4.339588294997476225e-02 4.553505006523294041e-01 -8.892540238304602607e-01
7.494669675731477354e-02 -9.675817382568054070e-02 -7.308783430028752415e-01 -1.896120161688892025e-01 4.049749905913308523e-01 -8.944509714455681770e-01
1.087364071718000813e-01 -1.047090323873225851e-03 -6.947068131415027326e-01 -1.896120161688892025e-01 4.049749905913308523e-01 -8.944509714455681770e-01
1.943682356960307334e-01 -7.782776378311029308e-02 -7.476231581145137417e-01 -1.896120161688892025e-01 4.049749905913308523e-01 -8.944509714455681770e-01
-2.392542265916660360e-01 -8.926691341557248249e-02 -7.662334108515539421e-01 1.800455876163025437e-01 3.630913352357123536e-01 -9.141926868317465926e-01
2.033839368852648211e-01 1.236591129424293584e-01 -6.662369989943083270e-01 -2.515766606802489203e-01 8.858067225973124958e-02 -9.637752063126489022e-01
-2.132277226585620536e-02 -1.916688388242234527e-03 -6.914732117050347293e-01 8.325074708798668732e-02 3.073625210326647594e-01 -9.479438769113587293e-01
1.371579832516510444e-01 -7.489717966691744611e-02 -7.341684635917468116e-01 -1.896120161688892025e-01 4.049749905913308523e-01 -8.944509714455681770e-01
2.664786208287486247e-01 -3.587095185367376871e-02 -8.189590609904141560e-01 -7.737341693889191463e-01 7.600049987552928710e-02 -6.289350993057303274e-01
2.303226390014283531e-01 -7.105645061368669191e-02 -7.827914846137200566e-01 -7.874252310999537707e-01 3.704915055687009739e-01 -4.926434306155126341e-01
-8.924548523342779038e-02 1.087649155590051792e-01 -6.566576198023300615e-01 4.339588294997476225e-02 4.553505006523294041e-01 -8.892540238304602607e-01
-1.413963160627212112e-01 3.134866590112146689e-02 -7.058605522847044567e-01 6.238470144942981355e-01 1.229436674218937695e-02 -7.814497751314282148e-01
-2.013000612650614751e-01 -2.657756585723136666e-02 -7.545942523261849333e-01 6.238470144942981355e-01 1.229436674218937695e-02 -7.814497751314282148e-01
-7.256023052823390961e-03 3.244577284429429886e-02 -6.790961075534340807e-01 8.325074708798668732e-02 3.073625210326647594e-01 -9.479438769113587293e-01
1.730212899955549666e-01 1.074654262282927625e-01 -6.597997243914872634e-01 -2.515766606802489203e-01 8.858067225973124958e-02 -9.637752063126489022e-01
8.574371676991707214e-02 -8.145675480381160682e-02 -7.262392432381291618e-01 -1.896120161688892025e-01 4.049749905913308523e-01 -8.944509714455681770e-01
2.280868665730396636e-02 -1.213066817483823973e-01 -7.309404353396309340e-01 -1.896120161688892025e-01 4.049749905913308523e-01 -8.944509714455681770e-01
-6.025948388028212754e-02 1.612724791317030337e-01 -6.337035931295852409e-01 4.984302725356856006e-02 1.944225520295553289e-01 -9.796507254611283022e-01
1.774814490654833543e-01 5.751051572914260557e-02 -6.790145842284595057e-01 -6.535812286651372371e-01 4.770568618207786105e-01 -5.875783591371283032e-01
-2.471041985511376535e-02 1.279077774443839188e-01 -6.437060136491845608e-01 4.339588294997476225e-02 4.553505006523294041e-01 -8.892540238304602607e-01
-1.824628942971225076e-01 1.133088453706098675e-01 -6.928573131222749426e-01 5.584782233006859720e-01 -1.375032227517438976e-01 -8.180433593837148631e-01
-5.749810075985802016e-02 -9.186445832180500926e-02 -7.282708743939564355e-01 1.996606210143514748e-01 3.494647145249742404e-01 -9.154288884004817550e-01
-2.896626146875344587e-01 -7.560680345372076949e-02 -7.709226746634222360e-01 1.622671755544530248e-01 1.652588717757427772e-01 -9.728097805002727805e-01
-1.894116642303363685e-01 -4.708164032265643034e-02 -7.454260925620541656e-01 6.238470144942981355e-01 1.229436674218937695e-02 -7.814497751314282148e-01
3.980422071372102105e-02 -1.270006333170395872e-02 -6.896013049728442201e-01 8.325074708798668732e-02 3.073625210326647594e-01 -9.479438769113587293e-01
2.161902288569564901e-01 -1.021956231095545453e-01 -7.836208523688873440e-01 -7.874252310999537707e-01 3.704915055687009739e-01 -4.926434306155126341e-01
-1.580745498926647563e-01 4.315812686905656087e-03 -7.196004221202874085e-01 6.238470144942981355e-01 1.229436674218937695e-02 -7.814497751314282148e-01
1.775076208549214163e-01 -6.706282700586156664e-02 -7.391749529191636858e-01 -1.896120161688892025e-01 4.049749905913308523e-01 -8.944509714455681770e-01
6.395580869777484079e-02 3.633882501080915647e-03 -6.830945316199485973e-01 -1.896120161688892025e-01 4.049749905913308523e-01 -8.944509714455681770e-01
-8.316734228170363785e-02 1.229899692432529779e-01 -6.490769381114255276e-01 4.339588294997476225e-02 4.553505006523294041e-01 -8.892540238304602607e-01
-1.747228954845103099e-01 1.003942119829470403e-01 -6.973930254488042157e-01 3.934587858353557621e-01 4.544522972567593966e-01 -7.991641216715260621e-01
1.714336592247553692e-01 -1.748983076494037975e-02 -7.226892655880423622e-01 -7.048109546162518724e-01 -8.595584510181743243e-02 -7.041683825234986704e-01
-8.072244771188952228e-02 -8.094682142724685114e-02 -7.291684412993302278e-01 1.996606210143514748e-01 3.494647145249742404e-01 -9.154288884004817550e-01
5.507517021624006373e-03 1.220582353168650630e-01 -6.452266791153189462e-01 4.339588294997476225e-02 4.553505006523294041e-01 -8.892540238304602607e-01
-3.582820354009947500e-02 6.311693709032287214e-02 -6.716605291760161522e-01 8.325074708798668732e-02 3.073625210326647594e-01 -9.479438769113587293e-01
1.400254518012235549e-01 -4.959333600694607568e-03 -7.031110071782716853e-01 -1.896120161688892025e-01 4.049749905913308523e-01 -8.944509714455681770e-01
-3.669864599103785791e-02 -4.016061495570031649e-03 -6.935042618890198129e-01 8.325074708798668732e-02 3.073625210326647594e-01 -9.479438769113587293e-01
-3.109983365402220067e-04 -1.311079402708897057e-01 -7.315170412199614169e-01 8.325074708798668732e-02 3.073625210326647594e-01 -9.479438769113587293e-01
1.978858697031406211e-01 5.632833412984533661e-02 -7.026708573676467839e-01 -6.535812286651372371e-01 4.770568618207786105e-01 -5.875783591371283032e-01
-4.890890226162955545e-02 4.122682713316996872e-02 -6.799069850195661457e-01 8.325074708798668732e-02 3.073625210326647594e-01 -9.479438769113587293e-01
1.324201925668190560e-01 5.037339638363763639e-02 -6.844004971654110703e-01 5.058029166509364627e-01 8.543322146228966574e-01 -1.194984375000044535e-01
-1.544299687661824794e-01 4.747090475035284363e-03 -7.166840947827436414e-01 6.238470144942981355e-01 1.229436674218937695e-02 -7.814497751314282148e-01
5.968675218933285065e-02 -1.463196256094878300e-01 -7.406690765678941579e-01 -8.856493582078182880e-02 4.765749775896179624e-02 -9.949296533174671886e-01
1.506778395645860524e-01 7.416396147870392419e-02 -6.649163536104779615e-01 -1.236139682126202038e-01 2.928665669755061152e-01 -9.481290844661979245e-01
-1.406736606338980233e-01 5.012659621772527774e-02 -7.041353698833990871e-01 4.411899838270937901e-01 3.046578817456986332e-01 -8.441178669243252219e-01
5.172323968257770688e-02 1.560753634825418346e-01 -6.290375204814808718e-01 4.984302725356856006e-02 1.944225520295553289e-01 -9.796507254611283022e-01
-2.180895405498775030e-01 -1.953344775257487287e-02 -7.543448950682478671e-01 -5.038233457952794037e-02 5.776414852057329408e-02 -9.970581344675996105e-01
-1.343636807230413621e-01 -5.873098059759573192e-02 -7.323870303769197676e-01 1.996606210143514748e-01 3.494647145249742404e-01 -9.154288884004817550e-01
-9.678740386346512681e-02 -1.020884419850789926e-02 -7.056681037317527050e-01 1.996606210143514748e-01 3.494647145249742404e-01 -9.154288884004817550e-01
1.325492711820187575e-01 6.885994190451219521e-02 -6.639770094472383644e-01 -1.341670917717283640e-01 2.900128347247914462e-01 -9.475714997721320643e-01
-1.472965445394516792e-01 -1.261409826130635292e-01 -7.604557159604982131e-01 2.192448259934995647e-01 3.670512018179967195e-01 -9.039939831210407339e-01
9.054777095504296059e-04 8.979812474493317764e-02 -6.588708612338982640e-01 8.209418181022694327e-02 3.782403341887694004e-01 -9.220600820476274606e-01
1.873085519301079527e-01 -7.949864171142168034e-02 -7.468831096152601656e-01 -1.896120161688892025e-01 4.049749905913308523e-01 -8.944509714455681770e-01
-2.347783464971834044e-01 7.548331454771374516e-02 -7.478636889842853464e-01 8.367818503538431152e-01 2.455872903328954263e-02 -5.469853780007907229e-01
-4.565463263368933766e-02 -1.804325160213278087e-02 -6.988389923685766059e-01 8.325074708798668732e-02 3.073625210326647594e-01 -9.479438769113587293e-01
5.843982494269538835e-02 -7.743073153163416988e-02 -7.186283344988997346e-01 -1.896120161688892025e-01 4.049749905913308523e-01 -8.944509714455681770e-01
4.722328010287505512e-02 -3.526985291031701358e-02 -6.971616541357651409e-01 -1.896120161688892025e-01 4.049749905913308523e-01 -8.944509714455681770e-01
-2.134181546079362279e-01 5.109822736307676611e-02 -7.418056150935811166e-01 4.411899838270937901e-01 3.046578817456986332e-01 -8.441178669243252219e-01
1.012459501726474115e-01 -7.373842424463379619e-02 -7.260309354371210500e-01 -1.896120161688892025e-01 4.049749905913308523e-01 -8.944509714455681770e-01
-4.956685939629987920e-04 1.316758588263649277e-01 -6.405948461075881006e-01 4.339588294997476225e-02 4.553505006523294041e-01 -8.892540238304602607e-01
2.176382330094030482e-01 8.194241384560899122e-02 -7.075376560650857849e-01 -7.369370791354291628e-01 3.525193704445338527e-01 -5.767615060462440990e-01
1.725093005772952021e-02 1.462610278933869357e-01 -6.327391789864912353e-01 4.984302725356856006e-02 1.944225520295553289e-01 -9.796507254611283022e-01
-2.609047220224771507e-02 5.439203398634016168e-02 -6.736343114331302395e-01 8.325074708798668732e-02 3.073625210326647594e-01 -9.479438769113587293e-01
-2.295436929045465424e-01 1.507742483131820077e-01 -7.364752442273423405e-01 8.367818503538431152e-01 2.455872903328954263e-02 -5.469853780007907229e-01
-1.055208944206613569e-01 -1.483278522809250433e-01 -7.595683819711926965e-01 1.959996401775266628e-01 3.324890190153311775e-01 -9.225156872836921540e-01
2.026934492230987039e-01 -5.229492072084593324e-02 -7.493328720833994927e-01 -4.788856940344726754e-01 -3.335237138321103800e-02 -8.772434732571326998e-01
1.172914887814141549e-01 -3.299886243336957320e-02 -7.109869842708088639e-01 -1.896120161688892025e-01 4.049749905913308523e-01 -8.944509714455681770e-01
2.159259035002500104e-01 9.287132186672324152e-02 -6.986699857566029959e-01 -7.369370791354291628e-01 3.525193704445338527e-01 -5.767615060462440990e-01
4.862999519541377075e-02 -1.050877610408536278e-01 -7.290708785474899756e-01 -1.896120161688892025e-01 4.049749905913308523e-01 -8.944509714455681770e-01
-2.287283716236888365e-01 1.350987085178305125e-01 -7.359317658681384655e-01 8.367818503538431152e-01 2.455872903328954263e-02 -5.469853780007907229e-01
1.239181413486261651e-01 -1.802706662453963105e-01 -7.566452449797923530e-01 -1.447670548069922292e-01 3.282321256890392003e-01 -9.334378241255087971e-01
-2.181456764095881518e-01 3.037296826557627297e-02 -7.517566528948473881e-01 4.411899838270937901e-01 3.046578817456986332e-01 -8.441178669243252219e-01
1.636585773682701361e-02 -2.965830146690166813e-02 -6.971582798405898673e-01 8.325074708798668732e-02 3.073625210326647594e-01 -9.479438769113587293e-01
1.768841787668447574e-01 2.112127879604312058e-02 -7.132780434776113676e-01 -6.416685238405649416e-01 5.602613812799829285e-01 -5.238021479132324298e-01
2.099526855898744826e-01 1.282200579050594147e-01 -6.694325977593468258e-01 -7.369370791354291628e-01 3.525193704445338527e-01 -5.767615060462440990e-01
3.676385682601378962e-02 3.987071988502921549e-02 -6.728226999472927128e-01 8.325074708798668732e-02 3.073625210326647594e-01 -9.479438769113587293e-01
-1.149805558450560650e-01 7.283906807112561221e-02 -6.825091553870302752e-01 4.411899838270937901e-01 3.046578817456986332e-01 -8.441178669243252219e-01
-7.713309932940337621e-02 -1.393450392991158610e-02 -7.028036496298011304e-01 1.996606210143514748e-01 3.494647145249742404e-01 -9.154288884004817550e-01
-2.005772857647164509e-01 -5.365712913263989692e-02 -7.544432826034105366e-01 6.238470144942981355e-01 1.229436674218937695e-02 -7.814497751314282148e-01
2.377029542849354027e-01 -7.528887528055326628e-02 -7.977709269367803113e-01 -7.874252310999537707e-01 3.704915055687009739e-01 -4.926434306155126341e-01
-1.895003471865750258e-02 -1.448234852579996235e-01 -7.393141829070000171e-01 2.292051127148481415e-01 4.604191641114574463e-02 -9.722886187951409465e-01
1.849355643547098138e-01 -9.901278639537354834e-03 -7.371298046795289327e-01 -7.048109546162518724e-01 -8.595584510181743243e-02 -7.041683825234986704e-01
-1.104096141417912763e-01 -1.012103658989162852e-01 -7.433789955372860359e-01 1.996606210143514748e-01 3.494647145249742404e-01 -9.154288884004817550e-01
-1.932911683727240593e-01 6.149446184463210757e-02 -7.275337699177655271e-01 4.411899838270937901e-01 3.046578817456986332e-01 -8.441178669243252219e-01
1.585588664096805878e-01 -2.378561045347454828e-02 -7.155637069430520469e-01 -1.896120161688892025e-01 4.049749905913308523e-01 -8.944509714455681770e-01
-4.950483208510228494e-02 -1.339454420153482483e-01 -7.424834458996804054e-01 1.959996401775266628e-01 3.324890190153311775e-01 -9.225156872836921540e-01
-9.677585771272170789e-02 -4.478288615520845811e-02 -7.188642160063528630e-01 1.996606210143514748e-01 3.494647145249742404e-01 -9.154288884004817550e-01
-1.023416941175439021e-01 -6.807347369951562144e-02 -7.289693339434812902e-01 1.996606210143514748e-01 3.494647145249742404e-01 -9.154288884004817550e-01
1.917786675262125873e-01 -3.595466385151979694e-02 -7.407988892327522779e-01 -7.048109546162518724e-01 -8.595584510181743243e-02 -7.041683825234986704e-01
2.374964911491118241e-02 2.031154919605069054e-01 -6.211251358039815429e-01 4.984302725356856006e-02 1.944225520295553289e-01 -9.796507254611283022e-01
1.912563048574316693e-01 1.078293821522287449e-01 -6.645262048572161406e-01 -2.515766606802489203e-01 8.858067225973124958e-02 -9.637752063126489022e-01
9.620725977270677687e-02 -1.726106189016938519e-01 -7.496539958942228798e-01 -1.447670548069922292e-01 3.282321256890392003e-01 -9.334378241255087971e-01
-2.122409564124776160e-01 1.138766506443989468e-01 -7.132822381423252756e-01 5.584782233006859720e-01 -1.375032227517438976e-01 -8.180433593837148631e-01
-1.915142421301480047e-01 1.252128767403180576e-01 -7.010375926350611575e-01 5.584782233006859720e-01 -1.375032227517438976e-01 -8.180433593837148631e-01
-1.957213130670787393e-01 -5.315243796199446702e-02 -7.505587221046632340e-01 6.238470144942981355e-01 1.229436674218937695e-02 -7.814497751314282148e-01
-4.191849800959720086e-04 1.773891139037456210e-01 -6.274604916317799708e-01 4.984302725356856006e-02 1.944225520295553289e-01 -9.796507254611283022e-01
-1.838078028836375166e-01 5.907677453582269034e-02 -7.234497450349699488e-01 4.411899838270937901e-01 3.046578817456986332e-01 -8.441178669243252219e-01
1.493076792450740709e-01 5.891648788757523209e-02 -6.693931243896841243e-01 -1.341670917717283640e-01 2.900128347247914462e-01 -9.475714997721320643e-01
-7.895902524291376068e-02 -6.665823942599474750e-02 -7.233291660448200044e-01 1.996606210143514748e-01 3.494647145249742404e-01 -9.154288884004817550e-01
1.051675301098161167e-02 -1.231270892961751212e-01 -7.291589192558836086e-01 -1.896120161688892025e-01 4.049749905913308523e-01 -8.944509714455681770e-01
1.787759116697310025e-01 1.241732963578542903e-01 -6.597662457715496309e-01 -2.515766606802489203e-01 8.858067225973124958e-02 -9.637752063126489022e-01
2.109052260940856571e-01 4.898651889975829538e-02 -7.251497345971462671e-01 -6.416685238405649416e-01 5.602613812799829285e-01 -5.238021479132324298e-01
1.877024158162919343e-01 5.234166026974643865e-02 -6.945802867931947233e-01 -6.535812286651372371e-01 4.770568618207786105e-01 -5.875783591371283032e-01
4.006024257023077691e-03 2.104312737111937170e-01 -6.206777611276880213e-01 4.984302725356856006e-02 1.944225520295553289e-01 -9.796507254611283022e-01
-6.116320308963775487e-02 -1.195154609937516127e-01 -7.396260178617237724e-01 1.996606210143514748e-01 3.494647145249742404e-01 -9.154288884004817550e-01
7.376301727011855269e-02 -6.769642848414986203e-02 -7.174693130132990815e-01 -1.896120161688892025e-01 4.049749905913308523e-01 -8.944509714455681770e-01
5.645566485856137046e-02 -2.874995262629104209e-02 -6.961668254676615097e-01 -1.896120161688892025e-01 4.049749905913308523e-01 -8.944509714455681770e-01
8.007382446290940703e-02 -6.975498544594342654e-02 -7.197391623695261753e-01 -1.896120161688892025e-01 4.049749905913308523e-01 -8.944509714455681770e-01
1.213573946266961745e-01 4.350894730434674840e-02 -6.800132535976183279e-01 -7.048109546162518724e-01 -8.595584510181743243e-02 -7.041683825234986704e-01
1.781109978240594804e-01 -1.174451891797006348e-01 -7.570699540973346853e-01 -3.855782516410316552e-01 4.203692871146529342e-01 -8.213519795508888999e-01
-1.527243857527678383e-01 4.519566381153975604e-02 -7.122135150209309984e-01 4.411899838270937901e-01 3.046578817456986332e-01 -8.441178669243252219e-01
1.096043894088420123e-01 5.199533492970857124e-02 -6.708751258981023868e-01 -1.896120161688892025e-01 4.049749905913308523e-01 -8.944509714455681770e-01
-1.284535889105984374e-01 -1.170879999007773953e-01 -7.531813816361856428e-01 1.959996401775266628e-01 3.324890190153311775e-01 -9.225156872836921540e-01
2.374121525265013855e-01 -2.932146316144041906e-02 -7.824092100617207057e-01 -7.737341693889191463e-01 7.600049987552928710e-02 -6.289350993057303274e-01
2.472206239243215919e-01 -6.559855398244385238e-02 -8.056960736971210402e-01 -7.874252310999537707e-01 3.704915055687009739e-01 -4.926434306155126341e-01
-2.110331255393542091e-02 1.191373356805858555e-02 -6.869695447175782066e-01 8.325074708798668732e-02 3.073625210326647594e-01 -9.479438769113587293e-01
-2.235605838160962811e-01 1.007769367296025148e-01 -7.295670400626549368e-01 8.367818503538431152e-01 2.455872903328954263e-02 -5.469853780007907229e-01
3.416632859965474875e-03 -8.028206968814440014e-02 -7.147098270103168227e-01 8.325074708798668732e-02 3.073625210326647594e-01 -9.479438769113587293e-01
-2.826873739616963047e-02 -6.281195612173916254e-02 -7.118279819249141438e-01 8.325074708798668732e-02 3.073625210326647594e-01 -9.479438769113587293e-01
-5.875316289306648648e-02 -2.360568551987192887e-03 -6.949043643174372953e-01 8.325074708798668732e-02 3.073625210326647594e-01 -9.479438769113587293e-01
2.532674256193220286e-01 -3.983930081728238870e-02 -8.031858013042610933e-01 -7.737341693889191463e-01 7.600049987552928710e-02 -6.289350993057303274e-01
-2.102250158986638043e-02 1.840880869045222971e-03 -6.902284821944396631e-01 8.325074708798668732e-02 3.073625210326647594e-01 -9.479438769113587293e-01
1.035013612378038635e-02 -9.819630715612320815e-02 -7.199094448188583240e-01 8.325074708798668732e-02 3.073625210326647594e-01 -9.479438769113587293e-01
-1.807156974311575348e-01 -1.339920392349410599e-02 -7.379540101103201355e-01 6.238470144942981355e-01 1.229436674218937695e-02 -7.814497751314282148e-01
1.710067223290184443e-02 -6.856812437592102460e-02 -7.097099168059014529e-01 8.325074708798668732e-02 3.073625210326647594e-01 -9.479438769113587293e-01
-1.923549361911170430e-01 -1.822925819271142486e-02 -7.473218377595458595e-01 6.238470144942981355e-01 1.229436674218937695e-02 -7.814497751314282148e-01
