2.797419610370383558e-01 -7.501554355880296621e-02 -9.894416197572352134e-01 -8.051433102284900889e-02 -7.325818568741825354e-01 6.759003369423023377e-01
-2.529926846870395735e-02 -5.076889948966650107e-02 -1.008289278099248509e+00 2.162504504537055786e-03 -6.312049754582217398e-01 7.756130494847632839e-01
-8.422047033063627397e-02 -1.046684240290297885e-01 -1.031915228519376448e+00 1.662122953615870480e-01 -8.045497031407513600e-01 5.701519517170502427e-01
1.468282317737025222e-01 1.656935684769080680e-02 -9.356340073761617582e-01 -5.612784601513995941e-01 -6.745717418479681982e-01 4.794991712925811833e-01
-1.568685439875731613e-01 -1.106067887805234871e-02 -9.360612018232243869e-01 7.524074795741404476e-01 -6.076206078468500138e-01 2.543229867721634174e-01
2.777661790462325753e-01 -7.963355971419006085e-02 -9.946822646005999413e-01 -8.051433102284900889e-02 -7.325818568741825354e-01 6.759003369423023377e-01
-5.971914847048676034e-02 -3.141879203290711547e-02 -9.845048935047707728e-01 2.739322477911380060e-01 -5.219008428903021413e-01 8.078246306039987834e-01
-1.064224420290841439e-01 7.727581335911783145e-02 -9.002431762975975360e-01 2.180156751072784560e-01 -6.312310374160029491e-01 7.443228753775035234e-01
1.986090388568233500e-01 -6.759038272815777459e-02 -9.934199893194626263e-01 -5.612784601513995941e-01 -6.745717418479681982e-01 4.794991712925811833e-01
-2.391633374889355901e-01 -1.321942288264700560e-01 -9.323365044657838663e-01 8.373667151574376577e-01 -1.787692899497324572e-01 5.165835124327053940e-01
2.439361076751654319e-04 2.700764312667111935e-02 -9.450648346593275573e-01 2.162504504537055786e-03 -6.312049754582217398e-01 7.756130494847632839e-01
2.557428274344891728e-01 -8.933274736884322387e-02 -1.004815834503474115e+00 -9.454801865178404097e-02 -5.766693684467671943e-01 8.114882079637563139e-01
-9.189762760368211728e-03 -4.205484503155264286e-02 -1.001242571425932537e+00 2.162504504537055786e-03 -6.312049754582217398e-01 7.756130494847632839e-01
-1.381167305169226367e-01 1.256880824801651173e-03 -9.368100280374865862e-01 2.739322477911380060e-01 -5.219008428903021413e-01 8.078246306039987834e-01
-2.061212802624289853e-01 3.075444066370200055e-02 -8.711694941459094954e-01 7.156749781269006183e-01 -2.060466687646092532e-01 6.673485565834900157e-01
-2.007474134848587222e-02 1.419688798927710438e-01 -8.603791997372567391e-01 3.321035779991739212e-02 -7.177679632405797872e-01 6.954899158724525687e-01
1.112749649460639985e-02 7.335525076522417254e-02 -9.073768344211982084e-01 2.162504504537055786e-03 -6.312049754582217398e-01 7.756130494847632839e-01
8.742812234028120300e-02 -1.372301236575813599e-01 -1.072106237719381072e+00 -2.355122937751950030e-01 -6.844142872355301055e-01 6.900080020613003073e-01
2.272941668356112943e-01 4.668824280612055011e-02 -8.665957783948851079e-01 -7.908177616512905850e-01 -4.802340128501911831e-01 3.794503403064029556e-01
1.603635874009138318e-01 3.016797960836853365e-02 -9.101590479633646646e-01 -3.624694878002442944e-01 -5.605923733964627287e-01 7.445482263114657773e-01
1.223868212494940572e-02 7.480692813000977548e-02 -9.061985367738225605e-01 2.162504504537055786e-03 -6.312049754582217398e-01 7.756130494847632839e-01
6.423308756475964998e-02 -7.374855376625814862e-02 -1.019611540541076833e+00 -1.145563339115650975e-01 -5.859312362366583260e-01 8.022228074312792723e-01
2.220963569143565852e-01 5.549522524080122837e-02 -8.662824512064146720e-01 -7.908177616512905850e-01 -4.802340128501911831e-01 3.794503403064029556e-01
-1.149825669619472697e-02 -6.624608836070840223e-02 -1.020923314334382770e+00 2.162504504537055786e-03 -6.312049754582217398e-01 7.756130494847632839e-01
5.237055035147823723e-02 1.139828798972346846e-01 -8.803797875536850670e-01 4.348394342810146806e-02 -4.999095501415015130e-01 8.649853110552011559e-01
-5.045642862147415447e-02 1.165447806004401010e-01 -8.761107157939036494e-01 4.259204724081379866e-03 -5.709373746235623104e-01 8.209825658520846225e-01
-2.395902878787419255e-01 -1.027384692132488342e-01 -9.117815004093010600e-01 8.219994076882091161e-01 -4.536487235657408745e-01 3.442670611130366765e-01
-1.906737179488064357e-02 -6.918792601078757598e-02 -1.022690873791953337e+00 2.739322477911380060e-01 -5.219008428903021413e-01 8.078246306039987834e-01
1.257628249554932354e-01 7.623423659020875376e-02 -8.946688808397516013e-01 -3.121774808154614278e-01 -4.395023285859119277e-01 8.422487302687213795e-01
-2.304546660781462905e-02 1.576704729378952397e-01 -8.440327954990913817e-01 3.321035779991739212e-02 -7.177679632405797872e-01 6.954899158724525687e-01
2.916593719323105557e-02 3.089781247913192877e-02 -9.419795973820406232e-01 2.162504504537055786e-03 -6.312049754582217398e-01 7.756130494847632839e-01
1.833525382880228649e-01 -3.749147843555102749e-02 -9.689345973673255674e-01 -5.612784601513995941e-01 -6.745717418479681982e-01 4.794991712925811833e-01
2.014740070456072230e-01 -4.272408246825756123e-03 -9.160763893267297453e-01 -3.624694878002442944e-01 -5.605923733964627287e-01 7.445482263114657773e-01
6.541727377613579079e-03 -4.348882697937295205e-02 -1.002453427740291669e+00 2.162504504537055786e-03 -6.312049754582217398e-01 7.756130494847632839e-01
2.217896332028677919e-01 -5.772437410060055757e-02 -9.765226555135819719e-01 1.287531644135527231e-01 -8.024382501746070151e-01 5.826795665803046198e-01
-6.090164077386332059e-02 1.661642432720501078e-02 -9.530704190911424289e-01 2.739322477911380060e-01 -5.219008428903021413e-01 8.078246306039987834e-01
-8.392869569756737647e-02 -1.089095056515442944e-01 -1.037984939377084581e+00 1.662122953615870480e-01 -8.045497031407513600e-01 5.701519517170502427e-01
-1.905311692855758132e-01 -5.033371347916378025e-02 -9.303011802121481377e-01 7.524074795741404476e-01 -6.076206078468500138e-01 2.543229867721634174e-01
1.336866557561006696e-01 -1.847824647031361123e-02 -9.693250799013680696e-01 -1.145563339115650975e-01 -5.859312362366583260e-01 8.022228074312792723e-01
-1.632228857109629949e-01 -2.571181233616475284e-02 -9.457198803667974385e-01 2.739322477911380060e-01 -5.219008428903021413e-01 8.078246306039987834e-01
-1.450050852271885793e-01 -3.648092936623997112e-02 -9.588549766358697157e-01 2.739322477911380060e-01 -5.219008428903021413e-01 8.078246306039987834e-01
4.357338946549400849e-02 2.634157229237015993e-02 -9.457277004569379919e-01 2.162504504537055786e-03 -6.312049754582217398e-01 7.756130494847632839e-01
-1.840001832882280641e-01 2.678579724075945065e-02 -8.961178381345478172e-01 7.156749781269006183e-01 -2.060466687646092532e-01 6.673485565834900157e-01
-9.838600979053552242e-02 -1.057722272094061000e-01 -1.029343243449166279e+00 1.662122953615870480e-01 -8.045497031407513600e-01 5.701519517170502427e-01
3.001098301517868619e-02 8.551906674082375426e-02 -8.981044432464082572e-01 4.259204724081379866e-03 -5.709373746235623104e-01 8.209825658520846225e-01
1.488316508494912371e-01 2.783961366346699232e-02 -9.175262528434314779e-01 -3.624694878002442944e-01 -5.605923733964627287e-01 7.445482263114657773e-01
3.188609724044014215e-02 -6.868157370931178562e-02 -1.020529802561366051e+00 -1.145563339115650975e-01 -5.859312362366583260e-01 8.022228074312792723e-01
-4.596963519457054198e-02 -6.510963729957032486e-02 -1.010933544985849419e+00 2.739322477911380060e-01 -5.219008428903021413e-01 8.078246306039987834e-01
-3.474510729487904209e-02 1.663685245316313677e-01 -8.344974566270300098e-01 3.321035779991739212e-02 -7.177679632405797872e-01 6.954899158724525687e-01
-7.192440647554887434e-02 -9.459590849421885272e-02 -1.021286338505239533e+00 1.662122953615870480e-01 -8.045497031407513600e-01 5.701519517170502427e-01
1.369425708837295752e-01 -5.354458207106513323e-02 -9.944720533873067092e-01 -1.145563339115650975e-01 -5.859312362366583260e-01 8.022228074312792723e-01
-1.502690630620888146e-01 -1.099387986081870085e-02 -9.406038793781895668e-01 2.739322477911380060e-01 -5.219008428903021413e-01 8.078246306039987834e-01
-1.900808481314346099e-01 -4.563943267559530947e-02 -9.204180124238837690e-01 7.524074795741404476e-01 -6.076206078468500138e-01 2.543229867721634174e-01
-2.157120299728738366e-01 6.760959392972377968e-02 -8.403257296949030453e-01 7.927552316341578420e-01 -2.611719255875046830e-01 5.507525469769409820e-01
-8.855325894430851608e-02 -1.583525419678584803e-02 -9.646594299973633158e-01 2.739322477911380060e-01 -5.219008428903021413e-01 8.078246306039987834e-01
-1.390872625068030610e-01 1.068953533543989254e-01 -8.655482313077775824e-01 3.279153568549516562e-01 -7.493746358476293112e-01 5.752470546529747653e-01
1.362181176862585497e-02 -4.529074699710904789e-02 -1.003939596127642275e+00 2.162504504537055786e-03 -6.312049754582217398e-01 7.756130494847632839e-01
-1.597911969715571090e-01 -2.852180042460276260e-02 -9.486989741834505052e-01 2.739322477911380060e-01 -5.219008428903021413e-01 8.078246306039987834e-01
2.084867302162619340e-01 -9.257100365800041697e-02 -1.012622939410437128e+00 -9.454801865178404097e-02 -5.766693684467671943e-01 8.114882079637563139e-01
9.048594058318870648e-02 -6.084778307717085555e-02 -1.006440143496649009e+00 -1.145563339115650975e-01 -5.859312362366583260e-01 8.022228074312792723e-01
-4.964778528996514201e-02 -9.196778408597304499e-02 -1.027038185807735760e+00 2.739322477911380060e-01 -5.219008428903021413e-01 8.078246306039987834e-01
-2.144888011326906152e-01 2.336206020629987001e-02 -8.630690374042181423e-01 7.927552316341578420e-01 -2.611719255875046830e-01 5.507525469769409820e-01
-7.171100693587093011e-02 4.814115171639412314e-04 -9.598291172154714834e-01 2.739322477911380060e-01 -5.219008428903021413e-01 8.078246306039987834e-01
1.328825301760819533e-01 5.938991571248250501e-02 -9.015356310342037549e-01 -3.624694878002442944e-01 -5.605923733964627287e-01 7.445482263114657773e-01
-5.099927938943844136e-02 1.023839323452397643e-01 -8.859558035569092826e-01 4.259204724081379866e-03 -5.709373746235623104e-01 8.209825658520846225e-01
1.915243807846827295e-01 5.662590867513608850e-02 -8.805265371034650679e-01 -3.121774808154614278e-01 -4.395023285859119277e-01 8.422487302687213795e-01
1.240471562797992450e-01 -6.978838216182355059e-02 -1.008177723667189607e+00 -1.145563339115650975e-01 -5.859312362366583260e-01 8.022228074312792723e-01
-1.134395809813962402e-01 -1.087113453288882647e-01 -1.029102216456128316e+00 1.662122953615870480e-01 -8.045497031407513600e-01 5.701519517170502427e-01
2.596366152189016896e-02 9.818688554401827639e-02 -8.892738421081215483e-01 4.259204724081379866e-03 -5.709373746235623104e-01 8.209825658520846225e-01
1.858035822689970418e-01 5.856150072535661749e-02 -8.816369065489814139e-01 -3.121774808154614278e-01 -4.395023285859119277e-01 8.422487302687213795e-01
6.792423629828390520e-03 1.451384772565141312e-01 -8.583910080316549118e-01 3.321035779991739212e-02 -7.177679632405797872e-01 6.954899158724525687e-01
1.131787848025802151e-01 -9.344877746395337248e-02 -1.027144161426165603e+00 -1.110675845791324889e-01 -6.009451191360239974e-01 7.915358206943935437e-01
-1.933920147655697475e-01 -3.114469172733317151e-03 -8.913509416759886061e-01 7.023648129607675816e-01 -1.078575019569706500e-01 7.035982012385960660e-01
-2.147465784349430751e-01 -1.025022760093205337e-01 -9.616401342510287886e-01 8.373667151574376577e-01 -1.787692899497324572e-01 5.165835124327053940e-01
1.575705706120515970e-01 1.503206470544881344e-02 -9.252222488948410595e-01 -5.612784601513995941e-01 -6.745717418479681982e-01 4.794991712925811833e-01
-1.702079414432408899e-01 -1.020575493033615000e-01 -1.001136780997738063e+00 4.642081450334442083e-01 -4.440550483715454133e-01 7.663719149997298974e-01
-2.035008474169872073e-02 -1.644865035047186549e-02 -9.803727681876300837e-01 2.162504504537055786e-03 -6.312049754582217398e-01 7.756130494847632839e-01
1.011218468501145773e-01 -1.382936409114835473e-02 -9.705798182532736629e-01 -1.145563339115650975e-01 -5.859312362366583260e-01 8.022228074312792723e-01
5.107740580412346160e-02 1.312997626317315147e-01 -8.703066614894194863e-01 4.348394342810146806e-02 -4.999095501415015130e-01 8.649853110552011559e-01
6.046254622790957212e-02 9.963706224043047954e-02 -8.890776036275305216e-01 4.348394342810146806e-02 -4.999095501415015130e-01 8.649853110552011559e-01
-3.587052316589763729e-02 1.244329528977927979e-01 -8.707007007590561454e-01 4.259204724081379866e-03 -5.709373746235623104e-01 8.209825658520846225e-01
2.020594617688526717e-01 -3.077290407556829144e-02 -9.375853177143130823e-01 -5.612784601513995941e-01 -6.745717418479681982e-01 4.794991712925811833e-01
-3.363977202248977227e-02 -1.071955409821983285e-01 -1.049383211741379940e+00 1.571654721640953489e-01 -7.348497353722031056e-01 6.597688085858862683e-01
-1.953105919216118203e-01 5.441659232218111659e-03 -8.881241231344705334e-01 7.023648129607675816e-01 -1.078575019569706500e-01 7.035982012385960660e-01
1.355820849153736019e-01 -5.925521807899464949e-02 -9.988372899129418503e-01 -1.145563339115650975e-01 -5.859312362366583260e-01 8.022228074312792723e-01
9.727478340688774927e-02 -1.114041528809376624e-01 -1.043007769756915337e+00 -1.110675845791324889e-01 -6.009451191360239974e-01 7.915358206943935437e-01
-1.320984724915929831e-01 -1.253264481980020809e-03 -9.404725084669827151e-01 2.739322477911380060e-01 -5.219008428903021413e-01 8.078246306039987834e-01
-9.080466127560433975e-02 -9.332276215048851409e-02 -1.013985758391997116e+00 1.662122953615870480e-01 -8.045497031407513600e-01 5.701519517170502427e-01
1.413655184521101227e-01 2.923828126709082306e-02 -9.242054264324852664e-01 -5.612784601513995941e-01 -6.745717418479681982e-01 4.794991712925811833e-01
1.345377106157116809e-01 3.368397423217735220e-02 -9.259434119626733795e-01 -5.612784601513995941e-01 -6.745717418479681982e-01 4.794991712925811833e-01
2.188978054304584753e-01 4.760611530398851932e-02 -8.829330891863221842e-01 -7.908177616512905850e-01 -4.802340128501911831e-01 3.794503403064029556e-01
-2.316907918432830893e-01 -9.579296745987996020e-02 -9.214907158260661202e-01 8.219994076882091161e-01 -4.536487235657408745e-01 3.442670611130366765e-01
1.883404994211114805e-02 3.171670729706658337e-02 -9.412843625139108994e-01 2.162504504537055786e-03 -6.312049754582217398e-01 7.756130494847632839e-01
-1.488781260442598176e-01 6.616516287180705669e-02 -8.972302134377625471e-01 2.180156751072784560e-01 -6.312310374160029491e-01 7.443228753775035234e-01
-2.009960210005194980e-01 -1.086055991206817395e-01 -9.860415050768948086e-01 8.373667151574376577e-01 -1.787692899497324572e-01 5.165835124327053940e-01
4.357050584296325024e-02 -6.482004816807088177e-02 -1.016040885748966671e+00 -1.145563339115650975e-01 -5.859312362366583260e-01 8.022228074312792723e-01
2.014849957175949557e-01 -2.771848133815810883e-02 -9.339607194882713070e-01 -5.612784601513995941e-01 -6.745717418479681982e-01 4.794991712925811833e-01
-1.108088884339221147e-01 -4.994931759977799118e-02 -9.791522089852788824e-01 2.739322477911380060e-01 -5.219008428903021413e-01 8.078246306039987834e-01
1.323174231901120546e-01 2.522737290028665563e-02 -9.375986903129583938e-01 -1.145563339115650975e-01 -5.859312362366583260e-01 8.022228074312792723e-01
-1.612485122151852690e-01 9.397097810548962760e-02 -8.697519640686388609e-01 3.279153568549516562e-01 -7.493746358476293112e-01 5.752470546529747653e-01
-1.812962685432921994e-01 7.124881574932398487e-02 -8.839003870170281107e-01 2.076626530950869409e-01 -6.305889021804156336e-01 7.478194026343577550e-01
7.988022491042868697e-03 1.142818169415072338e-03 -9.661355900249316564e-01 2.162504504537055786e-03 -6.312049754582217398e-01 7.756130494847632839e-01
5.181806434633848962e-02 -1.868949464814408448e-02 -9.811700966627608933e-01 -1.145563339115650975e-01 -5.859312362366583260e-01 8.022228074312792723e-01
9.696553967573170356e-04 9.222943549166001675e-02 -8.932871749612532053e-01 4.259204724081379866e-03 -5.709373746235623104e-01 8.209825658520846225e-01
1.400824513313718434e-01 5.694717833369610654e-02 -8.998696922208822002e-01 -3.624694878002442944e-01 -5.605923733964627287e-01 7.445482263114657773e-01
7.089409688935396914e-02 8.289235063379776780e-02 -9.001432440923649025e-01 4.259204724081379866e-03 -5.709373746235623104e-01 8.209825658520846225e-01
1.627123007378325215e-01 2.514791711633150920e-02 -9.127953739358422025e-01 -3.624694878002442944e-01 -5.605923733964627287e-01 7.445482263114657773e-01
9.769436498719554635e-03 2.137247384518103921e-01 -7.877499358598860635e-01 3.321035779991739212e-02 -7.177679632405797872e-01 6.954899158724525687e-01
2.015450859315452790e-03 -7.261971044593237834e-02 -1.026147936880428713e+00 2.162504504537055786e-03 -6.312049754582217398e-01 7.756130494847632839e-01
-2.599176824086131196e-02 1.480740158762571257e-01 -8.537959589225606605e-01 3.321035779991739212e-02 -7.177679632405797872e-01 6.954899158724525687e-01
1.842054778696128048e-01 -5.320003240488566099e-02 -9.874713202815769142e-01 -1.145563339115650975e-01 -5.859312362366583260e-01 8.022228074312792723e-01
-2.379084000534873594e-02 1.466901089555781579e-01 -8.553292919610792078e-01 3.321035779991739212e-02 -7.177679632405797872e-01 6.954899158724525687e-01
2.232444151855405567e-01 6.120083580881998525e-02 -8.566687211774538513e-01 -7.908177616512905850e-01 -4.802340128501911831e-01 3.794503403064029556e-01
-1.730151255024802992e-01 -1.250497558063591308e-01 -1.012758667827911685e+00 4.642081450334442083e-01 -4.440550483715454133e-01 7.663719149997298974e-01
1.506321025971657235e-01 3.248216261910127217e-02 -9.131542239467093092e-01 -3.624694878002442944e-01 -5.605923733964627287e-01 7.445482263114657773e-01
-2.174761481285724662e-01 8.359810645771015292e-02 -8.302045518048287720e-01 7.927552316341578420e-01 -2.611719255875046830e-01 5.507525469769409820e-01
-3.350241525381605218e-02 1.839051664866474950e-02 -9.519834862650532470e-01 2.162504504537055786e-03 -6.312049754582217398e-01 7.756130494847632839e-01
-1.217832385808295323e-02 8.315764411274265133e-02 -8.995277762002575894e-01 4.259204724081379866e-03 -5.709373746235623104e-01 8.209825658520846225e-01
-2.388120639367169451e-01 -1.094674700924461036e-01 -9.225066109301173212e-01 8.219994076882091161e-01 -4.536487235657408745e-01 3.442670611130366765e-01
-5.196857744942489504e-02 1.409637343090609438e-02 -9.554266354065277245e-01 2.162504504537055786e-03 -6.312049754582217398e-01 7.756130494847632839e-01
-7.572517908169559830e-02 -1.788115809289683722e-02 -9.703311854079862409e-01 2.739322477911380060e-01 -5.219008428903021413e-01 8.078246306039987834e-01
-5.159053104364706710e-02 -1.173272000776568180e-01 -1.056391738709827832e+00 1.571654721640953489e-01 -7.348497353722031056e-01 6.597688085858862683e-01
2.225529857245507337e-01 4.030830892384676400e-02 -8.845514125322371246e-01 -7.908177616512905850e-01 -4.802340128501911831e-01 3.794503403064029556e-01
-2.637219111369886945e-02 -2.807909954092733737e-02 -9.898210034494546727e-01 2.162504504537055786e-03 -6.312049754582217398e-01 7.756130494847632839e-01
2.078394693841125740e-01 -5.559306712571605857e-02 -9.705049913009137219e-01 1.287531644135527231e-01 -8.024382501746070151e-01 5.826795665803046198e-01
2.148195194435082167e-01 -4.611000501011573716e-02 -9.589877378698165034e-01 1.287531644135527231e-01 -8.024382501746070151e-01 5.826795665803046198e-01
-2.518684744477061796e-02 7.901110307063931304e-02 -9.026727721953153871e-01 2.162504504537055786e-03 -6.312049754582217398e-01 7.756130494847632839e-01
9.727129191965164234e-02 -1.202348223548896922e-01 -1.050829848757552254e+00 -1.521543953665871474e-01 -7.997314824020398394e-01 5.807569164682105933e-01
1.620079056003088380e-01 4.786628033465410020e-02 -8.960376984140089318e-01 -3.121774808154614278e-01 -4.395023285859119277e-01 8.422487302687213795e-01
2.343374443382261196e-01 1.015447561392435714e-02 -8.892150072963095342e-01 -3.624694878002442944e-01 -5.605923733964627287e-01 7.445482263114657773e-01
1.609969101193856333e-01 -4.070666561876130386e-03 -9.480857548167965776e-01 -5.612784601513995941e-01 -6.745717418479681982e-01 4.794991712925811833e-01
-2.057630531410725439e-01 -5.980395161217962746e-02 -9.232769470420127966e-01 5.427276836708656571e-01 -7.335861990595017312e-01 4.090207206568998166e-01
-7.113087356366432079e-02 -1.104931991911676792e-01 -1.043950569327893207e+00 1.662122953615870480e-01 -8.045497031407513600e-01 5.701519517170502427e-01
7.641157478739583897e-02 1.274996043063698625e-01 -8.737765065508381612e-01 4.348394342810146806e-02 -4.999095501415015130e-01 8.649853110552011559e-01
5.949240582919115838e-02 1.072576076958769303e-01 -8.846246158929972347e-01 4.348394342810146806e-02 -4.999095501415015130e-01 8.649853110552011559e-01
2.723436167615490497e-02 -1.016210073899084243e-01 -1.045408276319256036e+00 -1.110675845791324889e-01 -6.009451191360239974e-01 7.915358206943935437e-01
-1.045817465067923890e-01 -1.337640191773415976e-01 -1.058070008298251041e+00 2.290714377877153263e-01 -5.981680496641516021e-01 7.679331095550276931e-01
1.082024355026105222e-01 -1.452509816278883988e-02 -9.700768732490429036e-01 -1.145563339115650975e-01 -5.859312362366583260e-01 8.022228074312792723e-01
-1.402289774494688557e-01 2.292519702918139127e-02 -9.040908936728890843e-01 7.524074795741404476e-01 -6.076206078468500138e-01 2.543229867721634174e-01
1.174471926359961088e-01 6.196399994561106045e-02 -9.071119345641647236e-01 -3.624694878002442944e-01 -5.605923733964627287e-01 7.445482263114657773e-01
-1.891687982705940185e-01 1.081613661185890918e-01 -8.353503843384428862e-01 3.279153568549516562e-01 -7.493746358476293112e-01 5.752470546529747653e-01
5.985142072890006076e-02 -3.467193446878245270e-03 -9.689048088570927364e-01 -1.145563339115650975e-01 -5.859312362366583260e-01 8.022228074312792723e-01
4.955640787385143069e-03 -7.754639761065336423e-02 -1.030165542859249994e+00 2.162504504537055786e-03 -6.312049754582217398e-01 7.756130494847632839e-01
-1.830345691354107185e-01 -3.161971809961545282e-02 -9.077687646561087842e-01 7.524074795741404476e-01 -6.076206078468500138e-01 2.543229867721634174e-01
1.718574287294409933e-02 3.898198838172925451e-02 -9.353671773360026087e-01 2.162504504537055786e-03 -6.312049754582217398e-01 7.756130494847632839e-01
1.292249808388604149e-01 4.151328409131941136e-03 -9.534339065952646131e-01 -1.145563339115650975e-01 -5.859312362366583260e-01 8.022228074312792723e-01
-1.589422860197723941e-01 -1.031954391173277655e-02 -9.281553970039891910e-01 7.524074795741404476e-01 -6.076206078468500138e-01 2.543229867721634174e-01
-1.460608991818604652e-01 2.744541637065623426e-03 -9.331550572688109835e-01 2.739322477911380060e-01 -5.219008428903021413e-01 8.078246306039987834e-01
-4.961924908803024697e-02 2.705673958710396593e-02 -9.448858545702341072e-01 2.162504504537055786e-03 -6.312049754582217398e-01 7.756130494847632839e-01
-2.361660098153300635e-01 -1.296340173085819836e-01 -9.363090958933718566e-01 8.373667151574376577e-01 -1.787692899497324572e-01 5.165835124327053940e-01
-1.755341273423957193e-03 5.473298091534045673e-03 -9.625842179292413148e-01 2.162504504537055786e-03 -6.312049754582217398e-01 7.756130494847632839e-01
-1.447006979457699516e-01 -1.028954779776054956e-01 -1.011782033077896603e+00 1.662122953615870480e-01 -8.045497031407513600e-01 5.701519517170502427e-01
-2.267401840212513731e-01 -8.739140529462224860e-02 -9.222402465663729343e-01 8.219994076882091161e-01 -4.536487235657408745e-01 3.442670611130366765e-01
-1.584995585691575393e-01 -3.356719419396385004e-03 -9.128298290929742764e-01 7.524074795741404476e-01 -6.076206078468500138e-01 2.543229867721634174e-01
-2.774283260012682176e-02 -9.901710130737088889e-02 -1.040405084199335750e+00 1.662122953615870480e-01 -8.045497031407513600e-01 5.701519517170502427e-01
-2.198925849360001683e-01 -8.932109097061879943e-02 -9.411329103458629941e-01 8.219994076882091161e-01 -4.536487235657408745e-01 3.442670611130366765e-01
-4.712080251528915492e-02 -1.084026307727728455e-01 -1.047516310952109286e+00 1.571654721640953489e-01 -7.348497353722031056e-01 6.597688085858862683e-01
-1.583166208692134147e-01 5.855036197143240195e-02 -9.009894309564608905e-01 2.076626530950869409e-01 -6.305889021804156336e-01 7.478194026343577550e-01
-1.594867148327308859e-01 1.021213387873966538e-01 -8.601387846426385986e-01 3.279153568549516562e-01 -7.493746358476293112e-01 5.752470546529747653e-01
-1.693721192093655958e-01 -6.533883149395609824e-02 -9.692360008533289495e-01 2.739322477911380060e-01 -5.219008428903021413e-01 8.078246306039987834e-01
1.706479064435193404e-03 1.485240838745248149e-01 -8.546540940290267008e-01 3.321035779991739212e-02 -7.177679632405797872e-01 6.954899158724525687e-01
1.337300856348784817e-01 -7.135020351461099364e-02 -1.007935744792212596e+00 -1.145563339115650975e-01 -5.859312362366583260e-01 8.022228074312792723e-01
-7.846847966541066477e-02 1.040121368304080807e-01 -8.846809899552242618e-01 4.259204724081379866e-03 -5.709373746235623104e-01 8.209825658520846225e-01
1.265124026796873025e-01 2.428362409836594751e-02 -9.391169390574209963e-01 -1.145563339115650975e-01 -5.859312362366583260e-01 8.022228074312792723e-01
1.480834744244816092e-01 -6.226984183443930870e-02 -9.992539433286212747e-01 -1.145563339115650975e-01 -5.859312362366583260e-01 8.022228074312792723e-01
-2.126030343965573111e-01 5.128946802980731412e-02 -8.525399831782294324e-01 7.927552316341578420e-01 -2.611719255875046830e-01 5.507525469769409820e-01
2.038889601411481567e-01 6.213380728718766177e-02 -8.802216461772440770e-01 3.730287559420628618e-01 1.288906581155285502e-01 9.188235660293344598e-01
1.264531005453247425e-01 7.786866848383806883e-02 -8.935601524032371623e-01 -3.121774808154614278e-01 -4.395023285859119277e-01 8.422487302687213795e-01
1.999859928997574365e-01 -4.795038400657290062e-02 -9.641781394229732571e-01 -5.612784601513995941e-01 -6.745717418479681982e-01 4.794991712925811833e-01
5.840213334151286156e-02 -1.082653183428772953e-01 -1.046079297273377007e+00 -1.110675845791324889e-01 -6.009451191360239974e-01 7.915358206943935437e-01
-1.795303073367247593e-01 -2.688723917217351878e-02 -9.068293335105809261e-01 7.524074795741404476e-01 -6.076206078468500138e-01 2.543229867721634174e-01
1.322263804937301168e-01 1.023106484950806264e-02 -9.485647645148052032e-01 -1.145563339115650975e-01 -5.859312362366583260e-01 8.022228074312792723e-01
8.198709757731741099e-02 3.906883399618792801e-02 -9.346762019434577962e-01 -1.145563339115650975e-01 -5.859312362366583260e-01 8.022228074312792723e-01
-1.093557941109583737e-01 2.655903652628474956e-02 -9.302161854787380779e-01 2.739322477911380060e-01 -5.219008428903021413e-01 8.078246306039987834e-01
1.750607284296714639e-01 -1.074274681875423965e-01 -1.028217157926061054e+00 -1.342152170031833680e-01 -5.676057138214193332e-01 8.122869130806340543e-01
5.217902991054545678e-03 1.615963082791172789e-01 -8.413308120813738356e-01 3.321035779991739212e-02 -7.177679632405797872e-01 6.954899158724525687e-01
2.569464230269211669e-01 -8.280601318100228037e-02 -1.000037496109162261e+00 -9.454801865178404097e-02 -5.766693684467671943e-01 8.114882079637563139e-01
4.504710031486267897e-03 1.859331090469897030e-02 -9.519244179399398709e-01 2.162504504537055786e-03 -6.312049754582217398e-01 7.756130494847632839e-01
7.427235077877432368e-02 8.774117181816670774e-02 -8.967887458646961463e-01 4.259204724081379866e-03 -5.709373746235623104e-01 8.209825658520846225e-01
-1.209556666223365468e-01 -9.745866486848575594e-02 -1.011032285204569003e+00 1.662122953615870480e-01 -8.045497031407513600e-01 5.701519517170502427e-01
-1.639655953884559259e-01 6.315846197966429321e-02 -8.955350421736985034e-01 2.076626530950869409e-01 -6.305889021804156336e-01 7.478194026343577550e-01
2.293078513308900723e-01 8.269253819436302166e-02 -8.104364899586037341e-01 -4.995364050820537694e-01 -7.839255674662408691e-01 3.686788367542010447e-01
-1.264268757136443044e-01 -1.093871315021543444e-01 -1.026269735574439013e+00 1.662122953615870480e-01 -8.045497031407513600e-01 5.701519517170502427e-01
1.010670461970554629e-01 -1.044962519770357458e-02 -9.681191342540195199e-01 -1.145563339115650975e-01 -5.859312362366583260e-01 8.022228074312792723e-01
2.329958323270442944e-01 2.533293427082082896e-02 -8.817402296221554803e-01 -7.908177616512905850e-01 -4.802340128501911831e-01 3.794503403064029556e-01
2.619172516384929983e-01 -6.553773349635498568e-02 -9.812923012250585053e-01 -8.051433102284900889e-02 -7.325818568741825354e-01 6.759003369423023377e-01
1.635542918261269352e-02 -6.081439531036610807e-02 -1.016580584464643611e+00 2.162504504537055786e-03 -6.312049754582217398e-01 7.756130494847632839e-01
-9.246680456021509620e-02 7.013014819925793633e-03 -9.485710653778205437e-01 2.739322477911380060e-01 -5.219008428903021413e-01 8.078246306039987834e-01
-1.869809443265451898e-01 -1.064673379703727218e-01 -9.935321499808729140e-01 4.642081450334442083e-01 -4.440550483715454133e-01 7.663719149997298974e-01
2.217703431283811200e-01 9.769927041251291744e-03 -8.956226053095933670e-01 -3.624694878002442944e-01 -5.605923733964627287e-01 7.445482263114657773e-01
2.144577352003306792e-01 1.761382693380360298e-02 -8.932767086361990128e-01 -3.624694878002442944e-01 -5.605923733964627287e-01 7.445482263114657773e-01
-5.146462636682142856e-03 -2.821463608713939419e-02 -9.899904849658583972e-01 2.162504504537055786e-03 -6.312049754582217398e-01 7.756130494847632839e-01
8.993861869652052324e-03 -7.579727860357526881e-02 -1.028753343890468797e+00 2.162504504537055786e-03 -6.312049754582217398e-01 7.756130494847632839e-01
-2.133296919558357319e-01 -1.115949511198074257e-01 -9.670834838398773003e-01 8.373667151574376577e-01 -1.787692899497324572e-01 5.165835124327053940e-01
1.791669422938716241e-02 -5.001995746094219791e-02 -1.007800269796577552e+00 2.162504504537055786e-03 -6.312049754582217398e-01 7.756130494847632839e-01
1.110249120782913629e-01 -1.417249720653527001e-01 -1.068510633610035399e+00 -2.355122937751950030e-01 -6.844142872355301055e-01 6.900080020613003073e-01
-1.782010920176028690e-01 1.034255268910843489e-02 -9.044523521636095298e-01 7.023648129607675816e-01 -1.078575019569706500e-01 7.035982012385960660e-01
-2.461928246815122540e-02 -1.060507005025749516e-01 -1.050256887139433104e+00 1.571654721640953489e-01 -7.348497353722031056e-01 6.597688085858862683e-01
2.842378934893703413e-01 -7.586107228365365773e-02 -9.898224924917168321e-01 -8.051433102284900889e-02 -7.325818568741825354e-01 6.759003369423023377e-01
3.256295364118770574e-02 -2.957715944630787477e-02 -9.912044644194982768e-01 2.162504504537055786e-03 -6.312049754582217398e-01 7.756130494847632839e-01
-3.048090971779273545e-02 -5.449029036973745271e-02 -1.009325046458911412e+00 2.739322477911380060e-01 -5.219008428903021413e-01 8.078246306039987834e-01
4.459859355451386426e-02 1.176724551659578608e-02 -9.575913541040704802e-01 2.162504504537055786e-03 -6.312049754582217398e-01 7.756130494847632839e-01
2.039249340914660313e-01 7.391307411478843792e-02 -8.634965944146379968e-01 -4.995364050820537694e-01 -7.839255674662408691e-01 3.686788367542010447e-01
-2.459458999840942461e-01 -1.069694186907476224e-01 -9.021815562686328338e-01 8.219994076882091161e-01 -4.536487235657408745e-01 3.442670611130366765e-01
2.561311137880752098e-02 1.712059625787687722e-01 -8.323872319025832356e-01 3.321035779991739212e-02 -7.177679632405797872e-01 6.954899158724525687e-01
-1.118308960928892648e-01 -2.159276755015302959e-02 -9.604856969028651159e-01 2.739322477911380060e-01 -5.219008428903021413e-01 8.078246306039987834e-01
1.305816661962280467e-01 8.078060859888044898e-02 -8.905104004793314987e-01 -3.121774808154614278e-01 -4.395023285859119277e-01 8.422487302687213795e-01
2.295574823642557161e-01 6.114482051533371570e-02 -8.435824627694519240e-01 -7.908177616512905850e-01 -4.802340128501911831e-01 3.794503403064029556e-01
1.442144744444619729e-02 -8.770848814525608605e-02 -1.036920697496158672e+00 -1.145563339115650975e-01 -5.859312362366583260e-01 8.022228074312792723e-01
-6.162332618263199890e-02 5.990281894394838130e-02 -9.181217773039793695e-01 2.162504504537055786e-03 -6.312049754582217398e-01 7.756130494847632839e-01
-1.396339266205435525e-01 -3.597397916484512681e-02 -9.603488105290592936e-01 2.739322477911380060e-01 -5.219008428903021413e-01 8.078246306039987834e-01
-5.964954082905566529e-02 6.025317383428795137e-02 -9.178421566472815263e-01 2.162504504537055786e-03 -6.312049754582217398e-01 7.756130494847632839e-01
1.105244813405053816e-01 -3.683418205887354496e-02 -9.860395009997795501e-01 -1.145563339115650975e-01 -5.859312362366583260e-01 8.022228074312792723e-01
-2.408834188434322288e-02 8.098967612714998848e-03 -9.603851434278100063e-01 2.162504504537055786e-03 -6.312049754582217398e-01 7.756130494847632839e-01
1.921060893399575698e-01 -4.545222372022607316e-02 -9.698874961107643022e-01 -5.612784601513995941e-01 -6.745717418479681982e-01 4.794991712925811833e-01
1.987426646334952973e-01 -4.466392188420602316e-02 -9.610100398837038149e-01 -5.612784601513995941e-01 -6.745717418479681982e-01 4.794991712925811833e-01
-1.787994030818342017e-01 -9.532886186922670535e-02 -9.911641210319982465e-01 1.662122953615870480e-01 -8.045497031407513600e-01 5.701519517170502427e-01
-1.424167286172765001e-01 1.932252722840337514e-02 -9.062258798926017267e-01 7.524074795741404476e-01 -6.076206078468500138e-01 2.543229867721634174e-01
-6.523875416422560136e-02 2.469398413151175156e-02 -9.463811448531543880e-01 2.739322477911380060e-01 -5.219008428903021413e-01 8.078246306039987834e-01
2.086865686626870886e-01 1.394195365651499513e-02 -8.988509559281396832e-01 -3.624694878002442944e-01 -5.605923733964627287e-01 7.445482263114657773e-01
1.801777781612647344e-01 -3.106661828099117548e-02 -9.636121593255360107e-01 -5.612784601513995941e-01 -6.745717418479681982e-01 4.794991712925811833e-01
1.868097049451152292e-01 3.532191174503431647e-02 -8.934036984930258107e-01 -3.624694878002442944e-01 -5.605923733964627287e-01 7.445482263114657773e-01
1.150330089320095728e-01 8.262827316524649912e-02 -8.953093246334274946e-01 -3.121774808154614278e-01 -4.395023285859119277e-01 8.422487302687213795e-01
-7.965750671809579408e-02 7.338686612310636737e-02 -9.070979856450828160e-01 2.162504504537055786e-03 -6.312049754582217398e-01 7.756130494847632839e-01
2.187132097704689859e-01 -4.280974647602027450e-02 -9.553031591484776319e-01 1.287531644135527231e-01 -8.024382501746070151e-01 5.826795665803046198e-01
6.105225448493449558e-02 -1.189095005584555470e-01 -1.058493957527509188e+00 -1.521543953665871474e-01 -7.997314824020398394e-01 5.807569164682105933e-01
1.937755042199446887e-01 6.511227006311211263e-02 -8.765335454596665521e-01 3.730287559420628618e-01 1.288906581155285502e-01 9.188235660293344598e-01
2.113532604060240905e-01 1.247506317534859480e-02 -8.986571917515818742e-01 -3.624694878002442944e-01 -5.605923733964627287e-01 7.445482263114657773e-01
1.244686820148310225e-01 -6.163204623446465885e-02 -1.002160267679630845e+00 -1.145563339115650975e-01 -5.859312362366583260e-01 8.022228074312792723e-01
-7.794777869201920117e-02 -1.242735741136775790e-01 -1.057849964436845536e+00 1.571654721640953489e-01 -7.348497353722031056e-01 6.597688085858862683e-01
-2.131229629980991441e-02 7.166416913112423626e-02 -9.086626146745968580e-01 2.162504504537055786e-03 -6.312049754582217398e-01 7.756130494847632839e-01
-1.692730322562935041e-01 5.405956383629175604e-02 -9.017337416910435888e-01 2.076626530950869409e-01 -6.305889021804156336e-01 7.478194026343577550e-01
-9.736203482417409016e-02 7.771956784216857428e-02 -8.999985359374161886e-01 7.524074795741404476e-01 -6.076206078468500138e-01 2.543229867721634174e-01
-1.703121388178396034e-01 -2.055468548084773625e-02 -9.189714873034046105e-01 7.524074795741404476e-01 -6.076206078468500138e-01 2.543229867721634174e-01
-4.025305460345459524e-03 1.522379013597862651e-01 -8.505476163332851280e-01 3.321035779991739212e-02 -7.177679632405797872e-01 6.954899158724525687e-01
-1.821652388025374880e-01 4.459529757847863207e-02 -8.925869031545546894e-01 7.156749781269006183e-01 -2.060466687646092532e-01 6.673485565834900157e-01
9.899723804203347521e-02 5.219884959736133950e-02 -9.226572148059140055e-01 -1.145563339115650975e-01 -5.859312362366583260e-01 8.022228074312792723e-01
8.729063493050601141e-02 -7.375116441471722684e-02 -1.016320860682215832e+00 -1.145563339115650975e-01 -5.859312362366583260e-01 8.022228074312792723e-01
1.893955902448455075e-01 4.619436992707167539e-03 -9.152616092304837192e-01 -3.624694878002442944e-01 -5.605923733964627287e-01 7.445482263114657773e-01
-2.932248003976944267e-02 -8.186197951425026875e-02 -1.027401542678819002e+00 2.739322477911380060e-01 -5.219008428903021413e-01 8.078246306039987834e-01
-5.653398993988707766e-02 9.027136434671784171e-02 -8.943505546690107000e-01 4.259204724081379866e-03 -5.709373746235623104e-01 8.209825658520846225e-01
2.100074215397128574e-01 -7.385601069901027993e-02 -9.961348847120879979e-01 1.287531644135527231e-01 -8.024382501746070151e-01 5.826795665803046198e-01
1.277559783055622344e-01 -1.042522543793116957e-01 -1.033300854430140081e+00 -1.110675845791324889e-01 -6.009451191360239974e-01 7.915358206943935437e-01
-6.725768155791576886e-02 1.161862669273174553e-01 -8.762728737799063694e-01 4.259204724081379866e-03 -5.709373746235623104e-01 8.209825658520846225e-01
1.563639814210470158e-01 7.120024937808173970e-02 -8.859534710446987926e-01 -3.121774808154614278e-01 -4.395023285859119277e-01 8.422487302687213795e-01
-1.938780705806566335e-02 8.029221767965281920e-02 -9.016463512694268267e-01 2.162504504537055786e-03 -6.312049754582217398e-01 7.756130494847632839e-01
-8.795140061301524523e-03 1.939620540435792184e-01 -8.072591842274621232e-01 3.321035779991739212e-02 -7.177679632405797872e-01 6.954899158724525687e-01
-1.807542343676444424e-02 -5.239061536665044760e-02 -1.009629194605867308e+00 2.162504504537055786e-03 -6.312049754582217398e-01 7.756130494847632839e-01
1.411350616271067962e-02 8.843558054670556945e-02 -8.959937317453716688e-01 4.259204724081379866e-03 -5.709373746235623104e-01 8.209825658520846225e-01
-1.915539623484587284e-01 -9.134807376685406821e-02 -9.818285282272529724e-01 1.662122953615870480e-01 -8.045497031407513600e-01 5.701519517170502427e-01
1.189056793813581675e-01 -3.042065042048545248e-02 -9.801583320786695364e-01 -1.145563339115650975e-01 -5.859312362366583260e-01 8.022228074312792723e-01
4.781062486230234360e-02 1.590809258453712294e-01 -8.459606138739969028e-01 3.321035779991739212e-02 -7.177679632405797872e-01 6.954899158724525687e-01
2.324445708600000882e-02 -8.082081112984335070e-02 -1.030630129962680996e+00 -1.145563339115650975e-01 -5.859312362366583260e-01 8.022228074312792723e-01
1.796962150273840042e-01 4.314989646638851817e-02 -8.919426727282824263e-01 -3.121774808154614278e-01 -4.395023285859119277e-01 8.422487302687213795e-01
-1.372023466322835061e-01 -9.619863854586221952e-02 -1.004517966049667699e+00 1.662122953615870480e-01 -8.045497031407513600e-01 5.701519517170502427e-01
1.816618902834164495e-01 2.806720864265579984e-02 -9.013720969989994503e-01 -3.624694878002442944e-01 -5.605923733964627287e-01 7.445482263114657773e-01
-1.460051552326935009e-01 3.782061118363418128e-02 -9.096988945618130762e-01 -4.595406648421550000e-01 3.429469317648395910e-01 8.192739342549064663e-01
-1.072608810817681363e-01 1.595802946401551903e-02 -9.377754236165151136e-01 2.739322477911380060e-01 -5.219008428903021413e-01 8.078246306039987834e-01
-2.158218091230105773e-01 -7.985217829652437038e-02 -9.383752116047168190e-01 8.219994076882091161e-01 -4.536487235657408745e-01 3.442670611130366765e-01
-1.401218103845612573e-01 -8.486530844142593788e-02 -9.917699604936974778e-01 2.739322477911380060e-01 -5.219008428903021413e-01 8.078246306039987834e-01
1.789297866798252867e-01 8.698065342340190187e-02 -8.695777044054640026e-01 -4.995364050820537694e-01 -7.839255674662408691e-01 3.686788367542010447e-01
-4.663272563934561799e-02 -5.284358922505323630e-02 -1.002784124386817632e+00 2.739322477911380060e-01 -5.219008428903021413e-01 8.078246306039987834e-01
3.001973823938516167e-02 1.479562157469535288e-01 -8.565921394071642769e-01 3.321035779991739212e-02 -7.177679632405797872e-01 6.954899158724525687e-01
-5.663338054226185747e-02 1.333326945791029478e-02 -9.560346542725836061e-01 2.162504504537055786e-03 -6.312049754582217398e-01 7.756130494847632839e-01
2.110801199408140483e-01 -2.195660585567717465e-03 -9.098361868024897881e-01 -3.624694878002442944e-01 -5.605923733964627287e-01 7.445482263114657773e-01
-2.219840111988459763e-01 1.101645682341530763e-01 -8.111178565759997738e-01 7.927552316341578420e-01 -2.611719255875046830e-01 5.507525469769409820e-01
-2.085670013402844414e-01 6.453377595389925281e-02 -8.520688912429776884e-01 7.927552316341578420e-01 -2.611719255875046830e-01 5.507525469769409820e-01
1.790852421317545504e-02 1.568805256184104546e-01 -8.468036416653599296e-01 3.321035779991739212e-02 -7.177679632405797872e-01 6.954899158724525687e-01
-1.897735235620170990e-02 2.745809569977069112e-02 -9.446446586083302455e-01 2.162504504537055786e-03 -6.312049754582217398e-01 7.756130494847632839e-01
-2.000168555515306479e-01 8.835572521765261422e-02 -8.530794148399395427e-01 7.927552316341578420e-01 -2.611719255875046830e-01 5.507525469769409820e-01
-7.316513530119127251e-02 3.582181446064115760e-02 -9.365041057932714796e-01 2.739322477911380060e-01 -5.219008428903021413e-01 8.078246306039987834e-01
-6.883072462732803265e-02 3.383586041103261999e-02 -9.392569383598035060e-01 2.739322477911380060e-01 -5.219008428903021413e-01 8.078246306039987834e-01
1.611442781183773931e-01 8.041764419974088696e-02 -8.793718434697075370e-01 -3.121774808154614278e-01 -4.395023285859119277e-01 8.422487302687213795e-01
3.537618709990988930e-02 4.975316928426926771e-02 -9.266521536986956908e-01 2.162504504537055786e-03 -6.312049754582217398e-01 7.756130494847632839e-01
7.255249980632022533e-02 1.423411698387095636e-01 -8.644180304383682900e-01 3.321035779991739212e-02 -7.177679632405797872e-01 6.954899158724525687e-01
1.755172021071824476e-02 1.595374694932272519e-01 -8.440445523697938102e-01 3.321035779991739212e-02 -7.177679632405797872e-01 6.954899158724525687e-01
-2.194433806111098506e-02 -5.022115422917595301e-02 -1.007852869142731755e+00 2.162504504537055786e-03 -6.312049754582217398e-01 7.756130494847632839e-01
8.398002704244512950e-02 9.643962780883362507e-02 -8.921077831925683377e-01 4.348394342810146806e-02 -4.999095501415015130e-01 8.649853110552011559e-01
1.357799699764346757e-03 -7.086393067213135610e-02 -1.024717224615641298e+00 2.162504504537055786e-03 -6.312049754582217398e-01 7.756130494847632839e-01
1.497234877533573094e-01 4.963652290749610146e-02 -9.006805411644186465e-01 -3.624694878002442944e-01 -5.605923733964627287e-01 7.445482263114657773e-01
-2.151562202216655562e-01 -5.926369802783649360e-02 -9.098442427608548488e-01 5.427276836708656571e-01 -7.335861990595017312e-01 4.090207206568998166e-01
-2.522847559526279065e-02 -1.763895271327536526e-03 -9.684085032520395320e-01 2.162504504537055786e-03 -6.312049754582217398e-01 7.756130494847632839e-01
1.997618458521083773e-01 -6.614383820922091484e-02 -9.900355334368997617e-01 -5.612784601513995941e-01 -6.745717418479681982e-01 4.794991712925811833e-01
-2.472664665591730038e-01 -1.060190587387714461e-01 -8.977761550758314169e-01 8.219994076882091161e-01 -4.536487235657408745e-01 3.442670611130366765e-01
-1.764338716124000395e-01 5.443077891926158957e-02 -8.956965643683262313e-01 7.156749781269006183e-01 -2.060466687646092532e-01 6.673485565834900157e-01
1.993927780613047318e-01 -1.855291101064654447e-02 -9.278418097951892651e-01 -3.624694878002442944e-01 -5.605923733964627287e-01 7.445482263114657773e-01
-2.310296524386664663e-01 -8.659727364811127537e-02 -9.109519249545666719e-01 8.219994076882091161e-01 -4.536487235657408745e-01 3.442670611130366765e-01
6.913382848113732056e-03 1.038439092352511361e-01 -8.852409363813820153e-01 4.259204724081379866e-03 -5.709373746235623104e-01 8.209825658520846225e-01
2.324527138761031120e-01 7.365523533900937558e-02 -8.217152344777193251e-01 -7.908177616512905850e-01 -4.802340128501911831e-01 3.794503403064029556e-01
-1.184728564120401118e-01 -1.665878921915380645e-02 -9.550457853140963405e-01 2.739322477911380060e-01 -5.219008428903021413e-01 8.078246306039987834e-01
1.344025072359308348e-01 6.507453071072054340e-02 -8.972899622278015519e-01 -3.121774808154614278e-01 -4.395023285859119277e-01 8.422487302687213795e-01
3.075849258829971853e-05 1.169736344722300536e-01 -8.760744014566262949e-01 4.259204724081379866e-03 -5.709373746235623104e-01 8.209825658520846225e-01
-6.341223560170589080e-02 -8.599726961370407138e-03 -9.685101534777352805e-01 2.739322477911380060e-01 -5.219008428903021413e-01 8.078246306039987834e-01
1.045934727602985601e-02 -2.265792789607394900e-02 -9.855118674059240025e-01 2.162504504537055786e-03 -6.312049754582217398e-01 7.756130494847632839e-01
8.057553810968116903e-02 -5.078920490131460380e-02 -1.000508704342425226e+00 -1.145563339115650975e-01 -5.859312362366583260e-01 8.022228074312792723e-01
-7.362925641847912692e-03 1.599739966881119635e-01 -8.424043423354578008e-01 3.321035779991739212e-02 -7.177679632405797872e-01 6.954899158724525687e-01
-1.834730549735999194e-01 -8.845805014463521687e-02 -9.801061426754911210e-01 1.662122953615870480e-01 -8.045497031407513600e-01 5.701519517170502427e-01
1.365881127313907650e-01 -9.379250810486742390e-03 -9.622649888679293273e-01 -1.145563339115650975e-01 -5.859312362366583260e-01 8.022228074312792723e-01
2.228876664406044261e-01 -4.464105466433988118e-02 -9.587475672919305580e-01 1.287531644135527231e-01 -8.024382501746070151e-01 5.826795665803046198e-01
-1.981936231563148632e-01 7.693137607596571559e-02 -8.611213137072650792e-01 7.927552316341578420e-01 -2.611719255875046830e-01 5.507525469769409820e-01
-2.432712107307879457e-01 -1.150909354480941504e-01 -9.192697687549974406e-01 8.219994076882091161e-01 -4.536487235657408745e-01 3.442670611130366765e-01
1.369637908575781493e-01 -5.529863005683596094e-02 -9.957501529536783025e-01 -1.145563339115650975e-01 -5.859312362366583260e-01 8.022228074312792723e-01
1.678935777641519522e-01 -4.471387078305909257e-02 -9.836024752848787633e-01 -1.145563339115650975e-01 -5.859312362366583260e-01 8.022228074312792723e-01
2.312444345888295394e-01 -8.683105581071313972e-02 -1.005892406663440486e+00 -9.454801865178404097e-02 -5.766693684467671943e-01 8.114882079637563139e-01
-9.877642274828629665e-02 3.619783775532157966e-02 -9.275764200797825820e-01 2.739322477911380060e-01 -5.219008428903021413e-01 8.078246306039987834e-01
2.376122634046745619e-02 -5.586966519034600870e-02 -1.012332401649367775e+00 -1.145563339115650975e-01 -5.859312362366583260e-01 8.022228074312792723e-01
-2.996140760211267115e-02 -9.628954625439750670e-02 -1.036505915212881934e+00 2.739322477911380060e-01 -5.219008428903021413e-01 8.078246306039987834e-01
2.611839274839318770e-01 -7.511544303361362973e-02 -9.917605595679123143e-01 -8.051433102284900889e-02 -7.325818568741825354e-01 6.759003369423023377e-01
-1.731818813989022265e-01 8.441812718375341085e-02 -8.750488294699172442e-01 2.076626530950869409e-01 -6.305889021804156336e-01 7.478194026343577550e-01
2.266009681897841743e-01 3.515634271641081277e-02 -8.826353066568097816e-01 -7.908177616512905850e-01 -4.802340128501911831e-01 3.794503403064029556e-01
1.345865289833546308e-01 3.027583908983907945e-02 -9.306809195480963970e-01 -5.612784601513995941e-01 -6.745717418479681982e-01 4.794991712925811833e-01
1.218011417057740520e-02 -7.035922762821847365e-02 -1.024336664014127374e+00 2.162504504537055786e-03 -6.312049754582217398e-01 7.756130494847632839e-01
1.183617283053175206e-01 2.476490617663629559e-02 -9.399293233054107910e-01 -1.145563339115650975e-01 -5.859312362366583260e-01 8.022228074312792723e-01
