-3.030017034128539705e-03 7.518708249704196545e-02 -8.739166313434186817e-01 -8.719492492678841966e-01 -3.793710006484089514e-01 3.094869150193562679e-01
-2.926528426957021589e-02 1.785523855166783469e-01 -8.320921654636259657e-01 -8.323164126922418804e-01 -4.862519123738492377e-01 2.660986036714437786e-01
-4.794667873393181068e-02 -4.111343363893329994e-02 -1.046892709834016610e+00 -7.106099506698464463e-01 -6.476162111287472323e-01 2.750031656040423655e-01
7.010219707116546739e-02 -8.202864175304626360e-02 -7.155121004130530205e-01 -9.857176548013512063e-01 -1.664605173244532998e-01 2.552648007461445767e-02
-3.425214912657588429e-02 7.272088643999756463e-02 -9.494219438903691577e-01 -7.249961806489256810e-01 -3.946615136930692325e-01 5.644668525732629005e-01
-5.577438096902388037e-02 8.056021550109207009e-05 -1.027853257945232190e+00 -7.249961806489256810e-01 -3.946615136930692325e-01 5.644668525732629005e-01
5.314491571182408669e-02 -7.673892646439901821e-02 -8.896882485821521191e-01 -9.271060758974691840e-01 -2.832878429618265748e-01 2.454023676822038591e-01
-1.061906449074602205e-03 3.438336003831962695e-02 -9.183891301932350926e-01 -8.719492492678841966e-01 -3.793710006484089514e-01 3.094869150193562679e-01
1.080690334897652510e-01 -1.898835254556265062e-01 -8.113754287674843635e-01 -9.361647037780174152e-01 -2.565199261373353190e-01 2.404021108366418413e-01
5.035042551800140986e-02 -4.030071867966874416e-02 -6.385965950968430782e-01 -8.649169178836015881e-01 8.239586216760741433e-03 -5.018474214118346932e-01
4.555277881047092164e-02 -8.115271462995805873e-02 -9.234657905728468341e-01 -9.271060758974691840e-01 -2.832878429618265748e-01 2.454023676822038591e-01
-3.276523433683598517e-03 -7.291423635181869256e-02 -1.011461667795664932e+00 -7.249961806489256810e-01 -3.946615136930692325e-01 5.644668525732629005e-01
6.512704905787693177e-02 -1.402028288554838520e-01 -9.183904472149644338e-01 -9.236026138597264179e-01 -3.002885775592371020e-01 2.382959963132638137e-01
4.246299035088840768e-02 5.815709101366743627e-02 -7.758459948802645112e-01 -8.662945347733553847e-01 -2.627696033538328702e-01 4.248363385764980515e-01
-1.158373860191604966e-02 -7.526290223176115846e-02 -1.033350619788998115e+00 -7.106099506698464463e-01 -6.476162111287472323e-01 2.750031656040423655e-01
-9.979607201304750361e-03 1.952870037144135151e-01 -7.411896754785175512e-01 -8.323164126922418804e-01 -4.862519123738492377e-01 2.660986036714437786e-01
-3.700475964352474556e-02 -9.910148442151128778e-03 -1.010730984905711782e+00 -7.249961806489256810e-01 -3.946615136930692325e-01 5.644668525732629005e-01
4.158146723109806819e-02 2.927267147243999001e-02 -8.045102909885724074e-01 -8.719492492678841966e-01 -3.793710006484089514e-01 3.094869150193562679e-01
-3.236376535444977776e-02 1.055030037411357896e-02 -9.904646844444733311e-01 -7.249961806489256810e-01 -3.946615136930692325e-01 5.644668525732629005e-01
5.498578664937358446e-02 -1.070753898700647633e-01 -9.177534572237217025e-01 -9.271060758974691840e-01 -2.832878429618265748e-01 2.454023676822038591e-01
2.196020241625231892e-02 4.475373653382425099e-02 -8.408145075362993826e-01 -8.719492492678841966e-01 -3.793710006484089514e-01 3.094869150193562679e-01
6.411314716699337279e-02 -2.828070114073031119e-02 -7.923120888680648122e-01 -9.271060758974691840e-01 -2.832878429618265748e-01 2.454023676822038591e-01
8.470088862441441102e-02 -1.747695510940145969e-01 -8.860841657241460556e-01 -9.236026138597264179e-01 -3.002885775592371020e-01 2.382959963132638137e-01
8.100143854915678454e-02 -1.776787563187225139e-01 -9.084151918997415143e-01 -9.376869836512274903e-01 -3.417813797173772650e-01 6.267861812092162532e-02
6.800292810272375033e-02 -8.058730768433081115e-02 -8.379986334065543385e-01 -9.271060758974691840e-01 -2.832878429618265748e-01 2.454023676822038591e-01
6.123752917054631900e-02 9.596058668998682165e-03 -7.056850672881401776e-01 -9.867655180851135910e-01 -6.080666214984783297e-02 1.503208640089983006e-01
1.826846050316964856e-02 1.427255299068942197e-02 -8.885796568008021978e-01 -8.719492492678841966e-01 -3.793710006484089514e-01 3.094869150193562679e-01
-2.417063090959915145e-02 1.040693717238745375e-01 -8.980741613388660838e-01 -8.719492492678841966e-01 -3.793710006484089514e-01 3.094869150193562679e-01
-1.771969946967271725e-01 2.642803651138065160e-02 -1.082866141713541452e+00 -8.264510391788307264e-02 -6.760130334433352983e-01 7.322405106337277481e-01
1.944153436109420175e-03 1.520814708965755047e-01 -7.828450285143323528e-01 -8.323164126922418804e-01 -4.862519123738492377e-01 2.660986036714437786e-01
-1.724263363963348672e-01 1.472741347307584929e-02 -1.093129848805907134e+00 -8.264510391788307264e-02 -6.760130334433352983e-01 7.322405106337277481e-01
6.028629789678982553e-03 2.518407786505511350e-02 -9.096887724840856393e-01 -8.719492492678841966e-01 -3.793710006484089514e-01 3.094869150193562679e-01
4.877511835466738499e-02 -6.560931324814479881e-02 -8.933490998107432857e-01 -9.271060758974691840e-01 -2.832878429618265748e-01 2.454023676822038591e-01
-3.502767116152857158e-02 1.585005313781745195e-01 -8.754906588492985531e-01 -8.805110487027100197e-01 -3.175624637375394910e-01 3.519295025106558006e-01
8.284476822173807153e-02 -1.369265793034346035e-01 -8.469646046804286676e-01 -9.271060758974691840e-01 -2.832878429618265748e-01 2.454023676822038591e-01
5.347276406528599785e-02 -4.044142759071909371e-02 -6.439801493422946388e-01 -8.649169178836015881e-01 8.239586216760741433e-03 -5.018474214118346932e-01
6.629273807202958058e-02 -5.910826873933446718e-02 -8.196645680683920521e-01 -9.271060758974691840e-01 -2.832878429618265748e-01 2.454023676822038591e-01
5.000072581504632491e-02 -1.277549854284346920e-01 -9.668999081948655983e-01 -8.635732421007720205e-01 -5.029429723037254218e-01 3.591130933084102361e-02
-1.343364384801813173e-02 7.631006357659902983e-02 -9.018512796746178672e-01 -8.719492492678841966e-01 -3.793710006484089514e-01 3.094869150193562679e-01
-1.663727728651333325e-03 5.615073170976046801e-02 -8.934021223933209521e-01 -8.719492492678841966e-01 -3.793710006484089514e-01 3.094869150193562679e-01
-1.632032029675343013e-02 8.047045960080290508e-03 -9.716088416849587572e-01 -7.249961806489256810e-01 -3.946615136930692325e-01 5.644668525732629005e-01
6.537480021720529222e-02 -4.773600019270472089e-02 -7.017179182287752726e-01 -9.867655180851135910e-01 -6.080666214984783297e-02 1.503208640089983006e-01
6.176665893007150798e-02 -9.124016776148461891e-03 -6.662154406488547398e-01 -8.520360589406640317e-01 -3.856613102751964006e-01 -3.539772704873578313e-01
-1.436817160087102037e-02 -1.810238755718497974e-02 -9.873845681513963024e-01 -7.249961806489256810e-01 -3.946615136930692325e-01 5.644668525732629005e-01
4.623996960572278325e-02 -2.301253361809071571e-02 -6.312285182824037832e-01 -8.649169178836015881e-01 8.239586216760741433e-03 -5.018474214118346932e-01
5.285025635231434954e-02 -1.328756788374378661e-01 -9.700921738343684098e-01 -8.635732421007720205e-01 -5.029429723037254218e-01 3.591130933084102361e-02
1.202643367658765561e-01 -1.808632220851692785e-01 -7.492641934486750088e-01 -8.758421679548428207e-01 -4.542132750454536683e-01 1.630668501095295375e-01
-1.156195023640044402e-03 3.108265534001953753e-02 -9.227008035832469091e-01 -8.719492492678841966e-01 -3.793710006484089514e-01 3.094869150193562679e-01
7.124223523494051247e-02 -9.036923529056543891e-02 -7.258787380808596756e-01 -9.857176548013512063e-01 -1.664605173244532998e-01 2.552648007461445767e-02
-7.483861562607645179e-02 9.423840958387561320e-03 -1.045806595588199883e+00 -7.249961806489256810e-01 -3.946615136930692325e-01 5.644668525732629005e-01
-2.950036684049522212e-02 3.610281619611704212e-02 -9.689212625343398555e-01 -7.249961806489256810e-01 -3.946615136930692325e-01 5.644668525732629005e-01
-4.282376831491480768e-02 1.019967004807542828e-02 -1.004144570970905370e+00 -7.249961806489256810e-01 -3.946615136930692325e-01 5.644668525732629005e-01
6.647755574812680077e-03 1.449982238781405697e-01 -7.810763501229650574e-01 -8.323164126922418804e-01 -4.862519123738492377e-01 2.660986036714437786e-01
-9.870715658018883176e-02 -1.177114365086558145e-02 -1.094673280415884520e+00 -5.717685900658632248e-01 -4.184644286282863668e-01 7.056686200950815779e-01
8.220586229712098514e-02 -1.367406387560696768e-01 -8.491636823550013924e-01 -9.271060758974691840e-01 -2.832878429618265748e-01 2.454023676822038591e-01
-1.273275173933904880e-01 8.937172646102133078e-02 -1.016697346846952899e+00 -2.694774983317926309e-01 -2.422225151522728048e-01 9.320462064973740191e-01
-1.054977202233669115e-01 -6.094518253488076390e-04 -1.093556410585154071e+00 -5.717685900658632248e-01 -4.184644286282863668e-01 7.056686200950815779e-01
-3.613659616013815273e-02 -2.448943648395278741e-02 -1.019809407587485728e+00 -7.249961806489256810e-01 -3.946615136930692325e-01 5.644668525732629005e-01
8.846809776010722270e-02 -1.236284565090080972e-01 -7.731873806731309751e-01 -9.199532530118539331e-01 -2.387337193089700271e-01 -3.109537321496780859e-01
1.808909531206058996e-03 1.414101852781890489e-01 -8.027680896955982082e-01 -8.323164126922418804e-01 -4.862519123738492377e-01 2.660986036714437786e-01
-1.622891286053212154e-03 1.601728612069219237e-01 -7.792165083650942625e-01 -8.323164126922418804e-01 -4.862519123738492377e-01 2.660986036714437786e-01
-1.539189074582667516e-01 -7.766518439371797658e-03 -1.103752828544568576e+00 -9.210063780009127010e-02 -4.043284988319428841e-01 9.099648001703822819e-01
9.382833724146322218e-02 -1.745245238506747398e-01 -8.503986552056921333e-01 -9.236026138597264179e-01 -3.002885775592371020e-01 2.382959963132638137e-01
8.010020844268674056e-02 -1.779111410388984349e-01 -9.231649827872012715e-01 -9.376869836512274903e-01 -3.417813797173772650e-01 6.267861812092162532e-02
-6.813850714367900019e-02 3.090441548856001294e-02 -1.022182340137317569e+00 -7.249961806489256810e-01 -3.946615136930692325e-01 5.644668525732629005e-01
-3.952115118213492262e-02 1.168127537958489198e-01 -9.253614402767580405e-01 -7.249961806489256810e-01 -3.946615136930692325e-01 5.644668525732629005e-01
-3.219273026469422067e-02 1.323526219634841850e-01 -8.919922528100305836e-01 -8.805110487027100197e-01 -3.175624637375394910e-01 3.519295025106558006e-01
-3.115769123119003017e-02 9.324109165728187987e-02 -9.310328970758103839e-01 -8.719492492678841966e-01 -3.793710006484089514e-01 3.094869150193562679e-01
-7.518594136749877366e-02 1.565557352521537715e-01 -9.433997496905175417e-01 -7.481122724999624829e-01 -4.799952111880558259e-01 4.581840514154499333e-01
-5.060401598045143751e-02 9.197804419623203942e-02 -9.569599985460861546e-01 -7.249961806489256810e-01 -3.946615136930692325e-01 5.644668525732629005e-01
-7.897696538505624697e-02 4.507840959869309494e-02 -1.026193046608776527e+00 -7.249961806489256810e-01 -3.946615136930692325e-01 5.644668525732629005e-01
-5.675867001377325055e-02 1.827868028158784186e-02 -1.016393786438510416e+00 -7.249961806489256810e-01 -3.946615136930692325e-01 5.644668525732629005e-01
6.677299835038741360e-02 -6.608968178435764562e-02 -7.531778714163148702e-01 -9.199532530118539331e-01 -2.387337193089700271e-01 -3.109537321496780859e-01
-1.561838453630209900e-01 2.241096578244347881e-01 -9.633267282081858784e-01 -6.164440294142506938e-01 -6.684557256764265265e-01 4.161294286756516136e-01
-1.179480882033722422e-01 1.082257169580059658e-01 -1.009085700489414927e+00 -2.694774983317926309e-01 -2.422225151522728048e-01 9.320462064973740191e-01
8.617856253505327968e-03 1.876709590281491757e-02 -9.102598557456473838e-01 -8.719492492678841966e-01 -3.793710006484089514e-01 3.094869150193562679e-01
6.832280725584362335e-02 -7.166686567089708415e-02 -7.166540263118258425e-01 -9.857176548013512063e-01 -1.664605173244532998e-01 2.552648007461445767e-02
3.904484733658190876e-02 -9.783103354005022456e-02 -9.673052526809239327e-01 -9.271060758974691840e-01 -2.832878429618265748e-01 2.454023676822038591e-01
-1.740123510369966792e-02 -7.859778178678411553e-02 -1.056236512576178121e+00 -7.106099506698464463e-01 -6.476162111287472323e-01 2.750031656040423655e-01
-8.714270390341866124e-02 -2.969803487384355470e-02 -1.095933894060154179e+00 -5.717685900658632248e-01 -4.184644286282863668e-01 7.056686200950815779e-01
5.223706724110440541e-02 -5.905105369485265203e-03 -8.113487902668207186e-01 -9.271060758974691840e-01 -2.832878429618265748e-01 2.454023676822038591e-01
2.354328050991724708e-02 -2.343781426156956241e-02 -9.199439696144624534e-01 -8.719492492678841966e-01 -3.793710006484089514e-01 3.094869150193562679e-01
6.862840631011253578e-02 -7.044687744516571482e-02 -6.968975125741572185e-01 -9.857176548013512063e-01 -1.664605173244532998e-01 2.552648007461445767e-02
8.812366326478610068e-02 -1.272290434273818938e-01 -8.158268053145225629e-01 -9.271060758974691840e-01 -2.832878429618265748e-01 2.454023676822038591e-01
-5.944298791500078616e-02 2.930214659397457205e-02 -1.012134160449858600e+00 -7.249961806489256810e-01 -3.946615136930692325e-01 5.644668525732629005e-01
-1.287671192751261018e-01 2.024648051417019257e-01 -9.574817885616101476e-01 -6.164440294142506938e-01 -6.684557256764265265e-01 4.161294286756516136e-01
1.285774100038332250e-02 2.989892824331802541e-03 -9.176541877391392044e-01 -8.719492492678841966e-01 -3.793710006484089514e-01 3.094869150193562679e-01
9.319545992170535920e-02 -1.759591583449527652e-01 -8.544376004543160485e-01 -9.361647037780174152e-01 -2.565199261373353190e-01 2.404021108366418413e-01
2.472806733477206018e-02 -7.215318870530194016e-03 -8.967203115430444349e-01 -8.719492492678841966e-01 -3.793710006484089514e-01 3.094869150193562679e-01
-8.341310597540969873e-02 1.533889793206641983e-01 -9.603555849219909124e-01 -7.553301149576550078e-01 -4.741651295393803922e-01 4.523757811454521272e-01
7.692525878314590559e-02 -1.050914040912340613e-01 -7.532697782880088955e-01 -9.199532530118539331e-01 -2.387337193089700271e-01 -3.109537321496780859e-01
-1.461007848501751430e-02 1.800148257077716363e-01 -7.835805142658776035e-01 -8.323164126922418804e-01 -4.862519123738492377e-01 2.660986036714437786e-01
-1.005901350227611860e-02 3.616104101691515471e-02 -9.415585108065961384e-01 -8.719492492678841966e-01 -3.793710006484089514e-01 3.094869150193562679e-01
-1.129740775346567139e-01 3.884470716549845437e-02 -1.050943942504801942e+00 -1.105793989765554847e-01 -8.002764755633190452e-01 5.893468920609797879e-01
6.365468606588244038e-02 -1.290716927582072904e-01 -9.103953207105039969e-01 -9.271060758974691840e-01 -2.832878429618265748e-01 2.454023676822038591e-01
6.953831969384722395e-03 2.460419294365834286e-02 -9.077929319989150869e-01 -8.719492492678841966e-01 -3.793710006484089514e-01 3.094869150193562679e-01
5.462842352243974658e-02 4.064905516219298812e-03 -7.516156036749214175e-01 -9.857176548013512063e-01 -1.664605173244532998e-01 2.552648007461445767e-02
5.353389647357951336e-02 -3.335378954316593064e-02 -8.381357374872573374e-01 -9.271060758974691840e-01 -2.832878429618265748e-01 2.454023676822038591e-01
-9.776606213690357261e-02 1.254536490580238917e-01 -9.970894263369516342e-01 -2.771112837220400804e-01 -3.417928235738541543e-01 8.979905356891769719e-01
-7.182220758081843404e-02 1.574160117656249191e-01 -9.370062946478279198e-01 -7.481122724999624829e-01 -4.799952111880558259e-01 4.581840514154499333e-01
1.926679559337899066e-03 -1.282157555913037046e-02 -9.627633914627772294e-01 -7.249961806489256810e-01 -3.946615136930692325e-01 5.644668525732629005e-01
-3.232013332404670702e-02 -4.368590085822146585e-02 -1.028329278481277198e+00 -7.249961806489256810e-01 -3.946615136930692325e-01 5.644668525732629005e-01
-1.157151674953930814e-01 -2.470756522215507289e-02 -1.107413584649388438e+00 -9.210063780009127010e-02 -4.043284988319428841e-01 9.099648001703822819e-01
-1.079307142691147414e-01 1.586266170117931473e-01 -9.875998579688853862e-01 -2.771112837220400804e-01 -3.417928235738541543e-01 8.979905356891769719e-01
5.966416687487042375e-02 -9.846901816919505918e-03 -7.753266822933375657e-01 -9.199532530118539331e-01 -2.387337193089700271e-01 -3.109537321496780859e-01
1.945779225003479247e-04 1.608321853791878087e-01 -7.723269303433163424e-01 -8.323164126922418804e-01 -4.862519123738492377e-01 2.660986036714437786e-01
9.457323417982647917e-02 -2.155736870864569665e-01 -9.120158713850774479e-01 -9.376869836512274903e-01 -3.417813797173772650e-01 6.267861812092162532e-02
-1.018371842910148206e-01 8.588672838454589065e-02 -1.007682929582685905e+00 -7.024525281589023562e-01 6.811443847462861356e-01 2.064043914546638547e-01
-7.227194262728944829e-02 3.064687484689097418e-03 -1.046956149386944812e+00 -7.249961806489256810e-01 -3.946615136930692325e-01 5.644668525732629005e-01
3.158934280260868033e-02 2.949531591559518065e-02 -8.323892097088823050e-01 -8.719492492678841966e-01 -3.793710006484089514e-01 3.094869150193562679e-01
-7.819533998408721709e-02 1.634775116943563145e-01 -9.410690395110277162e-01 -7.553301149576550078e-01 -4.741651295393803922e-01 4.523757811454521272e-01
6.004728014099824929e-02 -6.016005478849675847e-02 -8.444734574578777186e-01 -9.271060758974691840e-01 -2.832878429618265748e-01 2.454023676822038591e-01
5.736908343264929960e-02 4.541337740686356324e-03 -7.331237704760278362e-01 -9.867655180851135910e-01 -6.080666214984783297e-02 1.503208640089983006e-01
-1.542511407667373699e-03 7.914113789399783438e-02 -8.648788231806340265e-01 -8.719492492678841966e-01 -3.793710006484089514e-01 3.094869150193562679e-01
9.779509883693737748e-02 -1.547939678749742642e-01 -8.111094967393774890e-01 -9.271060758974691840e-01 -2.832878429618265748e-01 2.454023676822038591e-01
-3.707704020886278679e-02 7.108526088072997240e-02 -9.541937984150123953e-01 -7.249961806489256810e-01 -3.946615136930692325e-01 5.644668525732629005e-01
5.801441373367424714e-02 -4.969966315366355566e-03 -6.617095251603634098e-01 -8.520360589406640317e-01 -3.856613102751964006e-01 -3.539772704873578313e-01
-3.267464391554455311e-02 -6.160181490231453338e-02 -1.055678601195385813e+00 -7.106099506698464463e-01 -6.476162111287472323e-01 2.750031656040423655e-01
-3.041435529125833398e-02 -3.529102644527996879e-02 -1.020012021911456568e+00 -7.249961806489256810e-01 -3.946615136930692325e-01 5.644668525732629005e-01
6.411929244745244449e-02 -5.066109420872426383e-02 -7.571721592773638099e-01 -9.199532530118539331e-01 -2.387337193089700271e-01 -3.109537321496780859e-01
-1.005077597664377938e-02 -1.040258290239142458e-01 -1.074514574588435245e+00 -7.472474542300990841e-01 -4.506686731757212905e-01 4.883840590812429383e-01
6.616168092077379104e-02 -6.212801864208950670e-02 -7.379032925661181963e-01 -9.857176548013512063e-01 -1.664605173244532998e-01 2.552648007461445767e-02
-9.133159843769461661e-02 -2.709315014834109622e-02 -1.097783241879137117e+00 -5.717685900658632248e-01 -4.184644286282863668e-01 7.056686200950815779e-01
-2.678431766089983332e-02 1.636151208693492620e-01 -8.516274963557742828e-01 -8.323164126922418804e-01 -4.862519123738492377e-01 2.660986036714437786e-01
2.899906697443851988e-02 7.531939749939998985e-02 -7.926853989522038013e-01 -8.662945347733553847e-01 -2.627696033538328702e-01 4.248363385764980515e-01
8.749455656476078091e-02 -1.299142223501163484e-01 -8.213032283892569563e-01 -9.271060758974691840e-01 -2.832878429618265748e-01 2.454023676822038591e-01
-1.512903511211229624e-01 6.278989837170278858e-03 -1.097245883450844506e+00 -9.210063780009127010e-02 -4.043284988319428841e-01 9.099648001703822819e-01
-1.201743635585309361e-01 1.099559968344420574e-02 -1.090677628614803440e+00 -8.264510391788307264e-02 -6.760130334433352983e-01 7.322405106337277481e-01
-1.054078486416773763e-01 1.346034597721378345e-01 -9.959650109553342956e-01 -2.771112837220400804e-01 -3.417928235738541543e-01 8.979905356891769719e-01
-2.662168004831578366e-02 1.304611165093144676e-01 -8.797605413294922183e-01 -8.805110487027100197e-01 -3.175624637375394910e-01 3.519295025106558006e-01
7.123012472172704501e-02 -1.488313098034428628e-01 -9.056089384507463036e-01 -9.236026138597264179e-01 -3.002885775592371020e-01 2.382959963132638137e-01
1.205656812750291046e-01 -1.772488088979581322e-01 -7.375779146124302743e-01 -8.758421679548428207e-01 -4.542132750454536683e-01 1.630668501095295375e-01
-1.376734016573906150e-01 1.998675338461064835e-02 -1.084351937536159216e+00 -8.264510391788307264e-02 -6.760130334433352983e-01 7.322405106337277481e-01
-9.223518318577811912e-04 -8.332811073058948859e-02 -1.024794617345897274e+00 -7.106099506698464463e-01 -6.476162111287472323e-01 2.750031656040423655e-01
-6.912762669905461732e-02 7.101740309095508352e-02 -9.954067297765686329e-01 -7.249961806489256810e-01 -3.946615136930692325e-01 5.644668525732629005e-01
2.124313164149829042e-02 1.342352270658656588e-01 -7.550918347159880639e-01 -8.323164126922418804e-01 -4.862519123738492377e-01 2.660986036714437786e-01
2.000439054224411456e-02 -5.057306202428981518e-02 -9.631770043497210887e-01 -8.719492492678841966e-01 -3.793710006484089514e-01 3.094869150193562679e-01
1.702308688354769659e-02 1.466295324254695068e-02 -8.916098206396456671e-01 -8.719492492678841966e-01 -3.793710006484089514e-01 3.094869150193562679e-01
-2.197016085498127991e-01 1.206509397093407515e-02 -1.100923507282367986e+00 -8.264510391788307264e-02 -6.760130334433352983e-01 7.322405106337277481e-01
3.272812578286908580e-02 -5.715460080566225898e-02 -9.353968106794557924e-01 -8.719492492678841966e-01 -3.793710006484089514e-01 3.094869150193562679e-01
9.876109318803096004e-02 -1.848902294955675207e-01 -8.422939811821559264e-01 -9.361647037780174152e-01 -2.565199261373353190e-01 2.404021108366418413e-01
1.005720034400712191e-02 -6.520520557487494151e-02 -9.889459850584947365e-01 -7.249961806489256810e-01 -3.946615136930692325e-01 5.644668525732629005e-01
7.012107394213205891e-02 -6.622343292890216226e-02 -6.800972803383372733e-01 -4.875157738559152132e-01 1.552528330503684939e-01 8.592001676393588028e-01
1.277299096006449253e-01 -2.103210523407162413e-01 -7.650364493351664574e-01 -9.211293920528554890e-01 -2.818184334195674712e-01 2.685125950142334128e-01
3.847582850339294203e-02 3.634228976271218579e-03 -6.240537911961551165e-01 -8.520360589406640317e-01 -3.856613102751964006e-01 -3.539772704873578313e-01
5.444295263874370655e-02 1.726195947375977133e-02 -7.471863986727864670e-01 -9.867655180851135910e-01 -6.080666214984783297e-02 1.503208640089983006e-01
5.282215969361715030e-02 -3.490950609472583815e-02 -8.426204989412277024e-01 -9.271060758974691840e-01 -2.832878429618265748e-01 2.454023676822038591e-01
-1.434937635585669391e-01 4.765689464928386798e-02 -1.054525867379293436e+00 -3.813880474858433178e-01 -7.848592067655911775e-01 4.884047325632941416e-01
6.286087697422423903e-02 -1.643162462709992638e-02 -7.055572933299069094e-01 -9.867655180851135910e-01 -6.080666214984783297e-02 1.503208640089983006e-01
3.178850790873789106e-02 -3.854182436275763179e-02 -9.152284345022203560e-01 -8.719492492678841966e-01 -3.793710006484089514e-01 3.094869150193562679e-01
2.469317919417261809e-02 9.900427393270899712e-02 -7.868160833874656701e-01 -8.662945347733553847e-01 -2.627696033538328702e-01 4.248363385764980515e-01
-2.828327019738578404e-02 7.209609354262071224e-02 -9.421924091582732919e-01 -7.249961806489256810e-01 -3.946615136930692325e-01 5.644668525732629005e-01
-7.602413810309938125e-02 -2.359354621887437692e-02 -1.078186745624386766e+00 -7.106099506698464463e-01 -6.476162111287472323e-01 2.750031656040423655e-01
4.523936302173937191e-02 -1.272625531098892267e-02 -8.456596367027374717e-01 -9.271060758974691840e-01 -2.832878429618265748e-01 2.454023676822038591e-01
-2.207252627726666860e-01 1.047583062371716840e-02 -1.102408827460062524e+00 -9.210063780009127010e-02 -4.043284988319428841e-01 9.099648001703822819e-01
-1.481816477757370853e-01 1.093207883719536644e-01 -1.017542376770185220e+00 -2.694774983317926309e-01 -2.422225151522728048e-01 9.320462064973740191e-01
6.668428116808658435e-02 -3.806860376389899214e-02 -7.938975661010375662e-01 -9.271060758974691840e-01 -2.832878429618265748e-01 2.454023676822038591e-01
7.000418999431014255e-02 -9.612928621028270226e-02 -8.483794277602709766e-01 -9.271060758974691840e-01 -2.832878429618265748e-01 2.454023676822038591e-01
-1.373310179444878210e-01 9.725646746069821491e-02 -1.017540498722177666e+00 -2.694774983317926309e-01 -2.422225151522728048e-01 9.320462064973740191e-01
4.932996571882313636e-02 -3.636980776973020718e-02 -8.574994098430087641e-01 -9.271060758974691840e-01 -2.832878429618265748e-01 2.454023676822038591e-01
6.644303509257747098e-02 -1.551244412327731637e-01 -9.548183972186242707e-01 -8.635732421007720205e-01 -5.029429723037254218e-01 3.591130933084102361e-02
-2.664691312256612515e-02 -5.897066606998324634e-02 -1.033906705930076830e+00 -7.106099506698464463e-01 -6.476162111287472323e-01 2.750031656040423655e-01
7.178100789210924149e-02 -1.274355014197077196e-01 -8.778060856094548337e-01 -9.271060758974691840e-01 -2.832878429618265748e-01 2.454023676822038591e-01
5.250725214009082514e-03 -9.651969677069634213e-02 -1.036766465518839997e+00 -7.546895762172217692e-01 -5.628885854801769506e-01 3.370461153687956402e-01
9.248252113612920322e-02 -2.111730248980883684e-01 -9.192969829809586324e-01 -9.376869836512274903e-01 -3.417813797173772650e-01 6.267861812092162532e-02
5.608965812074220847e-02 -1.374370199178933383e-01 -9.560752455654634163e-01 -8.635732421007720205e-01 -5.029429723037254218e-01 3.591130933084102361e-02
9.173213229954155223e-02 -1.233038066613804939e-01 -7.830932404188830631e-01 -9.199532530118539331e-01 -2.387337193089700271e-01 -3.109537321496780859e-01
6.871847775999291585e-02 -1.488674615924025502e-01 -9.153892944126215125e-01 -9.236026138597264179e-01 -3.002885775592371020e-01 2.382959963132638137e-01
5.781505481667648105e-02 -5.062428272483235521e-03 -7.893029298262135285e-01 -9.271060758974691840e-01 -2.832878429618265748e-01 2.454023676822038591e-01
3.044808333731298042e-02 -2.591658478578477004e-02 -9.035288523962643481e-01 -8.719492492678841966e-01 -3.793710006484089514e-01 3.094869150193562679e-01
-2.676345086306093982e-02 9.466967389464914229e-02 -9.169013876298689469e-01 -8.719492492678841966e-01 -3.793710006484089514e-01 3.094869150193562679e-01
-3.498474615305157548e-02 2.381684930909764783e-02 -9.845553999569655046e-01 -7.249961806489256810e-01 -3.946615136930692325e-01 5.644668525732629005e-01
5.974937518848671275e-02 1.315582539591106902e-02 -7.140139277604088397e-01 -9.867655180851135910e-01 -6.080666214984783297e-02 1.503208640089983006e-01
9.292078432583754377e-02 -1.322924791716909021e-01 -8.035488867231368459e-01 -9.271060758974691840e-01 -2.832878429618265748e-01 2.454023676822038591e-01
-2.305976795218375383e-02 1.587046831603942942e-01 -8.472644536126621162e-01 -8.662945347733553847e-01 -2.627696033538328702e-01 4.248363385764980515e-01
3.647085773657751662e-02 1.033704822545971208e-01 -7.600993354262699508e-01 -8.662945347733553847e-01 -2.627696033538328702e-01 4.248363385764980515e-01
-1.812348142879527738e-03 1.618339472842141857e-01 -7.767737363200746259e-01 -8.323164126922418804e-01 -4.862519123738492377e-01 2.660986036714437786e-01
5.782426881508873767e-02 -5.056926933403291247e-02 -8.418003552263841893e-01 -9.271060758974691840e-01 -2.832878429618265748e-01 2.454023676822038591e-01
-3.566257415426642152e-02 1.530109897051941392e-01 -8.820326266638665036e-01 -8.805110487027100197e-01 -3.175624637375394910e-01 3.519295025106558006e-01
-1.961006048997105886e-02 -6.974544601627588603e-02 -1.041097403746595429e+00 -7.106099506698464463e-01 -6.476162111287472323e-01 2.750031656040423655e-01
2.616728098034808159e-02 8.658916767319735364e-02 -7.914891917025318469e-01 -8.662945347733553847e-01 -2.627696033538328702e-01 4.248363385764980515e-01
6.998354113927561515e-02 -1.052006956526573694e-01 -8.589293002695266299e-01 -9.271060758974691840e-01 -2.832878429618265748e-01 2.454023676822038591e-01
-3.380541792994466027e-02 -1.052990524140167035e-02 -1.007055097903732044e+00 -7.249961806489256810e-01 -3.946615136930692325e-01 5.644668525732629005e-01
3.585962645747083760e-02 -3.235690314567914866e-02 -8.961769391815405106e-01 -8.719492492678841966e-01 -3.793710006484089514e-01 3.094869150193562679e-01
1.227764601131074440e-01 -1.961031128247429645e-01 -7.671067078053310784e-01 -9.211293920528554890e-01 -2.818184334195674712e-01 2.685125950142334128e-01
4.446215369730519007e-02 -8.953124977564043407e-04 -8.333743412317772270e-01 -8.719492492678841966e-01 -3.793710006484089514e-01 3.094869150193562679e-01
5.872035077379755136e-02 -7.318673569106122490e-02 -8.645242200439591240e-01 -9.271060758974691840e-01 -2.832878429618265748e-01 2.454023676822038591e-01
3.931835291536325133e-02 -2.646603184459471458e-02 -8.792112471805157980e-01 -8.719492492678841966e-01 -3.793710006484089514e-01 3.094869150193562679e-01
-7.601970081073469721e-02 1.532779929054965407e-01 -9.481948670563751236e-01 -7.481122724999624829e-01 -4.799952111880558259e-01 4.581840514154499333e-01
1.321284422736578729e-02 -4.622634740870576464e-02 -9.716233475814244347e-01 -7.249961806489256810e-01 -3.946615136930692325e-01 5.644668525732629005e-01
1.868075435834157944e-02 -8.162745868836383811e-02 -9.893520098710471000e-01 -7.249961806489256810e-01 -3.946615136930692325e-01 5.644668525732629005e-01
1.070215068326058477e-01 -1.945901876764473681e-01 -8.204768884856329381e-01 -9.361647037780174152e-01 -2.565199261373353190e-01 2.404021108366418413e-01
-7.011276620891892901e-03 -5.977432541427895457e-02 -1.007071444822053907e+00 -7.249961806489256810e-01 -3.946615136930692325e-01 5.644668525732629005e-01
-2.657093744694095927e-02 1.118248269536284284e-01 -8.964499821498211896e-01 -8.805110487027100197e-01 -3.175624637375394910e-01 3.519295025106558006e-01
8.663612880431820207e-02 -1.019622046719311920e-01 -7.844017149091220276e-01 -9.199532530118539331e-01 -2.387337193089700271e-01 -3.109537321496780859e-01
3.567424744373904125e-03 -7.399573708050037613e-02 -1.003427520964305097e+00 -7.249961806489256810e-01 -3.946615136930692325e-01 5.644668525732629005e-01
5.625035883815780041e-02 -6.452201906549539720e-03 -7.575667910794443571e-01 -9.857176548013512063e-01 -1.664605173244532998e-01 2.552648007461445767e-02
-4.368030848105526089e-03 1.385407577898626619e-01 -8.216214423215015827e-01 -8.662945347733553847e-01 -2.627696033538328702e-01 4.248363385764980515e-01
4.350721523572875088e-02 3.166091615102867296e-02 -7.961571581904878236e-01 -8.719492492678841966e-01 -3.793710006484089514e-01 3.094869150193562679e-01
-1.143878222593540661e-01 6.154112484500778857e-02 -1.020389648677043404e+00 -1.105793989765554847e-01 -8.002764755633190452e-01 5.893468920609797879e-01
-1.867097825896643463e-03 -9.764894217793754216e-02 -1.054590098338177739e+00 -7.546895762172217692e-01 -5.628885854801769506e-01 3.370461153687956402e-01
1.029540170306638830e-01 -1.929554366216090222e-01 -8.345719983576822543e-01 -9.361647037780174152e-01 -2.565199261373353190e-01 2.404021108366418413e-01
6.949409627329510009e-02 -3.887413130967450059e-02 -6.715666364103324293e-01 -8.649169178836015881e-01 8.239586216760741433e-03 -5.018474214118346932e-01
-3.476506295691402654e-02 -4.929936348901953766e-04 -1.001270092578421034e+00 -7.249961806489256810e-01 -3.946615136930692325e-01 5.644668525732629005e-01
6.343192705266932629e-02 -3.220052310852084682e-02 -6.610091237838107148e-01 -8.649169178836015881e-01 8.239586216760741433e-03 -5.018474214118346932e-01
1.029707548898509545e-01 -1.506974360500663856e-01 -7.524327931155735394e-01 -7.367199715945306204e-01 -6.267344052094259155e-01 2.538654540904320966e-01
5.845457804153962600e-02 -1.801676609642112112e-02 -7.478633597632666774e-01 -9.857176548013512063e-01 -1.664605173244532998e-01 2.552648007461445767e-02
4.910651380340165517e-02 -3.715771969176646927e-02 -8.592531398553165944e-01 -9.271060758974691840e-01 -2.832878429618265748e-01 2.454023676822038591e-01
-7.082661501322713715e-02 2.661514792146920522e-02 -1.028633873566881851e+00 -7.249961806489256810e-01 -3.946615136930692325e-01 5.644668525732629005e-01
3.021831808445572115e-02 5.369657338999470758e-03 -8.658253218901644788e-01 -8.719492492678841966e-01 -3.793710006484089514e-01 3.094869150193562679e-01
-7.438561909272844996e-02 2.466066523882947704e-03 -1.050089477785287384e+00 -7.249961806489256810e-01 -3.946615136930692325e-01 5.644668525732629005e-01
9.593019069042414693e-02 -1.780914435810984076e-01 -8.460633613025706490e-01 -9.361647037780174152e-01 -2.565199261373353190e-01 2.404021108366418413e-01
4.693473155528465890e-02 -2.854784699950203494e-02 -8.575188462972238579e-01 -9.271060758974691840e-01 -2.832878429618265748e-01 2.454023676822038591e-01
3.031989259829476202e-02 1.401399558280434603e-02 -8.549428615755771954e-01 -8.719492492678841966e-01 -3.793710006484089514e-01 3.094869150193562679e-01
7.475441136151650401e-02 -7.248546032600761135e-02 -7.718804572444063483e-01 -9.199532530118539331e-01 -2.387337193089700271e-01 -3.109537321496780859e-01
5.270567183203635209e-02 1.309146844467175448e-02 -7.670005667074234479e-01 -9.857176548013512063e-01 -1.664605173244532998e-01 2.552648007461445767e-02
-6.672481951143491297e-02 1.060763833942864887e-01 -9.548124494911760518e-01 -7.024525281589023562e-01 6.811443847462861356e-01 2.064043914546638547e-01
3.229429738000712952e-02 7.155516883705423381e-02 -7.882942604142997300e-01 -8.662945347733553847e-01 -2.627696033538328702e-01 4.248363385764980515e-01
9.924110180027456707e-02 -1.400629959928120227e-01 -7.370023377988251800e-01 -7.367199715945306204e-01 -6.267344052094259155e-01 2.538654540904320966e-01
-1.104783843694440992e-01 1.857328738881496855e-01 -9.572668886196115112e-01 -6.164440294142506938e-01 -6.684557256764265265e-01 4.161294286756516136e-01
-1.244047855791333840e-02 8.080798350088616577e-02 -8.935395547299360697e-01 -8.719492492678841966e-01 -3.793710006484089514e-01 3.094869150193562679e-01
-1.003488428778412100e-01 1.798426145181833136e-01 -9.517231380154518305e-01 -6.164440294142506938e-01 -6.684557256764265265e-01 4.161294286756516136e-01
6.085139511759408981e-02 -5.223507779318878330e-02 -8.322871466765662252e-01 -9.271060758974691840e-01 -2.832878429618265748e-01 2.454023676822038591e-01
-3.400608442953449717e-02 1.705583118440248958e-01 -8.615285446303837524e-01 -8.323164126922418804e-01 -4.862519123738492377e-01 2.660986036714437786e-01
3.267149186420469781e-02 9.783815704954913761e-02 -7.712685701638050118e-01 -8.662945347733553847e-01 -2.627696033538328702e-01 4.248363385764980515e-01
-9.283964488020980677e-02 6.416603331159118073e-02 -1.012782181732981401e+00 -1.105793989765554847e-01 -8.002764755633190452e-01 5.893468920609797879e-01
-1.459767151245854044e-02 1.182055209164663001e-01 -8.607358355667820149e-01 -8.805110487027100197e-01 -3.175624637375394910e-01 3.519295025106558006e-01
-1.119376920269584824e-01 1.856096466291899394e-01 -9.596266194910603176e-01 -6.164440294142506938e-01 -6.684557256764265265e-01 4.161294286756516136e-01
-8.228013941448422686e-02 9.959375757901214876e-02 -9.863586272340185701e-01 -7.024525281589023562e-01 6.811443847462861356e-01 2.064043914546638547e-01
7.010199068387178156e-02 -8.117678709737895237e-02 -7.099650478364880613e-01 -9.857176548013512063e-01 -1.664605173244532998e-01 2.552648007461445767e-02
-2.326777606318995717e-02 1.631019506602856828e-01 -8.415660181848317878e-01 -8.323164126922418804e-01 -4.862519123738492377e-01 2.660986036714437786e-01
-6.395548391373750974e-02 1.115327551556286878e-01 -9.633939054472261398e-01 -7.024525281589023562e-01 6.811443847462861356e-01 2.064043914546638547e-01
7.784380354187460382e-02 -8.918194387023910263e-02 -7.682017195047513569e-01 -9.199532530118539331e-01 -2.387337193089700271e-01 -3.109537321496780859e-01
-2.432077572847508862e-02 7.535561979893876106e-02 -9.336946768671040564e-01 -8.719492492678841966e-01 -3.793710006484089514e-01 3.094869150193562679e-01
-2.468582754284632391e-02 6.683024368406072224e-02 -9.412536402896156673e-01 -7.249961806489256810e-01 -3.946615136930692325e-01 5.644668525732629005e-01
-1.111351665138380351e-01 6.505741991074548425e-02 -1.015004560569481518e+00 -1.105793989765554847e-01 -8.002764755633190452e-01 5.893468920609797879e-01
7.094791109070285040e-02 -8.892602742834668228e-02 -7.278329196880348739e-01 -9.857176548013512063e-01 -1.664605173244532998e-01 2.552648007461445767e-02
-1.261187237654544102e-01 9.867257528296859148e-02 -1.013930726845087227e+00 -2.694774983317926309e-01 -2.422225151522728048e-01 9.320462064973740191e-01
1.814326434701640789e-02 -7.113116827895206440e-02 -9.827036059148454017e-01 -7.249961806489256810e-01 -3.946615136930692325e-01 5.644668525732629005e-01
7.530095501794714652e-02 -7.660337777895961930e-02 -7.703358829716235867e-01 -9.199532530118539331e-01 -2.387337193089700271e-01 -3.109537321496780859e-01
3.662227111775906430e-02 7.127495047388704430e-02 -7.796423001327680291e-01 -8.662945347733553847e-01 -2.627696033538328702e-01 4.248363385764980515e-01
2.606812034942655038e-02 -5.798175712725946174e-02 -9.551746609282920630e-01 -8.719492492678841966e-01 -3.793710006484089514e-01 3.094869150193562679e-01
-7.830931106970952238e-02 5.880225263278059111e-02 -1.015740139644902396e+00 -7.249961806489256810e-01 -3.946615136930692325e-01 5.644668525732629005e-01
7.350226030671262734e-02 -1.327735156981483811e-01 -8.774654653380100644e-01 -9.271060758974691840e-01 -2.832878429618265748e-01 2.454023676822038591e-01
7.494095300446489138e-02 -1.214073198107902263e-01 -8.589093042868509720e-01 -9.271060758974691840e-01 -2.832878429618265748e-01 2.454023676822038591e-01
7.145759863866556205e-02 -7.885829820921597122e-02 -8.229512911839093059e-01 -9.271060758974691840e-01 -2.832878429618265748e-01 2.454023676822038591e-01
-2.014522227159468715e-01 1.891168229015197447e-02 -1.092542920251231786e+00 -8.264510391788307264e-02 -6.760130334433352983e-01 7.322405106337277481e-01
-6.455916221244432929e-02 1.077311782958769726e-01 -9.529030076091552504e-01 -7.024525281589023562e-01 6.811443847462861356e-01 2.064043914546638547e-01
-7.029618780148859380e-02 8.653402330466071490e-02 -9.781787615632556721e-01 -1.105793989765554847e-01 -8.002764755633190452e-01 5.893468920609797879e-01
1.744247190618459370e-02 6.462401639225963390e-02 -8.291856597506498394e-01 -8.719492492678841966e-01 -3.793710006484089514e-01 3.094869150193562679e-01
-1.110980447537035648e-01 9.123229032234271563e-02 -1.011521478836710175e+00 -2.694774983317926309e-01 -2.422225151522728048e-01 9.320462064973740191e-01
-1.247668389830135505e-01 3.546867991325345585e-04 -1.097193718981829935e+00 -9.210063780009127010e-02 -4.043284988319428841e-01 9.099648001703822819e-01
3.210078089485970954e-02 3.773163235886452943e-02 -8.208521543503316531e-01 -8.719492492678841966e-01 -3.793710006484089514e-01 3.094869150193562679e-01
1.102065455089865226e-01 -1.855489417564812338e-01 -7.991504852694553129e-01 -9.211293920528554890e-01 -2.818184334195674712e-01 2.685125950142334128e-01
4.957230148502445727e-02 -2.270160443995498240e-02 -8.408055741705939834e-01 -9.271060758974691840e-01 -2.832878429618265748e-01 2.454023676822038591e-01
-1.296213377902805941e-01 2.070344178199426954e-01 -9.514067415180568199e-01 -6.164440294142506938e-01 -6.684557256764265265e-01 4.161294286756516136e-01
1.525230928085181265e-02 4.732267858785193376e-02 -8.565643180432558346e-01 -8.719492492678841966e-01 -3.793710006484089514e-01 3.094869150193562679e-01
1.737693601714757063e-02 5.566843860816683004e-02 -8.403481041285187914e-01 -8.719492492678841966e-01 -3.793710006484089514e-01 3.094869150193562679e-01
-1.464692494700140790e-01 -7.877974962272485046e-03 -1.103048347224630632e+00 -9.210063780009127010e-02 -4.043284988319428841e-01 9.099648001703822819e-01
-3.789971011352138985e-02 5.397833071301072483e-02 -9.672111783726643486e-01 -7.249961806489256810e-01 -3.946615136930692325e-01 5.644668525732629005e-01
7.362863066497757347e-02 -1.004865943260944278e-01 -8.397166403131250956e-01 -9.271060758974691840e-01 -2.832878429618265748e-01 2.454023676822038591e-01
5.550525483455879400e-02 8.085766528264844502e-03 -7.439249118819138973e-01 -9.867655180851135910e-01 -6.080666214984783297e-02 1.503208640089983006e-01
1.640433925483813019e-02 1.390398972063086602e-02 -8.942834240811764479e-01 -8.719492492678841966e-01 -3.793710006484089514e-01 3.094869150193562679e-01
-1.171917989030719053e-02 -7.112043225568877303e-02 -1.023945328843800961e+00 -7.106099506698464463e-01 -6.476162111287472323e-01 2.750031656040423655e-01
3.789910308997576725e-03 4.300425577536091948e-02 -8.941520608439079698e-01 -8.719492492678841966e-01 -3.793710006484089514e-01 3.094869150193562679e-01
8.301712746851708236e-02 -1.433780428606621637e-01 -8.537608956286386608e-01 -9.271060758974691840e-01 -2.832878429618265748e-01 2.454023676822038591e-01
6.610564957235855188e-02 -5.583161918149293079e-02 -7.001951131588074473e-01 -9.867655180851135910e-01 -6.080666214984783297e-02 1.503208640089983006e-01
-4.481202507595233309e-02 4.490765561296955477e-02 -9.824312896568605513e-01 -7.249961806489256810e-01 -3.946615136930692325e-01 5.644668525732629005e-01
-2.889910477863802049e-02 1.201779956935256771e-01 -8.947374920574313606e-01 -8.805110487027100197e-01 -3.175624637375394910e-01 3.519295025106558006e-01
3.949381348477420256e-02 -1.558943459993984877e-02 -8.653843030208225873e-01 -8.719492492678841966e-01 -3.793710006484089514e-01 3.094869150193562679e-01
-2.591561748777560393e-03 -6.246811360498001620e-02 -1.003278233817424203e+00 -7.249961806489256810e-01 -3.946615136930692325e-01 5.644668525732629005e-01
8.388195059870480474e-02 -1.545401837148462076e-01 -8.637662303145734466e-01 -9.236026138597264179e-01 -3.002885775592371020e-01 2.382959963132638137e-01
5.298255849136977724e-02 2.546335174740410254e-02 -7.534554372690761559e-01 -9.867655180851135910e-01 -6.080666214984783297e-02 1.503208640089983006e-01
7.568816800989221216e-02 -9.314052814633823341e-02 -8.234557506321676934e-01 -9.271060758974691840e-01 -2.832878429618265748e-01 2.454023676822038591e-01
7.773166157409065746e-02 -1.590919952107798796e-01 -8.933398703571603372e-01 -9.236026138597264179e-01 -3.002885775592371020e-01 2.382959963132638137e-01
9.154293721672808470e-02 -1.252604160908124820e-01 -7.810313282695130477e-01 -9.199532530118539331e-01 -2.387337193089700271e-01 -3.109537321496780859e-01
-5.658742314542151985e-02 5.275520899439684053e-02 -9.920686869723719381e-01 -7.249961806489256810e-01 -3.946615136930692325e-01 5.644668525732629005e-01
5.053328196289613022e-02 -1.158095931795720818e-01 -9.446571820153483179e-01 -9.271060758974691840e-01 -2.832878429618265748e-01 2.454023676822038591e-01
-7.377390840275825645e-02 -1.894582538657769641e-02 -1.064274476819371706e+00 -7.249961806489256810e-01 -3.946615136930692325e-01 5.644668525732629005e-01
-1.138456038917703451e-02 -7.220555508508069709e-02 -1.025636070065516048e+00 -7.106099506698464463e-01 -6.476162111287472323e-01 2.750031656040423655e-01
-2.300819439230682162e-02 8.600225749908749218e-02 -9.169458915163652968e-01 -8.719492492678841966e-01 -3.793710006484089514e-01 3.094869150193562679e-01
7.225274353887478629e-02 -6.263870938570147151e-02 -6.767112498332173987e-01 -8.649169178836015881e-01 8.239586216760741433e-03 -5.018474214118346932e-01
6.352911539976753563e-02 -1.388253784826017634e-01 -9.228480256330114928e-01 -9.236026138597264179e-01 -3.002885775592371020e-01 2.382959963132638137e-01
6.018047029177660268e-02 1.343851492319745461e-02 -7.110696978130988111e-01 -9.867655180851135910e-01 -6.080666214984783297e-02 1.503208640089983006e-01
7.246095699255031275e-02 -5.017251203821024991e-02 -7.822259909798926492e-01 -9.199532530118539331e-01 -2.387337193089700271e-01 -3.109537321496780859e-01
-1.849149610345881753e-02 1.779724952378263225e-01 -7.994530315462267112e-01 -8.323164126922418804e-01 -4.862519123738492377e-01 2.660986036714437786e-01
6.689495701476250167e-02 -8.685844374814073732e-02 -8.494237201426174666e-01 -9.271060758974691840e-01 -2.832878429618265748e-01 2.454023676822038591e-01
-8.528395920431147692e-02 4.994368838785350623e-02 -1.030677083752464140e+00 -1.105793989765554847e-01 -8.002764755633190452e-01 5.893468920609797879e-01
-6.388113255453266130e-03 -8.418447228491372780e-02 -1.040934860935504025e+00 -7.106099506698464463e-01 -6.476162111287472323e-01 2.750031656040423655e-01
7.820873919484118419e-02 -1.477995709983450090e-01 -8.772606403207073855e-01 -9.236026138597264179e-01 -3.002885775592371020e-01 2.382959963132638137e-01
-8.165586483785709782e-02 -1.800579043334728582e-02 -1.079580328952035373e+00 -7.106099506698464463e-01 -6.476162111287472323e-01 2.750031656040423655e-01
-7.592131609358623856e-02 7.191150111161388747e-02 -9.990901874080685419e-01 -1.105793989765554847e-01 -8.002764755633190452e-01 5.893468920609797879e-01
3.334217643630423000e-02 -2.179968164552870472e-03 -8.662785334163484174e-01 -8.719492492678841966e-01 -3.793710006484089514e-01 3.094869150193562679e-01
-1.314449326271031893e-01 5.719835217059513616e-02 -1.029784131521039869e+00 -3.813880474858433178e-01 -7.848592067655911775e-01 4.884047325632941416e-01
1.494675861615902580e-02 1.465794502830967128e-01 -7.522288826891283531e-01 -8.323164126922418804e-01 -4.862519123738492377e-01 2.660986036714437786e-01
-2.604092182506261358e-02 1.194451616382384007e-01 -8.882477233241039549e-01 -8.805110487027100197e-01 -3.175624637375394910e-01 3.519295025106558006e-01
-7.269017665684185392e-02 -2.072327227857441445e-02 -1.064125289147236364e+00 -7.249961806489256810e-01 -3.946615136930692325e-01 5.644668525732629005e-01
5.670635489119394551e-02 -5.076585892409767042e-02 -8.462506636826813144e-01 -9.271060758974691840e-01 -2.832878429618265748e-01 2.454023676822038591e-01
6.534422184855016857e-02 -1.280769036485008283e-01 -9.028640545368968873e-01 -9.271060758974691840e-01 -2.832878429618265748e-01 2.454023676822038591e-01
5.972060993576033122e-02 -2.360890093840711107e-02 -7.354417360218437061e-01 -9.857176548013512063e-01 -1.664605173244532998e-01 2.552648007461445767e-02
4.743471813247251978e-02 -1.025863155508721231e-01 -9.410985511397539360e-01 -9.271060758974691840e-01 -2.832878429618265748e-01 2.454023676822038591e-01
-3.566994108391507989e-02 1.443066961646118085e-01 -8.899053498798147332e-01 -8.805110487027100197e-01 -3.175624637375394910e-01 3.519295025106558006e-01
3.724245118987148245e-02 -5.594521679949965298e-02 -9.211956678947992305e-01 -8.719492492678841966e-01 -3.793710006484089514e-01 3.094869150193562679e-01
-1.751296162757712827e-01 -2.219687622643142476e-03 -1.103434989912718045e+00 -9.210063780009127010e-02 -4.043284988319428841e-01 9.099648001703822819e-01
2.618328740995379614e-02 1.232928628872246163e-01 -7.596351610008048594e-01 -8.323164126922418804e-01 -4.862519123738492377e-01 2.660986036714437786e-01
4.629728945549756169e-02 5.189948450603636652e-03 -6.445752997260104644e-01 -8.520360589406640317e-01 -3.856613102751964006e-01 -3.539772704873578313e-01
-7.565385770628421658e-02 3.142302500404493826e-02 -1.031472390055792054e+00 -7.249961806489256810e-01 -3.946615136930692325e-01 5.644668525732629005e-01
-2.089584844543150577e-02 -8.337761422081785495e-04 -9.836948642651524022e-01 -7.249961806489256810e-01 -3.946615136930692325e-01 5.644668525732629005e-01
-3.016774074943769784e-02 1.765549047353147660e-01 -8.385649848096790038e-01 -8.323164126922418804e-01 -4.862519123738492377e-01 2.660986036714437786e-01
1.174165438738927481e-01 -2.009771895954904353e-01 -7.906094454197299948e-01 -9.211293920528554890e-01 -2.818184334195674712e-01 2.685125950142334128e-01
-1.844547950257945101e-02 9.579385708305594022e-03 -9.732670024409025844e-01 -7.249961806489256810e-01 -3.946615136930692325e-01 5.644668525732629005e-01
