-1.196486873620591779e-01 -6.928087282591965934e-02 -9.877019150919575941e-01 1.171267616588655275e-01 -5.511760156176107595e-01 8.261273034534102333e-01
-1.228896944619733006e-01 4.326995797892765026e-03 -9.381326777103567993e-01 1.171267616588655275e-01 -5.511760156176107595e-01 8.261273034534102333e-01
1.435812808593150969e-02 5.319737134021154668e-02 -8.946754941332893951e-01 -1.550514590368229362e-01 -6.382034242573848548e-01 7.540924574060539065e-01
1.081729791202127311e-01 4.986116662056935128e-02 -8.750903548027127998e-01 -2.705131169341359332e-01 -5.841207987599666973e-01 7.652617500062295353e-01
1.200446134182609481e-01 -9.926262312968339718e-02 -9.848014542649855541e-01 -2.667279598581669409e-01 -5.992410862652455261e-01 7.548286666267708389e-01
-5.760607964334151648e-03 -9.302530986401614729e-03 -9.517070830807560222e-01 -1.550514590368229362e-01 -6.382034242573848548e-01 7.540924574060539065e-01
-6.681803321432577825e-02 7.684770260135402598e-02 -8.913506496497712872e-01 -1.550514590368229362e-01 -6.382034242573848548e-01 7.540924574060539065e-01
1.339376255690266637e-01 -6.139071321407156556e-02 -9.509008367646185622e-01 -2.705131169341359332e-01 -5.841207987599666973e-01 7.652617500062295353e-01
2.060310954681699447e-01 -3.486247453376951216e-02 -8.664453424940269377e-01 -5.052145751561618603e-01 -5.385398513793365760e-01 6.743389811705247094e-01
4.410461598955960072e-02 9.115365340587565368e-02 -8.582875594462459068e-01 -1.546974251346741047e-01 -5.788140769723770784e-01 8.006515914899046127e-01
5.345039008485277798e-02 1.405137188999741084e-02 -9.197676409241610784e-01 -1.550514590368229362e-01 -6.382034242573848548e-01 7.540924574060539065e-01
-4.433490617748726131e-02 7.657127413881513467e-02 -8.869617659964297296e-01 -1.550514590368229362e-01 -6.382034242573848548e-01 7.540924574060539065e-01
-1.094080736247739355e-01 -1.279097899504704483e-01 -1.051567554638193069e+00 7.255975993709593008e-02 -6.231839289991365494e-01 7.787020430659408188e-01
1.877126297114852793e-01 6.309429520318868279e-02 -8.096425121549024606e-01 -6.050706980388046441e-01 -7.459900665992381663e-01 2.781874743946934347e-01
2.909057711579183803e-01 -1.060257677474914922e-01 -9.318708364513503817e-01 -2.513466596814625809e-01 -5.765816263920341411e-01 7.774178315256782268e-01
1.655055971547114424e-01 -4.634293224455045962e-02 -9.282559414353112048e-01 -2.705131169341359332e-01 -5.841207987599666973e-01 7.652617500062295353e-01
7.675383795421905631e-02 -1.243669892687454814e-01 -1.024726092119643051e+00 -2.930669653955505494e-01 -7.917220053008814373e-01 5.359925560268483657e-01
6.656562497040932613e-02 6.122790286783588720e-02 -8.771445386724566751e-01 -1.550514590368229362e-01 -6.382034242573848548e-01 7.540924574060539065e-01
7.815097124536504736e-02 -2.761910427084008496e-02 -9.448432003456141981e-01 -2.705131169341359332e-01 -5.841207987599666973e-01 7.652617500062295353e-01
8.603825454280424057e-02 5.609096809031386202e-03 -9.166921828082961188e-01 -2.705131169341359332e-01 -5.841207987599666973e-01 7.652617500062295353e-01
1.319720872627208053e-01 -1.279265637141411005e-01 -1.002907607636596143e+00 -2.899185865372856385e-01 -5.644097626908620713e-01 7.729093303612444288e-01
-1.379697499546294996e-02 1.668821876887490729e-01 -8.080396017120079488e-01 -1.198434783446180596e-01 -7.260358071587293960e-01 6.771333306089984960e-01
6.429245974206918013e-02 -1.070084711832785807e-01 -1.010651411311038528e+00 -2.667279598581669409e-01 -5.992410862652455261e-01 7.548286666267708389e-01
-1.810045222677668653e-01 -1.781408879824489602e-02 -9.234278313068980948e-01 6.603685842117957838e-01 -6.682529886508588035e-01 3.425657252926857521e-01
7.043015720649432876e-02 -1.279238541486957814e-01 -1.033437612587047694e+00 -2.930669653955505494e-01 -7.917220053008814373e-01 5.359925560268483657e-01
-1.934285587773245871e-02 3.387221853237012970e-02 -9.179601262209823309e-01 -1.550514590368229362e-01 -6.382034242573848548e-01 7.540924574060539065e-01
-1.943601258064875104e-01 9.446996740619850730e-02 -8.682538478536581117e-01 6.853465958782202216e-01 -3.295041492340832212e-01 6.494051579373685268e-01
-7.594162022657884037e-02 -1.470474477199401608e-02 -9.574864925183813602e-01 1.171267616588655275e-01 -5.511760156176107595e-01 8.261273034534102333e-01
1.028588123537167998e-01 2.961469254551985994e-02 -8.924229059521665564e-01 -2.705131169341359332e-01 -5.841207987599666973e-01 7.652617500062295353e-01
1.557291215004696916e-01 -1.792825311149321213e-02 -9.090534503207365891e-01 -6.731234573347851802e-01 -6.333559699283924926e-01 3.817918628542665838e-01
6.309624731305728262e-02 1.148798723579381453e-01 -8.408538784803177846e-01 -1.166729787153962944e-01 -5.116285776676073871e-01 8.512482684572683089e-01
7.628058066205652132e-02 -1.428644345129202221e-02 -9.353276074117248262e-01 -2.705131169341359332e-01 -5.841207987599666973e-01 7.652617500062295353e-01
-5.316868729266169269e-02 2.717909897253634188e-02 -9.305796879771135455e-01 -1.550514590368229362e-01 -6.382034242573848548e-01 7.540924574060539065e-01
1.990313966657373534e-01 4.177484968908973945e-02 -8.262274477251994043e-01 2.494853180800310488e-01 8.839421737913535915e-02 9.643358016772144437e-01
-2.174061861988026978e-01 6.432636648546387337e-02 -8.592269755068818737e-01 6.853465958782202216e-01 -3.295041492340832212e-01 6.494051579373685268e-01
-1.393273105675460199e-01 2.379055248933618222e-02 -9.226101645728326250e-01 6.603685842117957838e-01 -6.682529886508588035e-01 3.425657252926857521e-01
6.150098450881379131e-02 -7.631905244595600657e-02 -9.879012683025790720e-01 -2.705131169341359332e-01 -5.841207987599666973e-01 7.652617500062295353e-01
2.274998609470675059e-01 -7.256547087139748236e-04 -8.216421447124012678e-01 -8.707485264619488907e-01 -4.202932773539367894e-01 2.552460865036554893e-01
-1.978732412405347779e-02 5.908477977720850982e-02 -8.967136234701399422e-01 -1.550514590368229362e-01 -6.382034242573848548e-01 7.540924574060539065e-01
-6.365041837178563033e-02 8.773103955284294875e-02 -8.815816909229203802e-01 -1.546974251346741047e-01 -5.788140769723770784e-01 8.006515914899046127e-01
1.549933001726842008e-01 9.268328686645134137e-03 -8.694391511213122037e-01 -5.052145751561618603e-01 -5.385398513793365760e-01 6.743389811705247094e-01
3.975820015223217874e-02 -4.320560431941549567e-02 -9.703118024732256819e-01 -2.705131169341359332e-01 -5.841207987599666973e-01 7.652617500062295353e-01
1.948791773083070888e-02 -6.353782368289023069e-03 -9.440200651879402383e-01 -1.550514590368229362e-01 -6.382034242573848548e-01 7.540924574060539065e-01
-2.983128116214036913e-03 4.695742076525635800e-02 -9.035220816230447038e-01 -1.550514590368229362e-01 -6.382034242573848548e-01 7.540924574060539065e-01
3.253035866355018235e-02 1.762751325470775510e-01 -7.897689856446892254e-01 -1.198434783446180596e-01 -7.260358071587293960e-01 6.771333306089984960e-01
-1.223844311924911915e-01 -2.534525121177282417e-02 -9.580010571515579221e-01 1.171267616588655275e-01 -5.511760156176107595e-01 8.261273034534102333e-01
-8.609365630802409686e-02 -1.216652255607662408e-01 -1.048742566997187264e+00 7.255975993709593008e-02 -6.231839289991365494e-01 7.787020430659408188e-01
1.574819116387173312e-01 -9.241978687279094398e-03 -8.915534756725019827e-01 -6.731234573347851802e-01 -6.333559699283924926e-01 3.817918628542665838e-01
-5.602613160715200213e-02 -1.138760791151123275e-01 -1.042491036127471071e+00 6.206808917134730430e-03 -7.524870902833261654e-01 6.585777512792240218e-01
-2.474998877987434967e-02 1.089324111180688948e-01 -8.587384857110980096e-01 -1.546974251346741047e-01 -5.788140769723770784e-01 8.006515914899046127e-01
-2.003688367823804883e-01 7.069385647465853406e-02 -8.739764349723861958e-01 6.853465958782202216e-01 -3.295041492340832212e-01 6.494051579373685268e-01
2.300663294074818677e-01 -1.099626232846533797e-01 -9.544606309186057791e-01 -2.513466596814625809e-01 -5.765816263920341411e-01 7.774178315256782268e-01
-7.516680276501953861e-02 -1.230977653922554760e-01 -1.050907176279509025e+00 7.255975993709593008e-02 -6.231839289991365494e-01 7.787020430659408188e-01
-3.369796807542935202e-02 6.596089352308186216e-02 -8.937544456193589060e-01 -1.550514590368229362e-01 -6.382034242573848548e-01 7.540924574060539065e-01
9.509267663394474837e-03 -1.279962540587649888e-03 -9.417777341324796714e-01 -1.550514590368229362e-01 -6.382034242573848548e-01 7.540924574060539065e-01
1.143924195218949669e-01 -1.371346936850062759e-01 -1.018939701589378188e+00 -3.817791981736780582e-01 -6.714111873051349377e-01 6.351784484720591761e-01
6.060864434080288216e-02 1.439114603249252167e-01 -8.195004795069226189e-01 -1.198434783446180596e-01 -7.260358071587293960e-01 6.771333306089984960e-01
1.698894194623594145e-01 2.280148519601346915e-02 -8.474711482513858085e-01 -5.052145751561618603e-01 -5.385398513793365760e-01 6.743389811705247094e-01
1.139971971814774943e-01 5.072843444148197184e-02 -8.687346608020940497e-01 -6.731234573347851802e-01 -6.333559699283924926e-01 3.817918628542665838e-01
-2.621929054698591069e-02 -3.870175952972348607e-03 -9.513161509121476067e-01 -1.550514590368229362e-01 -6.382034242573848548e-01 7.540924574060539065e-01
-1.702323651743806524e-02 9.085631310910111114e-02 -8.703132972810408985e-01 -1.546974251346741047e-01 -5.788140769723770784e-01 8.006515914899046127e-01
-1.689056873674195935e-01 3.781994501457595394e-03 -9.046228071646827962e-01 6.603685842117957838e-01 -6.682529886508588035e-01 3.425657252926857521e-01
-1.258281529026053780e-01 2.337325516613766863e-02 -9.250087760706130480e-01 1.171267616588655275e-01 -5.511760156176107595e-01 8.261273034534102333e-01
1.672783737278026386e-02 1.985432282354469558e-01 -7.686895245346372363e-01 -1.198434783446180596e-01 -7.260358071587293960e-01 6.771333306089984960e-01
1.563842250212284790e-01 1.420581781284847986e-03 -8.758006053219126175e-01 -6.731234573347851802e-01 -6.333559699283924926e-01 3.817918628542665838e-01
4.495220262204192851e-02 1.632881543992225903e-01 -8.014953825236459384e-01 -1.198434783446180596e-01 -7.260358071587293960e-01 6.771333306089984960e-01
8.072645789849723641e-02 -9.789414275482095917e-02 -9.976086013279196196e-01 -2.667279598581669409e-01 -5.992410862652455261e-01 7.548286666267708389e-01
-3.469931472756343505e-02 5.776150387390580759e-02 -9.008996421498666196e-01 -1.550514590368229362e-01 -6.382034242573848548e-01 7.540924574060539065e-01
1.213254028464506723e-01 -8.235092462356634335e-02 -9.713579772276247359e-01 -2.705131169341359332e-01 -5.841207987599666973e-01 7.652617500062295353e-01
1.441571423399654883e-01 -9.490241847785232943e-02 -9.728676614635975994e-01 -2.705131169341359332e-01 -5.841207987599666973e-01 7.652617500062295353e-01
7.209248030861480083e-02 9.977622086288646941e-02 -8.486986432553386139e-01 -1.166729787153962944e-01 -5.116285776676073871e-01 8.512482684572683089e-01
4.014744043849181876e-03 8.729659799326536240e-02 -8.688218767724207314e-01 -1.546974251346741047e-01 -5.788140769723770784e-01 8.006515914899046127e-01
-1.411827123713606247e-02 1.910797268818914540e-01 -7.821513846537795356e-01 -1.198434783446180596e-01 -7.260358071587293960e-01 6.771333306089984960e-01
-1.344194005527184765e-01 -6.883761536934560055e-02 -9.853120186753062670e-01 1.171267616588655275e-01 -5.511760156176107595e-01 8.261273034534102333e-01
-9.243856877206814426e-02 1.103058801467338319e-02 -9.379774746237276029e-01 1.171267616588655275e-01 -5.511760156176107595e-01 8.261273034534102333e-01
1.236898804546178454e-01 -1.048975391341681468e-01 -9.879867844652016062e-01 -2.667279598581669409e-01 -5.992410862652455261e-01 7.548286666267708389e-01
-1.102701225594704126e-01 9.580694715089800584e-02 -8.787613205639928093e-01 6.240810570305110189e-02 -6.549939921021525890e-01 7.530525205141022083e-01
-7.368400525482816932e-02 9.331442871428359542e-02 -8.794839317901873565e-01 -1.546974251346741047e-01 -5.788140769723770784e-01 8.006515914899046127e-01
1.997936257276535232e-01 6.857139837903836188e-02 -7.686783340220597616e-01 -6.050706980388046441e-01 -7.459900665992381663e-01 2.781874743946934347e-01
2.846623312930043892e-02 -2.288627597583800174e-02 -9.561657815913782166e-01 -1.550514590368229362e-01 -6.382034242573848548e-01 7.540924574060539065e-01
-1.285085033294757206e-01 9.793754211908613228e-02 -8.753966818041576392e-01 6.240810570305110189e-02 -6.549939921021525890e-01 7.530525205141022083e-01
7.471133149043969468e-02 1.085101778990791715e-01 -8.430903015283295332e-01 -1.166729787153962944e-01 -5.116285776676073871e-01 8.512482684572683089e-01
-2.487283005741026398e-01 -9.582802121480354929e-02 -9.354099495324241786e-01 7.405107897199940670e-01 -2.505150303960430591e-01 6.236072400589495190e-01
1.216759586768055706e-01 4.326123415580596793e-02 -8.675838803666079402e-01 -6.731234573347851802e-01 -6.333559699283924926e-01 3.817918628542665838e-01
2.366460809259881559e-01 -8.453621135701888667e-02 -9.276743177716572086e-01 -2.305036756615238269e-01 -7.315574801273273531e-01 6.416320665118615540e-01
-2.040038697857862182e-01 8.625518861445932370e-03 -8.901195808964839085e-01 5.865112980233575524e-01 -1.712583095641642683e-01 7.916281252559065340e-01
-1.782782470202107228e-01 -4.376286343492353376e-02 -9.623644094613291733e-01 1.171267616588655275e-01 -5.511760156176107595e-01 8.261273034534102333e-01
5.304071358393168401e-02 -1.152396298661639146e-01 -1.024209670973576847e+00 -2.930669653955505494e-01 -7.917220053008814373e-01 5.359925560268483657e-01
-1.168914001683899473e-01 2.771201970813103738e-02 -9.233810728826987724e-01 1.171267616588655275e-01 -5.511760156176107595e-01 8.261273034534102333e-01
1.476209728783595687e-01 1.072175139659580639e-03 -8.918287520733699791e-01 -6.731234573347851802e-01 -6.333559699283924926e-01 3.817918628542665838e-01
2.195320917331539112e-02 4.538086368723755898e-02 -8.997291099178431617e-01 -1.550514590368229362e-01 -6.382034242573848548e-01 7.540924574060539065e-01
-1.703870716850524325e-01 2.319684251217439194e-02 -9.094031047241066812e-01 -5.419744349212574086e-01 3.689398930677775801e-01 7.550808348745985388e-01
7.549439908006365385e-02 -1.176529908404359420e-01 -1.015497381170809232e+00 -2.930669653955505494e-01 -7.917220053008814373e-01 5.359925560268483657e-01
-1.612392586240445069e-01 -4.081157547039796635e-02 -9.628111231699982842e-01 1.171267616588655275e-01 -5.511760156176107595e-01 8.261273034534102333e-01
5.659173199918111213e-02 3.854052741535821114e-02 -8.983960804446361470e-01 -1.550514590368229362e-01 -6.382034242573848548e-01 7.540924574060539065e-01
-5.420413656660918317e-02 2.270615318911273911e-02 -9.345781330040727752e-01 -1.550514590368229362e-01 -6.382034242573848548e-01 7.540924574060539065e-01
-1.544908085237925166e-01 1.024503208843076558e-02 -9.198029275513617264e-01 6.603685842117957838e-01 -6.682529886508588035e-01 3.425657252926857521e-01
-1.873323749393893678e-01 -7.871722731653844896e-02 -9.884007318507990192e-01 3.167531410259924463e-01 -4.882002996266003314e-01 8.132207050331818898e-01
-1.399459682702062502e-01 9.353016115670818864e-02 -8.782822939906533843e-01 6.240810570305110189e-02 -6.549939921021525890e-01 7.530525205141022083e-01
1.976419001789338492e-01 -3.131905060459453521e-02 -8.699006799471828977e-01 -5.052145751561618603e-01 -5.385398513793365760e-01 6.743389811705247094e-01
-2.105381771307146543e-01 -3.364916982968531312e-02 -9.116057556240241277e-01 4.220262945218166140e-01 -7.789477738663421746e-01 4.638255839438512051e-01
1.997355912743823958e-01 5.071854879351746920e-02 -8.166789258082103320e-01 -6.050706980388046441e-01 -7.459900665992381663e-01 2.781874743946934347e-01
-5.180507383538813376e-02 2.572469431059887235e-02 -9.315302024297543726e-01 -1.550514590368229362e-01 -6.382034242573848548e-01 7.540924574060539065e-01
-2.163875960357760087e-01 1.227510001058357142e-01 -8.265225329359072726e-01 1.854812580419767376e-01 -7.795443026398404252e-01 5.982536110521443629e-01
7.318227973809041109e-02 1.331651582848216997e-01 -8.284814101091889649e-01 -1.166729787153962944e-01 -5.116285776676073871e-01 8.512482684572683089e-01
-4.967611342608703462e-02 1.102053970244022685e-01 -8.626342940403832760e-01 -1.546974251346741047e-01 -5.788140769723770784e-01 8.006515914899046127e-01
1.593635748592052426e-01 -4.800363448353146129e-02 -9.316946972776762870e-01 -2.705131169341359332e-01 -5.841207987599666973e-01 7.652617500062295353e-01
1.607604493777812227e-01 -4.464887338719640553e-02 -9.286402409283200932e-01 -2.705131169341359332e-01 -5.841207987599666973e-01 7.652617500062295353e-01
1.718826698231748218e-01 -1.311845636782407731e-01 -9.903162566010565993e-01 -2.899185865372856385e-01 -5.644097626908620713e-01 7.729093303612444288e-01
-4.530704839205546008e-02 -4.475700321038290214e-02 -9.818800843727171213e-01 1.171267616588655275e-01 -5.511760156176107595e-01 8.261273034534102333e-01
-1.512978226243698043e-01 -8.687048720727177931e-02 -1.003037171158275509e+00 2.232353589292831314e-02 -8.216571114612659654e-01 5.695447751760751576e-01
-1.170654485840075393e-01 9.987219809639522050e-02 -8.746622726404734705e-01 6.240810570305110189e-02 -6.549939921021525890e-01 7.530525205141022083e-01
2.114675661345000179e-01 4.347832236030065717e-02 -8.035476956501956813e-01 -8.707485264619488907e-01 -4.202932773539367894e-01 2.552460865036554893e-01
-2.409730330723193481e-02 9.326879300429442854e-02 -8.699360577809271966e-01 -1.546974251346741047e-01 -5.788140769723770784e-01 8.006515914899046127e-01
-6.837794767444650701e-02 1.114466277437982794e-01 -8.653504365091854167e-01 -1.546974251346741047e-01 -5.788140769723770784e-01 8.006515914899046127e-01
1.014548875443948978e-01 1.387663514709277894e-02 -9.049319680273747446e-01 -2.705131169341359332e-01 -5.841207987599666973e-01 7.652617500062295353e-01
1.071561792563986010e-01 6.513813102483519135e-02 -8.606600289102390722e-01 -5.052145751561618603e-01 -5.385398513793365760e-01 6.743389811705247094e-01
5.003115684138090963e-02 9.766674133386707424e-02 -8.529902588388839080e-01 -1.166729787153962944e-01 -5.116285776676073871e-01 8.512482684572683089e-01
1.829616535621815809e-01 -1.210071298576624738e-01 -9.787285503054540259e-01 -2.899185865372856385e-01 -5.644097626908620713e-01 7.729093303612444288e-01
5.018546586021344069e-02 1.453037184941542159e-01 -8.198524348310487486e-01 -1.198434783446180596e-01 -7.260358071587293960e-01 6.771333306089984960e-01
-4.511034390498022684e-02 -5.763679049847935526e-02 -9.905011155010411406e-01 1.171267616588655275e-01 -5.511760156176107595e-01 8.261273034534102333e-01
1.085195581551825078e-01 2.301847738376000888e-02 -8.954567443455457854e-01 -2.705131169341359332e-01 -5.841207987599666973e-01 7.652617500062295353e-01
-1.530551078624280137e-01 -7.025121316019189432e-02 -9.836130083115319778e-01 1.171267616588655275e-01 -5.511760156176107595e-01 8.261273034534102333e-01
1.883439704880534304e-01 -6.650593110141939102e-02 -9.321370812376390536e-01 -6.731234573347851802e-01 -6.333559699283924926e-01 3.817918628542665838e-01
3.656583219936126311e-02 1.999208228727647821e-02 -9.182115898442124724e-01 -1.550514590368229362e-01 -6.382034242573848548e-01 7.540924574060539065e-01
2.185405466360086923e-01 2.875644456438844476e-02 -8.036602102773880985e-01 -8.707485264619488907e-01 -4.202932773539367894e-01 2.552460865036554893e-01
4.731234632175514154e-02 2.982095105007473348e-03 -9.303978533213355107e-01 -1.550514590368229362e-01 -6.382034242573848548e-01 7.540924574060539065e-01
1.923026072589509861e-01 -9.015804429372932527e-02 -9.522273153083176123e-01 -2.705131169341359332e-01 -5.841207987599666973e-01 7.652617500062295353e-01
-9.231509338012988675e-02 -3.810472553876466384e-02 -9.707771030950752555e-01 1.171267616588655275e-01 -5.511760156176107595e-01 8.261273034534102333e-01
7.293146351873847077e-02 4.988141611360583094e-02 -8.854383945299244552e-01 -1.550514590368229362e-01 -6.382034242573848548e-01 7.540924574060539065e-01
-1.862171445529563762e-01 -1.253155808638427857e-03 -9.054347523031410772e-01 5.865112980233575524e-01 -1.712583095641642683e-01 7.916281252559065340e-01
-9.858822133059470805e-02 -9.874256197138694957e-02 -1.022230463434092185e+00 2.232353589292831314e-02 -8.216571114612659654e-01 5.695447751760751576e-01
7.098792369436383864e-02 1.019653553929287734e-02 -9.185107678000422604e-01 -2.705131169341359332e-01 -5.841207987599666973e-01 7.652617500062295353e-01
-1.774873684919149319e-01 -2.616791060753996187e-02 -9.465039409888535982e-01 6.603685842117957838e-01 -6.682529886508588035e-01 3.425657252926857521e-01
-1.789226001061089422e-01 -5.496595936061897218e-03 -9.034130869198226943e-01 6.603685842117957838e-01 -6.682529886508588035e-01 3.425657252926857521e-01
1.965342561318806358e-01 5.042641437364651924e-02 -8.244253689913703109e-01 -6.050706980388046441e-01 -7.459900665992381663e-01 2.781874743946934347e-01
-8.672841045132893834e-02 4.688415173522266638e-02 -9.148662519771640911e-01 1.171267616588655275e-01 -5.511760156176107595e-01 8.261273034534102333e-01
-6.454406787191460659e-03 1.555219401741503304e-01 -8.189207490823436908e-01 -1.198434783446180596e-01 -7.260358071587293960e-01 6.771333306089984960e-01
1.838880624903760641e-01 -1.134222670271708561e-01 -9.728422792792112972e-01 -2.899185865372856385e-01 -5.644097626908620713e-01 7.729093303612444288e-01
-1.690862642134591809e-01 -8.135513680561842764e-02 -9.943831934398622563e-01 2.232353589292831314e-02 -8.216571114612659654e-01 5.695447751760751576e-01
1.761167860369334537e-01 -6.144458539339164860e-02 -9.360320048815006233e-01 -2.705131169341359332e-01 -5.841207987599666973e-01 7.652617500062295353e-01
-1.866061752302797527e-01 -1.254835081288387458e-02 -9.035792404157108049e-01 -5.419744349212574086e-01 3.689398930677775801e-01 7.550808348745985388e-01
2.299959518224370825e-03 1.147712374109177980e-01 -8.492909903417783513e-01 -1.546974251346741047e-01 -5.788140769723770784e-01 8.006515914899046127e-01
-1.522330766633429866e-01 1.859731895525746151e-02 -9.078621373128856753e-01 6.603685842117957838e-01 -6.682529886508588035e-01 3.425657252926857521e-01
1.729055864176608226e-01 -1.013060443259562321e-01 -9.677446066436142802e-01 -2.667279598581669409e-01 -5.992410862652455261e-01 7.548286666267708389e-01
2.242568404069888721e-01 3.334239700968907871e-02 -7.766082799010514126e-01 -8.707485264619488907e-01 -4.202932773539367894e-01 2.552460865036554893e-01
2.790388259767785928e-01 -1.039060737998387385e-01 -9.341354364858730497e-01 -2.513466596814625809e-01 -5.765816263920341411e-01 7.774178315256782268e-01
-2.258150984860434196e-01 -7.859300010115655155e-02 -9.540305540747653357e-01 7.283192291751174885e-01 -5.213236207060876204e-01 4.447165197152654903e-01
-1.632474128920887585e-02 1.846210614078387935e-01 -7.894670095427070988e-01 -1.198434783446180596e-01 -7.260358071587293960e-01 6.771333306089984960e-01
-1.309470618549167520e-01 -9.615995308613138615e-02 -1.017236329840798925e+00 2.232353589292831314e-02 -8.216571114612659654e-01 5.695447751760751576e-01
8.404639675882370764e-02 5.846841821864454808e-02 -8.758856656930752438e-01 -1.550514590368229362e-01 -6.382034242573848548e-01 7.540924574060539065e-01
-1.336462294153288599e-01 -1.034256587794629423e-01 -1.024144926124162414e+00 3.167531410259924463e-01 -4.882002996266003314e-01 8.132207050331818898e-01
2.023321211591530902e-02 1.117952296980200128e-01 -8.485827039871979283e-01 -1.166729787153962944e-01 -5.116285776676073871e-01 8.512482684572683089e-01
7.785787473444485962e-02 -1.273440351607236232e-01 -1.028519868752805655e+00 -2.930669653955505494e-01 -7.917220053008814373e-01 5.359925560268483657e-01
-1.230026538984729662e-01 -3.860158609306632311e-03 -9.435789721901567395e-01 1.171267616588655275e-01 -5.511760156176107595e-01 8.261273034534102333e-01
-1.005298903130269900e-01 -9.618021842302278135e-02 -1.018457778986100237e+00 2.232353589292831314e-02 -8.216571114612659654e-01 5.695447751760751576e-01
-2.583017827151782089e-02 1.696308743126394292e-01 -8.072221202052645150e-01 -1.198434783446180596e-01 -7.260358071587293960e-01 6.771333306089984960e-01
1.745742736051016097e-01 -1.056454681365017606e-01 -9.705999241535874233e-01 -2.667279598581669409e-01 -5.992410862652455261e-01 7.548286666267708389e-01
1.256209635976627409e-02 4.826067129101656306e-03 -9.359823776818825269e-01 -1.550514590368229362e-01 -6.382034242573848548e-01 7.540924574060539065e-01
-1.227786404788228786e-01 1.259921830675109211e-02 -9.326293573016086746e-01 1.171267616588655275e-01 -5.511760156176107595e-01 8.261273034534102333e-01
-5.890625666817919659e-02 -8.894178405730206183e-02 -1.009646664194951748e+00 2.232353589292831314e-02 -8.216571114612659654e-01 5.695447751760751576e-01
2.016561539295790295e-01 -1.117812251047939076e-01 -9.649947025213623242e-01 -2.513466596814625809e-01 -5.765816263920341411e-01 7.774178315256782268e-01
6.427764223452363257e-02 -1.967713545171702327e-02 -9.436852283218324366e-01 -2.705131169341359332e-01 -5.841207987599666973e-01 7.652617500062295353e-01
-1.893937048890496633e-01 3.846388702216418931e-02 -8.944890040842267132e-01 5.865112980233575524e-01 -1.712583095641642683e-01 7.916281252559065340e-01
-1.101862926581009816e-01 9.091934672737356227e-02 -8.830194307106278284e-01 6.240810570305110189e-02 -6.549939921021525890e-01 7.530525205141022083e-01
5.652490153829466124e-02 -1.205496028108959394e-01 -1.030148040828631872e+00 -2.930669653955505494e-01 -7.917220053008814373e-01 5.359925560268483657e-01
8.755502977309592705e-02 -9.390055534832281170e-02 -9.921112794857080974e-01 -2.705131169341359332e-01 -5.841207987599666973e-01 7.652617500062295353e-01
-1.928019571384242958e-01 2.937906228616829485e-02 -8.939292378130938577e-01 5.865112980233575524e-01 -1.712583095641642683e-01 7.916281252559065340e-01
1.582207691092610002e-01 -1.262865123124649047e-01 -9.918640849017271721e-01 -2.899185865372856385e-01 -5.644097626908620713e-01 7.729093303612444288e-01
5.322645840968873859e-02 -1.057832330747483784e-01 -1.013589030193471352e+00 -2.667279598581669409e-01 -5.992410862652455261e-01 7.548286666267708389e-01
1.284368581060272296e-01 4.026518230017807343e-02 -8.645805571005324985e-01 -5.052145751561618603e-01 -5.385398513793365760e-01 6.743389811705247094e-01
1.892021212879273218e-01 -6.173192529260406423e-03 -8.561418025532653298e-01 -5.052145751561618603e-01 -5.385398513793365760e-01 6.743389811705247094e-01
2.143244319852776192e-01 4.903524046327650820e-02 -7.846516290447548281e-01 -8.707485264619488907e-01 -4.202932773539367894e-01 2.552460865036554893e-01
-2.718316496862694387e-01 -1.046001137520253532e-01 -9.091556381178816926e-01 7.283192291751174885e-01 -5.213236207060876204e-01 4.447165197152654903e-01
4.174515213970973748e-02 4.655930261456298763e-02 -8.946622864066342551e-01 -1.550514590368229362e-01 -6.382034242573848548e-01 7.540924574060539065e-01
1.672044724877589650e-01 -7.512130944910602737e-02 -9.496218082357652523e-01 -2.705131169341359332e-01 -5.841207987599666973e-01 7.652617500062295353e-01
-2.867538412223031435e-02 4.889757866708471790e-02 -9.071627576915699542e-01 -1.550514590368229362e-01 -6.382034242573848548e-01 7.540924574060539065e-01
-2.752794493292777256e-01 -1.068819895057927377e-01 -9.061840753586734021e-01 7.283192291751174885e-01 -5.213236207060876204e-01 4.447165197152654903e-01
-2.173757515374945531e-03 1.830486925732235926e-01 -7.886484011292578256e-01 -1.198434783446180596e-01 -7.260358071587293960e-01 6.771333306089984960e-01
-4.485048747460661928e-02 1.331933395666155817e-01 -8.450832683473312734e-01 -1.546974251346741047e-01 -5.788140769723770784e-01 8.006515914899046127e-01
4.522171612578142208e-02 6.711537569125221314e-02 -8.765504455956486529e-01 -1.550514590368229362e-01 -6.382034242573848548e-01 7.540924574060539065e-01
6.319957138451587353e-02 -1.017161763275502562e-01 -1.006836165860585108e+00 -2.667279598581669409e-01 -5.992410862652455261e-01 7.548286666267708389e-01
-1.707584482156866701e-01 8.717530267703024749e-02 -8.815806509464213514e-01 5.174787490211768537e-02 -6.535726282288609745e-01 7.550926943582050299e-01
-1.220707306021348582e-01 -3.657124244800943197e-02 -9.655352953121987269e-01 1.171267616588655275e-01 -5.511760156176107595e-01 8.261273034534102333e-01
-1.835010070866164578e-01 -6.569540716663829771e-02 -9.762569016292187429e-01 1.171267616588655275e-01 -5.511760156176107595e-01 8.261273034534102333e-01
1.367063503602630736e-01 -1.297330494458567296e-01 -1.002450952931408290e+00 -2.899185865372856385e-01 -5.644097626908620713e-01 7.729093303612444288e-01
-2.207464576741575146e-01 -4.510783321437012577e-02 -9.215610872910123819e-01 4.220262945218166140e-01 -7.789477738663421746e-01 4.638255839438512051e-01
8.556223579646008229e-03 3.552377029536507580e-02 -9.108259626137263920e-01 -1.550514590368229362e-01 -6.382034242573848548e-01 7.540924574060539065e-01
2.314266048106427553e-01 -6.659503026961161032e-02 -9.090937364394167108e-01 -2.305036756615238269e-01 -7.315574801273273531e-01 6.416320665118615540e-01
1.316293626493761915e-01 -1.096267260121003458e-02 -9.132252937685757521e-01 -2.705131169341359332e-01 -5.841207987599666973e-01 7.652617500062295353e-01
9.556020028700064339e-02 -2.635089452797234610e-02 -9.377211764114141701e-01 -2.705131169341359332e-01 -5.841207987599666973e-01 7.652617500062295353e-01
-3.437962348749633301e-02 1.853179585622835232e-02 -9.340347904342509722e-01 -1.550514590368229362e-01 -6.382034242573848548e-01 7.540924574060539065e-01
3.917803454664231522e-02 -7.155694192178180257e-02 -9.921573322836175768e-01 -2.705131169341359332e-01 -5.841207987599666973e-01 7.652617500062295353e-01
2.173273304058520594e-02 1.605707231536876445e-01 -8.085185996254122820e-01 -1.198434783446180596e-01 -7.260358071587293960e-01 6.771333306089984960e-01
1.298482343601856936e-01 -6.938319927223485228e-02 -9.584470277281572637e-01 -2.705131169341359332e-01 -5.841207987599666973e-01 7.652617500062295353e-01
1.581526298895460092e-01 -8.309414565322244955e-03 -8.888239223654021970e-01 -6.731234573347851802e-01 -6.333559699283924926e-01 3.817918628542665838e-01
2.703001489277582700e-02 -1.581022125229244145e-03 -9.384300277090644737e-01 -1.550514590368229362e-01 -6.382034242573848548e-01 7.540924574060539065e-01
-3.302381174674607484e-02 1.587083774165105043e-01 -8.202066145586437429e-01 -1.198434783446180596e-01 -7.260358071587293960e-01 6.771333306089984960e-01
-2.836477004435477081e-02 -5.965892661206474712e-02 -9.942244009458858223e-01 1.171267616588655275e-01 -5.511760156176107595e-01 8.261273034534102333e-01
-2.578315086479382456e-02 1.712708187836905205e-01 -8.054554159512316014e-01 -1.198434783446180596e-01 -7.260358071587293960e-01 6.771333306089984960e-01
8.151312981784536449e-03 7.080168317954814439e-02 -8.810528192758505517e-01 -1.550514590368229362e-01 -6.382034242573848548e-01 7.540924574060539065e-01
2.009440112815348844e-01 -1.138696674342052212e-01 -9.667738643756847994e-01 -2.513466596814625809e-01 -5.765816263920341411e-01 7.774178315256782268e-01
1.200310488518524787e-01 -1.038223125741644104e-01 -9.884260798599489029e-01 -2.667279598581669409e-01 -5.992410862652455261e-01 7.548286666267708389e-01
2.244645531089606988e-02 6.156297703628539619e-02 -8.859324480069584729e-01 -1.550514590368229362e-01 -6.382034242573848548e-01 7.540924574060539065e-01
-1.725393005303375582e-01 -2.101295520157780636e-02 -9.459864761377684284e-01 6.603685842117957838e-01 -6.682529886508588035e-01 3.425657252926857521e-01
-1.891505916519193586e-01 -3.650477653016102886e-02 -9.441850148360260153e-01 6.603685842117957838e-01 -6.682529886508588035e-01 3.425657252926857521e-01
-8.186593255021118454e-02 -8.682275591746864418e-02 -1.005689722111817952e+00 2.232353589292831314e-02 -8.216571114612659654e-01 5.695447751760751576e-01
-1.998589482454546720e-02 4.140397443962900992e-02 -9.117180689804762483e-01 -1.550514590368229362e-01 -6.382034242573848548e-01 7.540924574060539065e-01
6.210783725799484851e-03 1.211631987082665944e-02 -9.311184065113022879e-01 -1.550514590368229362e-01 -6.382034242573848548e-01 7.540924574060539065e-01
2.122970210764981713e-01 -2.353362858560897192e-02 -8.527034823670796015e-01 -5.052145751561618603e-01 -5.385398513793365760e-01 6.743389811705247094e-01
-6.007148643239237397e-03 1.062269912002485328e-01 -8.570729248223588614e-01 -1.546974251346741047e-01 -5.788140769723770784e-01 8.006515914899046127e-01
5.324896842762209120e-02 4.690844398927799391e-02 -8.920014631864585652e-01 -1.550514590368229362e-01 -6.382034242573848548e-01 7.540924574060539065e-01
-7.316759604562503294e-02 6.107343606427203392e-02 -9.060062794625520777e-01 -1.550514590368229362e-01 -6.382034242573848548e-01 7.540924574060539065e-01
-5.046759820399687735e-02 3.313655867786113179e-02 -9.249823915891896009e-01 -1.550514590368229362e-01 -6.382034242573848548e-01 7.540924574060539065e-01
4.461107912688454247e-02 -7.087618641677158327e-02 -9.897171825267858658e-01 -2.705131169341359332e-01 -5.841207987599666973e-01 7.652617500062295353e-01
-5.573342787673971760e-02 1.171851714849038995e-01 -8.587587746558411617e-01 -1.546974251346741047e-01 -5.788140769723770784e-01 8.006515914899046127e-01
-2.202829695518827846e-01 -6.070151019404648740e-02 -9.421171211747056962e-01 7.283192291751174885e-01 -5.213236207060876204e-01 4.447165197152654903e-01
-1.140223933049955424e-01 -7.149822396433920535e-02 -9.899789737981400384e-01 1.171267616588655275e-01 -5.511760156176107595e-01 8.261273034534102333e-01
6.347205309586816113e-02 -1.238220522682277891e-01 -1.031183297037405966e+00 -2.930669653955505494e-01 -7.917220053008814373e-01 5.359925560268483657e-01
2.218893471252205429e-01 1.524154732309829924e-02 -8.144899840110891853e-01 -8.707485264619488907e-01 -4.202932773539367894e-01 2.552460865036554893e-01
-2.055898986334700473e-01 6.807993929443074965e-02 -8.697926979375525391e-01 6.853465958782202216e-01 -3.295041492340832212e-01 6.494051579373685268e-01
1.511229432262331529e-01 -9.078215971623424668e-03 -9.024930768417290805e-01 -6.731234573347851802e-01 -6.333559699283924926e-01 3.817918628542665838e-01
-7.204139787398403105e-02 5.974892859511956450e-02 -9.068956750877212869e-01 -1.550514590368229362e-01 -6.382034242573848548e-01 7.540924574060539065e-01
1.129178148126483150e-01 -1.447732185477760836e-01 -1.027900277101004400e+00 -3.817791981736780582e-01 -6.714111873051349377e-01 6.351784484720591761e-01
-6.585202876973687836e-02 4.808122074181156447e-02 -9.154976712108465753e-01 -1.550514590368229362e-01 -6.382034242573848548e-01 7.540924574060539065e-01
7.574652830482934973e-02 7.372414453749152885e-02 -8.647741795709394941e-01 -1.546974251346741047e-01 -5.788140769723770784e-01 8.006515914899046127e-01
2.908206571128854959e-02 1.666782259222398255e-01 -8.006692809568443092e-01 -1.198434783446180596e-01 -7.260358071587293960e-01 6.771333306089984960e-01
-6.097111262027478384e-02 1.074722900455560293e-02 -9.426279224552276403e-01 1.171267616588655275e-01 -5.511760156176107595e-01 8.261273034534102333e-01
1.125736109220996650e-01 -7.894783582854410231e-02 -9.718540944934002113e-01 -2.705131169341359332e-01 -5.841207987599666973e-01 7.652617500062295353e-01
7.762031931035376364e-02 -1.732304890194931793e-02 -9.371718489718411371e-01 -2.705131169341359332e-01 -5.841207987599666973e-01 7.652617500062295353e-01
7.069108448880075113e-02 -7.241825057655318365e-02 -9.816751867112233354e-01 -2.705131169341359332e-01 -5.841207987599666973e-01 7.652617500062295353e-01
-3.126995097219158887e-02 -1.099085578970190186e-01 -1.038191085804490266e+00 6.206808917134730430e-03 -7.524870902833261654e-01 6.585777512792240218e-01
-2.009102167804655004e-01 -9.441992067468395200e-02 -9.916265140482570795e-01 7.405107897199940670e-01 -2.505150303960430591e-01 6.236072400589495190e-01
-7.931658116663251046e-02 -4.531297233731106794e-02 -9.774292090949483480e-01 1.171267616588655275e-01 -5.511760156176107595e-01 8.261273034534102333e-01
1.171894480191993937e-01 -9.674468694365809252e-02 -9.838114304273236632e-01 -2.667279598581669409e-01 -5.992410862652455261e-01 7.548286666267708389e-01
4.271130541210250986e-02 -8.159272377394144460e-02 -9.985686193979101954e-01 -2.705131169341359332e-01 -5.841207987599666973e-01 7.652617500062295353e-01
1.345024169191659236e-01 -1.034438279003586647e-01 -9.830119743434212465e-01 -2.667279598581669409e-01 -5.992410862652455261e-01 7.548286666267708389e-01
-1.807726264363919144e-01 -7.854975645125342187e-03 -9.044473264666103018e-01 6.603685842117957838e-01 -6.682529886508588035e-01 3.425657252926857521e-01
2.091306140542264491e-01 -5.446039629836807450e-02 -8.931884615832131891e-01 -1.624615035225169396e-02 -8.167241750345863860e-01 5.767995184748393456e-01
3.742481181416627833e-02 -1.276291186844845838e-04 -9.350626835622255495e-01 -1.550514590368229362e-01 -6.382034242573848548e-01 7.540924574060539065e-01
-1.133000535701535472e-01 4.380187397151206335e-02 -9.131554104062269417e-01 1.171267616588655275e-01 -5.511760156176107595e-01 8.261273034534102333e-01
2.242530349820345270e-01 -1.060385841841358368e-01 -9.534298123825187821e-01 -2.513466596814625809e-01 -5.765816263920341411e-01 7.774178315256782268e-01
1.730348307309289013e-01 -6.144108897959362631e-02 -9.371187794498776480e-01 -2.705131169341359332e-01 -5.841207987599666973e-01 7.652617500062295353e-01
-2.282506784146720036e-01 -8.610668725162468062e-02 -9.558211299452566978e-01 7.405107897199940670e-01 -2.505150303960430591e-01 6.236072400589495190e-01
-1.824354301467225048e-01 -1.727045114441465995e-02 -9.196089609398732101e-01 6.603685842117957838e-01 -6.682529886508588035e-01 3.425657252926857521e-01
1.141334063319915104e-01 -1.356625654744836873e-01 -1.017539280174145411e+00 -3.817791981736780582e-01 -6.714111873051349377e-01 6.351784484720591761e-01
-2.064931485706271164e-01 -5.823721100777336235e-02 -9.565793600907829264e-01 4.220262945218166140e-01 -7.789477738663421746e-01 4.638255839438512051e-01
-2.015093742277251215e-02 4.617637723117497955e-02 -9.077130246676997638e-01 -1.550514590368229362e-01 -6.382034242573848548e-01 7.540924574060539065e-01
-7.660748044610632412e-02 3.747689600260788872e-02 -9.225775156800536392e-01 1.171267616588655275e-01 -5.511760156176107595e-01 8.261273034534102333e-01
-3.051006573865340521e-02 -7.357048653806413929e-02 -1.003201766301759612e+00 1.171267616588655275e-01 -5.511760156176107595e-01 8.261273034534102333e-01
1.020214294121909587e-01 -5.387056620768672366e-02 -9.564428299804957900e-01 -2.705131169341359332e-01 -5.841207987599666973e-01 7.652617500062295353e-01
-1.738234487990758803e-01 8.618514598918073852e-03 -9.047465195818570338e-01 -5.419744349212574086e-01 3.689398930677775801e-01 7.550808348745985388e-01
1.843201532795309128e-01 -2.317974938700206877e-02 -8.733811292428649287e-01 -5.052145751561618603e-01 -5.385398513793365760e-01 6.743389811705247094e-01
1.482844530495869007e-01 -1.281073494170040239e-01 -9.969208500253328165e-01 -2.899185865372856385e-01 -5.644097626908620713e-01 7.729093303612444288e-01
2.122289159536114023e-01 3.081546111963031839e-02 -8.218013397402077480e-01 -8.707485264619488907e-01 -4.202932773539367894e-01 2.552460865036554893e-01
6.925490599810361914e-02 -1.116709057499787935e-03 -9.277587218355146659e-01 -2.705131169341359332e-01 -5.841207987599666973e-01 7.652617500062295353e-01
-1.436736488059015548e-01 -7.099979778969922606e-02 -9.854425348337187973e-01 1.171267616588655275e-01 -5.511760156176107595e-01 8.261273034534102333e-01
4.947518095543852051e-02 -2.653831876025721653e-02 -9.541548745748432703e-01 -2.705131169341359332e-01 -5.841207987599666973e-01 7.652617500062295353e-01
2.023704626897539216e-01 -5.634280140240788964e-02 -8.960442756717973412e-01 -1.624615035225169396e-02 -8.167241750345863860e-01 5.767995184748393456e-01
1.921297369837914049e-02 4.980851942030554980e-02 -8.965453258629779709e-01 -1.550514590368229362e-01 -6.382034242573848548e-01 7.540924574060539065e-01
6.733299098383667414e-02 -1.317493433958307758e-01 -1.040781746530582197e+00 -2.930669653955505494e-01 -7.917220053008814373e-01 5.359925560268483657e-01
-6.603455582785289213e-02 8.316834197881627089e-02 -8.858402736139451283e-01 -1.550514590368229362e-01 -6.382034242573848548e-01 7.540924574060539065e-01
7.570948791123165156e-02 1.900400567991223505e-02 -9.101190357597953584e-01 -2.705131169341359332e-01 -5.841207987599666973e-01 7.652617500062295353e-01
-1.600111872919294520e-01 -6.848973751385269149e-02 -9.814515663905210019e-01 1.171267616588655275e-01 -5.511760156176107595e-01 8.261273034534102333e-01
1.240065720256380011e-01 7.363602366733426607e-02 -8.460574099992705932e-01 -4.599323591490956376e-01 -4.229442287783274357e-01 7.807563027927814092e-01
1.977224493294130192e-01 1.684549483625831512e-02 -8.333964927561582359e-01 -4.599323591490956376e-01 -4.229442287783274357e-01 7.807563027927814092e-01
1.889551037879469708e-01 4.258023605003968814e-02 -8.246204196939223019e-01 -4.599323591490956376e-01 -4.229442287783274357e-01 7.807563027927814092e-01
-1.128685510705152717e-01 -1.155812363662512277e-01 -1.041378743725379197e+00 7.255975993709593008e-02 -6.231839289991365494e-01 7.787020430659408188e-01
-1.791213336050258287e-01 -1.666928639056852388e-02 -9.248248800054059693e-01 6.603685842117957838e-01 -6.682529886508588035e-01 3.425657252926857521e-01
-1.799972815146031746e-01 1.106716927034676473e-01 -8.535446457733885106e-01 1.854812580419767376e-01 -7.795443026398404252e-01 5.982536110521443629e-01
-2.391738845809276634e-02 1.105847876100380933e-01 -8.573830648120570608e-01 -1.546974251346741047e-01 -5.788140769723770784e-01 8.006515914899046127e-01
8.622616137106332845e-02 -4.090265013218884194e-02 -9.521279634585123608e-01 -2.705131169341359332e-01 -5.841207987599666973e-01 7.652617500062295353e-01
-1.026860828374655393e-01 -7.790000209558434197e-02 -9.958573558309919971e-01 1.171267616588655275e-01 -5.511760156176107595e-01 8.261273034534102333e-01
-1.125023041179553096e-01 7.773077182797248630e-02 -8.942987229301162522e-01 6.240810570305110189e-02 -6.549939921021525890e-01 7.530525205141022083e-01
2.072175001984544185e-01 -9.241684207644068616e-02 -9.469870980361956292e-01 -1.624615035225169396e-02 -8.167241750345863860e-01 5.767995184748393456e-01
-2.941499231881973455e-03 1.450359555530724154e-01 -8.295422927615160313e-01 -1.198434783446180596e-01 -7.260358071587293960e-01 6.771333306089984960e-01
1.614976747520746325e-01 -9.281171479423723503e-02 -9.651421152989126950e-01 -2.705131169341359332e-01 -5.841207987599666973e-01 7.652617500062295353e-01
1.887678829458799834e-01 -7.338643702167114979e-02 -9.406751171947447254e-01 -2.705131169341359332e-01 -5.841207987599666973e-01 7.652617500062295353e-01
-5.753626090720836972e-02 -1.169021304040899212e-01 -1.045934352335892159e+00 6.206808917134730430e-03 -7.524870902833261654e-01 6.585777512792240218e-01
-1.020436121160466364e-01 -5.517170662931526054e-02 -9.807845689012233414e-01 1.171267616588655275e-01 -5.511760156176107595e-01 8.261273034534102333e-01
1.188019776819725787e-01 -1.275688981384656999e-03 -9.103656281444637566e-01 -2.705131169341359332e-01 -5.841207987599666973e-01 7.652617500062295353e-01
6.272079304012306497e-03 7.375169022675252817e-02 -8.789425652083673324e-01 -1.550514590368229362e-01 -6.382034242573848548e-01 7.540924574060539065e-01
-4.341566671650975984e-02 -1.132432068663212499e-01 -1.041886768141939479e+00 6.206808917134730430e-03 -7.524870902833261654e-01 6.585777512792240218e-01
1.510611498300919869e-02 -8.830085223091329802e-03 -9.470167665187926298e-01 -1.550514590368229362e-01 -6.382034242573848548e-01 7.540924574060539065e-01
-2.211039026995392509e-01 3.657156532023085604e-02 -8.694072222265212257e-01 6.853465958782202216e-01 -3.295041492340832212e-01 6.494051579373685268e-01
1.238416296211653639e-01 3.301413224805214292e-02 -8.807646203032900578e-01 -6.731234573347851802e-01 -6.333559699283924926e-01 3.817918628542665838e-01
2.225716059463775723e-02 1.045022332626854705e-01 -8.528587301282601896e-01 -1.546974251346741047e-01 -5.788140769723770784e-01 8.006515914899046127e-01
1.037934526428879213e-02 -5.657691433510908530e-02 -9.883977431771199251e-01 -1.550514590368229362e-01 -6.382034242573848548e-01 7.540924574060539065e-01
2.023610780603833093e-01 5.591103586640462642e-02 -7.970441492550924822e-01 -6.050706980388046441e-01 -7.459900665992381663e-01 2.781874743946934347e-01
1.345580251898369217e-01 -1.917266439035303707e-02 -9.184566872485009359e-01 -2.705131169341359332e-01 -5.841207987599666973e-01 7.652617500062295353e-01
-1.064894316645791511e-01 -7.072768460920668410e-02 -9.905328939858532022e-01 1.171267616588655275e-01 -5.511760156176107595e-01 8.261273034534102333e-01
1.474406846484181688e-01 6.371766636391834604e-02 -8.376255924152542498e-01 -4.599323591490956376e-01 -4.229442287783274357e-01 7.807563027927814092e-01
3.506367283842219511e-03 9.286132008198300092e-02 -8.648972047465148805e-01 -1.546974251346741047e-01 -5.788140769723770784e-01 8.006515914899046127e-01
-4.005727566990861105e-02 1.556238196612877989e-01 -8.247587670248821556e-01 -1.198434783446180596e-01 -7.260358071587293960e-01 6.771333306089984960e-01
-3.025186072985781502e-02 -2.259044640973434034e-02 -9.679886377876960601e-01 -1.550514590368229362e-01 -6.382034242573848548e-01 7.540924574060539065e-01
-1.393428915593659112e-01 -8.153702863278347590e-02 -9.958114041719786647e-01 2.232353589292831314e-02 -8.216571114612659654e-01 5.695447751760751576e-01
1.414487147069825868e-01 -9.473669467973939995e-02 -9.736985699516493842e-01 -2.705131169341359332e-01 -5.841207987599666973e-01 7.652617500062295353e-01
-5.565339761304968075e-02 6.575407001771781113e-02 -8.984438133728732678e-01 -1.550514590368229362e-01 -6.382034242573848548e-01 7.540924574060539065e-01
7.883975679141658199e-02 -6.835861081799635142e-02 -9.756960001624847001e-01 -2.705131169341359332e-01 -5.841207987599666973e-01 7.652617500062295353e-01
1.535538408464176552e-01 1.641431614119877183e-03 -8.804243849070853001e-01 -6.731234573347851802e-01 -6.333559699283924926e-01 3.817918628542665838e-01
-1.172747095849832333e-01 7.315051268437940124e-02 -8.956884926898049937e-01 -5.419744349212574086e-01 3.689398930677775801e-01 7.550808348745985388e-01
-2.057365480893443288e-01 1.265028579708223910e-01 -8.249359655790868828e-01 1.854812580419767376e-01 -7.795443026398404252e-01 5.982536110521443629e-01
3.731708726729883463e-02 -1.746780896782197667e-02 -9.497601717764014850e-01 -1.550514590368229362e-01 -6.382034242573848548e-01 7.540924574060539065e-01
-1.933899124878063480e-01 -7.948784754348071913e-02 -9.865039195708048547e-01 3.167531410259924463e-01 -4.882002996266003314e-01 8.132207050331818898e-01
-4.634296030350304463e-02 -5.896169627227669519e-02 -9.912103087644700272e-01 1.171267616588655275e-01 -5.511760156176107595e-01 8.261273034534102333e-01
-2.408448056899974155e-01 -6.403015658371927210e-02 -9.123447199445929856e-01 7.283192291751174885e-01 -5.213236207060876204e-01 4.447165197152654903e-01
-7.736741175443004326e-02 -1.360853003500176427e-02 -9.565529734200163281e-01 1.171267616588655275e-01 -5.511760156176107595e-01 8.261273034534102333e-01
2.346903071624749371e-01 -1.082877372728900112e-01 -9.517234543610954001e-01 -2.513466596814625809e-01 -5.765816263920341411e-01 7.774178315256782268e-01
7.225911338033760845e-02 6.613901568727791058e-02 -8.718175092561051276e-01 -1.550514590368229362e-01 -6.382034242573848548e-01 7.540924574060539065e-01
1.936076561391450457e-01 -7.929421964231607445e-02 -9.434736845757613066e-01 -2.705131169341359332e-01 -5.841207987599666973e-01 7.652617500062295353e-01
7.849366071922689314e-02 -1.259442387855905787e-01 -1.026104578749655882e+00 -2.930669653955505494e-01 -7.917220053008814373e-01 5.359925560268483657e-01
-1.418988699494349581e-01 1.071018606795637734e-01 -8.663159857996136637e-01 6.240810570305110189e-02 -6.549939921021525890e-01 7.530525205141022083e-01
