-8.575189979473900326e-02 1.031060513198407413e-01 -8.526029849008265327e-01 2.126606320794332261e-01 4.321540355972897651e-01 -8.763665586274684838e-01
-6.481945108348934059e-02 1.585550881296037551e-01 -8.227592021418244084e-01 2.114692247638050027e-01 1.697231005765289513e-01 -9.625356284878417990e-01
1.774620987835838770e-01 9.726201859712288456e-02 -8.101344065451339116e-01 -9.648383000004767673e-02 8.824154180058456365e-02 -9.914153019038879355e-01
5.934302081581130373e-02 -1.128026915583324602e-01 -8.973096167237943899e-01 -2.024285152012937974e-02 4.001468630765700474e-01 -9.162274362473080691e-01
1.207934485487710541e-01 -1.411176380285803222e-01 -8.998334285057869586e-01 6.551044966586609675e-02 3.400431406624325470e-02 -9.972723236957197201e-01
2.426172635394545918e-01 -5.454157265633676616e-02 -9.210450685000850513e-01 -6.621719062966272551e-01 1.236157842889077790e-01 -7.390855866448275968e-01
5.838779407342696570e-02 5.957003146590356818e-02 -8.295080685992917147e-01 2.487665027317030042e-01 2.803167598905970115e-01 -9.271125828307343886e-01
1.748689310420823706e-01 -3.533060912716246699e-02 -8.748725625472936196e-01 -5.960731275692870978e-01 -4.476788858618101913e-02 -8.016811478021070858e-01
1.832303025585253209e-01 4.251065011644595930e-03 -8.694841894336119426e-01 -5.086524160231461478e-01 5.980610209368801833e-01 -6.193510595048280498e-01
1.068497236623853069e-01 8.335958358381208300e-02 -8.134444621598249103e-01 3.305985692705176726e-02 2.801157990668363684e-01 -9.593967818234073741e-01
1.372552388495356102e-01 -6.810883817809526564e-02 -8.795116998283611931e-01 -2.024285152012937974e-02 4.001468630765700474e-01 -9.162274362473080691e-01
-1.030032378425756318e-01 2.173446398458230011e-02 -8.888147735681499739e-01 3.620134747010650966e-01 3.138013479075100753e-01 -8.777670295621105012e-01
1.883040247958644720e-01 9.061864864119736906e-02 -8.117808323676625193e-01 -9.648383000004767673e-02 8.824154180058456365e-02 -9.914153019038879355e-01
1.533754587934553215e-01 1.013233145889321646e-02 -8.614303088580921308e-01 -5.960731275692870978e-01 -4.476788858618101913e-02 -8.016811478021070858e-01
1.448386267185202553e-02 1.549470667920214706e-01 -8.059724513614233699e-01 2.114692247638050027e-01 1.697231005765289513e-01 -9.625356284878417990e-01
-1.924346966022998373e-01 -4.774051502988230222e-02 -9.547138455545599589e-01 7.327274967787706927e-01 -5.283127992754663160e-02 -6.784683274299057043e-01
1.652168663668464599e-01 -9.492868961560789465e-02 -8.918425928446940265e-01 -2.024285152012937974e-02 4.001468630765700474e-01 -9.162274362473080691e-01
9.482200922884084782e-02 -2.623912267396515119e-02 -8.602883015903026731e-01 -2.024285152012937974e-02 4.001468630765700474e-01 -9.162274362473080691e-01
1.517028480839707760e-01 1.739666741873528016e-02 -8.605923331669494969e-01 -5.960731275692870978e-01 -4.476788858618101913e-02 -8.016811478021070858e-01
2.194931380088680981e-02 -9.485363105360467006e-02 -8.886445023636021512e-01 -2.024285152012937974e-02 4.001468630765700474e-01 -9.162274362473080691e-01
-1.700764139051440249e-02 9.986739985303408340e-02 -8.359443002900944775e-01 2.494772947993439405e-01 3.515834259036016984e-01 -9.023027064181331491e-01
-7.401504754751067616e-02 -1.194467212742534451e-01 -9.273035225157062467e-01 3.580954846053059359e-01 2.970237040667382256e-01 -8.851805144306813533e-01
-3.881710789946354184e-02 -1.363898480787742451e-01 -9.187496593770736464e-01 3.580954846053059359e-01 2.970237040667382256e-01 -8.851805144306813533e-01
-1.010414703506019168e-01 7.628918642908775853e-03 -8.930484172910367890e-01 3.620134747010650966e-01 3.138013479075100753e-01 -8.777670295621105012e-01
-8.386375747330189478e-02 5.077282208366867139e-02 -8.705399635505416400e-01 3.620134747010650966e-01 3.138013479075100753e-01 -8.777670295621105012e-01
9.054047104882953501e-02 -1.173787877089806780e-01 -8.999974164722703840e-01 -2.024285152012937974e-02 4.001468630765700474e-01 -9.162274362473080691e-01
-1.286275440968997763e-01 8.287604192087034971e-02 -8.883202192496393312e-01 5.857289896958374209e-01 2.516303077459725035e-01 -7.704568377615717001e-01
-5.329011684142756500e-02 -7.024245920514449182e-02 -9.011935283350978043e-01 3.620134747010650966e-01 3.138013479075100753e-01 -8.777670295621105012e-01
2.065469110477772818e-01 -1.174852468239375725e-01 -9.115318287777377515e-01 -6.722780076493487522e-01 4.210116397496038720e-01 -6.089264977206790830e-01
-1.807478318772975793e-04 1.125106316554973090e-01 -8.263653878308833134e-01 2.494772947993439405e-01 3.515834259036016984e-01 -9.023027064181331491e-01
1.569439485020825975e-01 2.058285358282555336e-02 -8.542906141555351995e-01 5.853289590716183044e-01 8.093090541982463915e-01 -4.908018403465821272e-02
-1.891812569306164094e-01 9.970229520738765200e-03 -9.556940649203585769e-01 7.327274967787706927e-01 -5.283127992754663160e-02 -6.784683274299057043e-01
-8.986799021721393610e-02 -7.586540515053056535e-04 -8.914387433082754386e-01 3.620134747010650966e-01 3.138013479075100753e-01 -8.777670295621105012e-01
-1.259729362073695735e-01 4.472358695203233585e-03 -9.044592575404556412e-01 3.620134747010650966e-01 3.138013479075100753e-01 -8.777670295621105012e-01
1.727450595422840851e-01 -2.603748728048324579e-02 -8.738123539015990593e-01 -5.960731275692870978e-01 -4.476788858618101913e-02 -8.016811478021070858e-01
1.640221239916138107e-01 7.631077947652055438e-02 -8.133153547150532292e-01 4.377317088072893436e-02 2.821194210057357266e-01 -9.583801655931922792e-01
2.042337573854282051e-01 9.306271397261832445e-02 -8.186700930361182627e-01 -6.113853123680251800e-01 3.974023574030879913e-01 -6.843094082000631406e-01
-6.830071432980362560e-03 6.744492360881103321e-02 -8.446265734359658106e-01 2.487665027317030042e-01 2.803167598905970115e-01 -9.271125828307343886e-01
1.947589749116765967e-01 3.097166009767236133e-02 -8.531502231378098600e-01 -5.086524160231461478e-01 5.980610209368801833e-01 -6.193510595048280498e-01
-9.718171493140274897e-02 -8.405495213405766997e-02 -9.242335015314929736e-01 3.620134747010650966e-01 3.138013479075100753e-01 -8.777670295621105012e-01
2.057137050874671691e-01 -7.128952321784344515e-02 -8.939822125718486223e-01 -3.432828113042843965e-01 -1.364868856517453474e-02 -9.391329111278539088e-01
8.287344100823969273e-02 -6.331016662002410256e-02 -8.762144660734220158e-01 -2.024285152012937974e-02 4.001468630765700474e-01 -9.162274362473080691e-01
-2.184838176347700667e-01 -7.346860315117167799e-03 -9.623047734534029285e-01 1.042716150480395287e-01 4.103359151959005968e-02 -9.937020049603788596e-01
1.537071571717390228e-01 -8.290414295648559917e-02 -8.863367830858160934e-01 -2.024285152012937974e-02 4.001468630765700474e-01 -9.162274362473080691e-01
7.991529684881269746e-02 -7.385662721291379185e-02 -8.807550983282806945e-01 -2.024285152012937974e-02 4.001468630765700474e-01 -9.162274362473080691e-01
9.215477149048548200e-02 -1.473127217039321354e-02 -8.552035130400422736e-01 -2.024285152012937974e-02 4.001468630765700474e-01 -9.162274362473080691e-01
-1.952416655416296942e-01 -2.189069801765852752e-02 -9.597581816049457482e-01 7.327274967787706927e-01 -5.283127992754663160e-02 -6.784683274299057043e-01
1.540435898052248953e-01 -1.180022648818597197e-01 -8.968610667516591084e-01 6.551044966586609675e-02 3.400431406624325470e-02 -9.972723236957197201e-01
1.000251501609791260e-01 -1.378602272547831964e-01 -9.010866213574171280e-01 6.551044966586609675e-02 3.400431406624325470e-02 -9.972723236957197201e-01
1.290560827179083707e-02 1.223503767558014321e-01 -8.189130772436743477e-01 2.494772947993439405e-01 3.515834259036016984e-01 -9.023027064181331491e-01
-7.080027805235011504e-03 2.431941199413659160e-01 -7.951495124832715922e-01 2.114692247638050027e-01 1.697231005765289513e-01 -9.625356284878417990e-01
3.376559220849548876e-02 -3.326146995922113492e-02 -8.641828269167857179e-01 2.487665027317030042e-01 2.803167598905970115e-01 -9.271125828307343886e-01
2.111248461323199099e-01 3.565085005148475872e-02 -8.620726246271807058e-01 -5.086524160231461478e-01 5.980610209368801833e-01 -6.193510595048280498e-01
-1.941775111658137487e-01 -1.040181619382519601e-01 -9.719298414517895113e-01 3.810210954476521139e-01 3.300259806160198983e-01 -8.636583681886639274e-01
-7.492386975640681623e-02 -4.072144763376158924e-03 -8.864599790399433354e-01 3.620134747010650966e-01 3.138013479075100753e-01 -8.777670295621105012e-01
2.349815679307360461e-01 -9.332075659532096390e-02 -9.262174482344019966e-01 -6.722780076493487522e-01 4.210116397496038720e-01 -6.089264977206790830e-01
5.880982974419771137e-02 -7.769658446501038866e-03 -8.514264327416635192e-01 -2.024285152012937974e-02 4.001468630765700474e-01 -9.162274362473080691e-01
2.605515972870155184e-02 -5.123254697707460559e-02 -8.716853584676990119e-01 2.487665027317030042e-01 2.803167598905970115e-01 -9.271125828307343886e-01
-2.564808506854937553e-01 -5.494276121240580096e-02 -9.793119419812221782e-01 3.188753064758358402e-01 1.319626152393679475e-01 -9.385650787767080283e-01
2.133543972022108326e-01 8.162157111956018507e-02 -8.334630540027035961e-01 -6.113853123680251800e-01 3.974023574030879913e-01 -6.843094082000631406e-01
-6.447063856525765690e-02 3.547282158496989357e-02 -8.697598299343705097e-01 2.487665027317030042e-01 2.803167598905970115e-01 -9.271125828307343886e-01
5.560553934611768556e-02 -1.353323190748867977e-01 -9.039183342483547712e-01 6.551044966586609675e-02 3.400431406624325470e-02 -9.972723236957197201e-01
1.794499916123047933e-01 3.410477698663861440e-02 -8.384920239609537918e-01 -5.175654383473006215e-01 5.147562698790065783e-01 -6.834851861222875913e-01
8.925117736971416305e-02 -8.114898186369817745e-02 -8.841461752140300501e-01 -2.024285152012937974e-02 4.001468630765700474e-01 -9.162274362473080691e-01
2.009159429862529822e-01 7.560108196022818049e-03 -8.808135217720708399e-01 -5.086524160231461478e-01 5.980610209368801833e-01 -6.193510595048280498e-01
-2.016321422926053986e-01 -3.722442977588218127e-02 -9.617702395381143576e-01 1.042716150480395287e-01 4.103359151959005968e-02 -9.937020049603788596e-01
9.946441433884814498e-02 4.089711400851201578e-02 -8.310702516489392178e-01 -2.024285152012937974e-02 4.001468630765700474e-01 -9.162274362473080691e-01
-2.609896958345376758e-02 4.884436109995093922e-02 -8.554208458947184512e-01 2.487665027317030042e-01 2.803167598905970115e-01 -9.271125828307343886e-01
6.279819253132455648e-02 5.502837569467432417e-03 -8.457180118809002334e-01 -2.024285152012937974e-02 4.001468630765700474e-01 -9.162274362473080691e-01
-1.771456187969101814e-01 -7.256158092507322688e-02 -9.531037762834114746e-01 3.620134747010650966e-01 3.138013479075100753e-01 -8.777670295621105012e-01
2.748002894245411831e-02 -4.916773771350207295e-02 -8.706787273519153159e-01 2.487665027317030042e-01 2.803167598905970115e-01 -9.271125828307343886e-01
-1.450523904921026952e-01 -8.062722070203573455e-02 -9.427511745642698227e-01 3.620134747010650966e-01 3.138013479075100753e-01 -8.777670295621105012e-01
-5.604770910270395062e-02 5.525834046765445290e-02 -8.615175135289865338e-01 2.487665027317030042e-01 2.803167598905970115e-01 -9.271125828307343886e-01
-2.430947209736318004e-01 -7.677230276888538651e-02 -9.809903806969044737e-01 3.435999231086616645e-01 3.289496273205829158e-01 -8.796199381126893480e-01
1.287674646586375871e-01 3.271538792070963902e-02 -8.443946478487593943e-01 -5.960731275692870978e-01 -4.476788858618101913e-02 -8.016811478021070858e-01
7.445774893694420693e-02 -8.027524309409241055e-02 -8.834377430307470691e-01 -2.024285152012937974e-02 4.001468630765700474e-01 -9.162274362473080691e-01
5.931312875029610271e-02 -3.035307378317677468e-02 -8.613004778244335302e-01 -2.024285152012937974e-02 4.001468630765700474e-01 -9.162274362473080691e-01
-9.075006029774959626e-02 1.058242573326833441e-01 -8.524754449746053675e-01 2.126606320794332261e-01 4.321540355972897651e-01 -8.763665586274684838e-01
4.968026531099539733e-03 -2.667001502711329602e-02 -8.699169464937061003e-01 2.487665027317030042e-01 2.803167598905970115e-01 -9.271125828307343886e-01
-1.870714806024704469e-01 -4.722887400209404424e-02 -9.489615576052297108e-01 7.327274967787706927e-01 -5.283127992754663160e-02 -6.784683274299057043e-01
6.403581868984761782e-02 -4.078959970907248406e-02 -8.659627959922704399e-01 -2.024285152012937974e-02 4.001468630765700474e-01 -9.162274362473080691e-01
1.032033835136060979e-01 -1.900950164508031504e-01 -9.107117018572621348e-01 2.358579847710827807e-02 3.193322923355043641e-01 -9.473492477338805173e-01
6.478393343695085238e-02 6.531406027519381929e-02 -8.260550977042010468e-01 2.487665027317030042e-01 2.803167598905970115e-01 -9.271125828307343886e-01
-1.945294011695667402e-01 1.561186377253050150e-01 -9.236301037807191916e-01 6.616892460236882822e-01 -1.977498916914189053e-01 -7.232304764268685515e-01
-1.184805502058181581e-01 5.737659993079380349e-02 -8.830306690913732881e-01 7.327274967787706927e-01 -5.283127992754663160e-02 -6.784683274299057043e-01
7.116628486537947273e-02 -1.013334310101024760e-01 -8.925618304433918793e-01 -2.024285152012937974e-02 4.001468630765700474e-01 -9.162274362473080691e-01
-1.267846511016583189e-01 -5.675497701853888383e-02 -9.266827764790029898e-01 3.620134747010650966e-01 3.138013479075100753e-01 -8.777670295621105012e-01
-1.974050929046004266e-01 1.532964984984310219e-01 -9.254894509920565948e-01 6.616892460236882822e-01 -1.977498916914189053e-01 -7.232304764268685515e-01
1.538676371494896722e-01 -1.456985542438059278e-01 -9.051177121186561036e-01 -2.230523588286634218e-01 4.323913176107185286e-01 -8.736620591944209702e-01
2.160591519986287123e-01 -4.825367260060669378e-02 -8.980985875864657686e-01 -3.432828113042843965e-01 -1.364868856517453474e-02 -9.391329111278539088e-01
-8.714830109648920298e-02 -8.820817002412414953e-02 -9.215802398401804485e-01 3.620134747010650966e-01 3.138013479075100753e-01 -8.777670295621105012e-01
2.026675731475326148e-02 1.658763461218184798e-01 -8.027747978607622237e-01 2.114692247638050027e-01 1.697231005765289513e-01 -9.625356284878417990e-01
-1.692333028020513441e-01 -8.855310192114908968e-03 -9.326848967371157428e-01 7.327274967787706927e-01 -5.283127992754663160e-02 -6.784683274299057043e-01
3.792967631776723858e-02 8.216619305158215369e-02 -8.276520027913831790e-01 2.494772947993439405e-01 3.515834259036016984e-01 -9.023027064181331491e-01
-6.111905833886521061e-02 1.727764015749512494e-01 -8.194385930104370885e-01 2.114692247638050027e-01 1.697231005765289513e-01 -9.625356284878417990e-01
1.093227696252104392e-01 -1.779971412555723664e-01 -9.064814004813965820e-01 2.358579847710827807e-02 3.193322923355043641e-01 -9.473492477338805173e-01
-2.025819039724822690e-01 6.956086494143146060e-02 -9.488917039679013454e-01 5.857289896958374209e-01 2.516303077459725035e-01 -7.704568377615717001e-01
-2.967049991404968352e-03 -4.257655608059058433e-02 -8.768555334611574104e-01 2.487665027317030042e-01 2.803167598905970115e-01 -9.271125828307343886e-01
2.322192648954463090e-02 -3.845594687085797034e-03 -8.581179194795603982e-01 2.487665027317030042e-01 2.803167598905970115e-01 -9.271125828307343886e-01
4.656295765658555880e-02 -7.852561108078222329e-02 -8.820573217186349346e-01 -2.024285152012937974e-02 4.001468630765700474e-01 -9.162274362473080691e-01
2.137619699295000009e-01 9.673661638790904960e-02 -8.250493590078415984e-01 -6.113853123680251800e-01 3.974023574030879913e-01 -6.843094082000631406e-01
1.781244730776913587e-01 1.181678592198178723e-01 -8.083381308602872739e-01 -9.648383000004767673e-02 8.824154180058456365e-02 -9.914153019038879355e-01
-1.920329833554482446e-01 3.439078802562499371e-02 -9.523585414745127098e-01 5.857289896958374209e-01 2.516303077459725035e-01 -7.704568377615717001e-01
-1.691515638656236886e-01 1.427021819587192264e-01 -8.967433154886204072e-01 6.616892460236882822e-01 -1.977498916914189053e-01 -7.232304764268685515e-01
2.009259062654919770e-01 -3.439180268126836720e-02 -8.927683657034332088e-01 -3.432828113042843965e-01 -1.364868856517453474e-02 -9.391329111278539088e-01
2.059455110744841388e-01 9.386534275430920282e-02 -8.197333174857582838e-01 -6.113853123680251800e-01 3.974023574030879913e-01 -6.843094082000631406e-01
-1.854207928675114525e-01 6.522822801514844247e-03 -9.513644209114474615e-01 7.327274967787706927e-01 -5.283127992754663160e-02 -6.784683274299057043e-01
1.349448237274708251e-01 9.910013666306624613e-02 -8.078805519058142037e-01 3.305985692705176726e-02 2.801157990668363684e-01 -9.593967818234073741e-01
1.624136148783260902e-01 2.277497514171511472e-02 -8.345009811969321678e-01 -5.086524160231461478e-01 5.980610209368801833e-01 -6.193510595048280498e-01
7.355023309772158735e-02 7.373836543891409967e-02 -8.210872040851520115e-01 2.494772947993439405e-01 3.515834259036016984e-01 -9.023027064181331491e-01
1.744761365849237522e-01 1.902839072594449121e-02 -8.480253253981214767e-01 -5.086524160231461478e-01 5.980610209368801833e-01 -6.193510595048280498e-01
1.536423523590595697e-01 -2.325397361314200662e-02 -8.602841469885023074e-01 -2.024285152012937974e-02 4.001468630765700474e-01 -9.162274362473080691e-01
-1.379377527321911101e-01 2.661481927474580386e-02 -9.016485507902980423e-01 7.327274967787706927e-01 -5.283127992754663160e-02 -6.784683274299057043e-01
1.769806279093938672e-01 -8.175390181377086007e-02 -8.863486317022535310e-01 -2.024285152012937974e-02 4.001468630765700474e-01 -9.162274362473080691e-01
-1.625215435396121511e-01 3.419221238065681123e-02 -9.287884217783897167e-01 7.327274967787706927e-01 -5.283127992754663160e-02 -6.784683274299057043e-01
3.303219972226816015e-02 -1.459765114542558792e-02 -8.587365220918390385e-01 2.487665027317030042e-01 2.803167598905970115e-01 -9.271125828307343886e-01
6.722985753214252846e-02 4.800939147295089221e-02 -8.306309440308290437e-01 2.487665027317030042e-01 2.803167598905970115e-01 -9.271125828307343886e-01
2.173488665467900594e-01 -9.625769446549473085e-02 -9.087808735951734551e-01 -6.722780076493487522e-01 4.210116397496038720e-01 -6.089264977206790830e-01
4.932639833799842138e-02 -3.989092098368964695e-02 -8.652453277534916110e-01 -2.024285152012937974e-02 4.001468630765700474e-01 -9.162274362473080691e-01
2.261801551862279436e-01 1.274198110265505335e-01 -8.183253862629278341e-01 -6.113853123680251800e-01 3.974023574030879913e-01 -6.843094082000631406e-01
1.678787359373014043e-01 1.795956827387216320e-02 -8.436391817235291413e-01 -5.086524160231461478e-01 5.980610209368801833e-01 -6.193510595048280498e-01
-1.746325290004353825e-01 9.009197044616867878e-02 -9.191587501049202080e-01 5.440636952827889727e-01 4.056045383102875879e-01 -7.344927868790375181e-01
8.891401635175169571e-02 -3.991279055612596133e-02 -8.661295157642908693e-01 -2.024285152012937974e-02 4.001468630765700474e-01 -9.162274362473080691e-01
3.204891327476637464e-02 -1.538285437384528109e-01 -9.066175137172649556e-01 8.572672609097252427e-02 1.454812262858990179e-01 -9.856399653180030196e-01
-9.833385691937711337e-02 1.967954489968673504e-02 -8.876236346909578412e-01 3.620134747010650966e-01 3.138013479075100753e-01 -8.777670295621105012e-01
6.541855213149172510e-02 -2.389852443660630751e-02 -8.586164537520893925e-01 -2.024285152012937974e-02 4.001468630765700474e-01 -9.162274362473080691e-01
-1.962183758984299697e-01 1.479269151208712219e-01 -9.229355314980629554e-01 6.616892460236882822e-01 -1.977498916914189053e-01 -7.232304764268685515e-01
-1.678116595443329695e-01 1.394102797232016078e-01 -8.946173354024001823e-01 6.616892460236882822e-01 -1.977498916914189053e-01 -7.232304764268685515e-01
3.838970783605923781e-02 -5.384513570553158684e-02 -8.710979635004112431e-01 -2.024285152012937974e-02 4.001468630765700474e-01 -9.162274362473080691e-01
-1.994971400965640240e-01 -3.170142114336497313e-02 -9.613181432305134555e-01 1.042716150480395287e-01 4.103359151959005968e-02 -9.937020049603788596e-01
-7.040347911905245337e-02 -2.179994053392611889e-02 -8.909333344455930837e-01 3.620134747010650966e-01 3.138013479075100753e-01 -8.777670295621105012e-01
5.179752351502733831e-02 -1.515349474981770271e-02 -8.544962708071469626e-01 -2.024285152012937974e-02 4.001468630765700474e-01 -9.162274362473080691e-01
1.962145620730092188e-01 6.141927162029894166e-02 -8.306154156285951995e-01 -5.175654383473006215e-01 5.147562698790065783e-01 -6.834851861222875913e-01
1.652352183503484895e-01 -2.824939434867281690e-02 -8.681050512557011434e-01 -5.960731275692870978e-01 -4.476788858618101913e-02 -8.016811478021070858e-01
-1.674287265033656269e-01 7.208980993135249982e-02 -9.213410440356191167e-01 5.857289896958374209e-01 2.516303077459725035e-01 -7.704568377615717001e-01
-1.483607557013710276e-01 1.674896012766426134e-02 -9.121368737090046475e-01 7.327274967787706927e-01 -5.283127992754663160e-02 -6.784683274299057043e-01
-1.323474672441701527e-01 9.866240751144219820e-03 -9.051599658718227914e-01 3.620134747010650966e-01 3.138013479075100753e-01 -8.777670295621105012e-01
1.278060303948214682e-01 -7.538842038864801420e-02 -8.824821664992528181e-01 -2.024285152012937974e-02 4.001468630765700474e-01 -9.162274362473080691e-01
7.990780262531240949e-03 -4.211276402574714445e-02 -8.737750555895745785e-01 2.487665027317030042e-01 2.803167598905970115e-01 -9.271125828307343886e-01
-2.632101945558796424e-02 -6.734071877865771549e-02 -8.906095212654212556e-01 2.487665027317030042e-01 2.803167598905970115e-01 -9.271125828307343886e-01
2.693199824080886318e-01 -6.332700081617227694e-02 -9.464383493162311645e-01 -6.621719062966272551e-01 1.236157842889077790e-01 -7.390855866448275968e-01
1.909894032303639452e-02 -6.638045212310605958e-02 -8.781319175740363026e-01 2.487665027317030042e-01 2.803167598905970115e-01 -9.271125828307343886e-01
1.879506938765149182e-01 -5.699521333359797853e-02 -8.833894257892216384e-01 -5.960731275692870978e-01 -4.476788858618101913e-02 -8.016811478021070858e-01
-7.459568755928676353e-02 3.212148216632248338e-02 -8.734899159017097681e-01 2.487665027317030042e-01 2.803167598905970115e-01 -9.271125828307343886e-01
-1.268301719997286942e-02 2.384044619025925127e-01 -7.972250464973688056e-01 2.114692247638050027e-01 1.697231005765289513e-01 -9.625356284878417990e-01
-3.625683856000576355e-02 1.598492796008560979e-01 -8.162557881054578468e-01 2.114692247638050027e-01 1.697231005765289513e-01 -9.625356284878417990e-01
1.792056302926162414e-01 3.536932064561403976e-03 -8.698775889661237715e-01 5.853289590716183044e-01 8.093090541982463915e-01 -4.908018403465821272e-02
-1.337458838354675661e-01 1.081673834426648967e-01 -8.788909498926750219e-01 5.440636952827889727e-01 4.056045383102875879e-01 -7.344927868790375181e-01
-5.232080529432318189e-02 -1.214043401741675826e-01 -9.190841107327550885e-01 3.620134747010650966e-01 3.138013479075100753e-01 -8.777670295621105012e-01
-2.403247264902431124e-01 -4.501274603809534564e-02 -9.724267722981424500e-01 3.188753064758358402e-01 1.319626152393679475e-01 -9.385650787767080283e-01
-2.393282007302324418e-02 1.161223330372744417e-01 -8.311832683951575484e-01 2.126606320794332261e-01 4.321540355972897651e-01 -8.763665586274684838e-01
-8.096631469586426655e-02 4.715814955621230181e-02 -8.706529020395080698e-01 2.487665027317030042e-01 2.803167598905970115e-01 -9.271125828307343886e-01
-1.559052715951084467e-01 -1.025838641268280865e-01 -9.547734574919909400e-01 3.580954846053059359e-01 2.970237040667382256e-01 -8.851805144306813533e-01
-1.758700507147004100e-02 1.814954624446315015e-02 -8.624176006824741947e-01 2.487665027317030042e-01 2.803167598905970115e-01 -9.271125828307343886e-01
5.446050597454527714e-02 1.136613129436473552e-02 -8.451365252765964398e-01 2.487665027317030042e-01 2.803167598905970115e-01 -9.271125828307343886e-01
-1.523573009583900906e-01 -3.829370700948052115e-03 -9.183087062282668800e-01 3.620134747010650966e-01 3.138013479075100753e-01 -8.777670295621105012e-01
3.475838518687653089e-02 1.390479803768175371e-01 -8.056360591775875157e-01 2.126606320794332261e-01 4.321540355972897651e-01 -8.763665586274684838e-01
-1.199953598914675970e-02 6.345252926652283909e-02 -8.472207833619331829e-01 2.487665027317030042e-01 2.803167598905970115e-01 -9.271125828307343886e-01
8.082996589201967008e-03 2.302882648122914766e-01 -7.940938723224345575e-01 2.114692247638050027e-01 1.697231005765289513e-01 -9.625356284878417990e-01
-1.283951137590255698e-01 -1.797945502974775123e-01 -9.653111266639008425e-01 4.659864053023321517e-01 1.523306978497624697e-01 -8.715801905539241057e-01
8.363840178343065479e-02 8.469755957364027282e-03 -8.448826976411117906e-01 -2.024285152012937974e-02 4.001468630765700474e-01 -9.162274362473080691e-01
3.449830005670641297e-02 -1.390715846343274775e-01 -9.054323599178121240e-01 6.551044966586609675e-02 3.400431406624325470e-02 -9.972723236957197201e-01
2.319192267495475412e-01 1.504834674968700547e-01 -8.106971268986656876e-01 -9.648383000004767673e-02 8.824154180058456365e-02 -9.914153019038879355e-01
-1.203410762473094281e-01 5.185469057826306433e-02 -8.851973711450292770e-01 3.620134747010650966e-01 3.138013479075100753e-01 -8.777670295621105012e-01
-2.137854842167846159e-01 9.552346233443478885e-02 -9.461018056440698709e-01 9.084519929668500859e-01 -5.251857331494555470e-02 -4.146767125502962004e-01
-6.603811747162512125e-02 1.339154836664888659e-01 -8.326264513827130731e-01 2.126606320794332261e-01 4.321540355972897651e-01 -8.763665586274684838e-01
2.630047471391278729e-02 7.539088075902240782e-02 -8.333343579542543678e-01 2.487665027317030042e-01 2.803167598905970115e-01 -9.271125828307343886e-01
2.316288788209306879e-02 8.075203707605052572e-02 -8.322858936183801237e-01 2.494772947993439405e-01 3.515834259036016984e-01 -9.023027064181331491e-01
-1.316957918631277320e-02 -1.334249072979803996e-01 -9.072344958739110288e-01 3.620134747010650966e-01 3.138013479075100753e-01 -8.777670295621105012e-01
8.594055865373148584e-02 5.696334025929997852e-02 -8.237548066260339530e-01 -2.024285152012937974e-02 4.001468630765700474e-01 -9.162274362473080691e-01
-1.828209948637449511e-01 -9.688561528566881631e-02 -9.641941461453183981e-01 3.810210954476521139e-01 3.300259806160198983e-01 -8.636583681886639274e-01
1.687935369574795341e-01 -6.037381129052211970e-02 -8.768303550422446024e-01 -2.024285152012937974e-02 4.001468630765700474e-01 -9.162274362473080691e-01
-1.889290795532278799e-01 1.275453624130185870e-01 -9.106936540720415030e-01 6.616892460236882822e-01 -1.977498916914189053e-01 -7.232304764268685515e-01
1.786304295540049603e-01 6.932470955065458962e-02 -8.147046302809830554e-01 4.377317088072893436e-02 2.821194210057357266e-01 -9.583801655931922792e-01
3.028126495556160078e-02 1.717132257776746718e-01 -7.995453969034592712e-01 2.114692247638050027e-01 1.697231005765289513e-01 -9.625356284878417990e-01
-1.326326908100245068e-02 3.082249716979405460e-02 -8.574257137116443328e-01 2.487665027317030042e-01 2.803167598905970115e-01 -9.271125828307343886e-01
9.024415388159956475e-02 -1.353817394609946323e-01 -9.016446215885183246e-01 6.551044966586609675e-02 3.400431406624325470e-02 -9.972723236957197201e-01
8.451808622470799448e-02 -5.651193311757785054e-02 -8.732817886668700069e-01 -2.024285152012937974e-02 4.001468630765700474e-01 -9.162274362473080691e-01
-1.012061742210100951e-01 -8.190835232328023963e-02 -9.251258824831612992e-01 3.620134747010650966e-01 3.138013479075100753e-01 -8.777670295621105012e-01
2.200990940409465468e-01 -8.485737606697653368e-02 -9.059407455232825201e-01 -6.621719062966272551e-01 1.236157842889077790e-01 -7.390855866448275968e-01
-2.103027814782836014e-01 1.589696314137144795e-01 -9.465075049118333306e-01 9.084519929668500859e-01 -5.251857331494555470e-02 -4.146767125502962004e-01
1.841272457346041502e-01 -9.812539366545425246e-02 -8.936564995601139483e-01 -2.024285152012937974e-02 4.001468630765700474e-01 -9.162274362473080691e-01
-1.212644933377547522e-02 1.002129938504418838e-02 -8.634100157207602599e-01 2.487665027317030042e-01 2.803167598905970115e-01 -9.271125828307343886e-01
1.285238510642718046e-01 3.643966856334791837e-02 -8.444214872771534930e-01 -5.960731275692870978e-01 -4.476788858618101913e-02 -8.016811478021070858e-01
-6.336400235755293431e-02 -1.639620361494422418e-01 -9.306161298181695463e-01 3.751300111306593021e-01 7.890558532622108517e-03 -9.269386246322647294e-01
-1.781809505338030619e-01 2.053081259564919908e-03 -9.431975345693135448e-01 7.327274967787706927e-01 -5.283127992754663160e-02 -6.784683274299057043e-01
1.119883450990563495e-01 -5.533823414036023562e-03 -8.516248795558480911e-01 -2.024285152012937974e-02 4.001468630765700474e-01 -9.162274362473080691e-01
-5.324981697974166817e-02 3.653155502308720604e-02 -8.664289019243793799e-01 2.487665027317030042e-01 2.803167598905970115e-01 -9.271125828307343886e-01
2.241717245916232878e-02 9.684280137731361704e-02 -8.262222888734033210e-01 2.494772947993439405e-01 3.515834259036016984e-01 -9.023027064181331491e-01
1.597438985117326515e-01 8.398863746417725706e-02 -8.112506194188879860e-01 4.377317088072893436e-02 2.821194210057357266e-01 -9.583801655931922792e-01
1.698072048010587920e-01 -9.210379775029883809e-02 -8.907102865656633117e-01 -2.024285152012937974e-02 4.001468630765700474e-01 -9.162274362473080691e-01
7.264840994257265594e-02 -1.767064271070208914e-01 -9.069593945791678546e-01 2.358579847710827807e-02 3.193322923355043641e-01 -9.473492477338805173e-01
9.484141498135828519e-02 -1.932889929377218652e-01 -9.119965115943453604e-01 2.358579847710827807e-02 3.193322923355043641e-01 -9.473492477338805173e-01
1.840539617063130517e-01 5.844405238997299815e-03 -8.686220637306294456e-01 -5.086524160231461478e-01 5.980610209368801833e-01 -6.193510595048280498e-01
-1.873298548856869306e-01 -3.495998344260322493e-02 -9.501959544067645203e-01 7.327274967787706927e-01 -5.283127992754663160e-02 -6.784683274299057043e-01
-1.578077717419168746e-01 4.121511286855125689e-02 -9.241104884828159616e-01 5.857289896958374209e-01 2.516303077459725035e-01 -7.704568377615717001e-01
-1.943635142384250170e-01 8.631167529402850036e-02 -9.358617291255046933e-01 5.440636952827889727e-01 4.056045383102875879e-01 -7.344927868790375181e-01
9.806812898009660551e-02 1.450230431599361033e-02 -8.425668900228245883e-01 -2.024285152012937974e-02 4.001468630765700474e-01 -9.162274362473080691e-01
1.768470349596636126e-01 -6.763405592549062706e-02 -8.801790758497046729e-01 -2.024285152012937974e-02 4.001468630765700474e-01 -9.162274362473080691e-01
1.992160227716500698e-01 7.750619877670436586e-02 -8.232212895128705465e-01 -6.113853123680251800e-01 3.974023574030879913e-01 -6.843094082000631406e-01
-7.114936350811529309e-02 -4.204112168526909915e-02 -8.984771700021014773e-01 3.620134747010650966e-01 3.138013479075100753e-01 -8.777670295621105012e-01
-2.382463967633467461e-01 -4.491461093825541845e-02 -9.717068667654070735e-01 3.188753064758358402e-01 1.319626152393679475e-01 -9.385650787767080283e-01
1.405960317298895479e-01 -1.252644062700058458e-01 -8.979920514247313745e-01 6.551044966586609675e-02 3.400431406624325470e-02 -9.972723236957197201e-01
9.976023287410662466e-02 -1.249607131821588030e-01 -9.006641848100165326e-01 6.551044966586609675e-02 3.400431406624325470e-02 -9.972723236957197201e-01
1.151694151639082453e-01 -1.853727964840222731e-01 -9.088220231117924985e-01 2.358579847710827807e-02 3.193322923355043641e-01 -9.473492477338805173e-01
7.894933087569286356e-02 -1.380647901804274991e-01 -9.024780591697924015e-01 6.551044966586609675e-02 3.400431406624325470e-02 -9.972723236957197201e-01
1.525731360659835986e-02 1.134500631917502028e-01 -8.217308740110866871e-01 2.494772947993439405e-01 3.515834259036016984e-01 -9.023027064181331491e-01
1.296687139930202508e-02 -3.522445103869949884e-02 -8.703571380403002378e-01 2.487665027317030042e-01 2.803167598905970115e-01 -9.271125828307343886e-01
-1.581009132213789803e-02 -1.328346915319276456e-01 -9.081125084266509218e-01 3.620134747010650966e-01 3.138013479075100753e-01 -8.777670295621105012e-01
2.177130194077477321e-01 1.104384598412213730e-01 -8.206222223451397069e-01 -6.113853123680251800e-01 3.974023574030879913e-01 -6.843094082000631406e-01
4.695607151223920445e-02 1.454602280998407993e-01 -8.005111084284898260e-01 2.114692247638050027e-01 1.697231005765289513e-01 -9.625356284878417990e-01
-1.866031693516336520e-01 7.448427159266012010e-02 -9.351361165067195724e-01 5.857289896958374209e-01 2.516303077459725035e-01 -7.704568377615717001e-01
1.034683076170322437e-02 1.110448818566435458e-01 -8.240257533850378069e-01 2.494772947993439405e-01 3.515834259036016984e-01 -9.023027064181331491e-01
-1.358079049133625038e-01 -1.034098102618555282e-01 -9.469203127746381732e-01 3.580954846053059359e-01 2.970237040667382256e-01 -8.851805144306813533e-01
-4.052804879305284096e-03 1.501532778364136900e-01 -8.108902448453272349e-01 2.114692247638050027e-01 1.697231005765289513e-01 -9.625356284878417990e-01
1.704613947731983548e-01 -1.155570890660979760e-01 -8.956992132791081751e-01 6.551044966586609675e-02 3.400431406624325470e-02 -9.972723236957197201e-01
-1.287228046882211430e-01 4.776636932696076004e-02 -8.933436939182923808e-01 7.327274967787706927e-01 -5.283127992754663160e-02 -6.784683274299057043e-01
6.716210867052921363e-02 -1.288880156757892526e-01 -9.029394540101662869e-01 6.551044966586609675e-02 3.400431406624325470e-02 -9.972723236957197201e-01
4.232487431128401263e-04 -1.053771469928651595e-02 -8.662587438716331523e-01 2.487665027317030042e-01 2.803167598905970115e-01 -9.271125828307343886e-01
1.859860232002963701e-02 -7.278381076035529695e-02 -8.802022552184056714e-01 2.487665027317030042e-01 2.803167598905970115e-01 -9.271125828307343886e-01
1.297893374459491433e-01 -8.255147274222475462e-02 -8.856543272581535176e-01 -2.024285152012937974e-02 4.001468630765700474e-01 -9.162274362473080691e-01
5.219311921484502681e-02 -4.061486730461225797e-02 -8.656248355488888047e-01 -2.024285152012937974e-02 4.001468630765700474e-01 -9.162274362473080691e-01
1.599678893153282100e-01 4.952661544303049723e-02 -8.213850120746039041e-01 4.377317088072893436e-02 2.821194210057357266e-01 -9.583801655931922792e-01
7.056621524560148517e-02 -9.252354179228072795e-02 -8.887010023183720131e-01 -2.024285152012937974e-02 4.001468630765700474e-01 -9.162274362473080691e-01
-3.800264246636560900e-02 1.234342951660064164e-01 -8.309917998629542391e-01 2.126606320794332261e-01 4.321540355972897651e-01 -8.763665586274684838e-01
1.674596029793402607e-01 2.861675904456496139e-02 -8.335455830248088560e-01 -5.175654383473006215e-01 5.147562698790065783e-01 -6.834851861222875913e-01
2.335043253142318198e-01 -1.000927884922339639e-01 -9.292686975022077522e-01 -6.722780076493487522e-01 4.210116397496038720e-01 -6.089264977206790830e-01
2.101900829335456578e-01 1.013982191552064149e-01 -8.191509581859351963e-01 -6.113853123680251800e-01 3.974023574030879913e-01 -6.843094082000631406e-01
1.369581223893942545e-01 3.639859567954217834e-02 -8.318469231898915073e-01 5.853289590716183044e-01 8.093090541982463915e-01 -4.908018403465821272e-02
-7.622804422701394238e-03 2.603132891225347079e-01 -7.922501518366523721e-01 2.114692247638050027e-01 1.697231005765289513e-01 -9.625356284878417990e-01
-1.629648687160340295e-02 -7.966768444601762811e-02 -8.916468140177025159e-01 2.487665027317030042e-01 2.803167598905970115e-01 -9.271125828307343886e-01
9.151717964826353024e-02 -1.153858169473895648e-03 -8.492597199568995281e-01 -2.024285152012937974e-02 4.001468630765700474e-01 -9.162274362473080691e-01
4.819310636108162238e-02 4.099707262614592229e-02 -8.378591670479230702e-01 2.487665027317030042e-01 2.803167598905970115e-01 -9.271125828307343886e-01
1.991053589100517107e-01 -5.037425961295269317e-02 -8.918706203667881027e-01 -3.432828113042843965e-01 -1.364868856517453474e-02 -9.391329111278539088e-01
-1.749444470005464269e-01 1.386622353689542786e-01 -9.009386440487160419e-01 6.616892460236882822e-01 -1.977498916914189053e-01 -7.232304764268685515e-01
-1.854882092597618520e-02 8.804254440212541666e-02 -8.409779907126606613e-01 2.494772947993439405e-01 3.515834259036016984e-01 -9.023027064181331491e-01
5.834200155184877251e-02 1.224887114552030420e-01 -8.062964857300837229e-01 2.494772947993439405e-01 3.515834259036016984e-01 -9.023027064181331491e-01
-1.726701658380400406e-01 5.334286995946005416e-02 -9.314485034788998474e-01 5.857289896958374209e-01 2.516303077459725035e-01 -7.704568377615717001e-01
-2.034134600940020465e-01 4.943511261955956665e-02 -9.560969301469997017e-01 5.857289896958374209e-01 2.516303077459725035e-01 -7.704568377615717001e-01
1.521866124156943112e-01 -8.501190329062227602e-02 -8.872237173686663425e-01 -2.024285152012937974e-02 4.001468630765700474e-01 -9.162274362473080691e-01
-2.506139642364234588e-01 -3.610481260013795324e-02 -9.746700580270437619e-01 3.188753064758358402e-01 1.319626152393679475e-01 -9.385650787767080283e-01
-1.209254334372846656e-01 -1.238167649208397891e-01 -9.477472666154076464e-01 3.580954846053059359e-01 2.970237040667382256e-01 -8.851805144306813533e-01
1.321741152548163434e-01 -1.017009889644293757e-01 -8.940702437039921291e-01 -2.024285152012937974e-02 4.001468630765700474e-01 -9.162274362473080691e-01
-4.751697653560005286e-02 1.505623569842249598e-01 -8.203671974212444207e-01 2.114692247638050027e-01 1.697231005765289513e-01 -9.625356284878417990e-01
-1.712096821185455364e-01 -1.181642173837872817e-01 -9.672026695586419809e-01 3.810210954476521139e-01 3.300259806160198983e-01 -8.636583681886639274e-01
-2.211446939456003166e-03 1.090305116467009949e-01 -8.282828882693189509e-01 2.494772947993439405e-01 3.515834259036016984e-01 -9.023027064181331491e-01
-1.778457846293096389e-01 -9.163491841704778096e-02 -9.599928015277687798e-01 3.810210954476521139e-01 3.300259806160198983e-01 -8.636583681886639274e-01
1.511793869811554614e-01 -3.981752310336677224e-03 -8.590093000461445083e-01 -5.960731275692870978e-01 -4.476788858618101913e-02 -8.016811478021070858e-01
1.859701195711435939e-01 -8.284442735951044745e-02 -8.870235114283130384e-01 -2.024285152012937974e-02 4.001468630765700474e-01 -9.162274362473080691e-01
-1.916010633843388822e-01 4.728926000884857428e-02 -9.478175544244615836e-01 5.857289896958374209e-01 2.516303077459725035e-01 -7.704568377615717001e-01
4.756334987093988227e-03 2.094872053252199717e-01 -7.984925737690744540e-01 2.114692247638050027e-01 1.697231005765289513e-01 -9.625356284878417990e-01
1.405174882100362725e-02 -8.888531423119090669e-02 -8.862906486133732553e-01 2.487665027317030042e-01 2.803167598905970115e-01 -9.271125828307343886e-01
1.736640134843135154e-03 7.910283840855389381e-02 -8.388030953812309898e-01 2.487665027317030042e-01 2.803167598905970115e-01 -9.271125828307343886e-01
-4.294262706594466350e-02 -1.386974359591083561e-01 -9.211929328671558670e-01 3.580954846053059359e-01 2.970237040667382256e-01 -8.851805144306813533e-01
6.197788937637495332e-02 1.320043731111434637e-01 -8.015834106687516059e-01 2.494772947993439405e-01 3.515834259036016984e-01 -9.023027064181331491e-01
-2.172921571812737040e-01 -9.027095744872373762e-02 -9.759593652355068594e-01 3.435999231086616645e-01 3.289496273205829158e-01 -8.796199381126893480e-01
-1.013861737041641536e-01 -5.157304895914916615e-02 -9.143552605207223571e-01 3.620134747010650966e-01 3.138013479075100753e-01 -8.777670295621105012e-01
1.171959613208377327e-01 -5.489644538084859776e-02 -8.732982267506661511e-01 -2.024285152012937974e-02 4.001468630765700474e-01 -9.162274362473080691e-01
1.981059428273764522e-01 3.771826998787948439e-03 -8.821638221190902795e-01 -5.086524160231461478e-01 5.980610209368801833e-01 -6.193510595048280498e-01
2.055938395562753596e-01 -6.664537537039795512e-02 -8.940058926610361389e-01 -3.432828113042843965e-01 -1.364868856517453474e-02 -9.391329111278539088e-01
4.537293808893184260e-02 -8.427051222259582253e-02 -8.845400183626956903e-01 -2.024285152012937974e-02 4.001468630765700474e-01 -9.162274362473080691e-01
-1.153690462830171404e-01 2.723334503757861291e-02 -8.919489001666063288e-01 3.620134747010650966e-01 3.138013479075100753e-01 -8.777670295621105012e-01
-1.504488513698696607e-02 -1.393404414306022854e-01 -9.101227207927775620e-01 3.620134747010650966e-01 3.138013479075100753e-01 -8.777670295621105012e-01
5.207274378805923712e-03 1.731603491516145732e-01 -8.047989864157808482e-01 2.114692247638050027e-01 1.697231005765289513e-01 -9.625356284878417990e-01
2.049518625932909843e-01 1.189331239378731003e-01 -8.108808404048347684e-01 -9.648383000004767673e-02 8.824154180058456365e-02 -9.914153019038879355e-01
-3.984206641253947023e-02 -9.881210958008358053e-03 -8.768643950224658257e-01 2.487665027317030042e-01 2.803167598905970115e-01 -9.271125828307343886e-01
-1.457603367434353973e-02 -5.687600751401853533e-02 -8.842940067305515850e-01 2.487665027317030042e-01 2.803167598905970115e-01 -9.271125828307343886e-01
-1.868192389922919971e-01 1.326197094628855377e-01 -9.101508019062704014e-01 6.616892460236882822e-01 -1.977498916914189053e-01 -7.232304764268685515e-01
-4.175555324299457666e-02 1.838816599331812018e-02 -8.688304530156124583e-01 2.487665027317030042e-01 2.803167598905970115e-01 -9.271125828307343886e-01
1.124088013551560877e-01 -1.078385610297222658e-01 -8.963140358160621712e-01 -2.024285152012937974e-02 4.001468630765700474e-01 -9.162274362473080691e-01
-2.915086729371175675e-02 -6.094058165396837312e-02 -8.894337262520830567e-01 2.487665027317030042e-01 2.803167598905970115e-01 -9.271125828307343886e-01
1.667622897882161948e-01 -1.050624587304323093e-01 -8.955843673415500028e-01 6.551044966586609675e-02 3.400431406624325470e-02 -9.972723236957197201e-01
1.912601799890557286e-01 1.141220350689855362e-01 -8.099765896074647697e-01 -9.648383000004767673e-02 8.824154180058456365e-02 -9.914153019038879355e-01
1.550881911805981894e-01 2.244879133994853379e-02 -8.456538938890291179e-01 5.853289590716183044e-01 8.093090541982463915e-01 -4.908018403465821272e-02
4.453756419011709738e-02 7.352213998362763792e-02 -8.290059326000069895e-01 2.487665027317030042e-01 2.803167598905970115e-01 -9.271125828307343886e-01
-8.930837327393023606e-02 7.145259422751873424e-02 -8.655457388284376608e-01 2.487665027317030042e-01 2.803167598905970115e-01 -9.271125828307343886e-01
-1.869505773084229050e-02 -5.963950104623387538e-02 -8.862347945005097927e-01 2.487665027317030042e-01 2.803167598905970115e-01 -9.271125828307343886e-01
-3.445599771655156324e-02 2.140096452307765629e-01 -8.063100912223241101e-01 2.114692247638050027e-01 1.697231005765289513e-01 -9.625356284878417990e-01
-2.067020159800844470e-01 1.174982678658288149e-01 -9.333668117523526986e-01 9.084519929668500859e-01 -5.251857331494555470e-02 -4.146767125502962004e-01
-9.867368619902582016e-02 8.350971692846262395e-02 -8.649445289931756431e-01 3.620134747010650966e-01 3.138013479075100753e-01 -8.777670295621105012e-01
-1.698641623554979496e-01 8.995443740451378178e-02 -9.157026084017028111e-01 5.440636952827889727e-01 4.056045383102875879e-01 -7.344927868790375181e-01
-2.230565317594350727e-01 -9.833289728420806231e-02 -9.812259702378093307e-01 3.435999231086616645e-01 3.289496273205829158e-01 -8.796199381126893480e-01
1.903703055031745819e-02 -1.864212707467232527e-02 -8.637146269773264828e-01 2.487665027317030042e-01 2.803167598905970115e-01 -9.271125828307343886e-01
-1.012407664848032768e-01 -1.365966312363286472e-01 -9.440722341580666255e-01 3.580954846053059359e-01 2.970237040667382256e-01 -8.851805144306813533e-01
4.495576411513285686e-02 2.202180579514162809e-02 -8.444650828107070906e-01 2.487665027317030042e-01 2.803167598905970115e-01 -9.271125828307343886e-01
-1.754317933827860276e-01 1.548784630713775090e-01 -9.058184565663663923e-01 6.616892460236882822e-01 -1.977498916914189053e-01 -7.232304764268685515e-01
-2.020039283922394902e-01 -2.674796537462663729e-02 -9.613766404291290701e-01 1.042716150480395287e-01 4.103359151959005968e-02 -9.937020049603788596e-01
-7.854004095232494653e-02 -6.153628690087040165e-02 -9.084947870327787500e-01 3.620134747010650966e-01 3.138013479075100753e-01 -8.777670295621105012e-01
1.390125186282368253e-01 -6.485316146274398841e-02 -8.781286627994878691e-01 -2.024285152012937974e-02 4.001468630765700474e-01 -9.162274362473080691e-01
9.943279643124464107e-02 -7.331750574344164662e-02 -8.809508598544794067e-01 -2.024285152012937974e-02 4.001468630765700474e-01 -9.162274362473080691e-01
-2.327515515788432521e-01 -8.533797248561511561e-02 -9.801533847219616735e-01 3.435999231086616645e-01 3.289496273205829158e-01 -8.796199381126893480e-01
-2.014816708913386156e-01 -6.378040945941237938e-02 -9.628510437644787201e-01 1.042716150480395287e-01 4.103359151959005968e-02 -9.937020049603788596e-01
-1.124881642133849641e-01 2.998173580071227320e-02 -8.897782024870295459e-01 3.620134747010650966e-01 3.138013479075100753e-01 -8.777670295621105012e-01
-6.481104452468212929e-02 -7.952952340318737712e-03 -8.836765794928153062e-01 3.620134747010650966e-01 3.138013479075100753e-01 -8.777670295621105012e-01
1.278342698408211631e-01 6.836689998925006562e-02 -8.170987807038641026e-01 3.305985692705176726e-02 2.801157990668363684e-01 -9.593967818234073741e-01
-2.466684279050157871e-02 1.912381187819935935e-01 -8.081746965598561872e-01 2.114692247638050027e-01 1.697231005765289513e-01 -9.625356284878417990e-01
-1.408546592252344666e-02 -3.624489387070277402e-02 -8.779244634164357075e-01 2.487665027317030042e-01 2.803167598905970115e-01 -9.271125828307343886e-01
-1.008855189044376988e-01 -8.617902483460629370e-02 -9.265203997114999090e-01 3.620134747010650966e-01 3.138013479075100753e-01 -8.777670295621105012e-01
1.752317461210335658e-01 -1.194836672759445190e-01 -8.975978999126277280e-01 -2.230523588286634218e-01 4.323913176107185286e-01 -8.736620591944209702e-01
-2.413479533471932503e-01 -3.906815690870506924e-02 -9.719385997027687463e-01 3.188753064758358402e-01 1.319626152393679475e-01 -9.385650787767080283e-01
-8.813002408788880859e-02 -1.207376504419370583e-01 -9.334468411256847675e-01 3.580954846053059359e-01 2.970237040667382256e-01 -8.851805144306813533e-01
2.693733791064333305e-01 -6.942869704999604652e-02 -9.476683510599013260e-01 -6.722780076493487522e-01 4.210116397496038720e-01 -6.089264977206790830e-01
2.234235863788491816e-01 5.748877840741120626e-02 -8.564739652891609767e-01 -6.113853123680251800e-01 3.974023574030879913e-01 -6.843094082000631406e-01
1.989147231295155804e-01 -4.851665207081260617e-02 -8.918279340980144188e-01 -3.432828113042843965e-01 -1.364868856517453474e-02 -9.391329111278539088e-01
1.987100415850167612e-01 3.784986249725244556e-02 -8.502560389274135266e-01 -5.175654383473006215e-01 5.147562698790065783e-01 -6.834851861222875913e-01
-2.346179791853383878e-02 -8.930333049468795747e-02 -8.964828204887356211e-01 2.487665027317030042e-01 2.803167598905970115e-01 -9.271125828307343886e-01
2.079453419770251332e-01 1.016120417743773124e-01 -8.170212559688554421e-01 -6.113853123680251800e-01 3.974023574030879913e-01 -6.843094082000631406e-01
1.837609582083249427e-01 -3.069874498156522497e-02 -8.817426969349232424e-01 -5.960731275692870978e-01 -4.476788858618101913e-02 -8.016811478021070858e-01
-2.237037035224093695e-01 -3.206165357402702976e-02 -9.649588896940820559e-01 3.188753064758358402e-01 1.319626152393679475e-01 -9.385650787767080283e-01
1.123985889466380950e-01 -6.394004723747852281e-02 -8.771418754757143166e-01 -2.024285152012937974e-02 4.001468630765700474e-01 -9.162274362473080691e-01
-2.861163223205890893e-01 -5.267041066369901325e-02 -9.890610312942137439e-01 3.188753064758358402e-01 1.319626152393679475e-01 -9.385650787767080283e-01
1.957711567180754619e-01 -1.155896832300361415e-01 -9.009145588653204584e-01 -2.230523588286634218e-01 4.323913176107185286e-01 -8.736620591944209702e-01
