-1.998916574295302728e-01 -2.247903031487435282e-02 -8.610187948228361643e-01 4.995508831761372726e-01 3.891832392798145329e-02 -8.654098908497510623e-01
-7.238370926557464481e-03 1.769820275713727964e-01 -7.707404628653267142e-01 -1.099061161061304498e-01 1.715381627568731415e-01 -9.790277342141345818e-01
-1.478762631648042059e-01 1.782603800287176077e-02 -8.291807696976853936e-01 4.995508831761372726e-01 3.891832392798145329e-02 -8.654098908497510623e-01
-4.046014726290009939e-02 1.688528422063844681e-01 -7.684353076524712556e-01 -1.099061161061304498e-01 1.715381627568731415e-01 -9.790277342141345818e-01
-8.178653669868518605e-02 -7.694130388537349929e-02 -8.521519138824911188e-01 3.496597385297157273e-02 3.391759460564522932e-01 -9.400729005184778053e-01
-1.221999889464900069e-01 -3.606786599164253648e-02 -8.389080566829971719e-01 3.496597385297157273e-02 3.391759460564522932e-01 -9.400729005184778053e-01
-7.440237187317570722e-02 -1.103005959276395775e-02 -8.280966484446229403e-01 3.496597385297157273e-02 3.391759460564522932e-01 -9.400729005184778053e-01
2.470444655846937981e-03 1.148119466147660972e-01 -7.917608387642152135e-01 -8.420621921214652139e-02 3.587419544840493857e-01 -9.296308529405422627e-01
1.393350140653934477e-01 8.794150659734606412e-02 -8.253010012445344268e-01 -2.942032857752776009e-01 2.536783546740558060e-01 -9.214617295411103859e-01
7.500593883091774897e-03 5.170317637563545676e-02 -8.141234125267595712e-01 -8.125293908256263353e-02 2.874943343854973188e-01 -9.543295906481604751e-01
-2.212006632358355374e-01 -9.912469611327061336e-02 -8.658115830930356305e-01 4.257154577028965381e-03 1.511999080988745692e-01 -9.884940386394847067e-01
-1.722147293776457866e-01 -2.453178586268145445e-02 -8.451348256286900229e-01 4.995508831761372726e-01 3.891832392798145329e-02 -8.654098908497510623e-01
-1.926055821714666993e-01 -1.024278573268659898e-01 -8.654693084321525287e-01 3.496597385297157273e-02 3.391759460564522932e-01 -9.400729005184778053e-01
3.599653823569244626e-02 1.157217536925659873e-01 -7.944465495580432801e-01 -8.420621921214652139e-02 3.587419544840493857e-01 -9.296308529405422627e-01
9.595938753217704564e-02 -3.281417520163186496e-02 -8.625973685445960104e-01 -3.501800891890419209e-01 3.654629900986496316e-01 -8.624446115570026938e-01
3.212866601917708370e-02 -9.680735911678911565e-02 -8.637973210670828461e-01 -3.501800891890419209e-01 3.654629900986496316e-01 -8.624446115570026938e-01
1.762683946457614115e-01 2.796490893588120252e-02 -8.943929794755558493e-01 -7.538480914859129189e-01 4.957233040600287910e-01 -4.312440849157874734e-01
-2.886459699106771679e-02 5.049703014599744855e-02 -8.113905847312897768e-01 -8.125293908256263353e-02 2.874943343854973188e-01 -9.543295906481604751e-01
-3.362424214571319014e-02 -1.369290605833960450e-01 -8.719595681393067510e-01 3.166023157588470499e-02 3.217886407916651925e-01 -9.462820406168628296e-01
1.197590417659976786e-01 -1.077742388805678353e-01 -8.995736839101750038e-01 -2.370055601511915078e-01 1.431926397747296589e-02 -9.714027605152064648e-01
-2.293085384128286663e-01 -6.387840375900946666e-02 -8.604552334541869518e-01 4.257154577028965381e-03 1.511999080988745692e-01 -9.884940386394847067e-01
-1.395453257389369095e-01 -5.163762325207744974e-02 -8.451707451810763772e-01 3.496597385297157273e-02 3.391759460564522932e-01 -9.400729005184778053e-01
-6.858140790869732273e-02 -1.193624205694024665e-01 -8.669661822104048898e-01 3.496597385297157273e-02 3.391759460564522932e-01 -9.400729005184778053e-01
-2.406309021972726780e-01 5.687599979215487295e-02 -8.507955238222121297e-01 7.429224285151442286e-01 7.356742737964169776e-02 -6.653225524795485235e-01
4.100140276607138617e-03 3.911285585079745525e-02 -8.176267608479373949e-01 -8.125293908256263353e-02 2.874943343854973188e-01 -9.543295906481604751e-01
1.962087973992932277e-01 -4.396239801481274800e-02 -9.144220379605189075e-01 -7.914214614067167641e-01 -1.579900784742601094e-01 -5.905008090837421397e-01
3.376234994392804389e-02 -4.162770289599050655e-02 -8.444755509945067740e-01 -8.125293908256263353e-02 2.874943343854973188e-01 -9.543295906481604751e-01
-1.134889723885580014e-04 2.213316875550526697e-01 -7.637696786365497648e-01 -1.099061161061304498e-01 1.715381627568731415e-01 -9.790277342141345818e-01
-2.059644996623940030e-02 2.411763287282613077e-02 -8.200414099681641034e-01 -8.125293908256263353e-02 2.874943343854973188e-01 -9.543295906481604751e-01
-2.129749777756833606e-01 1.227677183331848942e-02 -8.560017467175433659e-01 2.871218086621364907e-01 3.147764553341039773e-01 -9.046971040950007037e-01
-2.003598174731212878e-01 5.904456057627962065e-03 -8.542152563406234522e-01 2.871218086621364907e-01 3.147764553341039773e-01 -9.046971040950007037e-01
-9.776047853550280664e-02 -1.137899823211478145e-01 -8.660409748210392555e-01 3.496597385297157273e-02 3.391759460564522932e-01 -9.400729005184778053e-01
-2.382727983784594938e-01 1.316454623477815444e-01 -8.398948182989878219e-01 7.429224285151442286e-01 7.356742737964169776e-02 -6.653225524795485235e-01
-1.779178939062528997e-01 -4.978666306377453436e-03 -8.475476085868550724e-01 4.995508831761372726e-01 3.891832392798145329e-02 -8.654098908497510623e-01
1.076601002429508763e-01 -1.469228505483738678e-01 -8.973978300159256571e-01 -2.316041566972299182e-01 1.278643299281258250e-01 -9.643703789170404717e-01
2.033976106323259758e-02 1.890312606371166715e-01 -7.717252174744562154e-01 -1.099061161061304498e-01 1.715381627568731415e-01 -9.790277342141345818e-01
1.203083427774787190e-01 5.606746368058082575e-02 -8.394593582515933461e-01 -7.914214614067167641e-01 -1.579900784742601094e-01 -5.905008090837421397e-01
5.797812790210850331e-02 -1.738638344784311854e-02 -8.406381986037716469e-01 -3.501800891890419209e-01 3.654629900986496316e-01 -8.624446115570026938e-01
-1.242527019941756516e-01 -1.090821077864811972e-02 -8.299068667285781631e-01 3.496597385297157273e-02 3.391759460564522932e-01 -9.400729005184778053e-01
1.258208953829049737e-01 6.253938240523675141e-02 -8.468373961164370467e-01 4.136002552066570526e-01 8.868407194743499478e-01 -2.060300152288634112e-01
1.886081917407456676e-01 -1.077195592835299004e-01 -9.300746559094703603e-01 -5.339044529984722232e-01 3.678491135626803521e-01 -7.613363676585747086e-01
1.068129175934027369e-01 -7.387129488515015163e-02 -8.844023025626570611e-01 -3.501800891890419209e-01 3.654629900986496316e-01 -8.624446115570026938e-01
-2.149574796966107204e-01 -1.068985626926378385e-01 -8.676962720627392489e-01 1.472817365630807798e-02 3.512996088431974417e-01 -9.361472457510977563e-01
5.195333164680826510e-02 1.161567954950214476e-01 -7.957240388901235528e-01 -8.420621921214652139e-02 3.587419544840493857e-01 -9.296308529405422627e-01
-9.093516953494547306e-02 -1.698520674591787183e-01 -8.816844069271438933e-01 1.596243006531094799e-01 1.955677715238640646e-01 -9.676121792237813990e-01
-1.617179687897215001e-01 -7.090797514197767770e-02 -8.529481504080861365e-01 3.496597385297157273e-02 3.391759460564522932e-01 -9.400729005184778053e-01
-2.889375677880057225e-01 -1.020388898998053490e-01 -8.670365365675891667e-01 1.472817365630807798e-02 3.512996088431974417e-01 -9.361472457510977563e-01
2.181266481569718585e-01 -4.634321535017159321e-02 -9.435909602305474486e-01 -8.611640309512975655e-01 1.989690474571596877e-04 -5.083271310947614641e-01
-1.390555877902931448e-01 1.219019677267504063e-02 -8.243425552016246938e-01 4.995508831761372726e-01 3.891832392798145329e-02 -8.654098908497510623e-01
-9.878873776352883884e-02 -1.459821907351979697e-01 -8.772183781501151634e-01 3.166023157588470499e-02 3.217886407916651925e-01 -9.462820406168628296e-01
-1.085804040110647933e-01 -4.230617654041527592e-02 -8.406522435758745360e-01 3.496597385297157273e-02 3.391759460564522932e-01 -9.400729005184778053e-01
2.052201135407767663e-01 -6.759129443689496086e-02 -9.257712116176719519e-01 -8.779802890801529092e-01 2.963150151369091101e-01 -3.759627957539741216e-01
-1.736840667021838092e-01 -2.874083107381741886e-02 -8.461722736086634278e-01 4.995508831761372726e-01 3.891832392798145329e-02 -8.654098908497510623e-01
-2.590746782572111301e-02 3.886041146962195686e-02 -8.151479212028103216e-01 -8.125293908256263353e-02 2.874943343854973188e-01 -9.543295906481604751e-01
-2.089817047386319238e-01 1.120380004312812594e-01 -8.204237715318379864e-01 4.415835259697432069e-01 -1.163359365435333720e-01 -8.896459629879002184e-01
-1.219203851646051273e-01 -9.255778697925319543e-02 -8.592790787223927307e-01 3.496597385297157273e-02 3.391759460564522932e-01 -9.400729005184778053e-01
1.795373308015382752e-01 -4.101332548611647671e-02 -9.000070957029471241e-01 -3.501800891890419209e-01 3.654629900986496316e-01 -8.624446115570026938e-01
2.499596855328200251e-01 -1.501306448692472234e-02 -9.975074863752547705e-01 -8.611640309512975655e-01 1.989690474571596877e-04 -5.083271310947614641e-01
-2.154530345624827981e-01 8.188627712809674886e-02 -8.199155480072345403e-01 7.429224285151442286e-01 7.356742737964169776e-02 -6.653225524795485235e-01
-9.167070443631146481e-02 -5.360276372339484174e-02 -8.440990683168246855e-01 3.496597385297157273e-02 3.391759460564522932e-01 -9.400729005184778053e-01
-1.868623040731207802e-02 1.579980917193153922e-01 -7.727815487660257832e-01 -1.099061161061304498e-01 1.715381627568731415e-01 -9.790277342141345818e-01
1.874931766239425479e-01 1.107453207203018125e-01 -8.360504927519071261e-01 -8.391118955043079808e-01 2.800042683878311012e-01 -4.663569839809013073e-01
-7.645834970340184555e-02 8.951044671364712102e-02 -7.938820652625360186e-01 -1.236543487207837494e-01 4.335309989936625974e-01 -8.926144044065139616e-01
4.508679350285253046e-02 1.567825474015231701e-01 -7.801537174565549293e-01 -1.099061161061304498e-01 1.715381627568731415e-01 -9.790277342141345818e-01
2.910555474208429208e-02 1.341232639416580497e-01 -7.867212708668820387e-01 -8.420621921214652139e-02 3.587419544840493857e-01 -9.296308529405422627e-01
7.510427765291769267e-03 1.579474511752227139e-01 -7.757312708624314324e-01 -1.099061161061304498e-01 1.715381627568731415e-01 -9.790277342141345818e-01
1.081366832354902496e-01 9.850186370895405719e-02 -8.124327669190459789e-01 -2.942032857752776009e-01 2.536783546740558060e-01 -9.214617295411103859e-01
5.273218332256109087e-02 -1.230842139438158012e-01 -8.832978886826863274e-01 -3.501800891890419209e-01 3.654629900986496316e-01 -8.624446115570026938e-01
6.352423696440899492e-02 2.668063247949234440e-02 -8.264314509399303121e-01 -8.125293908256263353e-02 2.874943343854973188e-01 -9.543295906481604751e-01
5.018056550632617185e-02 -5.362445030583934402e-02 -8.528281074202070933e-01 -3.501800891890419209e-01 3.654629900986496316e-01 -8.624446115570026938e-01
-1.959493960829866710e-01 6.552986192947088395e-02 -8.294885529726935269e-01 2.347968266139497662e-01 4.616496091216477637e-01 -8.554239233326648151e-01
2.669047095088587090e-02 -9.472934939307273150e-02 -8.607086783352138060e-01 -3.501800891890419209e-01 3.654629900986496316e-01 -8.624446115570026938e-01
3.518158907033804017e-02 -1.336963248877508226e-01 -8.793203532016258261e-01 -2.370055601511915078e-01 1.431926397747296589e-02 -9.714027605152064648e-01
1.552776377208207881e-01 7.649128361455997949e-02 -8.335006980472656757e-01 -2.841053116014544133e-01 2.573104559195733554e-01 -9.236208644212741126e-01
2.182177644072040290e-01 1.885534354695889980e-01 -8.455352462477522257e-01 -3.964075821923599974e-01 4.354214550123526595e-02 -9.170414987041515253e-01
1.753830152832004108e-01 -7.729890174318523877e-02 -9.126957452446996522e-01 -2.370055601511915078e-01 1.431926397747296589e-02 -9.714027605152064648e-01
-4.138565876087103336e-03 -2.696966058041306430e-02 -8.368328403474915023e-01 -8.125293908256263353e-02 2.874943343854973188e-01 -9.543295906481604751e-01
-7.783405754149032296e-02 -1.052366991398565460e-01 -8.622138092593270020e-01 3.496597385297157273e-02 3.391759460564522932e-01 -9.400729005184778053e-01
-8.356621297531066639e-02 1.037407171196404465e-01 -7.859859552356864842e-01 -1.236543487207837494e-01 4.335309989936625974e-01 -8.926144044065139616e-01
1.531109797120012717e-01 -7.484973208939460498e-02 -9.036154113075104410e-01 -3.501800891890419209e-01 3.654629900986496316e-01 -8.624446115570026938e-01
9.828436245783148117e-02 -8.167216127649415403e-02 -8.842450724756807379e-01 -3.501800891890419209e-01 3.654629900986496316e-01 -8.624446115570026938e-01
-1.182343574476112658e-01 -7.651516275769980335e-02 -8.533538384636052410e-01 3.496597385297157273e-02 3.391759460564522932e-01 -9.400729005184778053e-01
8.718457465429883813e-02 3.984236768602997941e-02 -8.282461281598214597e-01 -3.501800891890419209e-01 3.654629900986496316e-01 -8.624446115570026938e-01
1.263947715224743133e-02 1.268885812108516142e-01 -7.880216129112578294e-01 -8.420621921214652139e-02 3.587419544840493857e-01 -9.296308529405422627e-01
1.641056433919912405e-01 4.105331624262774370e-02 -8.624668509978727915e-01 4.136002552066570526e-01 8.868407194743499478e-01 -2.060300152288634112e-01
-3.556919631225387290e-02 9.635866656073316383e-02 -7.954362669154068088e-01 -8.420621921214652139e-02 3.587419544840493857e-01 -9.296308529405422627e-01
1.100019114910613383e-01 -1.003918328708249680e-01 -8.969352781693583632e-01 -3.501800891890419209e-01 3.654629900986496316e-01 -8.624446115570026938e-01
7.387028799450824634e-02 -8.438287617960814335e-02 -8.754808495934812695e-01 -3.501800891890419209e-01 3.654629900986496316e-01 -8.624446115570026938e-01
-1.234397517872328209e-01 -4.779358282758826293e-02 -8.431847788540945965e-01 3.496597385297157273e-02 3.391759460564522932e-01 -9.400729005184778053e-01
4.700315303382954278e-05 -9.783701356063354004e-02 -8.585381845629957986e-01 -8.125293908256263353e-02 2.874943343854973188e-01 -9.543295906481604751e-01
9.471691360904095636e-02 -1.719371045196884107e-01 -9.001400814721299826e-01 -3.056067270093834609e-01 2.913431412762031991e-01 -9.064897696267325555e-01
1.459665943592846904e-01 5.363779532618947327e-02 -8.447116070763558415e-01 4.136002552066570526e-01 8.868407194743499478e-01 -2.060300152288634112e-01
-2.193613159768345588e-01 8.638770685349968226e-02 -8.237819302689748380e-01 7.429224285151442286e-01 7.356742737964169776e-02 -6.653225524795485235e-01
-2.319296894004755361e-01 -7.221988042965149512e-02 -8.617424330742122773e-01 4.257154577028965381e-03 1.511999080988745692e-01 -9.884940386394847067e-01
-1.383609751704398816e-01 2.189932245196539451e-02 -8.235049668476882578e-01 4.995508831761372726e-01 3.891832392798145329e-02 -8.654098908497510623e-01
-1.403680795617723298e-01 -6.775419535640307689e-02 -8.510161662928833470e-01 3.496597385297157273e-02 3.391759460564522932e-01 -9.400729005184778053e-01
1.248266476659351393e-01 1.165257988137092943e-01 -8.127995322028863656e-01 -2.942032857752776009e-01 2.536783546740558060e-01 -9.214617295411103859e-01
1.210963198326342888e-01 4.669892943513596212e-02 -8.391098964145343730e-01 -3.501800891890419209e-01 3.654629900986496316e-01 -8.624446115570026938e-01
3.174870542239803528e-02 -1.435118950352747835e-01 -8.787146202076207002e-01 -2.316041566972299182e-01 1.278643299281258250e-01 -9.643703789170404717e-01
1.672342353186963629e-02 -1.449850682526368784e-01 -8.753014591368873942e-01 -2.316041566972299182e-01 1.278643299281258250e-01 -9.643703789170404717e-01
-7.895935410565310675e-02 1.287465072228742013e-01 -7.744791646436908206e-01 -1.236543487207837494e-01 4.335309989936625974e-01 -8.926144044065139616e-01
1.578078501807032852e-01 4.705513854896119230e-02 -8.492751248803972475e-01 4.136002552066570526e-01 8.868407194743499478e-01 -2.060300152288634112e-01
-3.621630176674321688e-02 2.938388853940349099e-03 -8.250918179638955241e-01 -8.125293908256263353e-02 2.874943343854973188e-01 -9.543295906481604751e-01
3.136224516751676128e-02 7.098535502241121176e-02 -8.103462187221682766e-01 -8.125293908256263353e-02 2.874943343854973188e-01 -9.543295906481604751e-01
1.003284062257235598e-01 -4.868434673016019260e-02 -8.710963534043150158e-01 -3.501800891890419209e-01 3.654629900986496316e-01 -8.624446115570026938e-01
5.739189820244555706e-02 1.543131904282707967e-01 -7.819677572044889668e-01 -1.099061161061304498e-01 1.715381627568731415e-01 -9.790277342141345818e-01
-1.291403749159701631e-01 3.954321019461845554e-02 -8.173889868999032471e-01 4.995508831761372726e-01 3.891832392798145329e-02 -8.654098908497510623e-01
2.300010470146214014e-01 -5.298833428084239600e-02 -9.721324339838441908e-01 -8.779802890801529092e-01 2.963150151369091101e-01 -3.759627957539741216e-01
1.480948474350146649e-01 5.364447511648132161e-02 -8.404104380243114791e-01 4.136002552066570526e-01 8.868407194743499478e-01 -2.060300152288634112e-01
1.959234783752769882e-01 1.076419595693062087e-01 -8.530823398640939859e-01 -8.391118955043079808e-01 2.800042683878311012e-01 -4.663569839809013073e-01
-8.197210865017760806e-02 -1.139532417155110638e-01 -8.655126306162636007e-01 3.496597385297157273e-02 3.391759460564522932e-01 -9.400729005184778053e-01
-1.066627484168358314e-01 6.945111532154842060e-02 -8.023686616373897351e-01 2.871218086621364907e-01 3.147764553341039773e-01 -9.046971040950007037e-01
4.872254684703122146e-02 -3.428889763673752950e-02 -8.440426180145372825e-01 -3.501800891890419209e-01 3.654629900986496316e-01 -8.624446115570026938e-01
5.107798631136643147e-02 -1.213778905204535574e-01 -8.819031731251015804e-01 -3.501800891890419209e-01 3.654629900986496316e-01 -8.624446115570026938e-01
1.346772527544529696e-01 -1.748426822083632565e-02 -8.718219746781394885e-01 -3.501800891890419209e-01 3.654629900986496316e-01 -8.624446115570026938e-01
5.742708883419921778e-02 7.366398598805598552e-02 -8.117584707798642940e-01 -8.125293908256263353e-02 2.874943343854973188e-01 -9.543295906481604751e-01
-2.447427332434706226e-01 -8.956560262377510906e-02 -8.644508143140089418e-01 4.257154577028965381e-03 1.511999080988745692e-01 -9.884940386394847067e-01
-2.131939278286305861e-01 -5.192566908020181810e-02 -8.629865618199140664e-01 -2.004687446706419074e-01 2.723991467014503717e-02 -9.793213310547974615e-01
2.413324152559589153e-01 -2.259049390663566206e-02 -9.828948743003949051e-01 -8.611640309512975655e-01 1.989690474571596877e-04 -5.083271310947614641e-01
2.895260270721697338e-02 6.969559763387810081e-02 -8.105296012889593449e-01 -8.125293908256263353e-02 2.874943343854973188e-01 -9.543295906481604751e-01
1.885807642369775050e-01 1.016212358045382735e-01 -8.434855490374362219e-01 -8.391118955043079808e-01 2.800042683878311012e-01 -4.663569839809013073e-01
7.266319819011514414e-02 2.471884689758840903e-02 -8.287586135030708956e-01 -3.501800891890419209e-01 3.654629900986496316e-01 -8.624446115570026938e-01
-4.276745525469945880e-02 -2.557912819184659722e-02 -8.331250217765546751e-01 -8.125293908256263353e-02 2.874943343854973188e-01 -9.543295906481604751e-01
1.322382220121979535e-01 1.102390251236556457e-01 -8.168966398855019850e-01 -2.942032857752776009e-01 2.536783546740558060e-01 -9.214617295411103859e-01
-6.825051318968325398e-02 -3.120085679287076807e-02 -8.351454033757886863e-01 3.496597385297157273e-02 3.391759460564522932e-01 -9.400729005184778053e-01
-6.092970530226906462e-02 8.215806059865918276e-02 -7.986190792639732416e-01 -8.420621921214652139e-02 3.587419544840493857e-01 -9.296308529405422627e-01
-8.164705763092265645e-02 5.082021096679047167e-02 -8.067992540663965206e-01 -8.125293908256263353e-02 2.874943343854973188e-01 -9.543295906481604751e-01
-1.659359678554067075e-01 -1.116182466255824512e-01 -8.677793001273903517e-01 3.166023157588470499e-02 3.217886407916651925e-01 -9.462820406168628296e-01
1.289338326137285107e-01 9.412971472386992555e-02 -8.202765101924235358e-01 -2.942032857752776009e-01 2.536783546740558060e-01 -9.214617295411103859e-01
-2.357064674713297003e-01 9.931618931718406984e-02 -8.406039429998692913e-01 7.429224285151442286e-01 7.356742737964169776e-02 -6.653225524795485235e-01
1.523656695351257584e-01 -2.825007275035812393e-02 -8.835660731910398580e-01 -3.501800891890419209e-01 3.654629900986496316e-01 -8.624446115570026938e-01
-2.545079499846119794e-02 8.457319482184585957e-02 -8.009007751867943670e-01 -8.420621921214652139e-02 3.587419544840493857e-01 -9.296308529405422627e-01
-1.564221665991457344e-01 7.796860047451775744e-02 -8.119262585065705196e-01 2.347968266139497662e-01 4.616496091216477637e-01 -8.554239233326648151e-01
1.050927076348638356e-01 -9.561398518357573650e-02 -8.929173599172256504e-01 -3.501800891890419209e-01 3.654629900986496316e-01 -8.624446115570026938e-01
-1.471043670438820505e-01 2.719893646990119082e-02 -8.283136905302933561e-01 4.995508831761372726e-01 3.891832392798145329e-02 -8.654098908497510623e-01
-4.222318114536581513e-02 -8.934039878043113780e-02 -8.551539188162630145e-01 3.496597385297157273e-02 3.391759460564522932e-01 -9.400729005184778053e-01
-7.519550600182392519e-02 -1.849791944025783175e-01 -8.821452793008744964e-01 1.596243006531094799e-01 1.955677715238640646e-01 -9.676121792237813990e-01
-2.088951101637142316e-01 7.334787251564336974e-02 -8.257884390365552996e-01 -4.315772927001764181e-01 8.185951785706522266e-01 -3.790026042739919054e-01
1.797706961464026754e-01 -9.719174548796594149e-02 -9.187905171390523540e-01 -5.339044529984722232e-01 3.678491135626803521e-01 -7.613363676585747086e-01
-5.681464362955179585e-03 1.932062688852356214e-01 -7.680725476446663702e-01 -1.099061161061304498e-01 1.715381627568731415e-01 -9.790277342141345818e-01
-1.435046843995100296e-01 -1.200704079187052825e-01 -8.699030114304155958e-01 3.166023157588470499e-02 3.217886407916651925e-01 -9.462820406168628296e-01
8.408106746747999460e-02 -1.655005396917723359e-01 -8.944857042071759912e-01 -3.056067270093834609e-01 2.913431412762031991e-01 -9.064897696267325555e-01
1.334060719245347415e-01 3.403176859269417542e-02 -8.511179413400475902e-01 -7.914214614067167641e-01 -1.579900784742601094e-01 -5.905008090837421397e-01
4.977099270255281281e-03 1.820127935435570873e-02 -8.240010945384111940e-01 -8.125293908256263353e-02 2.874943343854973188e-01 -9.543295906481604751e-01
1.948990586380876799e-01 -9.672024473991239213e-02 -9.291718141641467366e-01 -5.339044529984722232e-01 3.678491135626803521e-01 -7.613363676585747086e-01
7.515212465406936881e-02 -4.732671499101560875e-02 -8.602986783347950084e-01 -3.501800891890419209e-01 3.654629900986496316e-01 -8.624446115570026938e-01
-9.187283325055625727e-02 5.693158546163939321e-02 -8.042260703769190666e-01 3.496597385297157273e-02 3.391759460564522932e-01 -9.400729005184778053e-01
2.000698064756092909e-01 -7.814655535538821141e-02 -9.238238102425389009e-01 -5.339044529984722232e-01 3.678491135626803521e-01 -7.613363676585747086e-01
-2.398992027204016261e-02 7.366175016198456271e-02 -8.048271877528202500e-01 -8.125293908256263353e-02 2.874943343854973188e-01 -9.543295906481604751e-01
1.355559938868888259e-01 -5.488410218291396581e-02 -8.880270417744171585e-01 -3.501800891890419209e-01 3.654629900986496316e-01 -8.624446115570026938e-01
1.775334619692970073e-01 1.011418488860237885e-01 -8.334792062140041757e-01 -2.841053116014544133e-01 2.573104559195733554e-01 -9.236208644212741126e-01
-1.668544249693854897e-01 5.645446855757643712e-02 -8.259935647580287643e-01 2.871218086621364907e-01 3.147764553341039773e-01 -9.046971040950007037e-01
1.174526076784325745e-01 -1.277087334624997239e-01 -8.993048042823670318e-01 -2.370055601511915078e-01 1.431926397747296589e-02 -9.714027605152064648e-01
-8.236502319904658032e-02 -1.402327924514757129e-01 -8.747137658212247313e-01 3.166023157588470499e-02 3.217886407916651925e-01 -9.462820406168628296e-01
1.386583794657479385e-01 5.895818094354432493e-02 -8.364814709875898480e-01 4.136002552066570526e-01 8.868407194743499478e-01 -2.060300152288634112e-01
-6.696794600826126709e-02 -8.466897482355023596e-02 -8.543888612995371723e-01 3.496597385297157273e-02 3.391759460564522932e-01 -9.400729005184778053e-01
-1.398876644559256949e-02 -7.875905593938976879e-03 -8.302421360570488851e-01 -8.125293908256263353e-02 2.874943343854973188e-01 -9.543295906481604751e-01
-2.763555540517068781e-02 -3.908480418477860291e-02 -8.384819935364046239e-01 -8.125293908256263353e-02 2.874943343854973188e-01 -9.543295906481604751e-01
-1.013485702494147239e-01 -9.254913505560616316e-02 -8.585107892988570466e-01 3.496597385297157273e-02 3.391759460564522932e-01 -9.400729005184778053e-01
2.390178845278307165e-02 -1.329651309266773607e-01 -8.757788889759412498e-01 -3.501800891890419209e-01 3.654629900986496316e-01 -8.624446115570026938e-01
-2.392823205389649210e-02 -6.284500427395212085e-02 -8.459554638110501346e-01 -8.125293908256263353e-02 2.874943343854973188e-01 -9.543295906481604751e-01
-2.173593280435747732e-01 -8.164112018641209167e-02 -8.631207542897205709e-01 4.257154577028965381e-03 1.511999080988745692e-01 -9.884940386394847067e-01
2.281147994067397600e-01 -7.087426971015156271e-03 -9.604966600830669998e-01 -8.611640309512975655e-01 1.989690474571596877e-04 -5.083271310947614641e-01
7.040865102348576980e-03 1.294070873899556273e-01 -7.860719857601504712e-01 -1.236543487207837494e-01 4.335309989936625974e-01 -8.926144044065139616e-01
-9.367667934650125705e-02 -1.875999948319637955e-01 -8.857237671954298897e-01 1.596243006531094799e-01 1.955677715238640646e-01 -9.676121792237813990e-01
-1.837823222565592995e-01 -9.351607318171280270e-02 -8.619257782526007494e-01 3.496597385297157273e-02 3.391759460564522932e-01 -9.400729005184778053e-01
-1.109082529419465057e-01 -1.518914874011291771e-01 -8.796333570900211063e-01 3.166023157588470499e-02 3.217886407916651925e-01 -9.462820406168628296e-01
-7.867987744620055790e-02 -1.657043219946474910e-01 -8.800155111250660411e-01 7.976959003510361579e-02 3.747422554529904193e-02 -9.961086762624906665e-01
6.648383101897230307e-02 -1.086906249067122465e-01 -8.827821791925168915e-01 -3.501800891890419209e-01 3.654629900986496316e-01 -8.624446115570026938e-01
-1.003393396839980245e-01 1.124329834280018460e-02 -8.210252012114520603e-01 3.496597385297157273e-02 3.391759460564522932e-01 -9.400729005184778053e-01
-1.409443374718552522e-01 3.765804818616187710e-02 -8.242875066979729048e-01 4.995508831761372726e-01 3.891832392798145329e-02 -8.654098908497510623e-01
-2.123526261018296099e-02 2.444146458559316171e-01 -7.573541092464028956e-01 -1.099061161061304498e-01 1.715381627568731415e-01 -9.790277342141345818e-01
-3.358628067690185709e-02 9.650106939572913878e-02 -7.955609271038597274e-01 -8.420621921214652139e-02 3.587419544840493857e-01 -9.296308529405422627e-01
1.827287152466087750e-01 4.435328437269787927e-02 -8.868473704383571521e-01 -7.538480914859129189e-01 4.957233040600287910e-01 -4.312440849157874734e-01
9.979849107976261624e-02 5.171563807125060044e-03 -8.480596185621218641e-01 -3.501800891890419209e-01 3.654629900986496316e-01 -8.624446115570026938e-01
-1.520832614335442534e-01 -1.099347929599379103e-01 -8.666705658956165292e-01 3.496597385297157273e-02 3.391759460564522932e-01 -9.400729005184778053e-01
1.229848077365796738e-01 -1.201575984398798869e-01 -9.005432560624434535e-01 -2.370055601511915078e-01 1.431926397747296589e-02 -9.714027605152064648e-01
1.788591938627257655e-02 1.929679833045323811e-01 -7.707599839587128132e-01 -1.099061161061304498e-01 1.715381627568731415e-01 -9.790277342141345818e-01
1.658147152225062648e-01 6.828307553096435445e-02 -8.390286128529331755e-01 -2.841053116014544133e-01 2.573104559195733554e-01 -9.236208644212741126e-01
2.105648472732600182e-02 1.063441544506254638e-01 -7.967120647923895405e-01 -8.420621921214652139e-02 3.587419544840493857e-01 -9.296308529405422627e-01
1.523808519651463633e-01 -1.022663568163365150e-01 -9.074516536805118383e-01 -2.370055601511915078e-01 1.431926397747296589e-02 -9.714027605152064648e-01
-8.320471670058794678e-02 -1.574219836653552029e-01 -8.800662790371502897e-01 7.976959003510361579e-02 3.747422554529904193e-02 -9.961086762624906665e-01
-6.994002030293400285e-02 -8.964362371028562759e-02 -8.562942483323363607e-01 3.496597385297157273e-02 3.391759460564522932e-01 -9.400729005184778053e-01
4.168892998541177258e-02 -5.817756671899074888e-02 -8.513096259688675005e-01 -3.501800891890419209e-01 3.654629900986496316e-01 -8.624446115570026938e-01
2.908546319778206653e-03 -2.526709469001064794e-03 -8.300693369986640313e-01 -8.125293908256263353e-02 2.874943343854973188e-01 -9.543295906481604751e-01
-5.845433758376263750e-02 3.887068105247047656e-02 -8.123737420317908020e-01 -8.125293908256263353e-02 2.874943343854973188e-01 -9.543295906481604751e-01
1.161465546976770020e-02 -1.171428510534004291e-01 -8.653390054872945880e-01 -8.125293908256263353e-02 2.874943343854973188e-01 -9.543295906481604751e-01
-1.858467532941537881e-02 5.209594809244482566e-02 -8.117841531603497973e-01 -8.125293908256263353e-02 2.874943343854973188e-01 -9.543295906481604751e-01
-1.196880306186312581e-02 2.298886286325906581e-01 -7.609395101119816873e-01 -1.099061161061304498e-01 1.715381627568731415e-01 -9.790277342141345818e-01
-2.251325672881420159e-01 5.773216621222489880e-02 -8.410263926514673916e-01 -4.315772927001764181e-01 8.185951785706522266e-01 -3.790026042739919054e-01
-6.422121282111609153e-02 -1.186291522321545888e-01 -8.665394435508770865e-01 3.496597385297157273e-02 3.391759460564522932e-01 -9.400729005184778053e-01
-2.057671104279144569e-01 4.516875444780589499e-02 -8.422699048120531051e-01 2.871218086621364907e-01 3.147764553341039773e-01 -9.046971040950007037e-01
-2.291331468625836809e-01 -1.323750503223568298e-01 -8.774796281194938707e-01 1.472817365630807798e-02 3.512996088431974417e-01 -9.361472457510977563e-01
1.003961554850322097e-01 -8.558828082158165262e-02 -8.867619930988226429e-01 -3.501800891890419209e-01 3.654629900986496316e-01 -8.624446115570026938e-01
1.516696391048567294e-01 1.360107102109464894e-01 -8.192634161328241627e-01 -3.964075821923599974e-01 4.354214550123526595e-02 -9.170414987041515253e-01
-2.066176242823926090e-01 1.304709738303121980e-01 -8.216607560019524303e-01 4.415835259697432069e-01 -1.163359365435333720e-01 -8.896459629879002184e-01
-2.457369434966867605e-02 -1.322901623989912803e-02 -8.309535595385401097e-01 -8.125293908256263353e-02 2.874943343854973188e-01 -9.543295906481604751e-01
-1.538179916362018840e-01 -3.478406310439979832e-02 -8.396208941620176835e-01 3.496597385297157273e-02 3.391759460564522932e-01 -9.400729005184778053e-01
-1.563484650693108824e-01 3.397518181534425058e-02 -8.304806577005646728e-01 2.871218086621364907e-01 3.147764553341039773e-01 -9.046971040950007037e-01
-1.270069105141378440e-01 3.650565467728944524e-02 -8.162940635963839009e-01 4.995508831761372726e-01 3.891832392798145329e-02 -8.654098908497510623e-01
-4.678883328107240336e-02 1.010855037566657094e-01 -7.923703472053957864e-01 -1.236543487207837494e-01 4.335309989936625974e-01 -8.926144044065139616e-01
-1.944309290902379306e-01 -1.469218852831108701e-01 -8.823925274127234486e-01 1.472817365630807798e-02 3.512996088431974417e-01 -9.361472457510977563e-01
-3.805040743453351471e-02 -2.046045343875597076e-03 -8.264372337704215532e-01 -8.125293908256263353e-02 2.874943343854973188e-01 -9.543295906481604751e-01
-1.907955931876192390e-01 2.681009165053526572e-02 -8.439060609187201134e-01 2.871218086621364907e-01 3.147764553341039773e-01 -9.046971040950007037e-01
5.044731253974719942e-02 3.381559359928383579e-02 -8.231686374715242449e-01 -8.125293908256263353e-02 2.874943343854973188e-01 -9.543295906481604751e-01
1.898161041340574173e-01 7.001481089314905149e-02 -8.712466333682497011e-01 -7.683628661007493310e-01 4.101879235884792196e-01 -4.912884828078242783e-01
1.513153800088839866e-02 -5.891967218731360839e-02 -8.480985498071168527e-01 -8.125293908256263353e-02 2.874943343854973188e-01 -9.543295906481604751e-01
-1.347667775481120600e-01 4.025403678422456721e-02 -8.206048159006411602e-01 4.995508831761372726e-01 3.891832392798145329e-02 -8.654098908497510623e-01
7.424054040426265877e-02 -1.386164889374414452e-03 -8.404611267615570425e-01 -3.501800891890419209e-01 3.654629900986496316e-01 -8.624446115570026938e-01
-2.155830716224080845e-01 -6.383144595556465573e-02 -8.628286603159786017e-01 -2.004687446706419074e-01 2.723991467014503717e-02 -9.793213310547974615e-01
-1.619858133626987107e-01 -4.138706458499841201e-03 -8.383131697153913819e-01 4.995508831761372726e-01 3.891832392798145329e-02 -8.654098908497510623e-01
-1.983283530672544925e-01 -3.606926131449276346e-02 -8.607275558790551395e-01 4.995508831761372726e-01 3.891832392798145329e-02 -8.654098908497510623e-01
-1.752536727449827969e-01 -1.968260441591844837e-02 -8.466709587868626041e-01 4.995508831761372726e-01 3.891832392798145329e-02 -8.654098908497510623e-01
1.733043036200017650e-01 6.520361598374339873e-02 -8.494395674741650470e-01 -7.683628661007493310e-01 4.101879235884792196e-01 -4.912884828078242783e-01
-7.604914507772270182e-02 -6.128302808374596483e-02 -8.462890451719975449e-01 3.496597385297157273e-02 3.391759460564522932e-01 -9.400729005184778053e-01
1.915611629455555090e-02 -7.784266598688369121e-02 -8.541418103100208992e-01 -8.125293908256263353e-02 2.874943343854973188e-01 -9.543295906481604751e-01
1.029565934683025485e-01 8.225697052454937486e-02 -8.152510916106762151e-01 -2.942032857752776009e-01 2.536783546740558060e-01 -9.214617295411103859e-01
-1.283688273805889124e-01 8.567581582243671834e-02 -8.000667959634827353e-01 2.347968266139497662e-01 4.616496091216477637e-01 -8.554239233326648151e-01
1.857891188976922570e-01 -3.070787861752486813e-03 -9.113976754827173288e-01 -7.914214614067167641e-01 -1.579900784742601094e-01 -5.905008090837421397e-01
7.241321256582838525e-03 1.009077526706107231e-01 -7.975585757636690643e-01 -8.420621921214652139e-02 3.587419544840493857e-01 -9.296308529405422627e-01
1.854475441595578034e-01 -1.020708284384814618e-01 -9.251289254649358584e-01 -5.339044529984722232e-01 3.678491135626803521e-01 -7.613363676585747086e-01
1.492012003117856866e-01 4.936507187151172038e-02 -8.566098311894344564e-01 4.136002552066570526e-01 8.868407194743499478e-01 -2.060300152288634112e-01
1.855153717585248385e-01 1.335320130823193230e-01 -8.340115304318053147e-01 -3.964075821923599974e-01 4.354214550123526595e-02 -9.170414987041515253e-01
-1.953029749240414170e-01 3.545438872341050845e-02 -8.423288992493569438e-01 2.871218086621364907e-01 3.147764553341039773e-01 -9.046971040950007037e-01
8.739107343633754910e-02 8.033392842449468829e-02 -8.123003078552961664e-01 -8.125293908256263353e-02 2.874943343854973188e-01 -9.543295906481604751e-01
2.105232304997613768e-01 1.479485047551822308e-01 -8.551511862976156619e-01 -8.391118955043079808e-01 2.800042683878311012e-01 -4.663569839809013073e-01
-1.541433148499670169e-01 -1.158665973211724931e-01 -8.688294234819942119e-01 3.166023157588470499e-02 3.217886407916651925e-01 -9.462820406168628296e-01
-1.967793025466890722e-01 -1.879859085748216904e-02 -8.590567001166919958e-01 4.995508831761372726e-01 3.891832392798145329e-02 -8.654098908497510623e-01
1.016565551922032906e-01 -6.038170100374939085e-03 -8.535642038595915304e-01 -3.501800891890419209e-01 3.654629900986496316e-01 -8.624446115570026938e-01
-7.309372530465667317e-02 -1.087183921942607157e-01 -8.632936789183697224e-01 3.496597385297157273e-02 3.391759460564522932e-01 -9.400729005184778053e-01
-1.498734993490770384e-01 3.488263627706816861e-02 -8.281099756703587111e-01 2.871218086621364907e-01 3.147764553341039773e-01 -9.046971040950007037e-01
-2.048211820492264190e-01 8.964559810822597674e-02 -8.154304825611810026e-01 4.415835259697432069e-01 -1.163359365435333720e-01 -8.896459629879002184e-01
1.649265805240710814e-01 1.423941830950352649e-01 -8.246908717029020064e-01 -3.964075821923599974e-01 4.354214550123526595e-02 -9.170414987041515253e-01
-1.635182360271770774e-01 -1.726194468024225964e-02 -8.397879131231469341e-01 4.995508831761372726e-01 3.891832392798145329e-02 -8.654098908497510623e-01
-1.711903552373139348e-01 -3.945081768887310353e-02 -8.452144372757562918e-01 4.995508831761372726e-01 3.891832392798145329e-02 -8.654098908497510623e-01
-8.924662594109278313e-02 -1.846837297984298132e-01 -8.844035361587554434e-01 1.596243006531094799e-01 1.955677715238640646e-01 -9.676121792237813990e-01
-7.820601040835839513e-02 -1.525426321132758445e-01 -8.787606473012508079e-01 3.166023157588470499e-02 3.217886407916651925e-01 -9.462820406168628296e-01
-1.537144417996229306e-01 -1.400754179805638044e-01 -8.774079498380300546e-01 5.456162216153857825e-02 3.584984574867155493e-01 -9.319344855550454332e-01
-1.356838483718397215e-01 -1.001927507438296894e-01 -8.625456859726324810e-01 3.496597385297157273e-02 3.391759460564522932e-01 -9.400729005184778053e-01
-1.122793939465847463e-01 2.786830862158263741e-02 -8.154710490159404745e-01 3.496597385297157273e-02 3.391759460564522932e-01 -9.400729005184778053e-01
2.294523057544700095e-01 -2.380589415992749244e-02 -9.627690920361638982e-01 -8.611640309512975655e-01 1.989690474571596877e-04 -5.083271310947614641e-01
7.848819300148004996e-02 8.477318491747318219e-02 -8.102049664639744408e-01 -8.125293908256263353e-02 2.874943343854973188e-01 -9.543295906481604751e-01
-1.387492187370917007e-01 -4.318378148429191654e-02 -8.420910090942110848e-01 3.496597385297157273e-02 3.391759460564522932e-01 -9.400729005184778053e-01
1.300453913114154106e-02 4.660310344478715144e-02 -8.161284365973489052e-01 -8.125293908256263353e-02 2.874943343854973188e-01 -9.543295906481604751e-01
1.147306781082212263e-01 -1.346393850705875916e-01 -8.987428637209892157e-01 -2.370055601511915078e-01 1.431926397747296589e-02 -9.714027605152064648e-01
-1.828027554494172646e-01 -5.295731878055030123e-02 -8.525250021690675695e-01 4.995508831761372726e-01 3.891832392798145329e-02 -8.654098908497510623e-01
1.564993555586655927e-01 -7.370032471911247551e-02 -9.045041360923083973e-01 -3.501800891890419209e-01 3.654629900986496316e-01 -8.624446115570026938e-01
-2.234427523735770804e-01 5.342628861956946057e-02 -8.435669091759782079e-01 2.347968266139497662e-01 4.616496091216477637e-01 -8.554239233326648151e-01
-7.810329376434985149e-02 6.810459175161784860e-03 -8.217974896348068103e-01 3.496597385297157273e-02 3.391759460564522932e-01 -9.400729005184778053e-01
-2.332645935890401701e-01 -4.919841196687016471e-02 -8.588022034374305225e-01 -2.004687446706419074e-01 2.723991467014503717e-02 -9.793213310547974615e-01
-3.348862517999938448e-02 -1.636786976279448746e-01 -8.763203356301125790e-01 7.976959003510361579e-02 3.747422554529904193e-02 -9.961086762624906665e-01
-2.024018742550903471e-01 1.088245112970621237e-01 -8.167375984364266817e-01 4.415835259697432069e-01 -1.163359365435333720e-01 -8.896459629879002184e-01
-2.599432403911371425e-01 -1.021946209960386404e-01 -8.666388157844032714e-01 1.472817365630807798e-02 3.512996088431974417e-01 -9.361472457510977563e-01
-2.523274323423349910e-02 2.392324441941460697e-02 -8.197052295975758573e-01 -8.125293908256263353e-02 2.874943343854973188e-01 -9.543295906481604751e-01
1.408962506803483339e-01 2.546649185856657283e-02 -8.588650255156702329e-01 -7.914214614067167641e-01 -1.579900784742601094e-01 -5.905008090837421397e-01
-5.948894534330243650e-02 -1.124170394238289787e-02 -8.276183048934534492e-01 3.496597385297157273e-02 3.391759460564522932e-01 -9.400729005184778053e-01
1.381091323878036459e-01 -4.496192570998307214e-02 -8.848591513644010753e-01 -3.501800891890419209e-01 3.654629900986496316e-01 -8.624446115570026938e-01
1.842765836786776634e-01 -8.588789286647208893e-03 -9.078941369950868090e-01 -7.914214614067167641e-01 -1.579900784742601094e-01 -5.905008090837421397e-01
-6.544936966951783730e-02 1.243787581446829105e-01 -7.784720678842226294e-01 -1.236543487207837494e-01 4.335309989936625974e-01 -8.926144044065139616e-01
-1.251562359057404594e-01 1.411678277822607866e-02 -8.209115186902308237e-01 3.496597385297157273e-02 3.391759460564522932e-01 -9.400729005184778053e-01
-1.083326864070210255e-01 -7.420953857191481262e-02 -8.521536827793514401e-01 3.496597385297157273e-02 3.391759460564522932e-01 -9.400729005184778053e-01
9.841735310478041954e-02 -1.143317242864857336e-01 -8.944633417195315683e-01 -2.370055601511915078e-01 1.431926397747296589e-02 -9.714027605152064648e-01
3.301410742362610035e-02 -3.324331246639446180e-02 -8.418860246150223769e-01 -8.125293908256263353e-02 2.874943343854973188e-01 -9.543295906481604751e-01
-6.371507990911694230e-02 1.518980876968684390e-01 -7.687953874528496989e-01 -1.099061161061304498e-01 1.715381627568731415e-01 -9.790277342141345818e-01
1.412053968417390226e-01 5.620980624065680109e-02 -8.431985678175393240e-01 4.136002552066570526e-01 8.868407194743499478e-01 -2.060300152288634112e-01
1.219327739740255628e-01 -5.122232465777003946e-02 -8.809438918008611896e-01 -3.501800891890419209e-01 3.654629900986496316e-01 -8.624446115570026938e-01
1.121638997572202839e-01 7.404896489509774082e-02 -8.247113503800697076e-01 4.136002552066570526e-01 8.868407194743499478e-01 -2.060300152288634112e-01
3.110880532655610833e-02 8.943777566330649020e-02 -8.041467312081158614e-01 -8.420621921214652139e-02 3.587419544840493857e-01 -9.296308529405422627e-01
-1.637831333617180071e-02 1.305341014717700462e-02 -8.237336745496857127e-01 -8.125293908256263353e-02 2.874943343854973188e-01 -9.543295906481604751e-01
-1.845333349542417622e-01 8.014196263088785299e-02 -8.184693083086069798e-01 2.347968266139497662e-01 4.616496091216477637e-01 -8.554239233326648151e-01
1.569303746555136478e-02 -6.451919720692445362e-03 -8.323403062844746403e-01 -8.125293908256263353e-02 2.874943343854973188e-01 -9.543295906481604751e-01
5.975419438836275521e-02 -5.620283837024205725e-02 -8.578079050441635989e-01 -3.501800891890419209e-01 3.654629900986496316e-01 -8.624446115570026938e-01
-1.819525732924886230e-01 -1.372935504335999479e-01 -8.779910627552637292e-01 5.456162216153857825e-02 3.584984574867155493e-01 -9.319344855550454332e-01
-2.299311241084790736e-01 4.539106727805687636e-02 -8.496842338638064263e-01 2.347968266139497662e-01 4.616496091216477637e-01 -8.554239233326648151e-01
1.142831829719529041e-01 -1.075247186881119754e-01 -8.982339904491387639e-01 -2.370055601511915078e-01 1.431926397747296589e-02 -9.714027605152064648e-01
-7.761003475792682856e-03 1.586787615423400919e-03 -8.279217148291898587e-01 -8.125293908256263353e-02 2.874943343854973188e-01 -9.543295906481604751e-01
1.609206093160585327e-01 1.416734838934659568e-01 -8.229934386275147284e-01 -3.964075821923599974e-01 4.354214550123526595e-02 -9.170414987041515253e-01
1.570124358357953553e-01 1.333610002706480391e-01 -8.216987466965652853e-01 -3.964075821923599974e-01 4.354214550123526595e-02 -9.170414987041515253e-01
-5.599950042470481365e-02 4.270096339697283805e-02 -8.114288674854758243e-01 -8.125293908256263353e-02 2.874943343854973188e-01 -9.543295906481604751e-01
-6.369158883226228897e-03 1.382741525901473034e-01 -7.799076718195684377e-01 -1.236543487207837494e-01 4.335309989936625974e-01 -8.926144044065139616e-01
1.744757868646181209e-01 1.280410354330052125e-01 -8.295001901987881787e-01 -3.964075821923599974e-01 4.354214550123526595e-02 -9.170414987041515253e-01
-1.622038377982527591e-01 -7.841190925605799611e-02 -8.556736229048720332e-01 3.496597385297157273e-02 3.391759460564522932e-01 -9.400729005184778053e-01
1.590044028896983042e-01 4.594613837577205678e-02 -8.516466822728329111e-01 4.136002552066570526e-01 8.868407194743499478e-01 -2.060300152288634112e-01
1.621360698493831964e-01 1.276304139033544449e-01 -8.241856236808671188e-01 -3.964075821923599974e-01 4.354214550123526595e-02 -9.170414987041515253e-01
-6.390726086253534916e-03 2.055635583449241244e-01 -7.658277706530886020e-01 -1.099061161061304498e-01 1.715381627568731415e-01 -9.790277342141345818e-01
1.576530871470622763e-01 8.231273575348167781e-02 -8.326095935516349966e-01 -2.841053116014544133e-01 2.573104559195733554e-01 -9.236208644212741126e-01
-1.587014138540733810e-01 -4.830606575686866543e-03 -8.364483919962852898e-01 4.995508831761372726e-01 3.891832392798145329e-02 -8.654098908497510623e-01
4.719851144912876051e-02 3.408552560971898904e-02 -8.228107123226825470e-01 -8.125293908256263353e-02 2.874943343854973188e-01 -9.543295906481604751e-01
-3.708063373537193869e-02 2.072592286274113627e-01 -7.620854040272742047e-01 -1.099061161061304498e-01 1.715381627568731415e-01 -9.790277342141345818e-01
1.842358093897127069e-01 -2.603935685674958408e-02 -9.031705428115168743e-01 -7.914214614067167641e-01 -1.579900784742601094e-01 -5.905008090837421397e-01
-1.347223215625707182e-01 -1.163379470469143445e-01 -8.683350683770102441e-01 3.496597385297157273e-02 3.391759460564522932e-01 -9.400729005184778053e-01
1.239668689609312556e-03 1.940283022470367102e-01 -7.687054865682508842e-01 -1.099061161061304498e-01 1.715381627568731415e-01 -9.790277342141345818e-01
7.224888458719401496e-02 -1.590194487194330208e-01 -8.904973056266385356e-01 -2.316041566972299182e-01 1.278643299281258250e-01 -9.643703789170404717e-01
-1.377758405800809938e-01 -5.984444576221887441e-02 -8.480659302414007561e-01 3.496597385297157273e-02 3.391759460564522932e-01 -9.400729005184778053e-01
1.693593603198210729e-01 -9.354522045316440715e-02 -9.114655609781353585e-01 -2.370055601511915078e-01 1.431926397747296589e-02 -9.714027605152064648e-01
-1.701282876884479753e-02 1.812593833745954897e-01 -7.688937302435154830e-01 -1.099061161061304498e-01 1.715381627568731415e-01 -9.790277342141345818e-01
-1.577718021192829057e-01 -3.888175841492606810e-02 -8.412463941809280588e-01 3.496597385297157273e-02 3.391759460564522932e-01 -9.400729005184778053e-01
2.603359066117145321e-02 8.902584974050681277e-02 -8.038459779283275708e-01 -8.420621921214652139e-02 3.587419544840493857e-01 -9.296308529405422627e-01
-1.176351882854183711e-01 -1.313379681278719624e-01 -8.728690812981189096e-01 3.166023157588470499e-02 3.217886407916651925e-01 -9.462820406168628296e-01
1.290178965195347138e-01 -1.773288888727365398e-01 -9.134369447295553890e-01 -3.056067270093834609e-01 2.913431412762031991e-01 -9.064897696267325555e-01
-1.646658550552003164e-01 -4.970469152924494871e-02 -8.454077053416854115e-01 3.496597385297157273e-02 3.391759460564522932e-01 -9.400729005184778053e-01
1.960009566153085858e-01 -3.316491168452580240e-02 -9.170323748676563191e-01 -7.914214614067167641e-01 -1.579900784742601094e-01 -5.905008090837421397e-01
-2.104103506476190655e-01 -5.489987742660991377e-02 -8.636390926945864965e-01 -2.004687446706419074e-01 2.723991467014503717e-02 -9.793213310547974615e-01
-2.426661218042953580e-02 4.117167730575253121e-02 -8.145913509208437819e-01 -8.125293908256263353e-02 2.874943343854973188e-01 -9.543295906481604751e-01
-2.151949731275168767e-02 2.352992925279852598e-01 -7.589193272448120364e-01 -1.099061161061304498e-01 1.715381627568731415e-01 -9.790277342141345818e-01
8.761367944735425073e-02 -3.047781119424699051e-02 -8.582187043069366972e-01 -3.501800891890419209e-01 3.654629900986496316e-01 -8.624446115570026938e-01
2.129505924827084506e-01 -3.139617643162756488e-02 -9.348162820870322687e-01 -8.611640309512975655e-01 1.989690474571596877e-04 -5.083271310947614641e-01
-1.756697898860291873e-01 -1.246293999149674925e-01 -8.727515557337511831e-01 5.456162216153857825e-02 3.584984574867155493e-01 -9.319344855550454332e-01
1.419549198774440191e-01 -9.892671105118906738e-02 -9.048586765486468231e-01 -2.370055601511915078e-01 1.431926397747296589e-02 -9.714027605152064648e-01
-6.858463451741132755e-02 6.026348950456651005e-02 -8.050665939620410549e-01 -8.125293908256263353e-02 2.874943343854973188e-01 -9.543295906481604751e-01
3.183039045087959762e-02 1.363549819924557427e-01 -7.861068734632438160e-01 -8.420621921214652139e-02 3.587419544840493857e-01 -9.296308529405422627e-01
-6.035026072873210697e-03 -9.562745951353719687e-02 -8.573547181470769774e-01 -8.125293908256263353e-02 2.874943343854973188e-01 -9.543295906481604751e-01
