5.311516891823084285e-02 -4.814175425869200720e-02 -6.988589300687575445e-01 -9.431412252833151211e-01 -2.616660107292572701e-01 2.049768962593663812e-01
8.610783186761646057e-02 -1.298645036952202902e-01 -6.420937673021658298e-01 -9.113569849638398779e-01 -2.159465856928077798e-01 -3.504219143906929235e-01
-1.215232423355282476e-01 4.728235939470071952e-02 -9.138122504407888425e-01 -4.202806524992778736e-01 -7.767114479633763224e-01 4.691305785572033593e-01
-2.474040970294877698e-02 9.539197072681013245e-02 -7.804408202734268718e-01 -8.930479396136189463e-01 -3.591937756280321747e-01 2.710077657594871514e-01
1.380833707634313706e-03 9.448228786045582972e-02 -7.006087708402439773e-01 -9.019305479273956871e-01 -2.973015255240787913e-01 3.132620143529106227e-01
3.213834752240116166e-02 -2.967856359640186348e-02 -7.587776052431889351e-01 -8.930479396136189463e-01 -3.591937756280321747e-01 2.710077657594871514e-01
5.232518605129599792e-02 -2.483163241049482928e-03 -6.442077173591224115e-01 -9.431412252833151211e-01 -2.616660107292572701e-01 2.049768962593663812e-01
-4.152608782105050335e-03 4.052708980989336990e-02 -7.853160699869992101e-01 -8.930479396136189463e-01 -3.591937756280321747e-01 2.710077657594871514e-01
-9.380343383198773421e-02 1.688710943812371523e-01 -8.374720751356796722e-01 -6.492308139551832280e-01 -6.545541489592626716e-01 3.873734842387970279e-01
4.121909951009705871e-03 6.657675519952621808e-03 -8.029397010952314950e-01 -8.930479396136189463e-01 -3.591937756280321747e-01 2.710077657594871514e-01
-8.104057004319066559e-02 1.578973649619185848e-01 -8.274517806019704436e-01 -7.848745093890552305e-01 -4.570913985073820074e-01 4.183771718459974864e-01
-1.370643556208344938e-01 1.758038352665755935e-02 -9.562179123199953112e-01 -1.296404702060217629e-01 -6.756204873444131564e-01 7.257618793828037873e-01
-1.512078975604356015e-02 -6.085620587540853388e-02 -8.839104751618651612e-01 -7.574391486436850007e-01 -3.786066915147942025e-01 5.319237814218793492e-01
8.663436013588061285e-03 -4.965016674384893636e-02 -8.420665383121400671e-01 -7.574391486436850007e-01 -3.786066915147942025e-01 5.319237814218793492e-01
-1.395136700704981414e-01 1.272945262313168180e-01 -8.780397307772381810e-01 -3.229642054473189638e-01 -3.372554017291650719e-01 8.842810164219750968e-01
5.912955941054976600e-02 -1.013157509063532247e-01 -7.390654514351372439e-01 -9.431412252833151211e-01 -2.616660107292572701e-01 2.049768962593663812e-01
5.072918696174257697e-02 -8.410471804974148369e-02 -7.557463326392219738e-01 -9.431412252833151211e-01 -2.616660107292572701e-01 2.049768962593663812e-01
-5.440489859358075414e-02 2.471339529826086304e-02 -8.789437830647166550e-01 -7.574391486436850007e-01 -3.786066915147942025e-01 5.319237814218793492e-01
-7.548318355137024864e-03 -8.846719421375319470e-02 -9.242481510661004762e-01 -7.814536937052455334e-01 -5.455249729243317747e-01 3.028739482199404032e-01
8.894015486928591452e-02 -1.570191028666539645e-01 -6.322979920058369174e-01 -7.614960610092699200e-01 -6.095797649463572387e-01 2.203094624279907376e-01
-9.183653392120885717e-02 -1.930613471407254325e-02 -9.652795289430736725e-01 -6.109428416143940499e-01 -4.064035053445582135e-01 6.794004968527658228e-01
1.210442914908951319e-02 -7.846501537608224774e-02 -8.576762024897999215e-01 -7.574391486436850007e-01 -3.786066915147942025e-01 5.319237814218793492e-01
-1.939524889406495436e-02 1.235206696977589336e-01 -7.328674804275804311e-01 -9.019305479273956871e-01 -2.973015255240787913e-01 3.132620143529106227e-01
7.452741920490404959e-02 -1.130223650539654706e-01 -6.223550256609368114e-01 -9.113569849638398779e-01 -2.159465856928077798e-01 -3.504219143906929235e-01
-3.118823351172342329e-02 1.734951162001797387e-01 -7.161629388547979813e-01 -8.541614415239191516e-01 -4.668849669254827583e-01 2.289686866642929308e-01
4.732479190947072589e-02 -5.684487909918926191e-02 -5.107640349905061550e-01 -8.424284690596425262e-01 3.010439460443257303e-02 -5.379665416578687243e-01
2.261321071530808524e-02 1.429261520759009252e-02 -7.318862358653218658e-01 -8.930479396136189463e-01 -3.591937756280321747e-01 2.710077657594871514e-01
-1.924105805033824237e-02 5.313014479010419455e-02 -8.086456646898022571e-01 -7.574391486436850007e-01 -3.786066915147942025e-01 5.319237814218793492e-01
-2.276931960753855039e-02 8.940479429180746285e-02 -7.818809212957983368e-01 -8.930479396136189463e-01 -3.591937756280321747e-01 2.710077657594871514e-01
-9.575916383729719816e-02 9.579326898095512008e-03 -9.486026332971398967e-01 -7.574391486436850007e-01 -3.786066915147942025e-01 5.319237814218793492e-01
4.222228319261980833e-02 -5.237723174000524090e-02 -7.543862128694048819e-01 -9.431412252833151211e-01 -2.616660107292572701e-01 2.049768962593663812e-01
2.342652993662033833e-02 6.282529935354484729e-02 -6.671798346052558726e-01 -9.019305479273956871e-01 -2.973015255240787913e-01 3.132620143529106227e-01
1.600531142565524145e-02 1.284759600115381317e-01 -6.319062686207860269e-01 -8.541614415239191516e-01 -4.668849669254827583e-01 2.289686866642929308e-01
7.717972320841254286e-02 -9.811397876684145591e-02 -6.519256377788227308e-01 -9.431412252833151211e-01 -2.616660107292572701e-01 2.049768962593663812e-01
8.689036554741595697e-02 -1.655679154815995757e-01 -6.938087726571243730e-01 -9.397444841533789672e-01 -2.787282666646217488e-01 1.979668100097466688e-01
-8.287319271857004899e-02 4.541267101663157908e-04 -9.367485343429652334e-01 -7.574391486436850007e-01 -3.786066915147942025e-01 5.319237814218793492e-01
-3.246873919495672257e-03 -7.544740042044699446e-02 -8.821322024358447811e-01 -7.368087916821085548e-01 -6.311301991784477039e-01 2.424612880130027071e-01
6.820216672412821035e-02 -1.400514942512393335e-01 -7.467691365053215069e-01 -9.431412252833151211e-01 -2.616660107292572701e-01 2.049768962593663812e-01
3.638884642718120260e-02 -2.397714761181890877e-02 -7.372143396784731628e-01 -8.930479396136189463e-01 -3.591937756280321747e-01 2.710077657594871514e-01
-1.351623430440843376e-01 1.322577665372664246e-01 -8.745575770028105600e-01 -3.229642054473189638e-01 -3.372554017291650719e-01 8.842810164219750968e-01
6.718761523648761336e-02 -1.062457690065046756e-01 -7.082821456522135906e-01 -9.431412252833151211e-01 -2.616660107292572701e-01 2.049768962593663812e-01
2.996503182870475374e-02 1.460038793435461911e-02 -7.072519648628682321e-01 -8.930479396136189463e-01 -3.591937756280321747e-01 2.710077657594871514e-01
4.180480625400669753e-02 2.337095190528844235e-02 -6.566120206359843392e-01 -8.930479396136189463e-01 -3.591937756280321747e-01 2.710077657594871514e-01
2.874206271852484951e-02 8.676597423770320006e-02 -6.371381113628229453e-01 -8.895196316413219728e-01 -2.430406397851113953e-01 3.868928434819262074e-01
-8.742658491876774407e-02 2.080378703891378259e-02 -9.287481399112990088e-01 -7.574391486436850007e-01 -3.786066915147942025e-01 5.319237814218793492e-01
5.933200042493584625e-02 -7.083373801953406212e-02 -6.992217552601628361e-01 -9.431412252833151211e-01 -2.616660107292572701e-01 2.049768962593663812e-01
-6.017391617510225998e-02 -5.310952472658125173e-02 -9.570277930507476993e-01 -6.109428416143940499e-01 -4.064035053445582135e-01 6.794004968527658228e-01
7.702236106766398305e-02 -1.527714626456187774e-01 -7.226351686612741965e-01 -9.397444841533789672e-01 -2.787282666646217488e-01 1.979668100097466688e-01
4.748277295185041047e-02 -5.172471663501045439e-03 -6.699217374591888152e-01 -9.431412252833151211e-01 -2.616660107292572701e-01 2.049768962593663812e-01
5.755905831714876186e-02 -1.426956696574129269e-01 -8.187427318146477395e-01 -8.760211038155897301e-01 -4.822668437540768571e-01 -2.391042700668162286e-03
5.732706224139448581e-02 -4.834411931048561428e-02 -5.449114212667663937e-01 -9.934158333982135991e-01 -3.759396945180739497e-02 1.082204944296102367e-01
3.708286836126092195e-02 1.854770846875820195e-02 -6.785648820610715726e-01 -8.930479396136189463e-01 -3.591937756280321747e-01 2.710077657594871514e-01
8.315531701566038214e-02 -1.391335626260593317e-01 -6.028052407409615343e-01 -7.614960610092699200e-01 -6.095797649463572387e-01 2.203094624279907376e-01
-8.817540080498503796e-02 -3.819836918509186829e-02 -9.732882473182653538e-01 -6.109428416143940499e-01 -4.064035053445582135e-01 6.794004968527658228e-01
4.246919986601565417e-02 -1.056446739229301712e-01 -8.212493669808117458e-01 -9.431412252833151211e-01 -2.616660107292572701e-01 2.049768962593663812e-01
6.345335963962153714e-02 -1.533920366182166817e-01 -8.208460890280464550e-01 -8.760211038155897301e-01 -4.822668437540768571e-01 -2.391042700668162286e-03
5.332702241151268674e-02 1.316238390379558150e-02 -5.491098372432587915e-01 -8.451861643049828343e-01 -3.643491136789475116e-01 -3.910371734615470940e-01
6.252132553985059737e-02 -7.996862313327074423e-02 -6.962082690487978454e-01 -9.431412252833151211e-01 -2.616660107292572701e-01 2.049768962593663812e-01
5.726816687339494893e-02 -6.085795391682831401e-02 -5.855292528998484736e-01 -9.895891262463933913e-01 -1.429398445688142283e-01 -1.677981077196355128e-02
6.043067982473883382e-02 -9.237240566265254860e-02 -7.216619789498326387e-01 -9.431412252833151211e-01 -2.616660107292572701e-01 2.049768962593663812e-01
-1.195234498919081206e-01 1.986336656702475389e-01 -8.302878261547155248e-01 -6.492308139551832280e-01 -6.545541489592626716e-01 3.873734842387970279e-01
3.418125169273334568e-02 1.313492262158977818e-02 -6.953006451849690350e-01 -8.930479396136189463e-01 -3.591937756280321747e-01 2.710077657594871514e-01
1.177841470957242259e-02 2.509988295089413471e-02 -7.532660252151879288e-01 -8.930479396136189463e-01 -3.591937756280321747e-01 2.710077657594871514e-01
-3.402409692765927252e-02 -6.025052589936524122e-02 -9.361025585278814898e-01 -7.368087916821085548e-01 -6.311301991784477039e-01 2.424612880130027071e-01
-1.128392521393425801e-01 9.639116918149515101e-02 -8.774044223230434980e-01 -3.144179712662444337e-01 -2.379786008161123845e-01 9.189709053601341493e-01
-5.339849223443754456e-02 1.099269881723409920e-01 -8.073156676846517943e-01 -1.544365458790264156e-01 -7.988347403032874938e-01 5.813883478205724709e-01
-7.675148149522445506e-02 2.735718280833361257e-02 -9.088826984546061194e-01 -7.574391486436850007e-01 -3.786066915147942025e-01 5.319237814218793492e-01
1.300798011285253866e-02 -7.453201837210274294e-02 -8.535901963135892334e-01 -7.574391486436850007e-01 -3.786066915147942025e-01 5.319237814218793492e-01
-2.562719197358499790e-02 -1.384078188135349878e-02 -8.654070840345081672e-01 -7.574391486436850007e-01 -3.786066915147942025e-01 5.319237814218793492e-01
6.404009508185597166e-02 -6.792617704076754637e-02 -6.738471489476445253e-01 -9.431412252833151211e-01 -2.616660107292572701e-01 2.049768962593663812e-01
8.867875878086310670e-02 -1.448993428222945523e-01 -5.996670359491972357e-01 -7.614960610092699200e-01 -6.095797649463572387e-01 2.203094624279907376e-01
4.033544573186191584e-02 -7.267975483928543201e-02 -7.887596190408159291e-01 -8.930479396136189463e-01 -3.591937756280321747e-01 2.710077657594871514e-01
-1.707590119890290206e-02 -8.959530830797367285e-02 -9.418851250292320509e-01 -7.777695608653871773e-01 -4.338819914932685595e-01 4.547756893778492349e-01
3.228591968699956460e-02 -2.609874050143564869e-02 -7.535466142155798908e-01 -8.930479396136189463e-01 -3.591937756280321747e-01 2.710077657594871514e-01
1.615348014171964774e-02 -2.322599690905109010e-02 -8.029000718259562408e-01 -8.930479396136189463e-01 -3.591937756280321747e-01 2.710077657594871514e-01
-1.059336645108692604e-01 1.566271925422706435e-01 -8.545882039550516396e-01 -3.229642054473189638e-01 -3.372554017291650719e-01 8.842810164219750968e-01
-1.367278507491137829e-01 4.747637392357821444e-03 -9.642066362093256737e-01 -1.401649210395594924e-01 -4.042193428343091033e-01 9.038586824214133175e-01
6.782638412513594672e-02 -1.613867773487951407e-01 -8.105005431503564672e-01 -8.760211038155897301e-01 -4.822668437540768571e-01 -2.391042700668162286e-03
-1.550541789667752267e-02 1.845422863725521279e-01 -6.351325833780591124e-01 -8.541614415239191516e-01 -4.668849669254827583e-01 2.289686866642929308e-01
7.778297479799795022e-02 -1.333426553659941838e-01 -6.053516477111589023e-01 -7.614960610092699200e-01 -6.095797649463572387e-01 2.203094624279907376e-01
4.543337338750339655e-02 -6.533035239704064467e-02 -7.561468008893676984e-01 -9.431412252833151211e-01 -2.616660107292572701e-01 2.049768962593663812e-01
6.116121442493141491e-02 -9.962228773399225967e-02 -7.275555720521447167e-01 -9.431412252833151211e-01 -2.616660107292572701e-01 2.049768962593663812e-01
7.692954050654027091e-03 4.918767681561617144e-02 -7.348028148087365485e-01 -8.930479396136189463e-01 -3.591937756280321747e-01 2.710077657594871514e-01
-6.856222482467891344e-02 3.773442418100728113e-02 -8.898353142661460380e-01 -7.574391486436850007e-01 -3.786066915147942025e-01 5.319237814218793492e-01
3.851254165013349995e-02 -5.142323812182650333e-02 -7.665932145272459364e-01 -8.930479396136189463e-01 -3.591937756280321747e-01 2.710077657594871514e-01
-5.925299385954109488e-02 1.243369580000464741e-01 -8.237373214245168329e-01 -7.780498532958708413e-01 -4.631062139693228330e-01 4.244656174170926555e-01
-1.364996862320170534e-01 3.324934878958228646e-02 -9.415306185188082599e-01 -1.296404702060217629e-01 -6.756204873444131564e-01 7.257618793828037873e-01
5.295843297470315819e-02 -8.149981810047723929e-02 -7.421637892160277694e-01 -9.431412252833151211e-01 -2.616660107292572701e-01 2.049768962593663812e-01
4.071785764481618969e-02 4.407122602662744137e-02 -6.364243587684939030e-01 -8.895196316413219728e-01 -2.430406397851113953e-01 3.868928434819262074e-01
4.994759142317971995e-02 -8.264676357108279026e-02 -7.574814444891478926e-01 -9.431412252833151211e-01 -2.616660107292572701e-01 2.049768962593663812e-01
5.743539241822582381e-02 -5.856175872895399287e-02 -5.474664337228242195e-01 -9.934158333982135991e-01 -3.759396945180739497e-02 1.082204944296102367e-01
5.238119938310957513e-02 -2.684148636142735800e-02 -5.870917673286122351e-01 -9.895891262463933913e-01 -1.429398445688142283e-01 -1.677981077196355128e-02
-1.225774525687028417e-02 1.529003007597019015e-01 -6.875376997173487936e-01 -8.541614415239191516e-01 -4.668849669254827583e-01 2.289686866642929308e-01
5.252641493454575952e-05 -6.617128946415433421e-02 -8.660873625259811748e-01 -7.574391486436850007e-01 -3.786066915147942025e-01 5.319237814218793492e-01
1.096812628727625652e-02 6.075436235392095430e-02 -7.086796989343228104e-01 -8.930479396136189463e-01 -3.591937756280321747e-01 2.710077657594871514e-01
7.530866359474712793e-03 -9.887823459561714823e-02 -9.040938852180724350e-01 -7.814536937052455334e-01 -5.455249729243317747e-01 3.028739482199404032e-01
4.907398076078064997e-02 1.944711410365189755e-02 -5.971214974531305897e-01 -9.934158333982135991e-01 -3.759396945180739497e-02 1.082204944296102367e-01
5.124726610743033511e-02 -4.521806081369481034e-02 -5.162557995875161065e-01 -8.424284690596425262e-01 3.010439460443257303e-02 -5.379665416578687243e-01
-1.355047472001466580e-01 5.423048579971440769e-02 -9.148342828741202748e-01 -4.202806524992778736e-01 -7.767114479633763224e-01 4.691305785572033593e-01
-9.013739851158465710e-02 1.584434376766498398e-01 -8.439208044969934708e-01 -7.848745093890552305e-01 -4.570913985073820074e-01 4.183771718459974864e-01
5.687068428365565226e-02 -4.462143189672947152e-02 -6.770851099275578822e-01 -9.431412252833151211e-01 -2.616660107292572701e-01 2.049768962593663812e-01
7.826669408018843699e-02 -9.796370721705120743e-02 -6.413597732175153610e-01 -9.113569849638398779e-01 -2.159465856928077798e-01 -3.504219143906929235e-01
1.108849213243334048e-01 -1.907073619009582444e-01 -6.179966570636812317e-01 -8.925077346326459882e-01 -4.335665470967262625e-01 1.242980002233525089e-01
6.446561922131799349e-02 -1.098357467801989729e-01 -5.927785885819117917e-01 -9.895891262463933913e-01 -1.429398445688142283e-01 -1.677981077196355128e-02
9.569675153080083041e-02 -1.617250164602376250e-01 -6.479284735912691495e-01 -9.431412252833151211e-01 -2.616660107292572701e-01 2.049768962593663812e-01
-1.853370023849347861e-02 1.836975821447096036e-01 -6.481519257140515577e-01 -8.541614415239191516e-01 -4.668849669254827583e-01 2.289686866642929308e-01
5.810436928768746706e-02 -5.836662924382959167e-02 -6.133243640790529971e-01 -9.113569849638398779e-01 -2.159465856928077798e-01 -3.504219143906929235e-01
1.005865432514508190e-01 -2.031363989448902729e-01 -6.753949677168519239e-01 -9.513414361641010508e-01 -2.346773994278610054e-01 1.996897344256881590e-01
5.545080760814655868e-02 -5.066572498415528036e-02 -5.651736390869942506e-01 -9.895891262463933913e-01 -1.429398445688142283e-01 -1.677981077196355128e-02
-2.445652834021529859e-02 1.990206293049539554e-01 -6.390019890660988411e-01 -8.541614415239191516e-01 -4.668849669254827583e-01 2.289686866642929308e-01
6.737722808926416285e-02 -1.605905619808070672e-01 -8.065349536361794414e-01 -8.760211038155897301e-01 -4.822668437540768571e-01 -2.391042700668162286e-03
8.791026044212989221e-02 -1.713563226263104811e-01 -6.971171660612434096e-01 -9.397444841533789672e-01 -2.787282666646217488e-01 1.979668100097466688e-01
5.257114894757527329e-02 -7.554272941411151188e-02 -7.363411617783798269e-01 -9.431412252833151211e-01 -2.616660107292572701e-01 2.049768962593663812e-01
-6.256041523792417458e-02 1.549446438140267834e-01 -7.964058479166481463e-01 -7.780498532958708413e-01 -4.631062139693228330e-01 4.244656174170926555e-01
-3.307315453876177869e-02 1.066616024874861013e-01 -7.902400264300302180e-01 -7.574391486436850007e-01 -3.786066915147942025e-01 5.319237814218793492e-01
5.916506230755536749e-02 -1.089621183380543312e-01 -7.486631683122192404e-01 -9.431412252833151211e-01 -2.616660107292572701e-01 2.049768962593663812e-01
-1.093618138959164682e-01 1.179111076504078953e-01 -8.706061643577239773e-01 -3.229642054473189638e-01 -3.372554017291650719e-01 8.842810164219750968e-01
-4.795340308709735572e-02 -4.027645263088227429e-02 -9.264391371246626372e-01 -7.368087916821085548e-01 -6.311301991784477039e-01 2.424612880130027071e-01
-4.798667190291121959e-02 1.270815539910477576e-01 -8.000915909060294373e-01 -7.780498532958708413e-01 -4.631062139693228330e-01 4.244656174170926555e-01
1.813315784671209324e-02 8.856367319543055616e-02 -6.604001473515709320e-01 -8.895196316413219728e-01 -2.430406397851113953e-01 3.868928434819262074e-01
9.917985714245665385e-02 -1.856463533334386795e-01 -6.615420791606956286e-01 -9.513414361641010508e-01 -2.346773994278610054e-01 1.996897344256881590e-01
4.856279658400360077e-02 7.993907944971886947e-03 -6.057925901365774912e-01 -9.934158333982135991e-01 -3.759396945180739497e-02 1.082204944296102367e-01
3.707205809739416019e-02 3.503917608073646439e-02 -6.567427087489995374e-01 -8.930479396136189463e-01 -3.591937756280321747e-01 2.710077657594871514e-01
6.563862438607377670e-02 -9.411249385251889421e-02 -6.999204785117217886e-01 -9.431412252833151211e-01 -2.616660107292572701e-01 2.049768962593663812e-01
6.535316882228031643e-02 -1.421529766140143813e-01 -7.630782451574752434e-01 -9.397444841533789672e-01 -2.787282666646217488e-01 1.979668100097466688e-01
-2.413221885491419194e-02 -9.853724987126410984e-02 -9.624841515751656473e-01 -7.777695608653871773e-01 -4.338819914932685595e-01 4.547756893778492349e-01
-1.037943228488210912e-01 1.902172841489120914e-01 -8.181474585241975683e-01 -6.492308139551832280e-01 -6.545541489592626716e-01 3.873734842387970279e-01
-8.873083814323437513e-02 8.563798057688122578e-02 -8.500745372558963231e-01 -1.544365458790264156e-01 -7.988347403032874938e-01 5.813883478205724709e-01
-5.057178635565216795e-02 8.071252965683164970e-02 -8.336271472998925125e-01 -7.574391486436850007e-01 -3.786066915147942025e-01 5.319237814218793492e-01
1.199470377768271229e-02 1.314694182306948844e-01 -6.407638368668265860e-01 -8.541614415239191516e-01 -4.668849669254827583e-01 2.289686866642929308e-01
4.487351050668436647e-02 -1.986739422255195953e-02 -5.048562065486201789e-01 -8.424284690596425262e-01 3.010439460443257303e-02 -5.379665416578687243e-01
1.816494749680456003e-02 -2.971030601767646676e-02 -8.048660180508352413e-01 -8.930479396136189463e-01 -3.591937756280321747e-01 2.710077657594871514e-01
-1.017157384973961937e-01 7.215024346712547998e-02 -8.720560856968617713e-01 -1.544365458790264156e-01 -7.988347403032874938e-01 5.813883478205724709e-01
4.861211330559520039e-02 6.713147046634383025e-03 -6.495526619481623021e-01 -9.431412252833151211e-01 -2.616660107292572701e-01 2.049768962593663812e-01
-6.474217352307047590e-02 -2.166516861255649712e-02 -9.290126212235825243e-01 -7.368087916821085548e-01 -6.311301991784477039e-01 2.424612880130027071e-01
1.023906087167575779e-01 -1.918324076601944095e-01 -6.548217649744491053e-01 -9.381162466194509220e-01 -2.603957532434804101e-01 2.283242420799724837e-01
-2.245563242532644041e-02 9.045189726776557693e-02 -7.794594018927497592e-01 -8.930479396136189463e-01 -3.591937756280321747e-01 2.710077657594871514e-01
4.330295217343436281e-02 -8.165306147732237507e-02 -7.867862844514142973e-01 -9.431412252833151211e-01 -2.616660107292572701e-01 2.049768962593663812e-01
2.942891025538605168e-02 -7.047178964055690609e-02 -8.217733286455187747e-01 -8.930479396136189463e-01 -3.591937756280321747e-01 2.710077657594871514e-01
5.918934460518147228e-02 -7.880699984202438335e-02 -5.459306393771292676e-01 -9.895891262463933913e-01 -1.429398445688142283e-01 -1.677981077196355128e-02
7.249680033713930272e-02 -9.647397881862117275e-02 -6.713791734867070593e-01 -9.431412252833151211e-01 -2.616660107292572701e-01 2.049768962593663812e-01
6.552379057964102804e-02 -1.145180283337880467e-01 -5.980172121109283978e-01 -9.113569849638398779e-01 -2.159465856928077798e-01 -3.504219143906929235e-01
3.976635457256670614e-02 6.689177250261952798e-03 -6.854393299742718160e-01 -8.930479396136189463e-01 -3.591937756280321747e-01 2.710077657594871514e-01
-1.515867266405747649e-01 2.074705559392474863e-01 -8.400794858534308407e-01 -2.220594618209167925e-01 -4.471436072354567082e-01 8.664595720079896202e-01
9.486464051134430031e-02 -1.551310991014079044e-01 -6.065961392167368293e-01 -7.614960610092699200e-01 -6.095797649463572387e-01 2.203094624279907376e-01
-2.067233122687100466e-01 2.245000950500879167e-02 -9.641276703002502613e-01 -1.296404702060217629e-01 -6.756204873444131564e-01 7.257618793828037873e-01
4.321287513375221545e-02 -9.613625308464801567e-02 -8.056894604229600798e-01 -9.431412252833151211e-01 -2.616660107292572701e-01 2.049768962593663812e-01
-1.176959401293086321e-01 1.422878264602445708e-01 -8.643529987516600510e-01 -3.229642054473189638e-01 -3.372554017291650719e-01 8.842810164219750968e-01
1.235803498846361620e-01 -2.123207465958205920e-01 -5.911256638994528689e-01 -9.381162466194509220e-01 -2.603957532434804101e-01 2.283242420799724837e-01
6.225482028077428814e-02 -5.279277738205541415e-02 -6.275534878217200463e-01 -9.113569849638398779e-01 -2.159465856928077798e-01 -3.504219143906929235e-01
-2.328905472210526795e-02 5.346144980344005176e-02 -8.141740448083477633e-01 -7.574391486436850007e-01 -3.786066915147942025e-01 5.319237814218793492e-01
1.905228240133071543e-02 9.295633945506277807e-02 -6.555275429984011026e-01 -8.895196316413219728e-01 -2.430406397851113953e-01 3.868928434819262074e-01
-6.623681381815565983e-02 7.164835332629641319e-03 -9.082824939271014753e-01 -7.574391486436850007e-01 -3.786066915147942025e-01 5.319237814218793492e-01
-4.513638995440927282e-02 9.617801485765536951e-02 -8.148795023260274606e-01 -7.574391486436850007e-01 -3.786066915147942025e-01 5.319237814218793492e-01
-9.667890671174916850e-02 1.726374141417763922e-02 -9.444427863911577514e-01 -7.574391486436850007e-01 -3.786066915147942025e-01 5.319237814218793492e-01
-2.796870714092272725e-02 8.294666368237481324e-02 -7.998510391497429817e-01 -7.574391486436850007e-01 -3.786066915147942025e-01 5.319237814218793492e-01
1.979878812110027683e-02 -5.155685611778464128e-02 -8.275673440028851191e-01 -7.574391486436850007e-01 -3.786066915147942025e-01 5.319237814218793492e-01
6.417885860721002367e-02 -1.054889676373311214e-01 -6.000835260379437930e-01 -9.113569849638398779e-01 -2.159465856928077798e-01 -3.504219143906929235e-01
3.676669749704466333e-02 -1.084008651895150138e-01 -8.458134832956394344e-01 -7.814536937052455334e-01 -5.455249729243317747e-01 3.028739482199404032e-01
5.152201257062000855e-02 -4.468480869807042039e-02 -7.017763626502366847e-01 -9.431412252833151211e-01 -2.616660107292572701e-01 2.049768962593663812e-01
5.305141674788090705e-02 -1.153509972852869922e-03 -5.677667188556325684e-01 -9.934158333982135991e-01 -3.759396945180739497e-02 1.082204944296102367e-01
8.890197887234360706e-04 -2.006201966315500698e-02 -8.320770934832066867e-01 -7.574391486436850007e-01 -3.786066915147942025e-01 5.319237814218793492e-01
-4.977816456807705042e-02 1.197969418412839770e-01 -8.113231714218674950e-01 -7.780498532958708413e-01 -4.631062139693228330e-01 4.244656174170926555e-01
-1.834313942248071844e-02 -8.923747574665909232e-02 -9.437109970618282606e-01 -7.777695608653871773e-01 -4.338819914932685595e-01 4.547756893778492349e-01
6.598284039446093707e-02 -1.315234726853773961e-01 -7.460941568797584411e-01 -9.431412252833151211e-01 -2.616660107292572701e-01 2.049768962593663812e-01
-4.903021061798674973e-02 -4.253748019596431673e-02 -9.355969043352698744e-01 -7.368087916821085548e-01 -6.311301991784477039e-01 2.424612880130027071e-01
5.206530833541698350e-02 -1.326610364617618054e-01 -8.299219367721895058e-01 -8.760211038155897301e-01 -4.822668437540768571e-01 -2.391042700668162286e-03
3.650058568879518267e-02 -3.038271916623805878e-03 -4.976462745245584518e-01 -8.451861643049828343e-01 -3.643491136789475116e-01 -3.910371734615470940e-01
6.899144614757700411e-02 -1.038530359817893961e-01 -6.136079630993215295e-01 -9.113569849638398779e-01 -2.159465856928077798e-01 -3.504219143906929235e-01
1.679629180155791735e-03 1.533635780368347024e-01 -6.346000460452034808e-01 -8.541614415239191516e-01 -4.668849669254827583e-01 2.289686866642929308e-01
1.141980846829153129e-01 -1.945762926214073818e-01 -6.077021632832909637e-01 -8.925077346326459882e-01 -4.335665470967262625e-01 1.242980002233525089e-01
-2.812680198918321439e-02 1.990497794019817912e-01 -6.526344055077386574e-01 -8.541614415239191516e-01 -4.668849669254827583e-01 2.289686866642929308e-01
-1.064885286108126494e-01 1.930803608919912928e-01 -8.178250891152634150e-01 -6.492308139551832280e-01 -6.545541489592626716e-01 3.873734842387970279e-01
-1.433186693303181991e-01 1.546060781211962797e-02 -9.593084246976059104e-01 -1.296404702060217629e-01 -6.756204873444131564e-01 7.257618793828037873e-01
1.713134751179669693e-02 -5.921428815035751497e-02 -8.368159978953090272e-01 -7.574391486436850007e-01 -3.786066915147942025e-01 5.319237814218793492e-01
-8.282591233964486932e-02 4.796866297487454439e-02 -9.002640935285790569e-01 -1.544365458790264156e-01 -7.988347403032874938e-01 5.813883478205724709e-01
6.618304872686593676e-02 -1.426335012112060485e-01 -7.598153786459254100e-01 -9.397444841533789672e-01 -2.787282666646217488e-01 1.979668100097466688e-01
5.660183918472803249e-02 -6.085598038458053805e-02 -5.255158827261035004e-01 -8.424284690596425262e-01 3.010439460443257303e-02 -5.379665416578687243e-01
-7.404945595889286802e-02 -1.977422098263802858e-02 -9.495647096230647177e-01 -6.109428416143940499e-01 -4.064035053445582135e-01 6.794004968527658228e-01
-7.613922225777993921e-03 4.413000429613964104e-02 -7.919467817550305266e-01 -8.930479396136189463e-01 -3.591937756280321747e-01 2.710077657594871514e-01
6.896991344566105742e-02 -7.149486639031946145e-02 -6.557196902230648661e-01 -9.431412252833151211e-01 -2.616660107292572701e-01 2.049768962593663812e-01
7.867827173371759464e-02 -1.576605095609577567e-01 -7.216581496230289883e-01 -9.397444841533789672e-01 -2.787282666646217488e-01 1.979668100097466688e-01
-1.981958588150746839e-02 1.273851106772551089e-01 -7.304216629591114840e-01 -9.019305479273956871e-01 -2.973015255240787913e-01 3.132620143529106227e-01
2.106511281692518070e-02 -9.395756736728819170e-02 -8.564334186434673368e-01 -7.368087916821085548e-01 -6.311301991784477039e-01 2.424612880130027071e-01
-9.373519024283238910e-03 4.501887396316745643e-02 -7.965670473042698596e-01 -8.930479396136189463e-01 -3.591937756280321747e-01 2.710077657594871514e-01
-2.759055710271461972e-02 1.630569702725028214e-01 -7.189411074506326660e-01 -9.019305479273956871e-01 -2.973015255240787913e-01 3.132620143529106227e-01
1.840242699220871747e-02 6.556299880557606152e-02 -6.790468006836694048e-01 -9.019305479273956871e-01 -2.973015255240787913e-01 3.132620143529106227e-01
4.519508454378536738e-03 -9.814825986066727515e-02 -9.105487728767072131e-01 -7.814536937052455334e-01 -5.455249729243317747e-01 3.028739482199404032e-01
-6.249707199227404718e-03 1.144640995765110886e-01 -7.036145448953431414e-01 -9.019305479273956871e-01 -2.973015255240787913e-01 3.132620143529106227e-01
-4.026071861828452170e-02 -5.596629910343709630e-02 -9.408299503478991799e-01 -6.109428416143940499e-01 -4.064035053445582135e-01 6.794004968527658228e-01
4.089357722133606793e-02 -3.897524175133804114e-02 -7.422484445246614326e-01 -8.930479396136189463e-01 -3.591937756280321747e-01 2.710077657594871514e-01
7.175371951639696044e-02 -1.018449593238510142e-01 -6.816546398280572960e-01 -9.431412252833151211e-01 -2.616660107292572701e-01 2.049768962593663812e-01
-1.949801149600025388e-02 1.207365210302675379e-01 -7.358056482673749343e-01 -9.019305479273956871e-01 -2.973015255240787913e-01 3.132620143529106227e-01
6.618051150046486142e-02 -9.997040742833873672e-02 -6.086901070106462974e-01 -9.113569849638398779e-01 -2.159465856928077798e-01 -3.504219143906929235e-01
6.052827070166646312e-02 -7.783932906981988475e-02 -6.076283060553396842e-01 -9.113569849638398779e-01 -2.159465856928077798e-01 -3.504219143906929235e-01
-3.811356962668304565e-03 2.717085000468761474e-03 -8.225567970340642576e-01 -7.574391486436850007e-01 -3.786066915147942025e-01 5.319237814218793492e-01
-5.822981490550400985e-02 1.352637438993393171e-01 -8.099403342400300909e-01 -7.780498532958708413e-01 -4.631062139693228330e-01 4.244656174170926555e-01
-8.107349213411729760e-02 -1.602304498268595709e-02 -9.536371139821516740e-01 -6.109428416143940499e-01 -4.064035053445582135e-01 6.794004968527658228e-01
4.442077927464037346e-02 1.356078063484697852e-02 -6.600964207278270379e-01 -9.431412252833151211e-01 -2.616660107292572701e-01 2.049768962593663812e-01
6.746879770377965657e-02 -5.883062493673928833e-02 -6.464599276126550276e-01 -9.431412252833151211e-01 -2.616660107292572701e-01 2.049768962593663812e-01
5.561593810131604948e-02 -1.277974194800412244e-01 -7.890887127896211162e-01 -9.397444841533789672e-01 -2.787282666646217488e-01 1.979668100097466688e-01
-7.983510842030716592e-02 8.737848751327879915e-02 -8.453200505373758000e-01 -1.544365458790264156e-01 -7.988347403032874938e-01 5.813883478205724709e-01
5.935565181802389401e-03 5.769634360591548161e-02 -7.293165231618023991e-01 -8.930479396136189463e-01 -3.591937756280321747e-01 2.710077657594871514e-01
-3.394246703287816247e-02 2.492134852955801838e-02 -8.496580474584448650e-01 -7.574391486436850007e-01 -3.786066915147942025e-01 5.319237814218793492e-01
5.953382545270841097e-02 -1.371271579940896712e-01 -7.836264275535399504e-01 -9.397444841533789672e-01 -2.787282666646217488e-01 1.979668100097466688e-01
-1.322262448831615089e-01 1.573271928675584186e-01 -8.609946060374572552e-01 -2.220594618209167925e-01 -4.471436072354567082e-01 8.664595720079896202e-01
6.000897280558151192e-02 -7.969157683345166887e-02 -7.074144580291157336e-01 -9.431412252833151211e-01 -2.616660107292572701e-01 2.049768962593663812e-01
3.784298946399771574e-02 -2.794461116789683994e-02 -4.942987630783423070e-01 -8.424284690596425262e-01 3.010439460443257303e-02 -5.379665416578687243e-01
3.254997409875915598e-02 5.638319399494237660e-02 -6.474692366025922574e-01 -8.895196316413219728e-01 -2.430406397851113953e-01 3.868928434819262074e-01
-4.066097862109686878e-02 8.281475351103351201e-02 -8.180182385030312364e-01 -7.574391486436850007e-01 -3.786066915147942025e-01 5.319237814218793492e-01
-2.469021710425566007e-02 1.094126032864522341e-01 -7.616924706517885779e-01 -8.930479396136189463e-01 -3.591937756280321747e-01 2.710077657594871514e-01
-1.369474401263058930e-02 -2.171413630781987916e-02 -8.540197410244605436e-01 -7.574391486436850007e-01 -3.786066915147942025e-01 5.319237814218793492e-01
7.248307180003230044e-02 -1.700199224780682139e-01 -7.753179945264027095e-01 -8.760211038155897301e-01 -4.822668437540768571e-01 -2.391042700668162286e-03
7.861241902153151551e-02 -1.334210278015107443e-01 -6.904051948938868533e-01 -9.431412252833151211e-01 -2.616660107292572701e-01 2.049768962593663812e-01
5.399406484303662102e-02 -1.138769097969939137e-01 -7.787300435148358790e-01 -9.431412252833151211e-01 -2.616660107292572701e-01 2.049768962593663812e-01
4.859239382694185982e-02 -1.116293138810689756e-01 -8.007150537568846760e-01 -9.431412252833151211e-01 -2.616660107292572701e-01 2.049768962593663812e-01
-2.798568496673140699e-02 -6.597144416118397303e-02 -9.326442302090951486e-01 -7.368087916821085548e-01 -6.311301991784477039e-01 2.424612880130027071e-01
-6.605377622069855126e-02 1.172337249699727524e-01 -8.439530909045290796e-01 -7.780498532958708413e-01 -4.631062139693228330e-01 4.244656174170926555e-01
-4.472285372654070251e-02 4.666753485268337193e-02 -8.495306518804841556e-01 -7.574391486436850007e-01 -3.786066915147942025e-01 5.319237814218793492e-01
4.024670482916643116e-02 2.793500468007311874e-02 -6.556972126027788006e-01 -8.930479396136189463e-01 -3.591937756280321747e-01 2.710077657594871514e-01
1.519253109402570780e-02 1.259913142776389883e-01 -6.400047094513381385e-01 -8.541614415239191516e-01 -4.668849669254827583e-01 2.289686866642929308e-01
3.088188012464922541e-02 1.895461380401986320e-02 -6.984595957401011912e-01 -8.930479396136189463e-01 -3.591937756280321747e-01 2.710077657594871514e-01
1.062882167398930822e-01 -1.718418190932169409e-01 -5.851974659946554969e-01 -8.925077346326459882e-01 -4.335665470967262625e-01 1.242980002233525089e-01
-9.727343185104796175e-02 1.801743010463157102e-01 -8.241884318554861810e-01 -6.492308139551832280e-01 -6.545541489592626716e-01 3.873734842387970279e-01
-2.144753058035542628e-02 5.460939443868126353e-02 -8.107347137191561748e-01 -7.574391486436850007e-01 -3.786066915147942025e-01 5.319237814218793492e-01
2.645049700720238095e-02 -6.643861972622072676e-02 -8.262424857633389186e-01 -8.930479396136189463e-01 -3.591937756280321747e-01 2.710077657594871514e-01
5.747419153922043999e-02 -6.123574314248238226e-02 -5.944613343089633073e-01 -9.895891262463933913e-01 -1.429398445688142283e-01 -1.677981077196355128e-02
-1.207134517781774108e-01 8.118253357029821260e-02 -8.840369714748298469e-01 -3.144179712662444337e-01 -2.379786008161123845e-01 9.189709053601341493e-01
-4.922495191993969677e-02 -2.137758075362703250e-02 -9.043738503518607974e-01 -7.574391486436850007e-01 -3.786066915147942025e-01 5.319237814218793492e-01
1.141944430677984887e-02 1.141823822410531625e-01 -6.597425817071892462e-01 -8.895196316413219728e-01 -2.430406397851113953e-01 3.868928434819262074e-01
-1.225745560688837332e-02 1.719241836060700912e-01 -6.487454419166576169e-01 -8.541614415239191516e-01 -4.668849669254827583e-01 2.289686866642929308e-01
5.338590123341963034e-02 -3.028802727194248798e-02 -6.169844765464932435e-01 -9.895891262463933913e-01 -1.429398445688142283e-01 -1.677981077196355128e-02
6.833870745284702231e-02 -7.001870875657464910e-02 -6.567395910902081857e-01 -9.431412252833151211e-01 -2.616660107292572701e-01 2.049768962593663812e-01
5.714862746022133372e-02 -5.198011691054577055e-02 -5.478124569828253243e-01 -9.934158333982135991e-01 -3.759396945180739497e-02 1.082204944296102367e-01
6.566108544167341410e-02 -7.273969038709475476e-02 -6.241200718105743839e-01 -9.113569849638398779e-01 -2.159465856928077798e-01 -3.504219143906929235e-01
9.613546686564290733e-02 -1.917238962974425476e-01 -6.831882424365555151e-01 -9.513414361641010508e-01 -2.346773994278610054e-01 1.996897344256881590e-01
-3.273534048110734312e-02 1.166331899491346441e-01 -7.786332806582846322e-01 -8.930479396136189463e-01 -3.591937756280321747e-01 2.710077657594871514e-01
6.840611769279561494e-02 -1.308931338098598129e-01 -7.341394877241855799e-01 -9.431412252833151211e-01 -2.616660107292572701e-01 2.049768962593663812e-01
-4.991075116224880093e-02 -3.996585180885497274e-02 -9.315787687817201901e-01 -7.368087916821085548e-01 -6.311301991784477039e-01 2.424612880130027071e-01
6.832816251276013254e-03 8.936579536492865461e-02 -6.897674673210799634e-01 -9.019305479273956871e-01 -2.973015255240787913e-01 3.132620143529106227e-01
6.235296333346138781e-02 -1.514952851290743696e-01 -8.002567316365196692e-01 -8.760211038155897301e-01 -4.822668437540768571e-01 -2.391042700668162286e-03
-1.901236184132614193e-01 1.088927322303778235e-02 -9.697402950172353542e-01 -1.401649210395594924e-01 -4.042193428343091033e-01 9.038586824214133175e-01
-9.229815121227051555e-02 1.676599501409215820e-01 -8.369957483336333270e-01 -6.492308139551832280e-01 -6.545541489592626716e-01 3.873734842387970279e-01
-2.736024741061693008e-03 6.899584903792232993e-02 -7.429155190599742165e-01 -8.930479396136189463e-01 -3.591937756280321747e-01 2.710077657594871514e-01
1.207843820389586931e-01 -2.118329179190106548e-01 -6.020571108740133681e-01 -9.381162466194509220e-01 -2.603957532434804101e-01 2.283242420799724837e-01
4.269494295349977875e-02 -3.010865225085313998e-02 -7.237841529298538745e-01 -9.431412252833151211e-01 -2.616660107292572701e-01 2.049768962593663812e-01
6.901048251659375188e-02 -6.745186325055771426e-02 -6.503718735363083203e-01 -9.431412252833151211e-01 -2.616660107292572701e-01 2.049768962593663812e-01
4.893425275277130115e-02 -7.151864797760223991e-02 -7.479382804802200413e-01 -9.431412252833151211e-01 -2.616660107292572701e-01 2.049768962593663812e-01
5.719391756522058945e-02 -7.254529851155989972e-02 -7.112444336161714009e-01 -9.431412252833151211e-01 -2.616660107292572701e-01 2.049768962593663812e-01
7.930068466366962943e-02 -1.001294788339811281e-01 -6.447395677856803120e-01 -9.431412252833151211e-01 -2.616660107292572701e-01 2.049768962593663812e-01
6.082510847256668990e-02 -8.810243516382636197e-02 -5.632160581530019083e-01 -9.895891262463933913e-01 -1.429398445688142283e-01 -1.677981077196355128e-02
2.259684741442517103e-02 -9.898397949074462868e-03 -4.694142147038521951e-01 -8.424284690596425262e-01 3.010439460443257303e-02 -5.379665416578687243e-01
5.535374259413550907e-02 -2.624937847414370723e-02 -5.553502755323102003e-01 -9.934158333982135991e-01 -3.759396945180739497e-02 1.082204944296102367e-01
-1.147521676542799657e-01 1.107624156574062851e-01 -8.743373022472388234e-01 -3.144179712662444337e-01 -2.379786008161123845e-01 9.189709053601341493e-01
3.663479956717060476e-02 -1.547029287087205336e-02 -7.251288660063435199e-01 -8.930479396136189463e-01 -3.591937756280321747e-01 2.710077657594871514e-01
-6.538701790382754619e-02 -2.287297494684187651e-02 -9.341161578395753562e-01 -7.368087916821085548e-01 -6.311301991784477039e-01 2.424612880130027071e-01
7.987019025291641761e-03 -7.001937467326398157e-02 -8.575278946528772650e-01 -7.574391486436850007e-01 -3.786066915147942025e-01 5.319237814218793492e-01
5.766661203278287962e-02 -1.394842073699210649e-01 -7.958086706222736728e-01 -9.397444841533789672e-01 -2.787282666646217488e-01 1.979668100097466688e-01
-7.862242622867299247e-02 1.260042839514119439e-01 -8.562926270279703767e-01 -3.229642054473189638e-01 -3.372554017291650719e-01 8.842810164219750968e-01
6.486751837797412323e-02 -1.390059294886323571e-01 -7.609527188428090172e-01 -9.397444841533789672e-01 -2.787282666646217488e-01 1.979668100097466688e-01
2.858525771476733146e-02 1.130096126129852274e-01 -6.165142077485616934e-01 -8.541614415239191516e-01 -4.668849669254827583e-01 2.289686866642929308e-01
8.201009599080728851e-02 -1.941532989433446543e-01 -7.695677534256492036e-01 -9.473540402434770247e-01 -3.194470531813009551e-01 2.176930518283031954e-02
-8.638530521387352556e-02 7.795582104190308670e-02 -8.600068655092633074e-01 -1.544365458790264156e-01 -7.988347403032874938e-01 5.813883478205724709e-01
-7.534056637534126966e-03 1.748356668663596791e-01 -6.251881899761380090e-01 -8.541614415239191516e-01 -4.668849669254827583e-01 2.289686866642929308e-01
7.286661822324735915e-02 -1.208927214445106313e-01 -6.131856243363125181e-01 -9.113569849638398779e-01 -2.159465856928077798e-01 -3.504219143906929235e-01
4.367897679449510295e-02 -5.988019537544451293e-02 -7.572616724229110918e-01 -9.431412252833151211e-01 -2.616660107292572701e-01 2.049768962593663812e-01
-6.886741496824388964e-02 9.181667066892654216e-02 -8.363085393827458525e-01 -1.544365458790264156e-01 -7.988347403032874938e-01 5.813883478205724709e-01
1.735550957034780184e-02 -4.202611855328827056e-02 -8.238567287510896175e-01 -8.930479396136189463e-01 -3.591937756280321747e-01 2.710077657594871514e-01
9.738970169328457077e-03 9.393147000866933216e-02 -6.770671370862785254e-01 -9.019305479273956871e-01 -2.973015255240787913e-01 3.132620143529106227e-01
1.090316075889037097e-02 6.416321604494604116e-04 -7.885672098774119121e-01 -8.930479396136189463e-01 -3.591937756280321747e-01 2.710077657594871514e-01
1.126123785850345616e-02 2.350568375277506741e-02 -7.570832226576282853e-01 -8.930479396136189463e-01 -3.591937756280321747e-01 2.710077657594871514e-01
-5.112203605962106767e-02 9.740453711106866752e-02 -8.225298336323323412e-01 -7.574391486436850007e-01 -3.786066915147942025e-01 5.319237814218793492e-01
5.525863988296869471e-03 1.245829713133802218e-02 -7.906251261658310270e-01 -8.930479396136189463e-01 -3.591937756280321747e-01 2.710077657594871514e-01
-2.396274302658349398e-02 -6.198916166048004661e-02 -9.100530867623604081e-01 -7.368087916821085548e-01 -6.311301991784477039e-01 2.424612880130027071e-01
-1.252508215822789872e-01 1.146834291729003780e-01 -8.769139324158965465e-01 -3.144179712662444337e-01 -2.379786008161123845e-01 9.189709053601341493e-01
-9.758194548144001612e-02 4.000948894336116973e-02 -9.151198014941153147e-01 -1.544365458790264156e-01 -7.988347403032874938e-01 5.813883478205724709e-01
-1.364946084242474322e-01 1.580746205497332232e-02 -9.577665742243854918e-01 -1.296404702060217629e-01 -6.756204873444131564e-01 7.257618793828037873e-01
-1.038016056094178546e-01 4.089028466496087699e-02 -9.155617308966312873e-01 -1.544365458790264156e-01 -7.988347403032874938e-01 5.813883478205724709e-01
1.541360750563501233e-02 -5.079594766740390399e-02 -8.332700829046387758e-01 -7.574391486436850007e-01 -3.786066915147942025e-01 5.319237814218793492e-01
7.938316825881824856e-02 -1.287720471068878048e-01 -6.809240989858823534e-01 -9.431412252833151211e-01 -2.616660107292572701e-01 2.049768962593663812e-01
6.003658302383034495e-02 -7.907686033497839106e-02 -5.935976911922437038e-01 -9.895891262463933913e-01 -1.429398445688142283e-01 -1.677981077196355128e-02
-1.154420110878234818e-01 7.924208580438260596e-02 -8.827358958518169985e-01 -3.144179712662444337e-01 -2.379786008161123845e-01 9.189709053601341493e-01
3.807724495956756744e-02 4.441204726470465713e-02 -6.424732339397052350e-01 -9.019305479273956871e-01 -2.973015255240787913e-01 3.132620143529106227e-01
1.064880795528860002e-01 -1.990644800722504715e-01 -6.462344025449879847e-01 -9.381162466194509220e-01 -2.603957532434804101e-01 2.283242420799724837e-01
-1.333253032824735784e-01 1.228950743332952664e-02 -9.603061508599417540e-01 -1.401649210395594924e-01 -4.042193428343091033e-01 9.038586824214133175e-01
-3.474987129833868871e-02 -3.635948744775166497e-02 -8.944255404598251413e-01 -7.574391486436850007e-01 -3.786066915147942025e-01 5.319237814218793492e-01
6.737761584285090199e-02 -5.719159665715989327e-02 -6.447871507016604831e-01 -9.431412252833151211e-01 -2.616660107292572701e-01 2.049768962593663812e-01
3.982327455795080240e-02 -3.003426980668608137e-02 -4.975167261191593138e-01 -8.424284690596425262e-01 3.010439460443257303e-02 -5.379665416578687243e-01
8.506085685959897946e-02 -1.506713364043203163e-01 -6.827557077739898617e-01 -9.431412252833151211e-01 -2.616660107292572701e-01 2.049768962593663812e-01
9.542732845114549473e-03 8.307740102249770719e-02 -6.879331966438529955e-01 -9.019305479273956871e-01 -2.973015255240787913e-01 3.132620143529106227e-01
-3.931157399306650646e-02 1.089782298231018048e-01 -7.974743946680026285e-01 -7.574391486436850007e-01 -3.786066915147942025e-01 5.319237814218793492e-01
-1.047290210096388230e-01 1.852829568762078827e-01 -8.280516450328857525e-01 -6.492308139551832280e-01 -6.545541489592626716e-01 3.873734842387970279e-01
6.310184745321008315e-02 -7.308608253727194581e-02 -6.172506908721762109e-01 -9.113569849638398779e-01 -2.159465856928077798e-01 -3.504219143906929235e-01
6.043169850985898733e-02 -8.578813008808283680e-02 -5.597292599860836937e-01 -9.895891262463933913e-01 -1.429398445688142283e-01 -1.677981077196355128e-02
-8.394669492733791705e-02 1.745112758466426939e-01 -8.114220143760920712e-01 -6.492308139551832280e-01 -6.545541489592626716e-01 3.873734842387970279e-01
-6.170737970227097718e-02 1.517552784201877114e-01 -7.983219295161039231e-01 -7.780498532958708413e-01 -4.631062139693228330e-01 4.244656174170926555e-01
-1.438953316457704593e-02 3.125351288818009610e-02 -8.173083801158027573e-01 -7.574391486436850007e-01 -3.786066915147942025e-01 5.319237814218793492e-01
-1.003149930566701702e-02 1.660690701254048662e-01 -6.523806045795992326e-01 -8.541614415239191516e-01 -4.668849669254827583e-01 2.289686866642929308e-01
9.025814579196043963e-02 -1.474117597534422841e-01 -6.546808467738571835e-01 -9.431412252833151211e-01 -2.616660107292572701e-01 2.049768962593663812e-01
-6.573321611948090837e-02 -3.840372425657686412e-02 -9.532302180321042817e-01 -6.109428416143940499e-01 -4.064035053445582135e-01 6.794004968527658228e-01
1.107413791989602173e-02 -7.636071843089788092e-02 -8.576455251757645337e-01 -7.574391486436850007e-01 -3.786066915147942025e-01 5.319237814218793492e-01
1.046316918677835106e-01 -1.795807339246243972e-01 -6.240862319765071442e-01 -8.925077346326459882e-01 -4.335665470967262625e-01 1.242980002233525089e-01
6.575237620099912139e-02 -8.023821127739381998e-02 -6.197365516888289072e-01 -9.113569849638398779e-01 -2.159465856928077798e-01 -3.504219143906929235e-01
-4.991446048738741592e-02 1.152677528429786602e-01 -7.999712173403906723e-01 -6.941933308234902178e-01 6.972192665909205944e-01 1.788320825092833966e-01
2.636781270694037518e-02 -1.148736364911167630e-02 -7.536825425205910811e-01 -8.930479396136189463e-01 -3.591937756280321747e-01 2.710077657594871514e-01
-8.810423270138083296e-02 -3.024137203866337012e-02 -9.684645370163819100e-01 -6.109428416143940499e-01 -4.064035053445582135e-01 6.794004968527658228e-01
5.994869604857752665e-02 -8.286030445429021229e-02 -5.561850577645168769e-01 -9.895891262463933913e-01 -1.429398445688142283e-01 -1.677981077196355128e-02
4.899902078422178897e-02 9.525919856533912253e-03 -6.441817374498018944e-01 -9.431412252833151211e-01 -2.616660107292572701e-01 2.049768962593663812e-01
8.625240188603557068e-02 -1.599289516980934855e-01 -6.890910950799375989e-01 -9.431412252833151211e-01 -2.616660107292572701e-01 2.049768962593663812e-01
1.432295296216186571e-02 -5.093023376698689597e-02 -8.349187139592761930e-01 -7.574391486436850007e-01 -3.786066915147942025e-01 5.319237814218793492e-01
2.319590628167615687e-02 -1.935813143535003314e-03 -7.514752515605178651e-01 -8.930479396136189463e-01 -3.591937756280321747e-01 2.710077657594871514e-01
