-5.106335298052869925e-02 -1.894082140629069558e-02 -1.000632418472449769e+00 9.773471467562603321e-01 -4.165030209515623028e-02 -2.075037519245831463e-01
-2.096353252997815858e-02 -9.690014750379613573e-02 -8.891521102439895463e-01 8.424534834405141837e-01 1.691097728545045420e-01 -5.115408223827706546e-01
-4.525616397650030626e-02 6.665277027850458058e-02 -1.028948144981927770e+00 8.735553447305614005e-01 -4.662701320398671689e-01 1.396181351408006810e-01
-2.880355796172601179e-02 1.604764620604013647e-01 -1.009941387173323157e+00 9.993291502110874802e-01 5.311488427159568627e-03 3.623586109193323301e-02
-3.945907903903788511e-02 6.663095051116407763e-02 -9.631520654495274725e-01 9.773471467562603321e-01 -4.165030209515623028e-02 -2.075037519245831463e-01
1.001865309811949926e-02 6.364556130205155371e-02 -8.107344743334772286e-01 9.428344959637493528e-01 -4.084646311683599179e-02 -3.307486654117108293e-01
-7.839413043723938990e-02 5.142203166019766215e-03 -1.131275865522569646e+00 9.751902813991787378e-01 -2.157078051394555052e-02 -2.203148122405972353e-01
-4.901908098527963525e-03 -1.902272054190700390e-01 -8.602671641611430164e-01 8.568551253331123663e-01 7.313231305519435343e-02 -5.103439614393152635e-01
8.836954678826556761e-03 2.217450757660683336e-01 -1.060332206361189744e+00 7.647149784446750642e-01 -4.733354449715774792e-01 4.372236936350988312e-01
9.714575741690202604e-02 -1.780810379763635987e-01 -7.545789746400275444e-01 2.796027783065614392e-01 4.957483305164194221e-01 -8.222261727489795780e-01
7.372292633294004471e-02 -1.085030653600880107e-01 -7.532614098232727207e-01 2.813046308448424182e-01 4.794315157456387720e-03 -9.596065439582091017e-01
-2.281165059321737382e-02 1.746924605079877568e-01 -1.055916864863786220e+00 7.647149784446750642e-01 -4.733354449715774792e-01 4.372236936350988312e-01
4.641875566231515315e-02 2.384743902822284572e-02 -7.321721255304031173e-01 8.554124018092431614e-01 3.157917073207700681e-02 -5.169839250951776544e-01
-6.224240821243655353e-02 2.003528961580013090e-02 -1.078353721254724062e+00 8.735553447305614005e-01 -4.662701320398671689e-01 1.396181351408006810e-01
-1.979711071538818937e-02 -1.722952538413038692e-01 -8.886677930523443347e-01 8.494359212643142198e-01 -1.152171394885634914e-01 -5.149598299226051390e-01
3.770983292945707943e-02 3.777512850206805883e-02 -7.457313394401910989e-01 8.554124018092431614e-01 3.157917073207700681e-02 -5.169839250951776544e-01
-7.629713797988149637e-02 1.954819894766313994e-03 -1.122369417481253073e+00 9.292633244537028547e-01 -2.032509025085642018e-01 -3.084781101710557527e-01
1.436690904640708019e-02 1.416152162702461748e-01 -7.903094344100956015e-01 9.066772421006452642e-01 -1.347082198437046241e-01 -3.997375065756375578e-01
-3.852535296563509848e-02 9.823986463458275753e-02 -9.650987594475950448e-01 9.773471467562603321e-01 -4.165030209515623028e-02 -2.075037519245831463e-01
-2.838867217183926178e-02 1.622237778042484868e-01 -1.021639420514349972e+00 9.993291502110874802e-01 5.311488427159568627e-03 3.623586109193323301e-02
-3.456699176373584717e-03 -1.099650744373175532e-01 -8.646393336130649976e-01 8.424534834405141837e-01 1.691097728545045420e-01 -5.115408223827706546e-01
-5.871752909376257851e-02 1.343884176207347722e-02 -1.043183022284904560e+00 9.773471467562603321e-01 -4.165030209515623028e-02 -2.075037519245831463e-01
-2.782935008403333507e-02 1.526484572639225379e-01 -1.051447994033402500e+00 6.071030296502802903e-01 7.463698770285541739e-01 -2.726864830787029681e-01
1.291435891406316760e-01 -1.920333590424951054e-01 -7.521102588028870661e-01 2.796027783065614392e-01 4.957483305164194221e-01 -8.222261727489795780e-01
-2.536261363826249754e-02 1.495455931433103403e-01 -1.078678998180380599e+00 7.647149784446750642e-01 -4.733354449715774792e-01 4.372236936350988312e-01
-2.816876114129246780e-02 -6.502555576527456471e-02 -9.037012936577725197e-01 9.428344959637493528e-01 -4.084646311683599179e-02 -3.307486654117108293e-01
1.381894491100912198e-02 -7.217012541177078577e-02 -8.236935852614720721e-01 8.424534834405141837e-01 1.691097728545045420e-01 -5.115408223827706546e-01
5.790346679488487646e-04 8.344400384733026421e-02 -8.389145205075041467e-01 9.525386279849928917e-01 2.868289372395213185e-02 -3.030634484791718819e-01
6.097171711248476102e-03 2.042765072243306057e-01 -8.301830347985432734e-01 9.066772421006452642e-01 -1.347082198437046241e-01 -3.997375065756375578e-01
-1.778498347125758230e-02 -5.856863854812307396e-02 -8.748986330547137147e-01 9.428344959637493528e-01 -4.084646311683599179e-02 -3.307486654117108293e-01
-1.392177708275120821e-04 1.323681510606258271e-01 -8.334043562028757846e-01 9.456086899776345867e-01 1.207197226438479210e-01 -3.020777284136877960e-01
9.044149403290154335e-03 -1.308571967094143140e-01 -8.509584677392157959e-01 8.424534834405141837e-01 1.691097728545045420e-01 -5.115408223827706546e-01
3.042004170396125223e-02 -2.585617138394302392e-02 -7.810424553552258731e-01 8.424534834405141837e-01 1.691097728545045420e-01 -5.115408223827706546e-01
-4.924108481199426096e-02 -3.252447016858679013e-02 -9.893229763641503416e-01 9.773471467562603321e-01 -4.165030209515623028e-02 -2.075037519245831463e-01
-4.958968510454531131e-02 4.831294683138600415e-02 -1.007190635650001109e+00 9.773471467562603321e-01 -4.165030209515623028e-02 -2.075037519245831463e-01
-6.121357600070691934e-03 1.088915126093290275e-01 -8.575656455341149620e-01 9.525386279849928917e-01 2.868289372395213185e-02 -3.030634484791718819e-01
-2.974800885055374142e-02 1.242135699786548059e-01 -9.833962499320851869e-01 9.873820715007001203e-01 -1.570137366720325833e-01 2.057501823259818424e-02
8.864636462418380020e-03 1.326500663994078545e-02 -8.078022757301982493e-01 9.428344959637493528e-01 -4.084646311683599179e-02 -3.307486654117108293e-01
-5.608029339425436161e-02 -6.398314103522161067e-02 -1.015221389279539865e+00 9.773471467562603321e-01 -4.165030209515623028e-02 -2.075037519245831463e-01
-5.259834385427315795e-02 -1.075409808202112821e-01 -9.888502760915330869e-01 9.743109450854792186e-01 -5.697707197555398895e-02 -2.178802321362187100e-01
5.404797085676067703e-02 -2.122936962523357812e-02 -7.585930100682053423e-01 2.813046308448424182e-01 4.794315157456387720e-03 -9.596065439582091017e-01
-5.248266271631649160e-02 -6.041440547870216560e-02 -9.989927903606994342e-01 9.773471467562603321e-01 -4.165030209515623028e-02 -2.075037519245831463e-01
-8.462751751814792667e-02 1.224545262073639673e-02 -1.159562484443221742e+00 9.751902813991787378e-01 -2.157078051394555052e-02 -2.203148122405972353e-01
-4.406615389710669128e-02 7.583873344513364367e-02 -9.866996801935172812e-01 9.773471467562603321e-01 -4.165030209515623028e-02 -2.075037519245831463e-01
1.024428943913742625e-02 -4.721625954767070393e-02 -8.213311899630623136e-01 8.424534834405141837e-01 1.691097728545045420e-01 -5.115408223827706546e-01
9.021475987863501744e-02 -1.634051029291453891e-02 -6.992925219161706396e-01 4.533871306469713924e-01 5.070448647292058464e-01 -7.330386176153664834e-01
-5.716415988862300068e-02 -1.096884909033837563e-01 -1.008566890542551553e+00 9.005983502701303545e-01 -3.335700508015669863e-01 -2.786640140006587663e-01
-3.872541399944109952e-02 6.317056160072129223e-02 -9.590019155432049081e-01 9.773471467562603321e-01 -4.165030209515623028e-02 -2.075037519245831463e-01
-7.516326466003110662e-02 -4.851747240131054628e-02 -1.111067175769447468e+00 9.829100001055248725e-01 -3.093455992125907286e-02 -1.814689634483950542e-01
-2.790473700597864357e-02 1.496756727330195436e-01 -1.033146292177486103e+00 9.993291502110874802e-01 5.311488427159568627e-03 3.623586109193323301e-02
-2.268296990715351277e-02 8.437788813810617738e-03 -8.971359597789199114e-01 9.428344959637493528e-01 -4.084646311683599179e-02 -3.307486654117108293e-01
-3.744444866813618350e-02 -5.493957228332418258e-02 -9.313882229912057165e-01 9.428344959637493528e-01 -4.084646311683599179e-02 -3.307486654117108293e-01
7.811427480684632330e-02 -5.093160587502404413e-02 -7.426724661736592292e-01 6.603661404836400628e-01 5.042711218510756987e-01 5.564415478464912468e-01
-2.749774579593343773e-02 -9.253604106361351667e-02 -8.984705408951961791e-01 8.424534834405141837e-01 1.691097728545045420e-01 -5.115408223827706546e-01
-7.606091919783868061e-02 1.106417326232661362e-02 -1.127659824770190333e+00 9.292633244537028547e-01 -2.032509025085642018e-01 -3.084781101710557527e-01
-3.958172142794740694e-02 2.965803485501970066e-02 -9.563084835654700466e-01 9.773471467562603321e-01 -4.165030209515623028e-02 -2.075037519245831463e-01
5.703520585456135945e-03 -8.678864833078186840e-04 -8.150680054160743815e-01 9.428344959637493528e-01 -4.084646311683599179e-02 -3.307486654117108293e-01
-5.653710476207670504e-02 -8.348128547312325121e-02 -1.012755284843279036e+00 9.743109450854792186e-01 -5.697707197555398895e-02 -2.178802321362187100e-01
-1.997682332645107570e-02 1.013349177852715111e-01 -9.008943144898143851e-01 9.428344959637493528e-01 -4.084646311683599179e-02 -3.307486654117108293e-01
3.162423195106534024e-02 -2.514325668086039856e-02 -7.788235999633650319e-01 8.424534834405141837e-01 1.691097728545045420e-01 -5.115408223827706546e-01
-1.390312243615160828e-02 3.692518865445467563e-02 -8.756261721907540041e-01 9.428344959637493528e-01 -4.084646311683599179e-02 -3.307486654117108293e-01
8.814744676418512226e-02 -9.411499518112337315e-02 -7.489610375884722115e-01 2.813046308448424182e-01 4.794315157456387720e-03 -9.596065439582091017e-01
-4.530768595714942254e-02 2.584237176383597651e-02 -9.825120173530335066e-01 9.773471467562603321e-01 -4.165030209515623028e-02 -2.075037519245831463e-01
7.434169935685652764e-02 -5.103511214037548260e-02 -7.381014985311743493e-01 6.603661404836400628e-01 5.042711218510756987e-01 5.564415478464912468e-01
-6.462788803631336343e-02 -7.582885291585034215e-02 -1.050936591230937633e+00 9.743109450854792186e-01 -5.697707197555398895e-02 -2.178802321362187100e-01
-3.573523386582735245e-02 7.381909309762346716e-02 -1.080647511728353827e+00 9.873820715007001203e-01 -1.570137366720325833e-01 2.057501823259818424e-02
3.641177254139858765e-02 2.458184651926738698e-02 -7.486850286834546564e-01 8.554124018092431614e-01 3.157917073207700681e-02 -5.169839250951776544e-01
9.231891397825079185e-03 1.012575261830650497e-01 -8.100323716058239754e-01 9.525386279849928917e-01 2.868289372395213185e-02 -3.030634484791718819e-01
-6.726413814376057398e-02 -7.578777705330259906e-02 -1.063633580764002717e+00 9.829100001055248725e-01 -3.093455992125907286e-02 -1.814689634483950542e-01
-5.822006639160908631e-02 2.743916828540035602e-02 -1.078794428409087347e+00 8.735553447305614005e-01 -4.662701320398671689e-01 1.396181351408006810e-01
1.005434883843959459e-01 -8.395555553239328339e-02 -7.452764321742307851e-01 2.813046308448424182e-01 4.794315157456387720e-03 -9.596065439582091017e-01
-7.406488489415496979e-02 -4.796995387112888004e-02 -1.105211236600458280e+00 9.829100001055248725e-01 -3.093455992125907286e-02 -1.814689634483950542e-01
-3.883191491191832680e-03 1.462810336714643611e-01 -8.395642765811147656e-01 9.456086899776345867e-01 1.207197226438479210e-01 -3.020777284136877960e-01
-2.834210490468930602e-02 1.794744694747421043e-01 -9.893412502178224877e-01 8.134297924177877892e-01 -5.807183832779201360e-01 3.313807674312849866e-02
-2.917560029965239957e-02 4.733542336424985397e-02 -9.204476387209639121e-01 9.428344959637493528e-01 -4.084646311683599179e-02 -3.307486654117108293e-01
-2.223484429071519858e-02 1.856778163021915451e-01 -1.030545518151106510e+00 8.134297924177877892e-01 -5.807183832779201360e-01 3.313807674312849866e-02
8.397346125239756043e-02 -5.960132383567317595e-04 -6.922622757875811494e-01 4.533871306469713924e-01 5.070448647292058464e-01 -7.330386176153664834e-01
5.912949684142347834e-04 -2.584755549717136607e-03 -8.294289239340267850e-01 9.428344959637493528e-01 -4.084646311683599179e-02 -3.307486654117108293e-01
-3.592997431293221133e-02 7.481996131735597910e-02 -1.063664135032716285e+00 9.873820715007001203e-01 -1.570137366720325833e-01 2.057501823259818424e-02
5.725234165946944259e-02 -3.365440164758219665e-02 -7.577157392412298131e-01 2.813046308448424182e-01 4.794315157456387720e-03 -9.596065439582091017e-01
6.519984064599036733e-02 -1.493979952030234648e-01 -7.646053839816618902e-01 8.424534834405141837e-01 1.691097728545045420e-01 -5.115408223827706546e-01
-1.831100612844635891e-02 1.835117790570494067e-01 -1.054240867323924524e+00 7.647149784446750642e-01 -4.733354449715774792e-01 4.372236936350988312e-01
-2.683593070116012738e-02 8.692781423185474976e-02 -9.186677008560526492e-01 9.428344959637493528e-01 -4.084646311683599179e-02 -3.307486654117108293e-01
-3.504366490958114866e-02 8.251199012650352327e-02 -1.047497531072438814e+00 9.873820715007001203e-01 -1.570137366720325833e-01 2.057501823259818424e-02
9.231391333349568684e-02 3.365093406384147418e-02 -6.704117467723904600e-01 3.590164536236293835e-01 4.354935156555966858e-01 -8.255014135962706057e-01
9.155479933443849694e-02 3.657220406018530517e-02 -6.715406589327697073e-01 7.367427677298764577e-01 -1.009049376368362644e-01 -6.686017407681700275e-01
2.235121568651441890e-02 5.235665281732784782e-02 -7.734260284128311458e-01 9.525386279849928917e-01 2.868289372395213185e-02 -3.030634484791718819e-01
8.913832044411271541e-03 -1.554667781329944487e-01 -8.514812350298656130e-01 8.037417357698245501e-01 -2.109947116252023080e-01 -5.563096744151653228e-01
3.119114813081334987e-03 -2.172567550285220417e-01 -8.506733970581895621e-01 8.568551253331123663e-01 7.313231305519435343e-02 -5.103439614393152635e-01
-3.345655523288637145e-03 -8.497568230615873408e-02 -8.561952381461431782e-01 8.424534834405141837e-01 1.691097728545045420e-01 -5.115408223827706546e-01
-6.179158546662880114e-02 5.112943712895933607e-02 -1.112683822140550172e+00 8.239053914372369558e-01 -2.181783371372266467e-01 -5.230469569404719854e-01
1.987774667827764755e-03 -2.111423600207788520e-01 -8.516966966199859268e-01 8.568551253331123663e-01 7.313231305519435343e-02 -5.103439614393152635e-01
-9.579043807753248596e-03 -1.762363341085889656e-01 -8.709311220706651424e-01 8.494359212643142198e-01 -1.152171394885634914e-01 -5.149598299226051390e-01
4.365313253354048684e-03 3.151284670658258819e-02 -8.228816316817387788e-01 9.428344959637493528e-01 -4.084646311683599179e-02 -3.307486654117108293e-01
-3.750829706148533366e-02 8.278028301526481336e-02 -1.023564983699810416e+00 8.735553447305614005e-01 -4.662701320398671689e-01 1.396181351408006810e-01
5.021655132157999690e-02 -3.820311752043246533e-03 -7.522586539298580233e-01 6.603661404836400628e-01 5.042711218510756987e-01 5.564415478464912468e-01
5.597994742976922233e-02 -1.027054229053909334e-02 -7.579719075627855407e-01 2.813046308448424182e-01 4.794315157456387720e-03 -9.596065439582091017e-01
7.071016586800150938e-02 -1.083748295452241078e-01 -7.541439472265810684e-01 2.813046308448424182e-01 4.794315157456387720e-03 -9.596065439582091017e-01
6.590149181231327868e-02 -2.045998653745405016e-01 -7.817032189302650647e-01 7.177671027185829056e-01 2.824095557573078064e-01 -6.364394936456498897e-01
-2.288692764506325417e-02 1.581439998687156623e-01 -1.073700456202488773e+00 7.647149784446750642e-01 -4.733354449715774792e-01 4.372236936350988312e-01
4.221082777813764397e-02 -1.472954725566645584e-01 -8.017707792196754335e-01 8.424534834405141837e-01 1.691097728545045420e-01 -5.115408223827706546e-01
3.342129376260623286e-02 1.528543367180107762e-02 -7.644572013307999736e-01 2.813046308448424182e-01 4.794315157456387720e-03 -9.596065439582091017e-01
2.201403235566501415e-02 1.521237237197055059e-01 -7.765056500527564021e-01 9.066772421006452642e-01 -1.347082198437046241e-01 -3.997375065756375578e-01
5.874252000598303471e-03 7.575926529546618549e-02 -8.229987822752961035e-01 9.525386279849928917e-01 2.868289372395213185e-02 -3.030634484791718819e-01
-5.190713029471061279e-02 -3.069543640778009050e-02 -1.002247233055710174e+00 9.773471467562603321e-01 -4.165030209515623028e-02 -2.075037519245831463e-01
-1.078986939072861494e-02 -4.732028017869891606e-02 -8.563474494983867036e-01 9.428344959637493528e-01 -4.084646311683599179e-02 -3.307486654117108293e-01
-3.389466116191834633e-02 8.950275213259385743e-02 -1.049289025755534288e+00 9.873820715007001203e-01 -1.570137366720325833e-01 2.057501823259818424e-02
5.558483750300533682e-02 -1.083025482300288694e-01 -7.668545714126521196e-01 8.424534834405141837e-01 1.691097728545045420e-01 -5.115408223827706546e-01
-3.402818399865088078e-02 1.051826469333182051e-01 -9.453105568721932306e-01 9.773471467562603321e-01 -4.165030209515623028e-02 -2.075037519245831463e-01
9.368530322378740283e-02 -5.670680614283222370e-02 -7.292672847732396546e-01 4.422746630318801775e-01 5.929977995454189799e-01 -6.728645719417302162e-01
-1.306314809926041424e-02 9.883702352297549232e-02 -8.803355159173598121e-01 9.525386279849928917e-01 2.868289372395213185e-02 -3.030634484791718819e-01
-1.920937410372952278e-02 -6.320991990016362749e-02 -8.783858268579766149e-01 9.428344959637493528e-01 -4.084646311683599179e-02 -3.307486654117108293e-01
1.204845878051044178e-01 2.816612917705801564e-02 -6.610536299298063190e-01 3.590164536236293835e-01 4.354935156555966858e-01 -8.255014135962706057e-01
2.148881235044932184e-02 5.962352206403286059e-02 -7.754488314109239111e-01 9.525386279849928917e-01 2.868289372395213185e-02 -3.030634484791718819e-01
-7.652919641143531709e-03 -8.335131716204484398e-02 -8.627518480839552195e-01 8.424534834405141837e-01 1.691097728545045420e-01 -5.115408223827706546e-01
-7.098712466659402170e-03 -1.909073348875099663e-01 -8.640530079633162996e-01 8.568551253331123663e-01 7.313231305519435343e-02 -5.103439614393152635e-01
7.313160163175812245e-02 1.428141179358634327e-02 -6.889726681919595697e-01 3.590164536236293835e-01 4.354935156555966858e-01 -8.255014135962706057e-01
-1.173977849746062063e-02 7.527714511524549734e-02 -8.741956795947860570e-01 9.428344959637493528e-01 -4.084646311683599179e-02 -3.307486654117108293e-01
2.953793233039435362e-02 -1.073202053896692848e-01 -8.094263101049303799e-01 8.424534834405141837e-01 1.691097728545045420e-01 -5.115408223827706546e-01
-2.772882116031744493e-03 1.526484270432392210e-01 -8.335440109856667723e-01 9.456086899776345867e-01 1.207197226438479210e-01 -3.020777284136877960e-01
-3.063742352300365471e-02 1.515104875955793247e-02 -9.206400491473770709e-01 9.428344959637493528e-01 -4.084646311683599179e-02 -3.307486654117108293e-01
3.819247858224372738e-02 -5.496156519524273559e-02 -7.778639993737711533e-01 8.424534834405141837e-01 1.691097728545045420e-01 -5.115408223827706546e-01
-7.406664914429549051e-02 -3.623144834949344750e-02 -1.107221826150415200e+00 9.829100001055248725e-01 -3.093455992125907286e-02 -1.814689634483950542e-01
5.717504565741858558e-02 -1.987188345180794236e-01 -7.889351658914679488e-01 7.177671027185829056e-01 2.824095557573078064e-01 -6.364394936456498897e-01
6.932557994095199516e-02 1.573250267454597701e-02 -6.940367037939635386e-01 8.609868989180798904e-01 2.965507420869430838e-02 -5.077618895359364837e-01
3.843035550433635678e-02 -1.657435409980986124e-02 -7.647818512876382036e-01 8.424534834405141837e-01 1.691097728545045420e-01 -5.115408223827706546e-01
-5.288855176435694472e-02 -7.108694884280657156e-02 -9.987623359626794928e-01 9.773471467562603321e-01 -4.165030209515623028e-02 -2.075037519245831463e-01
-7.877178668821202545e-02 -4.901097768449771790e-03 -1.131964175418863183e+00 9.751902813991787378e-01 -2.157078051394555052e-02 -2.203148122405972353e-01
-2.411614326828892194e-02 -3.977041590859611842e-02 -8.952678059897618557e-01 9.428344959637493528e-01 -4.084646311683599179e-02 -3.307486654117108293e-01
-3.952170265407192740e-02 8.473628032722396730e-02 -9.670811388290813104e-01 9.773471467562603321e-01 -4.165030209515623028e-02 -2.075037519245831463e-01
-6.163163315559745670e-02 -6.302866791873628152e-03 -1.052945945346531964e+00 9.773471467562603321e-01 -4.165030209515623028e-02 -2.075037519245831463e-01
1.207435997939067807e-01 -1.340029295026050615e-01 -7.342320108534884371e-01 2.660790749389640442e-01 1.949674416432065904e-01 -9.440284013623361226e-01
1.188921593022000261e-01 -1.392277915523227050e-01 -7.358329240865322252e-01 2.660790749389640442e-01 1.949674416432065904e-01 -9.440284013623361226e-01
-2.597879677219952499e-02 1.187736195680988982e-01 -9.190429715994796744e-01 9.525386279849928917e-01 2.868289372395213185e-02 -3.030634484791718819e-01
7.453211102019866030e-03 7.022227949518909662e-02 -8.185600986676138113e-01 9.525386279849928917e-01 2.868289372395213185e-02 -3.030634484791718819e-01
6.339374380358709857e-03 -2.121570070299379218e-01 -8.445358652778079955e-01 8.568551253331123663e-01 7.313231305519435343e-02 -5.103439614393152635e-01
-7.037302952607416007e-02 -7.321000148663875731e-03 -1.093913750316907185e+00 9.773471467562603321e-01 -4.165030209515623028e-02 -2.075037519245831463e-01
4.592158463251090617e-02 8.134381066833375196e-03 -7.608285210861313042e-01 2.813046308448424182e-01 4.794315157456387720e-03 -9.596065439582091017e-01
-6.824693120067670815e-02 -1.394702709798321394e-01 -1.010934829626778608e+00 9.627727118860056610e-01 -2.245605740304265907e-01 -1.504701094529781180e-01
4.835735502493183208e-03 2.225359216277126018e-01 -1.049129480378862000e+00 8.134297924177877892e-01 -5.807183832779201360e-01 3.313807674312849866e-02
-5.135328615828693016e-02 -7.378634015839764804e-02 -9.909893780840230981e-01 9.773471467562603321e-01 -4.165030209515623028e-02 -2.075037519245831463e-01
-1.629536227890519828e-02 -1.774823998890658339e-01 -8.817310208395502391e-01 8.494359212643142198e-01 -1.152171394885634914e-01 -5.149598299226051390e-01
6.045775835223197309e-02 -1.224487451699590723e-01 -7.635059647761078816e-01 8.424534834405141837e-01 1.691097728545045420e-01 -5.115408223827706546e-01
6.718198319517679554e-03 9.333537417750493309e-03 -8.134354029559143218e-01 9.428344959637493528e-01 -4.084646311683599179e-02 -3.307486654117108293e-01
2.875438996802699102e-03 5.013378809506671523e-04 -8.232988499707668550e-01 9.428344959637493528e-01 -4.084646311683599179e-02 -3.307486654117108293e-01
9.880101356765858683e-03 -1.593074100543226124e-01 -8.486285361248887549e-01 8.037417357698245501e-01 -2.109947116252023080e-01 -5.563096744151653228e-01
5.652802362389988677e-02 -2.867009460134768359e-02 -7.579031678075744960e-01 2.813046308448424182e-01 4.794315157456387720e-03 -9.596065439582091017e-01
4.739386296385921654e-02 6.192836289576871336e-03 -7.604066290747698575e-01 2.813046308448424182e-01 4.794315157456387720e-03 -9.596065439582091017e-01
7.128829566888969516e-02 -1.049034033002006344e-01 -7.539571272191389895e-01 2.813046308448424182e-01 4.794315157456387720e-03 -9.596065439582091017e-01
-2.801251278396958352e-02 1.301817265488161568e-02 -9.128940561724987468e-01 9.428344959637493528e-01 -4.084646311683599179e-02 -3.307486654117108293e-01
-5.382846492234272945e-02 -5.800268567259941194e-02 -1.005815629907068853e+00 9.773471467562603321e-01 -4.165030209515623028e-02 -2.075037519245831463e-01
-4.285172226967576270e-02 -1.233969302946281016e-01 -9.409889555395476446e-01 9.773471467562603321e-01 -4.165030209515623028e-02 -2.075037519245831463e-01
-3.367594770002572263e-02 3.468280935013878796e-02 -9.317138013118102524e-01 9.428344959637493528e-01 -4.084646311683599179e-02 -3.307486654117108293e-01
3.179977098290708015e-02 3.719540138542044849e-02 -7.555456631354593444e-01 8.554124018092431614e-01 3.157917073207700681e-02 -5.169839250951776544e-01
-4.756882510508145777e-03 -1.235199610161751838e-01 -8.712616941777460156e-01 8.424534834405141837e-01 1.691097728545045420e-01 -5.115408223827706546e-01
1.082836864296962860e-02 2.281637712194219125e-01 -8.275016307307720975e-01 9.066772421006452642e-01 -1.347082198437046241e-01 -3.997375065756375578e-01
-1.715043892191560684e-02 1.191434251951086071e-01 -8.912601458848614655e-01 9.525386279849928917e-01 2.868289372395213185e-02 -3.030634484791718819e-01
-4.981174613480364270e-03 -1.819728198078160164e-01 -8.620633687770571374e-01 8.494359212643142198e-01 -1.152171394885634914e-01 -5.149598299226051390e-01
1.366950772425493295e-02 1.936380490344646321e-01 -8.094225298155055537e-01 9.066772421006452642e-01 -1.347082198437046241e-01 -3.997375065756375578e-01
-3.221341422421643286e-02 -4.762572380035547115e-02 -9.173798372726028605e-01 9.428344959637493528e-01 -4.084646311683599179e-02 -3.307486654117108293e-01
-3.556403886024255001e-02 -1.438472214753363509e-01 -9.210406017236982823e-01 8.494359212643142198e-01 -1.152171394885634914e-01 -5.149598299226051390e-01
-7.519231615897123411e-02 -1.330390667641524194e-01 -1.064972286310561733e+00 9.627727118860056610e-01 -2.245605740304265907e-01 -1.504701094529781180e-01
4.489546260618232365e-02 6.822027088878251586e-03 -7.357325692364304892e-01 8.554124018092431614e-01 3.157917073207700681e-02 -5.169839250951776544e-01
-4.136987024105321514e-02 6.190978147180265651e-02 -1.069103434803722052e+00 8.735553447305614005e-01 -4.662701320398671689e-01 1.396181351408006810e-01
5.056988346463519440e-02 -1.877166371432306413e-01 -7.915023265931968588e-01 7.177671027185829056e-01 2.824095557573078064e-01 -6.364394936456498897e-01
-4.128911086624677956e-02 7.182263656177272082e-02 -1.036503654957048548e+00 8.735553447305614005e-01 -4.662701320398671689e-01 1.396181351408006810e-01
1.553537920790146187e-01 -1.848466180836496331e-01 -7.388641949402650067e-01 2.796027783065614392e-01 4.957483305164194221e-01 -8.222261727489795780e-01
-6.490862841609112976e-02 2.141143617829085501e-03 -1.070075551530847546e+00 9.773471467562603321e-01 -4.165030209515623028e-02 -2.075037519245831463e-01
-1.671754907916679633e-02 -6.176290131183716225e-02 -8.714613151692744974e-01 9.428344959637493528e-01 -4.084646311683599179e-02 -3.307486654117108293e-01
-5.784167843049475843e-02 -8.228540605355717796e-02 -1.018901772289351859e+00 9.743109450854792186e-01 -5.697707197555398895e-02 -2.178802321362187100e-01
8.615266985101678598e-02 5.184319425473823441e-04 -6.905703768391329156e-01 3.590164536236293835e-01 4.354935156555966858e-01 -8.255014135962706057e-01
1.193926707156959949e-01 -1.463974011623967418e-02 -6.841107615068472425e-01 3.590164536236293835e-01 4.354935156555966858e-01 -8.255014135962706057e-01
6.823018018522786221e-02 -6.374896279448694081e-02 -7.546479881698830994e-01 2.813046308448424182e-01 4.794315157456387720e-03 -9.596065439582091017e-01
-6.189201862696883105e-02 -5.355410638162160647e-02 -1.044527392655924647e+00 9.743109450854792186e-01 -5.697707197555398895e-02 -2.178802321362187100e-01
-4.132959172933570874e-02 8.183581799209933838e-02 -1.002810254760690523e+00 8.735553447305614005e-01 -4.662701320398671689e-01 1.396181351408006810e-01
-3.488735280213724199e-02 1.081521644874878785e-01 -9.552313775494525316e-01 8.735553447305614005e-01 -4.662701320398671689e-01 1.396181351408006810e-01
-3.376831080481461356e-02 8.763387510513798162e-02 -1.069614424161778876e+00 9.873820715007001203e-01 -1.570137366720325833e-01 2.057501823259818424e-02
-4.709153981806540878e-02 -1.977297867812722112e-02 -9.817580616127793425e-01 9.773471467562603321e-01 -4.165030209515623028e-02 -2.075037519245831463e-01
-2.778414202331820279e-02 1.329660194306933330e-01 -1.034022798225570527e+00 9.993291502110874802e-01 5.311488427159568627e-03 3.623586109193323301e-02
5.978981811366913118e-02 -1.581617006625123945e-01 -7.764123020284571242e-01 8.424534834405141837e-01 1.691097728545045420e-01 -5.115408223827706546e-01
7.449587972816593129e-02 -4.723497927263201751e-02 -7.335329623527789833e-01 4.422746630318801775e-01 5.929977995454189799e-01 -6.728645719417302162e-01
-9.446462308031306279e-03 1.361587743928626554e-02 -8.600433554921842472e-01 9.428344959637493528e-01 -4.084646311683599179e-02 -3.307486654117108293e-01
-7.076647608943273382e-02 3.888782915914997668e-02 -1.130043304647128988e+00 9.292633244537028547e-01 -2.032509025085642018e-01 -3.084781101710557527e-01
-5.797140165283858060e-02 1.773176958674387363e-02 -1.040530425502300682e+00 9.773471467562603321e-01 -4.165030209515623028e-02 -2.075037519245831463e-01
-4.317929579174130394e-02 -8.830207926911669281e-02 -9.495760975927108882e-01 9.773471467562603321e-01 -4.165030209515623028e-02 -2.075037519245831463e-01
-3.853994658547832408e-02 9.083834463649226310e-02 -9.636818573027314816e-01 9.773471467562603321e-01 -4.165030209515623028e-02 -2.075037519245831463e-01
6.052944433464330608e-03 -2.086046200444065940e-02 -8.195209537217175155e-01 8.424534834405141837e-01 1.691097728545045420e-01 -5.115408223827706546e-01
-7.981087451588349257e-02 3.911630516358000770e-02 -1.157439302693354044e+00 9.292633244537028547e-01 -2.032509025085642018e-01 -3.084781101710557527e-01
-2.187817280703064846e-02 8.858595199990926261e-02 -9.047398559884031188e-01 9.428344959637493528e-01 -4.084646311683599179e-02 -3.307486654117108293e-01
4.764066633413537727e-02 -9.968096011202311202e-02 -7.770875765550341319e-01 8.424534834405141837e-01 1.691097728545045420e-01 -5.115408223827706546e-01
8.618820882464463262e-02 -5.662970835297163191e-02 -7.470904758035838977e-01 6.603661404836400628e-01 5.042711218510756987e-01 5.564415478464912468e-01
-2.849063142177915911e-02 1.269650700254378872e-01 -1.022739526197107729e+00 9.873820715007001203e-01 -1.570137366720325833e-01 2.057501823259818424e-02
-8.646851080079027974e-02 2.352311798066416063e-02 -1.168815547280033673e+00 9.751902813991787378e-01 -2.157078051394555052e-02 -2.203148122405972353e-01
6.314420662197145484e-02 -1.741644123986551065e-02 -7.552793671980726486e-01 6.603661404836400628e-01 5.042711218510756987e-01 5.564415478464912468e-01
-2.129431364200351159e-02 1.510186070006453440e-01 -1.084199879846846848e+00 7.647149784446750642e-01 -4.733354449715774792e-01 4.372236936350988312e-01
-7.090132790910513849e-02 -2.751545600876595041e-02 -1.091624252233670100e+00 9.743109450854792186e-01 -5.697707197555398895e-02 -2.178802321362187100e-01
-1.551111378296675565e-02 -1.724614430432520606e-01 -8.815607773500907518e-01 8.494359212643142198e-01 -1.152171394885634914e-01 -5.149598299226051390e-01
-4.904278360796397729e-02 -6.427079942826192938e-02 -9.820168274103419082e-01 9.773471467562603321e-01 -4.165030209515623028e-02 -2.075037519245831463e-01
1.107352939202440635e-02 1.623275284768976867e-01 -8.047592946143898862e-01 9.066772421006452642e-01 -1.347082198437046241e-01 -3.997375065756375578e-01
5.120372415293599627e-02 5.165611990074262666e-02 -7.225561660606082404e-01 8.554124018092431614e-01 3.157917073207700681e-02 -5.169839250951776544e-01
4.354645161470256653e-02 5.254836533004673266e-02 -7.351715477115765562e-01 8.554124018092431614e-01 3.157917073207700681e-02 -5.169839250951776544e-01
6.737188847119145174e-02 -2.153841686988835699e-02 -7.170163299777706500e-01 4.533871306469713924e-01 5.070448647292058464e-01 -7.330386176153664834e-01
1.260317197351775408e-02 -7.991708336557423742e-02 -8.282568934941759720e-01 8.424534834405141837e-01 1.691097728545045420e-01 -5.115408223827706546e-01
1.115109769360828618e-01 -1.635261176069344735e-01 -7.429316095003837273e-01 2.660790749389640442e-01 1.949674416432065904e-01 -9.440284013623361226e-01
-3.541116470206021744e-02 1.055081411421495427e-03 -9.325073002008303913e-01 9.428344959637493528e-01 -4.084646311683599179e-02 -3.307486654117108293e-01
1.013420524241369219e-01 -7.894018346806697117e-02 -7.448558419793439578e-01 6.603661404836400628e-01 5.042711218510756987e-01 5.564415478464912468e-01
-6.733672655223691935e-04 1.531985893707583368e-01 -8.283270123633711401e-01 9.066772421006452642e-01 -1.347082198437046241e-01 -3.997375065756375578e-01
-6.113984907360321686e-02 -1.124855719833905560e-01 -1.018067495250053467e+00 9.005983502701303545e-01 -3.335700508015669863e-01 -2.786640140006587663e-01
6.608106138406414677e-03 5.637129335196029711e-02 -8.195582535694828641e-01 9.428344959637493528e-01 -4.084646311683599179e-02 -3.307486654117108293e-01
-1.744771928073352019e-02 -1.458590254293600785e-01 -8.932117047635301788e-01 8.037417357698245501e-01 -2.109947116252023080e-01 -5.563096744151653228e-01
5.720427168901207754e-02 -8.976601113395016318e-02 -7.580595596517637480e-01 8.424534834405141837e-01 1.691097728545045420e-01 -5.115408223827706546e-01
1.592919960072184185e-02 1.461898132308553644e-01 -7.883074769632316681e-01 9.066772421006452642e-01 -1.347082198437046241e-01 -3.997375065756375578e-01
-5.422564547054277255e-03 2.113719844271276169e-02 -8.495016644108795978e-01 9.428344959637493528e-01 -4.084646311683599179e-02 -3.307486654117108293e-01
-5.885893763371379678e-02 -1.046555007457325437e-01 -1.017600801949309686e+00 9.743109450854792186e-01 -5.697707197555398895e-02 -2.178802321362187100e-01
3.333568788921867365e-02 -1.972068632374128216e-01 -8.151499306646156073e-01 7.177671027185829056e-01 2.824095557573078064e-01 -6.364394936456498897e-01
-4.386439728654546732e-02 6.282661903804050152e-02 -1.050433930275496586e+00 8.735553447305614005e-01 -4.662701320398671689e-01 1.396181351408006810e-01
-4.125734965215095175e-04 2.017295701720046852e-01 -1.065823206831686187e+00 7.647149784446750642e-01 -4.733354449715774792e-01 4.372236936350988312e-01
-3.090870815957810075e-02 -4.952465199700118587e-02 -9.134261209854874775e-01 9.428344959637493528e-01 -4.084646311683599179e-02 -3.307486654117108293e-01
-3.479889673918828974e-02 7.486394694922626769e-02 -9.428550392692051085e-01 9.773471467562603321e-01 -4.165030209515623028e-02 -2.075037519245831463e-01
-1.561121641596930655e-02 -6.556014741175010541e-02 -8.699767537086946501e-01 8.424534834405141837e-01 1.691097728545045420e-01 -5.115408223827706546e-01
-7.646555098091563363e-02 -2.262231128103693242e-02 -1.120020906472340982e+00 9.751902813991787378e-01 -2.157078051394555052e-02 -2.203148122405972353e-01
-4.660219986970658146e-02 7.186840766833645089e-02 -1.003108143756440640e+00 8.735553447305614005e-01 -4.662701320398671689e-01 1.396181351408006810e-01
6.154486317258370254e-02 -1.176920797748044062e-01 -7.601431171361543448e-01 8.424534834405141837e-01 1.691097728545045420e-01 -5.115408223827706546e-01
7.380745973522233327e-02 -1.333709267665647014e-01 -7.533608721789147866e-01 2.813046308448424182e-01 4.794315157456387720e-03 -9.596065439582091017e-01
3.440574095862479476e-02 -1.718633348496715341e-01 -8.084323739794906372e-01 8.037417357698245501e-01 -2.109947116252023080e-01 -5.563096744151653228e-01
6.137697954071252848e-02 8.055731463719646018e-03 -7.079631054696468029e-01 8.609868989180798904e-01 2.965507420869430838e-02 -5.077618895359364837e-01
-2.558323867019002534e-03 6.030998584041857152e-02 -8.461745607296414784e-01 9.428344959637493528e-01 -4.084646311683599179e-02 -3.307486654117108293e-01
-4.759453435503381569e-02 5.950585054164296561e-02 -1.038185478412549934e+00 8.735553447305614005e-01 -4.662701320398671689e-01 1.396181351408006810e-01
-3.045479981594019503e-02 1.441697863976006411e-01 -9.620124354195070948e-01 9.993291502110874802e-01 5.311488427159568627e-03 3.623586109193323301e-02
5.391959397831238426e-02 3.892845054300535929e-02 -7.188051529086902924e-01 8.609868989180798904e-01 2.965507420869430838e-02 -5.077618895359364837e-01
-3.124659747828638021e-02 9.037198847445893080e-02 -9.316661240499685137e-01 9.428344959637493528e-01 -4.084646311683599179e-02 -3.307486654117108293e-01
1.724208720012996437e-02 2.395393773021426143e-01 -1.055692226864236138e+00 8.134297924177877892e-01 -5.807183832779201360e-01 3.313807674312849866e-02
5.127987948791384865e-02 2.651904565042532622e-02 -7.239656175078994504e-01 8.554124018092431614e-01 3.157917073207700681e-02 -5.169839250951776544e-01
2.776527765426209382e-03 1.543595467377210373e-01 -8.208932570537053053e-01 9.066772421006452642e-01 -1.347082198437046241e-01 -3.997375065756375578e-01
-3.397745172970356720e-02 5.529708833618283276e-02 -9.351190721531422723e-01 9.428344959637493528e-01 -4.084646311683599179e-02 -3.307486654117108293e-01
-2.918283558375864978e-02 1.408740770039130230e-01 -9.966081584177973740e-01 9.993291502110874802e-01 5.311488427159568627e-03 3.623586109193323301e-02
-3.135805376165246017e-02 -3.476894272308182765e-02 -9.165293143652326613e-01 9.428344959637493528e-01 -4.084646311683599179e-02 -3.307486654117108293e-01
-7.180795297591185955e-02 -7.346538505672060848e-02 -1.088640629491752110e+00 9.829100001055248725e-01 -3.093455992125907286e-02 -1.814689634483950542e-01
-1.841088753709251707e-02 1.919867387436355044e-01 -1.013852126546178178e+00 8.134297924177877892e-01 -5.807183832779201360e-01 3.313807674312849866e-02
6.508066388516620115e-02 4.424457942026108898e-02 -7.018708347981339468e-01 7.367427677298764577e-01 -1.009049376368362644e-01 -6.686017407681700275e-01
-3.325322739325294041e-02 9.370370893414313451e-02 -1.048012345391184486e+00 9.873820715007001203e-01 -1.570137366720325833e-01 2.057501823259818424e-02
-8.942296055013471828e-03 4.755514005482713857e-02 -8.627975722097585010e-01 9.428344959637493528e-01 -4.084646311683599179e-02 -3.307486654117108293e-01
-5.524599990759629375e-02 -7.424016386804482837e-02 -1.009233051975748863e+00 9.773471467562603321e-01 -4.165030209515623028e-02 -2.075037519245831463e-01
5.949550924737444929e-02 1.044775572550376425e-02 -7.110137196417563032e-01 8.609868989180798904e-01 2.965507420869430838e-02 -5.077618895359364837e-01
-7.346871771745994151e-02 3.716918230337303702e-02 -1.137051184438044649e+00 9.292633244537028547e-01 -2.032509025085642018e-01 -3.084781101710557527e-01
5.138501620571608169e-02 3.255388578486144435e-02 -7.234230271378253585e-01 8.554124018092431614e-01 3.157917073207700681e-02 -5.169839250951776544e-01
-6.410633909005153397e-02 -3.798190966929288273e-03 -1.065104603999488697e+00 9.773471467562603321e-01 -4.165030209515623028e-02 -2.075037519245831463e-01
1.763914615385431262e-02 2.010639345586295035e-01 -8.029211308699183425e-01 9.066772421006452642e-01 -1.347082198437046241e-01 -3.997375065756375578e-01
1.443984920884652523e-01 -1.463381937941149180e-01 -7.301123287199891010e-01 2.660790749389640442e-01 1.949674416432065904e-01 -9.440284013623361226e-01
-6.376940377443971256e-03 1.375146130154814850e-01 -8.508739170023805753e-01 9.456086899776345867e-01 1.207197226438479210e-01 -3.020777284136877960e-01
1.079727160364785249e-01 -1.270147010619537831e-01 -7.363882891102655481e-01 2.660790749389640442e-01 1.949674416432065904e-01 -9.440284013623361226e-01
4.353217942387412054e-02 -1.014363773905899851e-01 -7.844341404303420973e-01 8.424534834405141837e-01 1.691097728545045420e-01 -5.115408223827706546e-01
-4.284113181631734463e-02 -5.488124020506646161e-02 -9.546915927918566691e-01 9.773471467562603321e-01 -4.165030209515623028e-02 -2.075037519245831463e-01
-3.450545776511410728e-02 -4.730248101311155390e-02 -9.239534723876220434e-01 9.428344959637493528e-01 -4.084646311683599179e-02 -3.307486654117108293e-01
-2.808141229783872594e-02 -6.464271042275698299e-03 -9.106844385507283368e-01 9.428344959637493528e-01 -4.084646311683599179e-02 -3.307486654117108293e-01
3.859590121562861409e-02 -4.179116796862825112e-02 -7.728456165314544490e-01 8.424534834405141837e-01 1.691097728545045420e-01 -5.115408223827706546e-01
3.476915595320315827e-02 3.420417908798259465e-02 -7.508151709654008465e-01 8.554124018092431614e-01 3.157917073207700681e-02 -5.169839250951776544e-01
5.181306117034293474e-02 5.389851241153930522e-02 -7.214109711932645830e-01 8.554124018092431614e-01 3.157917073207700681e-02 -5.169839250951776544e-01
3.297000219145065220e-02 -1.524588543951126418e-01 -8.178663388518514488e-01 8.037417357698245501e-01 -2.109947116252023080e-01 -5.563096744151653228e-01
-2.286632677166001645e-02 -1.735658594600405780e-01 -8.934462372736718949e-01 8.494359212643142198e-01 -1.152171394885634914e-01 -5.149598299226051390e-01
1.218560854905254426e-01 3.232164889863377993e-02 -6.582649101406188308e-01 3.590164536236293835e-01 4.354935156555966858e-01 -8.255014135962706057e-01
-2.843804929235293003e-03 -1.142196738638476400e-01 -8.650364855904552064e-01 8.424534834405141837e-01 1.691097728545045420e-01 -5.115408223827706546e-01
5.766031603852713079e-03 4.944450714301828337e-02 -8.211032400059722347e-01 9.428344959637493528e-01 -4.084646311683599179e-02 -3.307486654117108293e-01
-6.521475858446565410e-02 -7.564894512833658657e-02 -1.053607990153476281e+00 9.743109450854792186e-01 -5.697707197555398895e-02 -2.178802321362187100e-01
1.161998051131040571e-01 -1.742080249465289832e-01 -7.457643629703193389e-01 2.796027783065614392e-01 4.957483305164194221e-01 -8.222261727489795780e-01
1.472979393319377717e-01 -1.867741973122724886e-01 -7.427658379438116798e-01 2.796027783065614392e-01 4.957483305164194221e-01 -8.222261727489795780e-01
5.050645877407962565e-03 2.180921857518337004e-01 -1.057664453560685613e+00 7.647149784446750642e-01 -4.733354449715774792e-01 4.372236936350988312e-01
2.361146132591182556e-02 2.212929195657395431e-01 -7.961918356565476085e-01 9.066772421006452642e-01 -1.347082198437046241e-01 -3.997375065756375578e-01
-6.506239037609902465e-02 -7.173055771871902908e-02 -1.053951317437635149e+00 9.743109450854792186e-01 -5.697707197555398895e-02 -2.178802321362187100e-01
-3.356961290485995647e-02 9.487836467223370596e-02 -1.023865077915277366e+00 9.873820715007001203e-01 -1.570137366720325833e-01 2.057501823259818424e-02
-3.508761447704376868e-02 5.657094843158980840e-02 -9.405431222425231219e-01 9.773471467562603321e-01 -4.165030209515623028e-02 -2.075037519245831463e-01
3.029596602352851997e-02 -5.036786991233984517e-02 -7.893500929349812623e-01 8.424534834405141837e-01 1.691097728545045420e-01 -5.115408223827706546e-01
5.641039022756048904e-02 -1.212501701402747371e-02 -7.520832149347624895e-01 6.603661404836400628e-01 5.042711218510756987e-01 5.564415478464912468e-01
1.111890097450106141e-01 -5.729844064375706064e-02 -7.182834876549403225e-01 4.422746630318801775e-01 5.929977995454189799e-01 -6.728645719417302162e-01
1.814149548554052846e-02 6.585727318081871506e-02 -7.853795789433296592e-01 9.525386279849928917e-01 2.868289372395213185e-02 -3.030634484791718819e-01
1.302746327594116182e-01 -1.442924988429927224e-01 -7.336707169093614755e-01 2.660790749389640442e-01 1.949674416432065904e-01 -9.440284013623361226e-01
-6.641645670765036757e-02 -7.985806072884113482e-03 -1.075144766689017040e+00 9.773471467562603321e-01 -4.165030209515623028e-02 -2.075037519245831463e-01
-3.391429406750390155e-04 -7.006455541033929091e-02 -8.463143761319575908e-01 8.424534834405141837e-01 1.691097728545045420e-01 -5.115408223827706546e-01
-2.838659797627536910e-02 1.325281544785394117e-01 -1.017343809734005289e+00 9.993291502110874802e-01 5.311488427159568627e-03 3.623586109193323301e-02
-2.970256690326215920e-02 1.224957271741318604e-01 -9.986863205530034371e-01 9.873820715007001203e-01 -1.570137366720325833e-01 2.057501823259818424e-02
-2.944534004261110602e-02 1.766482791669027608e-01 -1.011787222050833490e+00 8.134297924177877892e-01 -5.807183832779201360e-01 3.313807674312849866e-02
-5.817056110902980859e-02 -3.140722392468235299e-03 -1.037278929257547944e+00 9.773471467562603321e-01 -4.165030209515623028e-02 -2.075037519245831463e-01
-1.762967727591088080e-02 -2.791778227175495050e-02 -8.782412044619366531e-01 9.428344959637493528e-01 -4.084646311683599179e-02 -3.307486654117108293e-01
4.650820172419927248e-03 1.288374419780425884e-01 -8.198208480613803362e-01 9.456086899776345867e-01 1.207197226438479210e-01 -3.020777284136877960e-01
1.064382487935225940e-01 1.459715369793983773e-02 -6.743208000075252562e-01 3.590164536236293835e-01 4.354935156555966858e-01 -8.255014135962706057e-01
1.097268726178410592e-01 2.960785459241294798e-02 -6.649716543360771892e-01 3.590164536236293835e-01 4.354935156555966858e-01 -8.255014135962706057e-01
8.012024448717303127e-02 -1.984702181376850616e-01 -7.726619343360323633e-01 2.796027783065614392e-01 4.957483305164194221e-01 -8.222261727489795780e-01
-3.212603527698612571e-02 -6.850281177962239121e-02 -9.145524967944855810e-01 9.428344959637493528e-01 -4.084646311683599179e-02 -3.307486654117108293e-01
1.478953710966576004e-04 2.045812764022903463e-01 -8.437797783830265352e-01 9.066772421006452642e-01 -1.347082198437046241e-01 -3.997375065756375578e-01
-2.801866361836884492e-02 -7.497970642443130274e-02 -9.020441169932875702e-01 9.428344959637493528e-01 -4.084646311683599179e-02 -3.307486654117108293e-01
-5.483572764300356783e-02 -1.177323626466041800e-01 -9.914129822336851250e-01 9.005983502701303545e-01 -3.335700508015669863e-01 -2.786640140006587663e-01
7.294958668275426661e-02 -6.813081739809444259e-02 -7.532864062602181443e-01 2.813046308448424182e-01 4.794315157456387720e-03 -9.596065439582091017e-01
-4.469825463127193726e-02 -3.964569259775519577e-02 -9.664967713589013298e-01 9.773471467562603321e-01 -4.165030209515623028e-02 -2.075037519245831463e-01
1.567876070787625475e-01 -1.584638000570513516e-01 -7.291246615871700421e-01 2.660790749389640442e-01 1.949674416432065904e-01 -9.440284013623361226e-01
-1.229227030453648208e-02 1.988593371622595640e-01 -1.043607061041122330e+00 8.134297924177877892e-01 -5.807183832779201360e-01 3.313807674312849866e-02
-3.635288273560736971e-02 7.622853368948599717e-02 -1.052674406905279358e+00 8.735553447305614005e-01 -4.662701320398671689e-01 1.396181351408006810e-01
-2.840825539013625348e-02 1.373015019779941503e-01 -1.017446213675873512e+00 9.993291502110874802e-01 5.311488427159568627e-03 3.623586109193323301e-02
9.357417208816198526e-03 1.188921456410576560e-01 -8.079688429860171217e-01 9.525386279849928917e-01 2.868289372395213185e-02 -3.030634484791718819e-01
2.112312398087176635e-02 -6.483536026032434008e-02 -8.092395842389519256e-01 8.424534834405141837e-01 1.691097728545045420e-01 -5.115408223827706546e-01
-4.371690859755746061e-02 4.959655364404130101e-02 -9.797873781263013448e-01 9.773471467562603321e-01 -4.165030209515623028e-02 -2.075037519245831463e-01
1.353590184336495028e-01 -1.783863397591886613e-01 -7.417684105295697661e-01 2.796027783065614392e-01 4.957483305164194221e-01 -8.222261727489795780e-01
4.519569833015041338e-02 -9.120270546775538500e-02 -7.783113617689821906e-01 8.424534834405141837e-01 1.691097728545045420e-01 -5.115408223827706546e-01
-1.030635378342014026e-02 1.616614564769809359e-01 -8.535245169721754621e-01 9.456086899776345867e-01 1.207197226438479210e-01 -3.020777284136877960e-01
-6.674264455796425841e-03 1.933954288646335534e-02 -8.528477640234177759e-01 9.428344959637493528e-01 -4.084646311683599179e-02 -3.307486654117108293e-01
4.371182336763960313e-02 7.161456644725944579e-03 -7.376703099115150541e-01 8.554124018092431614e-01 3.157917073207700681e-02 -5.169839250951776544e-01
-6.530537541117235889e-02 -7.365591699782825241e-02 -1.054534397617483243e+00 9.743109450854792186e-01 -5.697707197555398895e-02 -2.178802321362187100e-01
7.102870983606991706e-02 5.203338813165535315e-02 -6.964920713880462522e-01 7.367427677298764577e-01 -1.009049376368362644e-01 -6.686017407681700275e-01
-6.373043299665677452e-02 2.593544465753641268e-02 -1.105228743015518988e+00 8.239053914372369558e-01 -2.181783371372266467e-01 -5.230469569404719854e-01
5.256132071053162824e-02 2.624486338693875209e-02 -7.218490761311835424e-01 8.609868989180798904e-01 2.965507420869430838e-02 -5.077618895359364837e-01
-4.002481482573796295e-02 9.314341432048356406e-02 -9.732109509803984482e-01 8.735553447305614005e-01 -4.662701320398671689e-01 1.396181351408006810e-01
2.197253183680260985e-02 2.318742668950453667e-01 -8.034750514758538520e-01 9.066772421006452642e-01 -1.347082198437046241e-01 -3.997375065756375578e-01
1.437142296487514855e-02 5.154872580238894358e-02 -7.968325149024011456e-01 9.428344959637493528e-01 -4.084646311683599179e-02 -3.307486654117108293e-01
