1.707610343149171261e-01 1.559091435133028725e-01 -8.416446259930441265e-01 -5.359398286121697108e-01 1.219911245929273559e-02 -8.441680411875136514e-01
6.644643898706653617e-02 1.282807834607857522e-01 -7.871870053196847739e-01 -2.555147038271888271e-01 3.515412919267524861e-01 -9.006280898342966523e-01
-1.579111128690435795e-01 -9.348176461757516653e-02 -8.148998861054987941e-01 -1.382274646883572544e-01 3.416502918117783616e-01 -9.296065006822810117e-01
1.409587302557848039e-02 1.026541187535025407e-01 -7.823376023450707706e-01 -2.555147038271888271e-01 3.515412919267524861e-01 -9.006280898342966523e-01
-2.705816363109043304e-02 -3.814557619526937060e-02 -8.156851136843991101e-01 -2.507717045930687449e-01 2.807833240174510969e-01 -9.264309348943385869e-01
1.722234928931273001e-01 -1.028999922887278290e-01 -9.383051342185163568e-01 -6.729788546386584747e-01 3.242459677461093648e-01 -6.648037406706045482e-01
9.166217894271794231e-02 -5.625536440427650331e-02 -8.718379058429729378e-01 -5.075439249401754171e-01 3.367538997924074962e-01 -7.930926649710783316e-01
-1.820918103550227540e-01 1.687157531042221548e-02 -7.942334659713330414e-01 1.174960143058843554e-01 3.376203615591253371e-01 -9.339203274813741018e-01
-5.532185810371714058e-02 1.458831944963542016e-01 -7.429896601823672286e-01 -2.735984108281556137e-01 1.629153467707534220e-01 -9.479464644054921285e-01
4.046610819940327231e-02 1.463054429488979680e-01 -7.726080245960657011e-01 -2.945670562780631219e-01 4.228784433301490675e-01 -8.569737869517050077e-01
-1.600547160172730021e-01 9.503903856424052513e-03 -7.941244686099681038e-01 1.174960143058843554e-01 3.376203615591253371e-01 -9.339203274813741018e-01
-1.590881591222416055e-02 -5.213261842158672943e-02 -8.229422862256048354e-01 -2.507717045930687449e-01 2.807833240174510969e-01 -9.264309348943385869e-01
-1.393253816216938890e-01 -4.888559814465918973e-02 -8.012734379576416099e-01 -1.382274646883572544e-01 3.416502918117783616e-01 -9.296065006822810117e-01
-1.077624889621141419e-01 -4.212895251799976537e-02 -8.034834576584932719e-01 -1.382274646883572544e-01 3.416502918117783616e-01 -9.296065006822810117e-01
-1.957215573667001884e-01 4.156524682727396475e-02 -7.859731070776136974e-01 6.193392914018627793e-02 4.797596615050362945e-01 -8.752113205471188095e-01
2.053035620346446155e-01 -4.932946272904516205e-02 -9.788770558114592291e-01 -9.463808726338805988e-01 2.249072748176700609e-01 -2.319050703344446573e-01
-6.848664064682993824e-02 6.473091163575543650e-02 -7.732911363925600856e-01 -2.507717045930687449e-01 2.807833240174510969e-01 -9.264309348943385869e-01
9.480546423157962255e-02 1.724202549023134273e-02 -8.426418505249383406e-01 -5.075439249401754171e-01 3.367538997924074962e-01 -7.930926649710783316e-01
1.748240289726144259e-01 8.980947417077062012e-02 -8.704925713902464945e-01 -8.653640836292255667e-01 3.473360694971520668e-01 -3.612515156934576477e-01
-4.709589185683377664e-03 2.084382966696505246e-01 -7.468466819856310890e-01 -2.735984108281556137e-01 1.629153467707534220e-01 -9.479464644054921285e-01
4.991673909907971829e-02 1.587642965558561658e-01 -7.711500940739562937e-01 -2.735984108281556137e-01 1.629153467707534220e-01 -9.479464644054921285e-01
-1.021013654995507891e-01 -3.192569127221644293e-02 -8.005753191756495024e-01 -1.382274646883572544e-01 3.416502918117783616e-01 -9.296065006822810117e-01
-2.546690880535769086e-01 -9.966927000432887485e-02 -8.061593316669012355e-01 -1.610309177966435246e-01 1.518502026040460806e-01 -9.751977027673315312e-01
-2.367319387023184007e-01 1.250001425822524770e-01 -7.810635822611509127e-01 3.061949276475378068e-01 -7.965555063191644136e-02 -9.486304125087101635e-01
-1.374795370923504768e-02 -1.145122356576393358e-01 -8.440653174358547783e-01 -1.382274646883572544e-01 3.416502918117783616e-01 -9.296065006822810117e-01
-1.784917367333677951e-01 7.398378589105433778e-02 -7.669831586757348552e-01 6.193392914018627793e-02 4.797596615050362945e-01 -8.752113205471188095e-01
-3.194951800411303944e-02 6.453081578376809735e-02 -7.832418620832287681e-01 -2.507717045930687449e-01 2.807833240174510969e-01 -9.264309348943385869e-01
1.741287932375464031e-01 -1.550375735904701430e-02 -9.104308263306142290e-01 -8.582871844849713217e-01 -2.207719756344706796e-01 -4.632524621880749760e-01
8.029859877643705235e-02 -3.713963405197248657e-02 -8.564490195733840405e-01 -5.075439249401754171e-01 3.367538997924074962e-01 -7.930926649710783316e-01
-2.174170886098795163e-01 4.891537705175809381e-02 -7.776562831606849135e-01 -5.487845987249534430e-01 7.814626338311624343e-01 -2.969033784380944452e-01
-5.518979834442995849e-03 1.893649651116043053e-01 -7.498910421240727597e-01 -2.735984108281556137e-01 1.629153467707534220e-01 -9.479464644054921285e-01
-9.869301075971546877e-02 -3.955857525834765502e-04 -7.894941342768430070e-01 -1.382274646883572544e-01 3.416502918117783616e-01 -9.296065006822810117e-01
2.087620527799995407e-01 -1.773619261451616583e-03 -9.771869482401989160e-01 -9.268008111832878315e-01 -6.878369167466409639e-02 -3.692005689995676021e-01
-1.755140152858822578e-01 -1.415169373670980835e-01 -8.300872569308621607e-01 -1.192057860723296503e-01 3.624824081345864313e-01 -9.243356989534858847e-01
-7.192150093621965667e-02 -3.166536962527583682e-02 -8.049672282184417993e-01 -1.382274646883572544e-01 3.416502918117783616e-01 -9.296065006822810117e-01
1.788781342565017030e-02 -1.277452409147745993e-01 -8.550072796438792366e-01 -2.507717045930687449e-01 2.807833240174510969e-01 -9.264309348943385869e-01
-5.216313299529941327e-02 1.425133885214303064e-01 -7.444804777885569713e-01 -2.735984108281556137e-01 1.629153467707534220e-01 -9.479464644054921285e-01
-5.130324232750719388e-02 -1.734332015673686611e-01 -8.541732786774823838e-01 -7.881384710757965983e-02 4.458535213331351471e-02 -9.958918233820636123e-01
9.739531154882732911e-02 4.724609971001380443e-02 -8.315592518337735495e-01 -5.075439249401754171e-01 3.367538997924074962e-01 -7.930926649710783316e-01
2.868723796474847987e-02 -9.858344027873008897e-02 -8.495096144874486610e-01 -5.075439249401754171e-01 3.367538997924074962e-01 -7.930926649710783316e-01
-5.486165384006622819e-02 -1.398107398399550949e-01 -8.471303300839941874e-01 -1.410630468144594141e-01 3.240581746561500553e-01 -9.354611249335516021e-01
-7.764667277976063098e-02 -3.244021039571379217e-02 -8.044006966665180336e-01 -1.382274646883572544e-01 3.416502918117783616e-01 -9.296065006822810117e-01
1.019494653076850887e-01 3.921506210655153341e-02 -8.378837540356441904e-01 -5.075439249401754171e-01 3.367538997924074962e-01 -7.930926649710783316e-01
1.413005559915101461e-01 5.151482043075161776e-02 -8.815475875207434697e-01 -8.582871844849713217e-01 -2.207719756344706796e-01 -4.632524621880749760e-01
-1.756158031070155223e-01 7.940714842593134259e-02 -7.638067504436747424e-01 6.193392914018627793e-02 4.797596615050362945e-01 -8.752113205471188095e-01
-3.354313050442608163e-02 -6.537742393240994487e-02 -8.230637863028759105e-01 -1.382274646883572544e-01 3.416502918117783616e-01 -9.296065006822810117e-01
-1.383736684400942996e-01 -1.208964444371317740e-02 -7.887298033288322463e-01 3.546926121753466443e-01 7.974522978450183930e-02 -9.315760029084295679e-01
-3.789946692332742811e-02 -6.270042651263395272e-02 -8.214321687452889043e-01 -1.382274646883572544e-01 3.416502918117783616e-01 -9.296065006822810117e-01
-4.301301761493693532e-02 1.135755149685115650e-01 -7.600645611660129530e-01 -2.945670562780631219e-01 4.228784433301490675e-01 -8.569737869517050077e-01
-1.176875809632379061e-01 5.578185191119375275e-02 -7.720643993999584120e-01 1.174960143058843554e-01 3.376203615591253371e-01 -9.339203274813741018e-01
1.704335221237689713e-01 -1.991836783146932674e-02 -9.068190532090194544e-01 -5.075439249401754171e-01 3.367538997924074962e-01 -7.930926649710783316e-01
-2.016307742086550781e-01 5.997149309227686048e-02 -7.763016217325416912e-01 6.193392914018627793e-02 4.797596615050362945e-01 -8.752113205471188095e-01
1.218076587629891155e-01 -1.199501121706768453e-01 -9.030965054956262561e-01 -3.850771581568639412e-01 -4.040122158314887399e-03 -9.228755385634509478e-01
-2.343471255100935402e-01 -1.071878570118950658e-01 -8.106857607465383087e-01 -1.610309177966435246e-01 1.518502026040460806e-01 -9.751977027673315312e-01
2.836593466028624125e-02 9.779984503673617990e-02 -7.882808860227218384e-01 -2.555147038271888271e-01 3.515412919267524861e-01 -9.006280898342966523e-01
-9.278341263431844760e-03 1.156034635413404899e-01 -7.706516634360284224e-01 -2.555147038271888271e-01 3.515412919267524861e-01 -9.006280898342966523e-01
1.271170127433556840e-01 -1.646274812098127982e-01 -9.151816617081981464e-01 -4.645872445001388296e-01 2.665024418871491108e-01 -8.444732918902498886e-01
-2.416694329305480726e-01 9.669853896626823264e-02 -7.854569439589068613e-01 6.226012129584478361e-01 1.337308802928766360e-01 -7.710277435207905095e-01
-1.792337056319140420e-01 -1.045746859468235090e-01 -8.158062178387326391e-01 -1.382274646883572544e-01 3.416502918117783616e-01 -9.296065006822810117e-01
1.902337311479148363e-01 1.622845902072432289e-01 -8.577965174172095253e-01 -9.208202973070478414e-01 2.118546665878718038e-01 -3.274256867020392536e-01
1.784609617123663339e-01 8.847672917801466252e-02 -8.804861111212903824e-01 -8.653640836292255667e-01 3.473360694971520668e-01 -3.612515156934576477e-01
-1.215506638805398665e-01 -1.418808747899346755e-03 -7.864713810983563480e-01 -1.382274646883572544e-01 3.416502918117783616e-01 -9.296065006822810117e-01
1.508363343661296985e-01 1.286230262666480939e-01 -8.296665374548316541e-01 -4.433646519965454003e-01 2.343268760820347851e-01 -8.651697524218103785e-01
-6.150582082708490154e-03 -2.884472896579064888e-02 -8.185255920875029734e-01 -2.507717045930687449e-01 2.807833240174510969e-01 -9.264309348943385869e-01
1.383908955801164686e-01 2.988810965939472236e-02 -8.658501082857211761e-01 -8.582871844849713217e-01 -2.207719756344706796e-01 -4.632524621880749760e-01
-7.328426461405761205e-02 -1.957378460676885978e-01 -8.566343255014258196e-01 -8.328738739575861083e-03 2.085764307589520750e-01 -9.779706052038904529e-01
-1.281816575471505792e-01 -8.407755389543213054e-03 -7.880539756860605038e-01 -1.382274646883572544e-01 3.416502918117783616e-01 -9.296065006822810117e-01
-1.237964356586396669e-01 4.433414981973327063e-02 -7.769713954926362742e-01 1.174960143058843554e-01 3.376203615591253371e-01 -9.339203274813741018e-01
1.462720631366385415e-01 1.911502996908559168e-02 -8.753177558076115083e-01 -8.582871844849713217e-01 -2.207719756344706796e-01 -4.632524621880749760e-01
-1.505009642676490567e-01 4.964122863161603283e-02 -7.783461270000788801e-01 6.193392914018627793e-02 4.797596615050362945e-01 -8.752113205471188095e-01
-6.907658924290301095e-02 -1.856377451761077602e-01 -8.545160630972382654e-01 -8.328738739575861083e-03 2.085764307589520750e-01 -9.779706052038904529e-01
-1.602515835618946172e-01 -6.207273144412610300e-02 -8.030083786007948810e-01 -1.382274646883572544e-01 3.416502918117783616e-01 -9.296065006822810117e-01
-2.225256156196117885e-01 -1.426130671986312881e-01 -8.230147158544421915e-01 -1.585110831311935531e-01 3.521005841029860028e-01 -9.224420931413049862e-01
-5.207953041188474047e-02 1.102962019283161843e-01 -7.585663295850433308e-01 -2.945670562780631219e-01 4.228784433301490675e-01 -8.569737869517050077e-01
-2.192178813669608539e-01 -8.984642586949836973e-02 -8.104837260597052007e-01 -1.610309177966435246e-01 1.518502026040460806e-01 -9.751977027673315312e-01
1.492015122167916763e-01 5.068489923696955363e-02 -8.909116542898147806e-01 3.048578629009791596e-01 9.174511055706956464e-01 -2.556269788472180782e-01
1.290536085767136736e-02 1.836432203926298412e-01 -7.561920628918337162e-01 -2.735984108281556137e-01 1.629153467707534220e-01 -9.479464644054921285e-01
1.369318998423240397e-01 -5.091300342701219478e-02 -8.985400957237884567e-01 -5.075439249401754171e-01 3.367538997924074962e-01 -7.930926649710783316e-01
7.167241513653811735e-02 2.153447570615894466e-02 -8.260151201744686533e-01 -5.075439249401754171e-01 3.367538997924074962e-01 -7.930926649710783316e-01
-6.425055814825582357e-02 -8.903940458376528866e-02 -8.271940421920659370e-01 -1.382274646883572544e-01 3.416502918117783616e-01 -9.296065006822810117e-01
1.862013674072280078e-01 7.830563572709652032e-02 -9.132203733091238673e-01 -8.485634896392010296e-01 4.337143433132540915e-01 -3.030377409757643581e-01
2.111251882408253233e-01 -3.139563709395206542e-02 -9.852418491140843004e-01 -9.463808726338805988e-01 2.249072748176700609e-01 -2.319050703344446573e-01
4.256118711245265862e-02 -1.160104233401425683e-01 -8.657879684334706116e-01 -5.075439249401754171e-01 3.367538997924074962e-01 -7.930926649710783316e-01
-2.175914377173543135e-01 -5.581863070401587440e-02 -8.098022541905977034e-01 -3.513530985718980593e-01 1.178905720059820333e-02 -9.361687979495190159e-01
-2.320606536119503849e-01 -8.841616144775045483e-02 -8.081403352401834717e-01 -1.610309177966435246e-01 1.518502026040460806e-01 -9.751977027673315312e-01
6.157115485671242616e-02 -1.362472237754789317e-01 -8.778910004288715818e-01 -3.850771581568639412e-01 -4.040122158314887399e-03 -9.228755385634509478e-01
1.933643219346575792e-02 1.415621121276426364e-01 -7.676857572274331520e-01 -2.945670562780631219e-01 4.228784433301490675e-01 -8.569737869517050077e-01
-1.221931592024372015e-01 5.937741539517682465e-02 -7.710059074345426700e-01 6.193392914018627793e-02 4.797596615050362945e-01 -8.752113205471188095e-01
-1.670876154721180618e-01 -7.797256253989069685e-02 -8.078354259276516736e-01 -1.382274646883572544e-01 3.416502918117783616e-01 -9.296065006822810117e-01
-1.684654801017213821e-01 1.394790444431849401e-02 -7.935760772611628600e-01 1.174960143058843554e-01 3.376203615591253371e-01 -9.339203274813741018e-01
4.830884547463197738e-03 1.050529089405743827e-01 -7.787727406395437146e-01 -2.555147038271888271e-01 3.515412919267524861e-01 -9.006280898342966523e-01
-3.958041513707525466e-02 -5.645990966877355299e-02 -8.188886972776467932e-01 -1.382274646883572544e-01 3.416502918117783616e-01 -9.296065006822810117e-01
-5.654317197074069934e-02 -1.395683357974088733e-02 -8.007456365228218242e-01 -1.382274646883572544e-01 3.416502918117783616e-01 -9.296065006822810117e-01
4.312893734812577040e-02 1.251013237123414779e-01 -7.818126968872692872e-01 -2.555147038271888271e-01 3.515412919267524861e-01 -9.006280898342966523e-01
1.242983995667748254e-01 -1.109444107130202750e-01 -9.041752116513739335e-01 -3.850771581568639412e-01 -4.040122158314887399e-03 -9.228755385634509478e-01
1.039220705861342159e-01 2.976004538535183611e-02 -8.431608140359417858e-01 -5.075439249401754171e-01 3.367538997924074962e-01 -7.930926649710783316e-01
1.810072495803703996e-01 1.454221923815904871e-01 -8.483012228734431170e-01 -5.359398286121697108e-01 1.219911245929273559e-02 -8.441680411875136514e-01
1.606910868254581848e-01 -1.857059677186732524e-02 -9.000120541677089081e-01 -5.075439249401754171e-01 3.367538997924074962e-01 -7.930926649710783316e-01
-1.518152683086319496e-02 1.169809656444956575e-01 -7.679506234170369039e-01 -2.945670562780631219e-01 4.228784433301490675e-01 -8.569737869517050077e-01
1.556384002821977475e-01 4.545781766698939880e-02 -9.019952098625124703e-01 3.048578629009791596e-01 9.174511055706956464e-01 -2.556269788472180782e-01
1.471169116491052031e-01 1.111340005378807089e-01 -8.324972977759400594e-01 -4.433646519965454003e-01 2.343268760820347851e-01 -8.651697524218103785e-01
-5.676882964285697580e-02 1.346988255366761700e-01 -7.449128704789379496e-01 -2.945670562780631219e-01 4.228784433301490675e-01 -8.569737869517050077e-01
1.241308680319348628e-01 -1.043516348533798516e-01 -9.041341693375193334e-01 -3.850771581568639412e-01 -4.040122158314887399e-03 -9.228755385634509478e-01
1.701129121951067413e-01 -9.664112553776763037e-03 -9.057734321695810609e-01 -8.582871844849713217e-01 -2.207719756344706796e-01 -4.632524621880749760e-01
-2.462917660957100741e-01 -9.152114429016819375e-02 -8.062738861851264094e-01 -1.610309177966435246e-01 1.518502026040460806e-01 -9.751977027673315312e-01
-2.243598601975342610e-02 -1.652088424643387565e-01 -8.560896048622823606e-01 -7.881384710757965983e-02 4.458535213331351471e-02 -9.958918233820636123e-01
1.955258254522227179e-01 1.815309145078207731e-01 -8.602265168498831605e-01 -9.208202973070478414e-01 2.118546665878718038e-01 -3.274256867020392536e-01
-6.142787790396946057e-02 -5.084853898839058334e-02 -8.135777987254804167e-01 -1.382274646883572544e-01 3.416502918117783616e-01 -9.296065006822810117e-01
1.934061891984457382e-01 1.179303246725430243e-01 -8.954170291918317481e-01 -9.208202973070478414e-01 2.118546665878718038e-01 -3.274256867020392536e-01
1.678513634508998209e-01 3.782721571351081724e-02 -9.197704748116101170e-01 -8.485634896392010296e-01 4.337143433132540915e-01 -3.030377409757643581e-01
-1.792485991302604775e-01 2.522537996382907127e-02 -7.908557896948953392e-01 1.174960143058843554e-01 3.376203615591253371e-01 -9.339203274813741018e-01
-1.463363145786513442e-01 -1.089122267537120797e-01 -8.222920212815311158e-01 -1.382274646883572544e-01 3.416502918117783616e-01 -9.296065006822810117e-01
1.456643657638691525e-01 -6.031892965682961877e-02 -9.081223207309446765e-01 -5.075439249401754171e-01 3.367538997924074962e-01 -7.930926649710783316e-01
-1.242283417007798985e-01 -1.392263643516814808e-01 -8.364677298697821284e-01 -1.410630468144594141e-01 3.240581746561500553e-01 -9.354611249335516021e-01
-3.785334428270048512e-02 1.316627252406608328e-01 -7.529128587072496659e-01 -2.945670562780631219e-01 4.228784433301490675e-01 -8.569737869517050077e-01
1.820524845505561498e-02 -3.371950113813115824e-02 -8.265958190126924121e-01 -2.507717045930687449e-01 2.807833240174510969e-01 -9.264309348943385869e-01
-6.993910766244239297e-02 1.286087165190820114e-01 -7.433910570636632631e-01 -2.945670562780631219e-01 4.228784433301490675e-01 -8.569737869517050077e-01
-2.219693483889942920e-01 -7.754057745636953880e-02 -8.084327242406699199e-01 -3.513530985718980593e-01 1.178905720059820333e-02 -9.361687979495190159e-01
-6.884733059900567664e-02 -4.511761612232308150e-02 -8.103683293394950971e-01 -1.382274646883572544e-01 3.416502918117783616e-01 -9.296065006822810117e-01
-2.131978691519755831e-01 3.894564756572283654e-02 -7.886457812716349824e-01 6.193392914018627793e-02 4.797596615050362945e-01 -8.752113205471188095e-01
-1.701750383860758387e-01 9.231015384208716978e-02 -7.568356806179340479e-01 3.061949276475378068e-01 -7.965555063191644136e-02 -9.486304125087101635e-01
-3.860286914136345365e-02 2.234751684171454311e-01 -7.344800714765973293e-01 -2.735984108281556137e-01 1.629153467707534220e-01 -9.479464644054921285e-01
1.463158342312158022e-01 -8.981928432366659276e-02 -9.134546419795854799e-01 -3.850771581568639412e-01 -4.040122158314887399e-03 -9.228755385634509478e-01
-1.551488203635404961e-01 4.025780483606242188e-02 -7.823894564986358935e-01 1.174960143058843554e-01 3.376203615591253371e-01 -9.339203274813741018e-01
-2.528744930140150102e-03 1.109213716751348278e-01 -7.743941291326511545e-01 -2.555147038271888271e-01 3.515412919267524861e-01 -9.006280898342966523e-01
-2.420366671773123979e-01 8.214995545626219142e-02 -7.882768624191098805e-01 6.226012129584478361e-01 1.337308802928766360e-01 -7.710277435207905095e-01
-1.296310780084970748e-02 1.764170805499460093e-01 -7.499677421534838295e-01 -2.735984108281556137e-01 1.629153467707534220e-01 -9.479464644054921285e-01
1.828143639005179732e-01 -2.707377208942469970e-02 -9.210090301823020686e-01 -8.582871844849713217e-01 -2.207719756344706796e-01 -4.632524621880749760e-01
1.631410670526655948e-01 1.314301691924585902e-01 -8.371606583429438420e-01 -5.359398286121697108e-01 1.219911245929273559e-02 -8.441680411875136514e-01
-1.064917125314860658e-01 -6.288095205224400464e-02 -8.112992193763935989e-01 -1.382274646883572544e-01 3.416502918117783616e-01 -9.296065006822810117e-01
8.956379510915725428e-02 -3.132645949566365690e-02 -8.599100084732614890e-01 -5.075439249401754171e-01 3.367538997924074962e-01 -7.930926649710783316e-01
-8.586177424073367093e-02 -1.823366513040520775e-01 -8.536690746565138710e-01 -8.328738739575861083e-03 2.085764307589520750e-01 -9.779706052038904529e-01
1.003718765872961202e-02 1.500996506175056311e-01 -7.611290871314547735e-01 -2.735984108281556137e-01 1.629153467707534220e-01 -9.479464644054921285e-01
1.282927942244888042e-01 -8.857642147173666602e-02 -9.059398261462549007e-01 -3.850771581568639412e-01 -4.040122158314887399e-03 -9.228755385634509478e-01
-2.112810976857452117e-01 1.630005660450834296e-02 -7.981123635253536408e-01 1.174960143058843554e-01 3.376203615591253371e-01 -9.339203274813741018e-01
1.773895130053445290e-01 6.406470034365435717e-02 -9.089274427346357710e-01 -8.485634896392010296e-01 4.337143433132540915e-01 -3.030377409757643581e-01
1.129365110169861311e-03 1.911654879105711691e-01 -7.515004619305785116e-01 -2.735984108281556137e-01 1.629153467707534220e-01 -9.479464644054921285e-01
6.961080623800891543e-02 3.209610642976260669e-02 -8.205631343258515953e-01 -2.507717045930687449e-01 2.807833240174510969e-01 -9.264309348943385869e-01
-1.554287811382598916e-01 6.078143218570416367e-02 -7.725881790542318273e-01 6.193392914018627793e-02 4.797596615050362945e-01 -8.752113205471188095e-01
-2.140531754449145202e-02 6.204966624639621231e-02 -7.868480159922612849e-01 -2.507717045930687449e-01 2.807833240174510969e-01 -9.264309348943385869e-01
1.422229762988925228e-01 8.552318208648480857e-02 -8.368680169334101748e-01 -4.526849387053591967e-01 2.298911438426950726e-01 -8.615256283199140830e-01
1.498675895690764620e-02 -5.291997976066793036e-02 -8.315439138355613657e-01 -2.507717045930687449e-01 2.807833240174510969e-01 -9.264309348943385869e-01
1.401001954537315353e-01 1.411733464458555243e-01 -8.223918228948563502e-01 -5.359398286121697108e-01 1.219911245929273559e-02 -8.441680411875136514e-01
-1.347573871833359638e-01 -8.137199521826117554e-02 -8.138921205092639610e-01 -1.382274646883572544e-01 3.416502918117783616e-01 -9.296065006822810117e-01
-2.459653478767334922e-01 -1.333596378251948322e-01 -8.154547884751784936e-01 -1.585110831311935531e-01 3.521005841029860028e-01 -9.224420931413049862e-01
-4.192073639362086518e-02 -1.786982812806438559e-01 -8.551515142632282185e-01 -7.881384710757965983e-02 4.458535213331351471e-02 -9.958918233820636123e-01
-2.443709381187571944e-02 2.404123232285569345e-01 -7.356577868970411993e-01 -2.735984108281556137e-01 1.629153467707534220e-01 -9.479464644054921285e-01
-1.830818545553989929e-01 -2.819333815820604036e-02 -8.071307239418392676e-01 3.546926121753466443e-01 7.974522978450183930e-02 -9.315760029084295679e-01
1.208460721854890396e-01 -3.328290663409974592e-02 -8.807599943858112068e-01 -5.075439249401754171e-01 3.367538997924074962e-01 -7.930926649710783316e-01
-8.534425245102912616e-02 -1.078936941549645395e-01 -8.309868788890261149e-01 -1.382274646883572544e-01 3.416502918117783616e-01 -9.296065006822810117e-01
9.704167684628851875e-02 -1.559628793208836794e-01 -8.959012947036129049e-01 -4.645872445001388296e-01 2.665024418871491108e-01 -8.444732918902498886e-01
-8.340902823341451999e-02 -3.131712799406836251e-02 -8.031311087125005965e-01 -1.382274646883572544e-01 3.416502918117783616e-01 -9.296065006822810117e-01
1.466580562325796033e-01 1.509151232607444382e-01 -8.264144553392014370e-01 -5.359398286121697108e-01 1.219911245929273559e-02 -8.441680411875136514e-01
-7.549815593494585420e-02 9.698815556617754186e-02 -7.570835891881174673e-01 -2.945670562780631219e-01 4.228784433301490675e-01 -8.569737869517050077e-01
-9.086548039721450976e-02 -1.515888729109821087e-01 -8.457812529992932982e-01 -1.410630468144594141e-01 3.240581746561500553e-01 -9.354611249335516021e-01
-4.556515881602754559e-02 -6.979087838117319087e-02 -8.228982146405721121e-01 -1.382274646883572544e-01 3.416502918117783616e-01 -9.296065006822810117e-01
1.212581805306030824e-01 9.553060328099279019e-02 -8.231817557183449541e-01 -4.526849387053591967e-01 2.298911438426950726e-01 -8.615256283199140830e-01
1.971950645039565603e-02 -7.516190383485641530e-03 -8.190639897392427704e-01 -2.507717045930687449e-01 2.807833240174510969e-01 -9.264309348943385869e-01
2.006826609987918952e-01 1.998837961465724511e-01 -8.628542130129944754e-01 -9.208202973070478414e-01 2.118546665878718038e-01 -3.274256867020392536e-01
7.489717869402962025e-02 1.623982952423841733e-02 -8.303269768512426818e-01 -5.075439249401754171e-01 3.367538997924074962e-01 -7.930926649710783316e-01
1.686989090504182887e-01 6.131866568336089701e-02 -8.885222794049816297e-01 -8.485634896392010296e-01 4.337143433132540915e-01 -3.030377409757643581e-01
1.431674389567212657e-01 9.900351753879089306e-03 -8.767086940665581585e-01 -5.075439249401754171e-01 3.367538997924074962e-01 -7.930926649710783316e-01
-1.409279586994385269e-01 5.869337263528903725e-02 -7.727066348274550522e-01 6.193392914018627793e-02 4.797596615050362945e-01 -8.752113205471188095e-01
-2.337789472393636825e-01 -1.275906482817897869e-01 -8.153468304535776978e-01 -1.585110831311935531e-01 3.521005841029860028e-01 -9.224420931413049862e-01
1.733811066306731596e-01 6.097722884957992168e-02 -9.021219978979898579e-01 -8.485634896392010296e-01 4.337143433132540915e-01 -3.030377409757643581e-01
-9.338613574727203104e-02 1.464905272468546363e-02 -7.847540111770804350e-01 -1.382274646883572544e-01 3.416502918117783616e-01 -9.296065006822810117e-01
-7.031110008683366663e-02 -1.079134887970610163e-01 -8.332295023875655460e-01 -1.382274646883572544e-01 3.416502918117783616e-01 -9.296065006822810117e-01
-2.490347515173116644e-01 -1.189744196521805852e-01 -8.100957573353008145e-01 -1.610309177966435246e-01 1.518502026040460806e-01 -9.751977027673315312e-01
-1.605132994601218555e-01 -1.141418783954411126e-01 -8.221059891620341453e-01 -1.382274646883572544e-01 3.416502918117783616e-01 -9.296065006822810117e-01
1.563162793607528744e-01 -5.214321848343680260e-02 -9.114675936492944164e-01 -5.075439249401754171e-01 3.367538997924074962e-01 -7.930926649710783316e-01
4.175363452526087427e-03 2.226789301576897334e-02 -8.058294304063678970e-01 -2.507717045930687449e-01 2.807833240174510969e-01 -9.264309348943385869e-01
8.443217253817457413e-02 -2.503710861517580155e-02 -8.539554870084495874e-01 -5.075439249401754171e-01 3.367538997924074962e-01 -7.930926649710783316e-01
-3.097344704883882652e-02 -7.063824497815784920e-02 -8.253793487187872646e-01 -1.382274646883572544e-01 3.416502918117783616e-01 -9.296065006822810117e-01
-1.421097861463770651e-01 -6.389609519783731595e-02 -8.063760910876088817e-01 -1.382274646883572544e-01 3.416502918117783616e-01 -9.296065006822810117e-01
1.579511996228859516e-01 1.628871795345037399e-01 -8.334111628477351985e-01 -5.359398286121697108e-01 1.219911245929273559e-02 -8.441680411875136514e-01
1.546835203409248349e-01 -2.201817640738147272e-02 -8.976313512950329088e-01 -5.075439249401754171e-01 3.367538997924074962e-01 -7.930926649710783316e-01
-1.277338978654439516e-01 -8.165214288646820140e-02 -8.150394356942249896e-01 -1.382274646883572544e-01 3.416502918117783616e-01 -9.296065006822810117e-01
1.070509577631701403e-01 8.991667389336800709e-03 -8.539815924141676007e-01 -5.075439249401754171e-01 3.367538997924074962e-01 -7.930926649710783316e-01
-6.676600114123634744e-02 9.255246790820240155e-02 -7.622739017649726723e-01 -2.945670562780631219e-01 4.228784433301490675e-01 -8.569737869517050077e-01
-1.952209388918149380e-01 -1.608628947484436744e-01 -8.346727580260828727e-01 -1.585110831311935531e-01 3.521005841029860028e-01 -9.224420931413049862e-01
-1.437636109038543109e-01 3.694310192559111666e-02 -7.821553834925948356e-01 1.174960143058843554e-01 3.376203615591253371e-01 -9.339203274813741018e-01
-2.463689714842650647e-01 5.653152424420042343e-02 -7.962185653287409126e-01 6.226012129584478361e-01 1.337308802928766360e-01 -7.710277435207905095e-01
-5.078853996586729647e-02 1.139774096864300534e-01 -7.571935686338079341e-01 -2.945670562780631219e-01 4.228784433301490675e-01 -8.569737869517050077e-01
1.606142970178489060e-01 -9.728383446762099707e-02 -9.238140005473632899e-01 -6.729788546386584747e-01 3.242459677461093648e-01 -6.648037406706045482e-01
1.438743277643825813e-01 -1.570823996649392540e-02 -8.880346975043676983e-01 -5.075439249401754171e-01 3.367538997924074962e-01 -7.930926649710783316e-01
1.467835359057820810e-01 2.523458356551477877e-02 -8.791817751201024267e-01 -8.582871844849713217e-01 -2.207719756344706796e-01 -4.632524621880749760e-01
-2.657150164911647322e-02 1.478927457251074939e-01 -7.509422876613501829e-01 -2.735984108281556137e-01 1.629153467707534220e-01 -9.479464644054921285e-01
6.816754038638167534e-02 6.092009408684964655e-02 -8.114364687697702694e-01 -2.507717045930687449e-01 2.807833240174510969e-01 -9.264309348943385869e-01
-2.432772791273025703e-01 -1.226373678104663301e-01 -8.118239601868825206e-01 -1.585110831311935531e-01 3.521005841029860028e-01 -9.224420931413049862e-01
-1.967324163078169874e-01 8.221600699020402414e-02 -7.645601637137597884e-01 3.061949276475378068e-01 -7.965555063191644136e-02 -9.486304125087101635e-01
1.412787604517980466e-01 -2.180324458566760409e-02 -8.889616410835402549e-01 -5.075439249401754171e-01 3.367538997924074962e-01 -7.930926649710783316e-01
1.130814063257390839e-01 8.692122059124425884e-03 -8.579679999682269242e-01 -5.075439249401754171e-01 3.367538997924074962e-01 -7.930926649710783316e-01
1.028097596273988001e-01 1.073799340284090215e-01 -8.103262141987386258e-01 -4.526849387053591967e-01 2.298911438426950726e-01 -8.615256283199140830e-01
8.572997928858272498e-02 5.202239755955462980e-02 -8.220659028456406281e-01 -5.075439249401754171e-01 3.367538997924074962e-01 -7.930926649710783316e-01
1.114202932060744250e-01 -1.447248078369965107e-01 -9.002651369910469326e-01 -4.645872445001388296e-01 2.665024418871491108e-01 -8.444732918902498886e-01
8.515853301184754531e-02 3.872980813140098483e-02 -8.273443493966954332e-01 -5.075439249401754171e-01 3.367538997924074962e-01 -7.930926649710783316e-01
1.315127702898303830e-01 4.496623088064080620e-02 -8.602924903792702471e-01 -8.582871844849713217e-01 -2.207719756344706796e-01 -4.632524621880749760e-01
1.860682506519607537e-01 1.081404849047842669e-02 -9.366158120632133155e-01 -7.050259553780180433e-01 -1.402364131045483742e-01 -6.951777835078472023e-01
-7.430003338854443418e-02 2.140310417828767547e-02 -7.851097529770267869e-01 -1.382274646883572544e-01 3.416502918117783616e-01 -9.296065006822810117e-01
2.739200341547347664e-02 -7.584655026310747894e-02 -8.418504381679474680e-01 -2.507717045930687449e-01 2.807833240174510969e-01 -9.264309348943385869e-01
1.691083115107129276e-01 7.799027364547080066e-02 -8.681647141713462190e-01 -8.653640836292255667e-01 3.473360694971520668e-01 -3.612515156934576477e-01
6.436167559654407122e-02 -1.233428512389532217e-01 -8.791118595703436567e-01 -3.850771581568639412e-01 -4.040122158314887399e-03 -9.228755385634509478e-01
6.569296420408322901e-02 3.188761781782226135e-02 -8.195658189676389149e-01 -2.507717045930687449e-01 2.807833240174510969e-01 -9.264309348943385869e-01
1.609338593678565354e-01 -8.090386788285955366e-02 -9.195931587267240914e-01 -3.850771581568639412e-01 -4.040122158314887399e-03 -9.228755385634509478e-01
-9.722427870150579521e-02 1.225395806100081954e-02 -7.850635486220942649e-01 -1.382274646883572544e-01 3.416502918117783616e-01 -9.296065006822810117e-01
2.702423070676816634e-03 1.902285933581951971e-01 -7.521154973581211101e-01 -2.735984108281556137e-01 1.629153467707534220e-01 -9.479464644054921285e-01
-1.748899673788836540e-01 -1.151585522413112600e-01 -8.203419057140866055e-01 -1.382274646883572544e-01 3.416502918117783616e-01 -9.296065006822810117e-01
1.677325047655241208e-01 4.358755983988606836e-02 -9.111933154040184890e-01 -8.485634896392010296e-01 4.337143433132540915e-01 -3.030377409757643581e-01
1.868237040596193443e-01 8.819779124952116522e-02 -9.008051620461203779e-01 -8.485634896392010296e-01 4.337143433132540915e-01 -3.030377409757643581e-01
-1.477464814477136568e-01 -1.503525691256954455e-01 -8.371331946600759633e-01 -1.192057860723296503e-01 3.624824081345864313e-01 -9.243356989534858847e-01
-2.028097641783003016e-02 1.389894430689033178e-01 -7.553375882328223767e-01 -2.945670562780631219e-01 4.228784433301490675e-01 -8.569737869517050077e-01
1.784602899418846061e-02 1.423225988314752721e-01 -7.667981955211713441e-01 -2.945670562780631219e-01 4.228784433301490675e-01 -8.569737869517050077e-01
-8.148146324059442683e-03 9.697507492801793472e-02 -7.782435088403835133e-01 -2.555147038271888271e-01 3.515412919267524861e-01 -9.006280898342966523e-01
1.213990758755327803e-01 1.288336757212261707e-01 -8.143691331258122723e-01 -4.526849387053591967e-01 2.298911438426950726e-01 -8.615256283199140830e-01
-7.664387790953200441e-02 -1.475462706215147426e-02 -7.980499763241731825e-01 -1.382274646883572544e-01 3.416502918117783616e-01 -9.296065006822810117e-01
3.779489676172079725e-03 -1.349928845018555368e-01 -8.541986305192301732e-01 -1.382274646883572544e-01 3.416502918117783616e-01 -9.296065006822810117e-01
-1.403293969666853935e-01 4.537951414054756244e-02 -7.786734901270911946e-01 1.174960143058843554e-01 3.376203615591253371e-01 -9.339203274813741018e-01
3.807273083848177614e-02 1.169198962678737047e-01 -7.835716631939095844e-01 -2.555147038271888271e-01 3.515412919267524861e-01 -9.006280898342966523e-01
-4.386864389498127195e-03 -1.079817397843985810e-01 -8.430571637959092257e-01 -1.382274646883572544e-01 3.416502918117783616e-01 -9.296065006822810117e-01
-1.734422450980455943e-01 -2.475303322924202881e-02 -8.031659951871947811e-01 3.546926121753466443e-01 7.974522978450183930e-02 -9.315760029084295679e-01
-1.267576817031124403e-01 -1.631260659098594523e-01 -8.448491730161732383e-01 -1.192057860723296503e-01 3.624824081345864313e-01 -9.243356989534858847e-01
1.185092603701645986e-01 -1.361099082645756964e-01 -9.017106566205329576e-01 -3.876931466640267110e-01 1.095652340828801169e-01 -9.152537809318840312e-01
-1.340165394969305424e-01 -7.211317316231923014e-02 -8.105994652216907959e-01 -1.382274646883572544e-01 3.416502918117783616e-01 -9.296065006822810117e-01
-5.409749813743910951e-02 1.520517749494667559e-01 -7.422828971870888415e-01 -2.735984108281556137e-01 1.629153467707534220e-01 -9.479464644054921285e-01
-3.226835722378766994e-04 -1.102553504257246381e-01 -8.447771085594638629e-01 -2.507717045930687449e-01 2.807833240174510969e-01 -9.264309348943385869e-01
1.964344807305554441e-01 -6.928185223825908401e-02 -9.620335631367473717e-01 -9.463808726338805988e-01 2.249072748176700609e-01 -2.319050703344446573e-01
-9.167308988585320950e-02 -1.339430725732221050e-01 -8.395466917252272232e-01 -1.410630468144594141e-01 3.240581746561500553e-01 -9.354611249335516021e-01
1.726315996499773742e-01 -6.723766387109032794e-02 -9.245339611727849682e-01 -3.850771581568639412e-01 -4.040122158314887399e-03 -9.228755385634509478e-01
2.169251949204328289e-01 -2.012628558307907878e-02 -9.979817872327104711e-01 -9.463808726338805988e-01 2.249072748176700609e-01 -2.319050703344446573e-01
2.193114516041198489e-02 4.840606811083408151e-02 -8.027136924350286584e-01 -2.507717045930687449e-01 2.807833240174510969e-01 -9.264309348943385869e-01
-1.600072387124070739e-01 -1.544921027155224669e-01 -8.371753383278569549e-01 -1.192057860723296503e-01 3.624824081345864313e-01 -9.243356989534858847e-01
1.406714911323275197e-01 3.549600969808950485e-02 -8.727480168064150057e-01 -8.582871844849713217e-01 -2.207719756344706796e-01 -4.632524621880749760e-01
-1.289677550774401826e-01 -1.307708938781907970e-01 -8.328239435833499904e-01 -1.410630468144594141e-01 3.240581746561500553e-01 -9.354611249335516021e-01
-2.084135083059803772e-01 -2.495203826773234254e-02 -8.126645865181870709e-01 1.174960143058843554e-01 3.376203615591253371e-01 -9.339203274813741018e-01
-1.858158001447578200e-01 -1.039229379261325248e-01 -8.146543018525355118e-01 3.546926121753466443e-01 7.974522978450183930e-02 -9.315760029084295679e-01
6.664324286615898318e-02 8.629659375437823132e-02 -8.033327361187379001e-01 -2.507717045930687449e-01 2.807833240174510969e-01 -9.264309348943385869e-01
-1.484523897922918889e-01 -3.054238121088612146e-02 -7.941468232195276755e-01 3.546926121753466443e-01 7.974522978450183930e-02 -9.315760029084295679e-01
2.585088956226237397e-02 1.253409402275493523e-01 -7.768172604659293601e-01 -2.555147038271888271e-01 3.515412919267524861e-01 -9.006280898342966523e-01
-1.117649902349682027e-02 -9.106501562202876099e-02 -8.360229149204473353e-01 -2.507717045930687449e-01 2.807833240174510969e-01 -9.264309348943385869e-01
1.970532351046950792e-01 -7.369099600547275586e-02 -9.688347331639182158e-01 -9.463808726338805988e-01 2.249072748176700609e-01 -2.319050703344446573e-01
-1.692653580125584312e-01 6.744492141734946544e-02 -7.699146307218379670e-01 6.193392914018627793e-02 4.797596615050362945e-01 -8.752113205471188095e-01
-1.690723971860723096e-01 -1.489407614893855925e-01 -8.338292781451202007e-01 -1.192057860723296503e-01 3.624824081345864313e-01 -9.243356989534858847e-01
1.983509974075717830e-01 1.334166744728563071e-04 -9.514074603634558036e-01 -9.268008111832878315e-01 -6.878369167466409639e-02 -3.692005689995676021e-01
9.436961833831736257e-02 -1.510402891155898653e-01 -8.932726438347032838e-01 -3.876931466640267110e-01 1.095652340828801169e-01 -9.152537809318840312e-01
1.822434762776105610e-01 1.783293254339708700e-01 -8.486105277685425108e-01 -5.359398286121697108e-01 1.219911245929273559e-02 -8.441680411875136514e-01
1.437296755759670530e-01 1.434932770917565770e-01 -8.246625578271081780e-01 -5.359398286121697108e-01 1.219911245929273559e-02 -8.441680411875136514e-01
-2.007358248561128336e-02 1.976304753266507619e-01 -7.442697387924988028e-01 -2.735984108281556137e-01 1.629153467707534220e-01 -9.479464644054921285e-01
6.980712516944652390e-02 1.659718786458548806e-03 -8.332604088562087785e-01 -5.075439249401754171e-01 3.367538997924074962e-01 -7.930926649710783316e-01
1.481211085729814136e-01 -7.170536714277933599e-02 -9.142872053310781011e-01 -3.850771581568639412e-01 -4.040122158314887399e-03 -9.228755385634509478e-01
1.890093231978177968e-01 -5.916715862118332447e-02 -9.339674839530497374e-01 -6.729788546386584747e-01 3.242459677461093648e-01 -6.648037406706045482e-01
1.390630990579009019e-01 1.778057375850760138e-02 -8.707360902561355198e-01 -5.075439249401754171e-01 3.367538997924074962e-01 -7.930926649710783316e-01
1.993049867463917435e-01 -4.369467787802799180e-02 -9.489327298384728770e-01 -9.463808726338805988e-01 2.249072748176700609e-01 -2.319050703344446573e-01
1.565165260149272569e-02 1.457557913963518914e-01 -7.643497961024288134e-01 -2.945670562780631219e-01 4.228784433301490675e-01 -8.569737869517050077e-01
4.997181313865590307e-02 2.821066490802362145e-02 -8.164247399287514195e-01 -2.507717045930687449e-01 2.807833240174510969e-01 -9.264309348943385869e-01
7.007295302809581072e-02 -6.119056225446045660e-02 -8.601172914111524515e-01 -5.075439249401754171e-01 3.367538997924074962e-01 -7.930926649710783316e-01
-2.048344083921713743e-01 -1.529473679977151890e-01 -8.299993990286806955e-01 -1.585110831311935531e-01 3.521005841029860028e-01 -9.224420931413049862e-01
-9.194374785828267338e-02 -1.388038948682009388e-01 -8.411897416831957131e-01 -1.410630468144594141e-01 3.240581746561500553e-01 -9.354611249335516021e-01
5.416907890150141069e-02 -2.381589478327455350e-02 -8.340699193539592438e-01 -5.075439249401754171e-01 3.367538997924074962e-01 -7.930926649710783316e-01
-1.591823312555522563e-01 -1.275787163097157617e-01 -8.271619109571554107e-01 -1.410630468144594141e-01 3.240581746561500553e-01 -9.354611249335516021e-01
2.982609812123700535e-02 -1.171973960247249119e-01 -8.581420783144326769e-01 -5.075439249401754171e-01 3.367538997924074962e-01 -7.930926649710783316e-01
-1.817846596407159399e-01 3.924947587720000602e-02 -7.861050168503203039e-01 1.174960143058843554e-01 3.376203615591253371e-01 -9.339203274813741018e-01
-2.261772753298040561e-01 1.473030300123661686e-02 -8.005539232746891054e-01 1.174960143058843554e-01 3.376203615591253371e-01 -9.339203274813741018e-01
-2.575201124989883600e-02 2.179289232699534451e-01 -7.391422996870113948e-01 -2.735984108281556137e-01 1.629153467707534220e-01 -9.479464644054921285e-01
1.571483032865494955e-01 -9.329220128685500324e-02 -9.183585386821799812e-01 -6.729788546386584747e-01 3.242459677461093648e-01 -6.648037406706045482e-01
1.005812259010485377e-01 3.458267367579242330e-02 -8.389750934325869158e-01 -5.075439249401754171e-01 3.367538997924074962e-01 -7.930926649710783316e-01
6.802535509013592219e-02 -6.677262458607258200e-02 -8.611771112809450957e-01 -5.075439249401754171e-01 3.367538997924074962e-01 -7.930926649710783316e-01
1.482899943776747609e-01 5.435149004894357372e-02 -8.788392414810863862e-01 3.048578629009791596e-01 9.174511055706956464e-01 -2.556269788472180782e-01
-2.534732591915579425e-01 -1.119382667738114817e-01 -8.082672273874713653e-01 -1.610309177966435246e-01 1.518502026040460806e-01 -9.751977027673315312e-01
-2.180180684002359578e-02 2.424279440348138248e-01 -7.360719819805277009e-01 -2.735984108281556137e-01 1.629153467707534220e-01 -9.479464644054921285e-01
1.120051440414034372e-01 2.688557357124651478e-02 -8.495541456657271784e-01 -5.075439249401754171e-01 3.367538997924074962e-01 -7.930926649710783316e-01
1.517328860371082166e-01 2.906792753124140885e-02 -8.901784974813490292e-01 -8.582871844849713217e-01 -2.207719756344706796e-01 -4.632524621880749760e-01
5.556887610472641993e-04 2.572828958487210355e-02 -8.038008564752088247e-01 -2.507717045930687449e-01 2.807833240174510969e-01 -9.264309348943385869e-01
-2.500196361130949119e-01 9.841900842747279554e-02 -7.919012863007921510e-01 6.226012129584478361e-01 1.337308802928766360e-01 -7.710277435207905095e-01
-1.474650502637444294e-01 3.393740464359727704e-02 -7.837076454280167415e-01 1.174960143058843554e-01 3.376203615591253371e-01 -9.339203274813741018e-01
6.519445390063141610e-02 -1.256804970489488193e-01 -8.794491093023735218e-01 -3.850771581568639412e-01 -4.040122158314887399e-03 -9.228755385634509478e-01
-2.150006470390439933e-02 4.103603373570375440e-02 -7.931911954544543786e-01 -2.507717045930687449e-01 2.807833240174510969e-01 -9.264309348943385869e-01
1.148730422945151014e-01 1.940841156484235039e-02 -8.545643392739286082e-01 -5.075439249401754171e-01 3.367538997924074962e-01 -7.930926649710783316e-01
-4.973674720189636550e-02 1.233438500888775768e-01 -7.529331789996965840e-01 -2.945670562780631219e-01 4.228784433301490675e-01 -8.569737869517050077e-01
1.670197921045992739e-01 4.722233789066428850e-02 -9.039954089286609262e-01 -8.485634896392010296e-01 4.337143433132540915e-01 -3.030377409757643581e-01
-1.158834632916185131e-01 -7.728648477081243029e-02 -8.151970584704462119e-01 -1.382274646883572544e-01 3.416502918117783616e-01 -9.296065006822810117e-01
9.799676397489934243e-02 3.120334987644508146e-02 -8.387560427599003443e-01 -5.075439249401754171e-01 3.367538997924074962e-01 -7.930926649710783316e-01
-1.133737393820097028e-01 7.082071573403375675e-02 -7.641089957086831808e-01 6.193392914018627793e-02 4.797596615050362945e-01 -8.752113205471188095e-01
2.138380822219248800e-01 -3.450600576170624600e-02 -9.993294044626052086e-01 -9.463808726338805988e-01 2.249072748176700609e-01 -2.319050703344446573e-01
-6.997415346307850337e-02 -1.814181211514259429e-01 -8.536084798924039596e-01 -8.328738739575861083e-03 2.085764307589520750e-01 -9.779706052038904529e-01
1.283295096060788898e-01 -1.465233943222684632e-01 -9.101353531651400486e-01 -4.645872445001388296e-01 2.665024418871491108e-01 -8.444732918902498886e-01
-1.688997755350072072e-01 6.552723704498747415e-02 -7.709399666893130831e-01 6.193392914018627793e-02 4.797596615050362945e-01 -8.752113205471188095e-01
-1.087641960959200571e-01 -1.166077179821735713e-02 -7.921368004829976162e-01 -1.382274646883572544e-01 3.416502918117783616e-01 -9.296065006822810117e-01
-9.709083181611972979e-02 5.149543203907021305e-02 -7.706613096088474890e-01 -1.382274646883572544e-01 3.416502918117783616e-01 -9.296065006822810117e-01
1.331391516962816268e-01 -1.559614915021423354e-01 -9.157598937593038890e-01 -4.645872445001388296e-01 2.665024418871491108e-01 -8.444732918902498886e-01
3.515814311502171025e-02 3.680661005791727863e-02 -8.098096247544467330e-01 -2.507717045930687449e-01 2.807833240174510969e-01 -9.264309348943385869e-01
-2.013629265022466863e-01 -1.027881748839419573e-01 -8.164844512018223366e-01 -3.513530985718980593e-01 1.178905720059820333e-02 -9.361687979495190159e-01
-5.016712520843123746e-02 7.324176594764947312e-02 -7.755862201425084423e-01 -2.555147038271888271e-01 3.515412919267524861e-01 -9.006280898342966523e-01
1.655909091034224179e-01 -5.748762472983472843e-02 -9.196722233412714109e-01 -5.075439249401754171e-01 3.367538997924074962e-01 -7.930926649710783316e-01
5.972737093451652157e-02 1.165216013780295545e-01 -7.898707072885814418e-01 -2.555147038271888271e-01 3.515412919267524861e-01 -9.006280898342966523e-01
-1.861858303891939237e-01 4.896198143489426113e-02 -7.812436893548949657e-01 6.193392914018627793e-02 4.797596615050362945e-01 -8.752113205471188095e-01
1.825481989617009082e-01 -1.516480285494317334e-02 -9.261913463180467820e-01 -8.582871844849713217e-01 -2.207719756344706796e-01 -4.632524621880749760e-01
-2.257171706749807605e-01 2.907211655963025734e-02 -7.949440218191945462e-01 6.193392914018627793e-02 4.797596615050362945e-01 -8.752113205471188095e-01
-2.853230021119615781e-02 2.122328119293052096e-01 -7.393187878317902806e-01 -2.735984108281556137e-01 1.629153467707534220e-01 -9.479464644054921285e-01
1.078749289454729483e-02 6.653766003649846938e-02 -7.942019286027698355e-01 -2.507717045930687449e-01 2.807833240174510969e-01 -9.264309348943385869e-01
1.205728108470185411e-01 7.902786110093470984e-02 -8.272252544009135455e-01 -4.526849387053591967e-01 2.298911438426950726e-01 -8.615256283199140830e-01
2.800064783624844553e-02 5.148053574076745520e-02 -8.034248088998626747e-01 -2.507717045930687449e-01 2.807833240174510969e-01 -9.264309348943385869e-01
-1.596921278919869458e-01 -6.516332620579542295e-03 -7.963696040711545354e-01 3.546926121753466443e-01 7.974522978450183930e-02 -9.315760029084295679e-01
2.214685245256430846e-01 -1.185614843687726912e-02 -1.008502067039457328e+00 -9.463808726338805988e-01 2.249072748176700609e-01 -2.319050703344446573e-01
-6.126171202766846763e-02 1.075333407565810806e-01 -7.567734932104367429e-01 -2.945670562780631219e-01 4.228784433301490675e-01 -8.569737869517050077e-01
8.375230994354316769e-03 -1.235094069921712917e-01 -8.511485591440502985e-01 -2.507717045930687449e-01 2.807833240174510969e-01 -9.264309348943385869e-01
2.047056911426686776e-01 -5.578468795915450529e-02 -9.826976429900395882e-01 -9.463808726338805988e-01 2.249072748176700609e-01 -2.319050703344446573e-01
1.932353499452539591e-01 9.542110269681476631e-02 -9.095007484972781331e-01 -9.208202973070478414e-01 2.118546665878718038e-01 -3.274256867020392536e-01
1.798647440123519736e-01 7.082526650958188841e-02 -9.061826893866418153e-01 -8.485634896392010296e-01 4.337143433132540915e-01 -3.030377409757643581e-01
-7.774974772347804930e-02 -4.109888383371532866e-02 -8.075676178492898760e-01 -1.382274646883572544e-01 3.416502918117783616e-01 -9.296065006822810117e-01
1.198779267428387446e-01 -1.044393731655874832e-02 -8.704428036158082804e-01 -5.075439249401754171e-01 3.367538997924074962e-01 -7.930926649710783316e-01
4.455108862563951500e-02 -1.553982220569313094e-02 -8.282173544253297326e-01 -2.507717045930687449e-01 2.807833240174510969e-01 -9.264309348943385869e-01
