-1.022205486304069988e-01 5.473297916379796929e-03 -7.785478722576848476e-01 1.727624835629505418e-01 3.156206330819689154e-01 -9.330255839183072553e-01
-2.132488821508528656e-02 -1.699832671028672290e-02 -7.755649078251495299e-01 5.615896528708334140e-02 2.708621060261189872e-01 -9.609786106552943297e-01
-1.917902504842594960e-02 5.613394868039146141e-02 -7.548263904794840773e-01 5.615896528708334140e-02 2.708621060261189872e-01 -9.609786106552943297e-01
-1.290137069415553950e-01 9.586829700923144015e-04 -7.850361811573987048e-01 1.727624835629505418e-01 3.156206330819689154e-01 -9.330255839183072553e-01
4.044399620493658448e-02 -5.312888441246504251e-02 -7.831315134103719044e-01 -2.165798486400349609e-01 3.671792074828166830e-01 -9.045842131915360351e-01
1.809475265171812952e-01 5.754783845595300845e-02 -7.724921181727488761e-01 -6.738616322281160143e-01 4.456227982020731226e-01 -5.893477940345698274e-01
-1.155284936253318934e-01 -7.955073769903105163e-02 -8.097736543570459578e-01 1.727624835629505418e-01 3.156206330819689154e-01 -9.330255839183072553e-01
2.161789013222269462e-01 -9.215859620536341612e-02 -8.589071628991897800e-01 -8.039511006624506795e-01 3.412523063059888506e-01 -4.870415702837669336e-01
-1.202815928333383355e-01 5.765545638288338548e-02 -7.680017374030210231e-01 6.044624924871598859e-01 -1.084609551129704814e-02 -7.965597638522611268e-01
2.637076155694352830e-01 -4.778669824438557673e-02 -9.062722155461658824e-01 -8.039511006624506795e-01 3.412523063059888506e-01 -4.870415702837669336e-01
2.218596319448153109e-01 -9.541617056682008546e-02 -8.705667105577161724e-01 -8.039511006624506795e-01 3.412523063059888506e-01 -4.870415702837669336e-01
9.010363193315587549e-02 -1.122663481207373942e-01 -8.190257098522120138e-01 -2.165798486400349609e-01 3.671792074828166830e-01 -9.045842131915360351e-01
1.755558493664063358e-01 -4.804965600511958840e-02 -8.134189286077797565e-01 -2.165798486400349609e-01 3.671792074828166830e-01 -9.045842131915360351e-01
3.615128839949703632e-02 -1.124321362062564583e-01 -8.061754784542617402e-01 -2.165798486400349609e-01 3.671792074828166830e-01 -9.045842131915360351e-01
-1.395190617929202292e-01 8.413744335531983184e-03 -7.844595195928426579e-01 1.727624835629505418e-01 3.156206330819689154e-01 -9.330255839183072553e-01
2.000431448829458059e-01 6.966992620307281558e-02 -7.851602336285246064e-01 -6.738616322281160143e-01 4.456227982020731226e-01 -5.893477940345698274e-01
1.081294070051593559e-01 -1.768595689351334238e-02 -7.849504595792046180e-01 -2.165798486400349609e-01 3.671792074828166830e-01 -9.045842131915360351e-01
-2.780289229825767469e-02 1.514779927867878906e-01 -7.199593021381174296e-01 2.347426625331866176e-02 1.563658669141041735e-01 -9.874202117072896634e-01
2.203981205507373475e-01 -2.671774054583469712e-02 -8.471461663390095209e-01 -7.897158005008737547e-01 4.182095265535869244e-02 -6.120457191732184832e-01
1.486144824923425201e-01 9.367073244920490205e-02 -7.472833359799757602e-01 -1.504413674180470617e-01 2.538580342262657941e-01 -9.554702996054685871e-01
1.549655504015134688e-01 7.455981767588225340e-02 -7.533608902481092606e-01 -1.504413674180470617e-01 2.538580342262657941e-01 -9.554702996054685871e-01
2.099718352118301046e-01 7.797915679038847081e-02 -7.914594077637120417e-01 -7.552902570086941214e-01 3.206031223518763795e-01 -5.716207358082527890e-01
-2.110767973640969852e-01 5.937908559727421431e-02 -8.130572302901649673e-01 4.165197217920152406e-01 2.765882862033315903e-01 -8.660313165777586697e-01
-1.712747919635017324e-01 3.349647086816543579e-02 -8.021806118751897419e-01 4.165197217920152406e-01 2.765882862033315903e-01 -8.660313165777586697e-01
-1.756530592608454566e-01 -2.010631177546217535e-02 -8.089610784662467635e-01 6.044624924871598859e-01 -1.084609551129704814e-02 -7.965597638522611268e-01
-6.928903252460889839e-02 -2.487814502929008506e-02 -7.827173304103707263e-01 1.727624835629505418e-01 3.156206330819689154e-01 -9.330255839183072553e-01
2.309807894527199802e-03 1.274895538961291486e-01 -7.291481463614388758e-01 1.580509318713982717e-02 4.205470206577769932e-01 -9.071330676616373712e-01
2.470441129650295109e-01 -3.320521307286400381e-02 -8.819704823064358212e-01 -7.897158005008737547e-01 4.182095265535869244e-02 -6.120457191732184832e-01
-8.190661642272961673e-02 -3.612986224770020627e-02 -7.888598406923169604e-01 1.727624835629505418e-01 3.156206330819689154e-01 -9.330255839183072553e-01
-3.432377930251766934e-02 5.501233706719921290e-02 -7.560275783096090940e-01 5.615896528708334140e-02 2.708621060261189872e-01 -9.609786106552943297e-01
4.206406021485673691e-02 -1.161257207934074109e-01 -8.090904029553110943e-01 -2.165798486400349609e-01 3.671792074828166830e-01 -9.045842131915360351e-01
-2.378230572831079304e-01 -8.257496187474831773e-02 -8.338920239613699659e-01 1.364040974097129877e-01 1.288614895571708052e-01 -9.822365492685295463e-01
1.829724668840278234e-01 -1.046554567413299913e-01 -8.336475499395977762e-01 -4.108972460793882675e-01 3.830523652560102743e-01 -8.273054687575506216e-01
-5.091368721246320589e-02 6.162696636713474452e-02 -7.551326776835215471e-01 5.615896528708334140e-02 2.708621060261189872e-01 -9.609786106552943297e-01
-1.047168254375569901e-01 -6.604602516538013446e-02 -8.032033987577352763e-01 1.727624835629505418e-01 3.156206330819689154e-01 -9.330255839183072553e-01
3.174385899548888557e-02 -9.355978803543936462e-02 -7.974597678294923497e-01 -2.165798486400349609e-01 3.671792074828166830e-01 -9.045842131915360351e-01
-1.615305495767264676e-01 4.043406242923804593e-03 -7.985731607843125079e-01 6.044624924871598859e-01 -1.084609551129704814e-02 -7.965597638522611268e-01
-1.779249671049420445e-01 9.770682622325119193e-02 -7.787434593706239472e-01 3.679351126808654837e-01 4.274426293791371845e-01 -8.257823874641359030e-01
-1.037337048776714177e-01 2.306773813181154861e-02 -7.728762681565432002e-01 1.727624835629505418e-01 3.156206330819689154e-01 -9.330255839183072553e-01
4.358688793071605755e-02 7.949235725892563054e-02 -7.445745738833892124e-01 5.615896528708334140e-02 2.708621060261189872e-01 -9.609786106552943297e-01
-2.346129781225316513e-01 -8.934662705933217597e-02 -8.344883023870834915e-01 1.530063183524634218e-01 3.290460068082540213e-01 -9.318357108137500511e-01
9.960759394916431086e-02 -1.612161691457447421e-01 -8.223471783396523183e-01 -1.716930969011788988e-01 2.895140113547035599e-01 -9.416491478814128513e-01
-2.327771190790144662e-01 1.541168512306185234e-01 -8.177182766012865978e-01 8.228517764154676950e-01 1.320856524805168533e-02 -5.681025328706051924e-01
2.189903751914957508e-01 -8.162113975114888842e-02 -8.561648019029013401e-01 -8.039511006624506795e-01 3.412523063059888506e-01 -4.870415702837669336e-01
1.838954336583546456e-01 -3.013926968800549264e-02 -8.173135290793194230e-01 -7.205234628331455005e-01 -1.221174803528596448e-01 -6.825930416428237502e-01
-2.206682294189272475e-01 1.009882505192534197e-01 -8.014147605240269367e-01 8.228517764154676950e-01 1.320856524805168533e-02 -5.681025328706051924e-01
1.387613796267078425e-01 7.962996545600928289e-02 -7.493387996396023709e-01 -1.609395103439964503e-01 2.509004234593008587e-01 -9.545404399595536216e-01
-1.902794106471080160e-01 -5.625047491066516997e-02 -8.195680136301976004e-01 6.044624924871598859e-01 -1.084609551129704814e-02 -7.965597638522611268e-01
6.317226622147990855e-02 -1.588848634716814034e-01 -8.182180649928522120e-01 -1.016310528166411015e-01 1.205704862778142900e-01 -9.874886768677968440e-01
1.186441071397315444e-01 8.477456510114794730e-02 -7.445946882081406759e-01 -1.609395103439964503e-01 2.509004234593008587e-01 -9.545404399595536216e-01
-2.250503777263160310e-01 -8.901291960159427030e-02 -8.329628781209511557e-01 1.364040974097129877e-01 1.288614895571708052e-01 -9.822365492685295463e-01
3.072437492611412510e-02 1.546406463403909581e-01 -7.180670826996156109e-01 2.347426625331866176e-02 1.563658669141041735e-01 -9.874202117072896634e-01
-1.179059879894877733e-01 5.060266467955965020e-02 -7.661860420488122436e-01 1.727624835629505418e-01 3.156206330819689154e-01 -9.330255839183072553e-01
-1.884180061481231794e-01 9.644735321248165683e-02 -7.840706618211171763e-01 3.679351126808654837e-01 4.274426293791371845e-01 -8.257823874641359030e-01
6.379098052668027985e-02 -9.153755387426226742e-02 -8.043117980811148593e-01 -2.165798486400349609e-01 3.671792074828166830e-01 -9.045842131915360351e-01
-1.565655507967471105e-01 -5.166298723051195030e-02 -8.079384575815550251e-01 1.727624835629505418e-01 3.156206330819689154e-01 -9.330255839183072553e-01
-2.096277899636156683e-01 8.076512571460844891e-02 -8.009455980015499632e-01 -3.283150101859014791e-01 8.349804418477556611e-01 -4.416071962936722883e-01
2.376172250307689027e-01 -7.995326435390201492e-02 -8.857432013315640340e-01 -8.039511006624506795e-01 3.412523063059888506e-01 -4.870415702837669336e-01
-2.306318875410002800e-01 7.218435993989988364e-02 -8.165160342502847390e-01 8.228517764154676950e-01 1.320856524805168533e-02 -5.681025328706051924e-01
4.008282765293172747e-03 -7.234928262310767744e-02 -7.896857130844399109e-01 5.615896528708334140e-02 2.708621060261189872e-01 -9.609786106552943297e-01
8.904428954542514818e-02 -4.097890245153056055e-02 -7.898358349536375167e-01 -2.165798486400349609e-01 3.671792074828166830e-01 -9.045842131915360351e-01
8.433228186856567624e-03 8.576976002972869217e-02 -7.444556337207944852e-01 5.470250477771529396e-02 3.426830495258548770e-01 -9.378571125383142748e-01
-3.136106040192296329e-02 1.959263033627972050e-01 -7.130051471094566162e-01 2.347426625331866176e-02 1.563658669141041735e-01 -9.874202117072896634e-01
2.934725200316904217e-02 -5.511899756581619542e-02 -7.833483799488606403e-01 5.615896528708334140e-02 2.708621060261189872e-01 -9.609786106552943297e-01
-7.006373216538342580e-03 1.296487888488148943e-01 -7.283094417184644565e-01 1.580509318713982717e-02 4.205470206577769932e-01 -9.071330676616373712e-01
8.812769413327312118e-02 -1.011720196468764987e-01 -8.140493295654891437e-01 -2.165798486400349609e-01 3.671792074828166830e-01 -9.045842131915360351e-01
1.120553696767648405e-01 1.718151707819943336e-02 -7.717373978383761379e-01 -2.165798486400349609e-01 3.671792074828166830e-01 -9.045842131915360351e-01
-8.898648404728728978e-02 -7.430933148519111575e-02 -8.030859926803937121e-01 1.727624835629505418e-01 3.156206330819689154e-01 -9.330255839183072553e-01
-1.370950550365605813e-01 -8.283976764958659103e-03 -7.896591282219944663e-01 1.727624835629505418e-01 3.156206330819689154e-01 -9.330255839183072553e-01
-2.000054504976175179e-02 1.005313250235487510e-01 -7.407203744316150917e-01 5.470250477771529396e-02 3.426830495258548770e-01 -9.378571125383142748e-01
-1.409975507576668730e-01 7.232020508931241709e-02 -7.752193949434595943e-01 4.165197217920152406e-01 2.765882862033315903e-01 -8.660313165777586697e-01
6.614446777530577637e-02 3.570040336351353039e-02 -7.555995544585890622e-01 5.615896528708334140e-02 2.708621060261189872e-01 -9.609786106552943297e-01
-1.005035496004525047e-01 -1.112009793093397675e-01 -8.176981129962828110e-01 1.727624835629505418e-01 3.156206330819689154e-01 -9.330255839183072553e-01
-5.925784332703552121e-02 -1.411786703420962186e-01 -8.199285265140120460e-01 1.691532693058646342e-01 2.983363359999201547e-01 -9.393522247300424288e-01
1.372451887867228160e-01 3.668618164957999916e-02 -7.800262456126182409e-01 -7.205234628331455005e-01 -1.221174803528596448e-01 -6.825930416428237502e-01
-8.696344358823769605e-02 -1.024859241676570054e-01 -8.122428782725331642e-01 1.727624835629505418e-01 3.156206330819689154e-01 -9.330255839183072553e-01
-2.636121786859517702e-01 -9.287059646095587040e-02 -8.404943063512426704e-01 1.530063183524634218e-01 3.290460068082540213e-01 -9.318357108137500511e-01
-1.290149639524866554e-01 2.325604599892092811e-02 -7.774937398865673366e-01 1.727624835629505418e-01 3.156206330819689154e-01 -9.330255839183072553e-01
7.969968018480685923e-02 -2.003960537168444564e-02 -7.790990473264455263e-01 -2.165798486400349609e-01 3.671792074828166830e-01 -9.045842131915360351e-01
1.978498214248050335e-01 7.093189124115950595e-02 -7.816981744884634598e-01 -6.738616322281160143e-01 4.456227982020731226e-01 -5.893477940345698274e-01
-7.666307733310563644e-02 -1.499339918033520958e-01 -8.258111735653804741e-01 2.048920896466099317e-01 1.057910606622711018e-02 -9.787273952000550281e-01
-9.855828164471926167e-02 2.139525245582643564e-02 -7.724837301708202819e-01 1.727624835629505418e-01 3.156206330819689154e-01 -9.330255839183072553e-01
-1.945777272465184227e-01 -1.298208083734006535e-01 -8.420520151956215615e-01 1.923864843487708975e-01 3.338795182200399170e-01 -9.227740286511503243e-01
-1.929193910018061620e-01 8.276397183222403142e-02 -7.931591071225259082e-01 3.679351126808654837e-01 4.274426293791371845e-01 -8.257823874641359030e-01
-1.839588459507158352e-02 -4.176754739335162940e-03 -7.717798414782939265e-01 5.615896528708334140e-02 2.708621060261189872e-01 -9.609786106552943297e-01
-2.672668580146822861e-02 -7.437249283340414963e-02 -7.920521081177113176e-01 5.615896528708334140e-02 2.708621060261189872e-01 -9.609786106552943297e-01
1.709875549172675258e-01 2.470118340610913052e-02 -8.008273534429891649e-01 4.915067921288245878e-01 8.550580037617456775e-01 -1.652176851738668129e-01
1.984703743748993110e-02 -9.480531527489614863e-02 -7.951169454844397855e-01 -2.165798486400349609e-01 3.671792074828166830e-01 -9.045842131915360351e-01
-2.331581144925807814e-01 -8.228761069835663355e-02 -8.332065008947246998e-01 1.364040974097129877e-01 1.288614895571708052e-01 -9.822365492685295463e-01
-8.295305374400130383e-02 -7.583375668683329032e-03 -7.793969972205001540e-01 1.727624835629505418e-01 3.156206330819689154e-01 -9.330255839183072553e-01
6.464701404323248968e-02 2.019531002679323534e-02 -7.600573411772267862e-01 5.615896528708334140e-02 2.708621060261189872e-01 -9.609786106552943297e-01
-9.064740713110273906e-02 -1.278166707139149760e-01 -8.213372391289414098e-01 1.691532693058646342e-01 2.983363359999201547e-01 -9.393522247300424288e-01
-5.839522468479583367e-02 7.722791010967554326e-02 -7.511726009110512026e-01 5.615896528708334140e-02 2.708621060261189872e-01 -9.609786106552943297e-01
1.140571497095338310e-01 1.886464891028950472e-02 -7.715334745408013450e-01 -2.165798486400349609e-01 3.671792074828166830e-01 -9.045842131915360351e-01
-8.736226717033590203e-03 2.980971103464346780e-02 -7.616358882421911947e-01 5.615896528708334140e-02 2.708621060261189872e-01 -9.609786106552943297e-01
1.865983408659225851e-01 -1.049912979225209667e-02 -8.236802984332833866e-01 -7.205234628331455005e-01 -1.221174803528596448e-01 -6.825930416428237502e-01
-1.055780428843749036e-01 -1.991858256507116065e-02 -7.877590349382074253e-01 1.727624835629505418e-01 3.156206330819689154e-01 -9.330255839183072553e-01
1.736263786888110339e-01 2.420545055384698205e-02 -7.955426924033952574e-01 4.915067921288245878e-01 8.550580037617456775e-01 -1.652176851738668129e-01
-1.288947439702379238e-01 -1.341321777765653589e-01 -8.302303966535705682e-01 1.691532693058646342e-01 2.983363359999201547e-01 -9.393522247300424288e-01
-2.050682072946143075e-01 1.172901433386587099e-03 -8.287569540760787445e-01 4.165197217920152406e-01 2.765882862033315903e-01 -8.660313165777586697e-01
1.210558934482192234e-01 7.195304959953367774e-02 -7.483714536812097196e-01 -1.609395103439964503e-01 2.509004234593008587e-01 -9.545404399595536216e-01
2.863940707142954151e-02 1.122346622235215613e-01 -7.336070707039741290e-01 5.470250477771529396e-02 3.426830495258548770e-01 -9.378571125383142748e-01
-1.405783854894454010e-01 -1.383992898267013272e-01 -8.338977281985087142e-01 1.923864843487708975e-01 3.338795182200399170e-01 -9.227740286511503243e-01
-1.922944486594489744e-01 -4.822263991609226919e-02 -8.212064162005013879e-01 6.044624924871598859e-01 -1.084609551129704814e-02 -7.965597638522611268e-01
1.898074638964303840e-01 4.447848520859712905e-03 -8.297417955723799254e-01 -7.205234628331455005e-01 -1.221174803528596448e-01 -6.825930416428237502e-01
-1.894591106435584427e-01 -1.274060595911094274e-01 -8.401111415283766259e-01 1.923864843487708975e-01 3.338795182200399170e-01 -9.227740286511503243e-01
-1.915430261153645494e-02 1.387072231463389038e-01 -7.243216051722185522e-01 1.580509318713982717e-02 4.205470206577769932e-01 -9.071330676616373712e-01
-1.680076988496649326e-01 1.197219822155867891e-01 -7.645137874063592243e-01 5.401933734150951016e-01 -1.627490793456149998e-01 -8.256535935188402675e-01
-5.617569746291573018e-02 2.125352350287482150e-02 -7.668198730989070899e-01 5.615896528708334140e-02 2.708621060261189872e-01 -9.609786106552943297e-01
-2.034097308210197352e-01 1.172513062930281430e-01 -7.871889661878226363e-01 5.401933734150951016e-01 -1.627490793456149998e-01 -8.256535935188402675e-01
1.953000910799752299e-01 8.389496074716075447e-02 -7.689810576445150758e-01 -6.738616322281160143e-01 4.456227982020731226e-01 -5.893477940345698274e-01
5.142493917192196562e-02 1.294519567438070715e-02 -7.628735529598181797e-01 5.615896528708334140e-02 2.708621060261189872e-01 -9.609786106552943297e-01
-1.911326496031234279e-01 6.263679390455913557e-03 -8.204287515905555050e-01 4.165197217920152406e-01 2.765882862033315903e-01 -8.660313165777586697e-01
1.441239545878384154e-01 2.736916137844055963e-02 -7.856204150256842489e-01 -7.205234628331455005e-01 -1.221174803528596448e-01 -6.825930416428237502e-01
1.879866081368727626e-01 -7.229783993731464520e-02 -8.262377249597497864e-01 -2.165798486400349609e-01 3.671792074828166830e-01 -9.045842131915360351e-01
-2.212999729027155527e-01 1.109872591177715612e-01 -8.020973110636722136e-01 8.228517764154676950e-01 1.320856524805168533e-02 -5.681025328706051924e-01
-6.995144824391653915e-02 5.729435254743443090e-02 -7.574664256357073189e-01 5.615896528708334140e-02 2.708621060261189872e-01 -9.609786106552943297e-01
-1.802405051607485487e-01 1.744648678280327422e-02 -8.116186469691681893e-01 4.165197217920152406e-01 2.765882862033315903e-01 -8.660313165777586697e-01
2.027603961606412042e-01 1.228222742457969752e-01 -7.567798171107574801e-01 -7.552902570086941214e-01 3.206031223518763795e-01 -5.716207358082527890e-01
2.003584193704456284e-01 1.247770457966184687e-01 -7.558888116088574582e-01 -2.760572768896117912e-01 4.757561229363988647e-02 -9.599629893861414409e-01
8.401107511994163057e-02 8.416280413230026181e-02 -7.406345601930126588e-01 5.470250477771529396e-02 3.426830495258548770e-01 -9.378571125383142748e-01
9.763502875556272220e-02 -1.228784176146778401e-01 -8.207100083403037205e-01 -1.133280961263319064e-01 7.443140785925899013e-03 -9.935297390031270215e-01
1.214483749685454778e-01 -1.791057247617436898e-01 -8.318296786528405207e-01 -1.716930969011788988e-01 2.895140113547035599e-01 -9.416491478814128513e-01
6.084305897970885418e-02 -6.750320277380558731e-02 -7.938502244057499269e-01 -2.165798486400349609e-01 3.671792074828166830e-01 -9.045842131915360351e-01
-2.318797158347027931e-01 -3.755736171170252075e-02 -8.276666063955485653e-01 -7.534425559764020008e-02 1.792145815495011299e-02 -9.969965218023770781e-01
1.177127210936851354e-01 -1.744860289375591011e-01 -8.297282031123208723e-01 -1.716930969011788988e-01 2.895140113547035599e-01 -9.416491478814128513e-01
8.329001772704272555e-02 -1.536151337638798631e-01 -8.196451339055423890e-01 -1.016310528166411015e-01 1.205704862778142900e-01 -9.874886768677968440e-01
4.441243030699758981e-02 4.598067677962056760e-02 -7.539719555163563180e-01 5.615896528708334140e-02 2.708621060261189872e-01 -9.609786106552943297e-01
-1.608827542761403218e-01 2.271500408678597815e-02 -7.983358226246037859e-01 6.044624924871598859e-01 -1.084609551129704814e-02 -7.965597638522611268e-01
1.342473749799419636e-01 5.192628853040626158e-02 -7.692266440452021348e-01 4.915067921288245878e-01 8.550580037617456775e-01 -1.652176851738668129e-01
1.339772857136441175e-01 4.722607140059963821e-02 -7.784623620191712945e-01 -7.205234628331455005e-01 -1.221174803528596448e-01 -6.825930416428237502e-01
1.820715635531765242e-01 -3.149739037752959797e-02 -8.151453389714937714e-01 -7.205234628331455005e-01 -1.221174803528596448e-01 -6.825930416428237502e-01
1.961396139330867372e-01 -1.246046361751347170e-01 -8.494239775363082723e-01 -4.108972460793882675e-01 3.830523652560102743e-01 -8.273054687575506216e-01
-2.290597619680054542e-01 8.198745991441513947e-02 -8.140110089708819663e-01 8.228517764154676950e-01 1.320856524805168533e-02 -5.681025328706051924e-01
1.477960924274132060e-01 -8.937607690825918882e-02 -8.235473372021101524e-01 -2.165798486400349609e-01 3.671792074828166830e-01 -9.045842131915360351e-01
1.104354559401822811e-01 5.859610564585056997e-02 -7.556464822399620029e-01 -7.205234628331455005e-01 -1.221174803528596448e-01 -6.825930416428237502e-01
4.076390088593204869e-02 1.704870244055127770e-01 -7.153190093698752472e-01 2.347426625331866176e-02 1.563658669141041735e-01 -9.874202117072896634e-01
2.685493255277182634e-02 8.526755064607058343e-02 -7.435646507375380798e-01 5.470250477771529396e-02 3.426830495258548770e-01 -9.378571125383142748e-01
-1.015992223520931909e-01 -7.708275958159635510e-02 -8.063595997264466630e-01 1.727624835629505418e-01 3.156206330819689154e-01 -9.330255839183072553e-01
4.289243261700537158e-02 -3.769460412818944478e-02 -7.776455566290929600e-01 5.615896528708334140e-02 2.708621060261189872e-01 -9.609786106552943297e-01
-1.842094494815828265e-01 2.358206575405839139e-02 -8.115679724873536838e-01 4.165197217920152406e-01 2.765882862033315903e-01 -8.660313165777586697e-01
1.661226553128462013e-01 -4.091000871064924549e-02 -8.082623387540333049e-01 -2.165798486400349609e-01 3.671792074828166830e-01 -9.045842131915360351e-01
-1.024109133860692938e-01 6.354097936135599811e-02 -7.589401886028964705e-01 1.727624835629505418e-01 3.156206330819689154e-01 -9.330255839183072553e-01
1.899932736744835149e-01 2.948697502611300619e-02 -8.092764720694577418e-01 -6.614947954974169653e-01 5.314078599233823530e-01 -5.291789129788538881e-01
-3.759151064521386310e-02 8.310582976743058348e-02 -7.481134960923642163e-01 5.470250477771529396e-02 3.426830495258548770e-01 -9.378571125383142748e-01
2.779016756073478603e-02 -6.064933370018173175e-02 -7.849981593778295741e-01 5.615896528708334140e-02 2.708621060261189872e-01 -9.609786106552943297e-01
2.224933360257630721e-01 1.320533609575527678e-01 -7.776758085462079917e-01 -7.552902570086941214e-01 3.206031223518763795e-01 -5.716207358082527890e-01
7.905072478287136772e-02 8.964877683489677618e-02 -7.389193668593767583e-01 5.470250477771529396e-02 3.426830495258548770e-01 -9.378571125383142748e-01
5.315824316598341537e-02 -6.952414574573460848e-02 -7.928306089918261135e-01 -2.165798486400349609e-01 3.671792074828166830e-01 -9.045842131915360351e-01
9.592604180205588360e-02 -1.636778730402194681e-01 -8.224327735742447132e-01 -1.716930969011788988e-01 2.895140113547035599e-01 -9.416491478814128513e-01
1.883668207277192641e-01 9.324934971958720453e-02 -7.543478630881994551e-01 -7.552902570086941214e-01 3.206031223518763795e-01 -5.716207358082527890e-01
-2.236451509941925903e-02 6.460444419556998774e-02 -7.526250486330848810e-01 5.615896528708334140e-02 2.708621060261189872e-01 -9.609786106552943297e-01
1.207621218748450020e-01 -6.160109623529532591e-02 -8.058006106865938101e-01 -2.165798486400349609e-01 3.671792074828166830e-01 -9.045842131915360351e-01
-1.625594534769599087e-02 1.462577550468240617e-01 -7.207706790549748277e-01 1.580509318713982717e-02 4.205470206577769932e-01 -9.071330676616373712e-01
-4.376377572372457114e-02 -7.544320757682729250e-03 -7.742115090672517796e-01 5.615896528708334140e-02 2.708621060261189872e-01 -9.609786106552943297e-01
1.292122752792570217e-01 -4.249017302716008408e-03 -7.845440403593240131e-01 -2.165798486400349609e-01 3.671792074828166830e-01 -9.045842131915360351e-01
-1.959329827447845451e-01 -1.176504813882692652e-01 -8.379310820618306455e-01 1.923864843487708975e-01 3.338795182200399170e-01 -9.227740286511503243e-01
1.846523736507919566e-01 -1.249032493381329878e-01 -8.438568791759155641e-01 -4.108972460793882675e-01 3.830523652560102743e-01 -8.273054687575506216e-01
1.821888460650253339e-01 9.166191879432745993e-02 -7.531034296594081301e-01 -1.504413674180470617e-01 2.538580342262657941e-01 -9.554702996054685871e-01
1.248007349251824272e-01 3.272700885381993330e-02 -7.684788929576210625e-01 -2.165798486400349609e-01 3.671792074828166830e-01 -9.045842131915360351e-01
-8.257115149594758396e-02 -1.119283948037908677e-01 -8.146237511102397688e-01 1.727624835629505418e-01 3.156206330819689154e-01 -9.330255839183072553e-01
-2.312461151931494152e-01 -9.845957436796051732e-02 -8.371533940895332648e-01 1.530063183524634218e-01 3.290460068082540213e-01 -9.318357108137500511e-01
2.281904280268879249e-03 -4.645377369143730006e-02 -7.824876751887569482e-01 5.615896528708334140e-02 2.708621060261189872e-01 -9.609786106552943297e-01
-1.144416889477777866e-01 3.788038654697158808e-02 -7.698482273426519029e-01 1.727624835629505418e-01 3.156206330819689154e-01 -9.330255839183072553e-01
-1.578196693482097346e-01 -7.260224937529301259e-02 -8.152539352358481040e-01 1.727624835629505418e-01 3.156206330819689154e-01 -9.330255839183072553e-01
2.263632975435700689e-01 -2.816199020423137273e-02 -8.549416532955327330e-01 -7.897158005008737547e-01 4.182095265535869244e-02 -6.120457191732184832e-01
2.264984788505781665e-01 -3.390224875695074802e-02 -8.555083068711969441e-01 -7.897158005008737547e-01 4.182095265535869244e-02 -6.120457191732184832e-01
-8.291280463522958388e-02 8.540224123624208519e-02 -7.499178722529742380e-01 5.470250477771529396e-02 3.426830495258548770e-01 -9.378571125383142748e-01
3.340558491074405861e-02 8.220201692849946062e-02 -7.443026835802800667e-01 5.470250477771529396e-02 3.426830495258548770e-01 -9.378571125383142748e-01
1.256775609116413395e-01 -1.717607124787198236e-01 -8.303425409639068056e-01 -1.716930969011788988e-01 2.895140113547035599e-01 -9.416491478814128513e-01
-1.951304049003913244e-01 -8.747403757369985600e-02 -8.271933061767984263e-01 1.727624835629505418e-01 3.156206330819689154e-01 -9.330255839183072553e-01
1.206631250068940647e-01 5.843466694641896719e-02 -7.664136020274185945e-01 -7.205234628331455005e-01 -1.221174803528596448e-01 -6.825930416428237502e-01
-7.033968278706564936e-02 -1.811633781647986330e-01 -8.254513279228661293e-01 2.904872526201156546e-01 1.640668834071828952e-01 -9.427084458273780054e-01
-2.249529911579940533e-01 1.559861468865575973e-01 -8.089191279188713279e-01 5.401933734150951016e-01 -1.627490793456149998e-01 -8.256535935188402675e-01
-7.435911664928072928e-02 -1.116871899920143241e-01 -8.130215863074985450e-01 1.727624835629505418e-01 3.156206330819689154e-01 -9.330255839183072553e-01
7.235307415904611295e-02 -1.602166913201341636e-01 -8.193255554718289480e-01 -1.016310528166411015e-01 1.205704862778142900e-01 -9.874886768677968440e-01
1.763636768195300242e-01 -5.041634368569503089e-02 -8.145730031972029384e-01 -2.165798486400349609e-01 3.671792074828166830e-01 -9.045842131915360351e-01
6.223335845232459002e-02 2.994907010855945434e-02 -7.574491919748560509e-01 5.615896528708334140e-02 2.708621060261189872e-01 -9.609786106552943297e-01
5.614775131418993370e-02 1.813998404623625924e-02 -7.611333481900414144e-01 5.615896528708334140e-02 2.708621060261189872e-01 -9.609786106552943297e-01
1.019431552803075902e-01 -1.251153419715340109e-01 -8.212181778494949125e-01 -1.133280961263319064e-01 7.443140785925899013e-03 -9.935297390031270215e-01
1.416946255114466535e-01 3.138054912266642626e-02 -7.837737392503113520e-01 -7.205234628331455005e-01 -1.221174803528596448e-01 -6.825930416428237502e-01
1.223095509434216771e-01 5.745296651559661516e-02 -7.679758882931051467e-01 -7.205234628331455005e-01 -1.221174803528596448e-01 -6.825930416428237502e-01
1.810164700871630949e-01 -2.817519783937803834e-02 -8.146259638913065926e-01 -7.205234628331455005e-01 -1.221174803528596448e-01 -6.825930416428237502e-01
-3.543468475778079746e-02 -6.363525103208429734e-03 -7.733919425134762049e-01 5.615896528708334140e-02 2.708621060261189872e-01 -9.609786106552943297e-01
-9.418825217456827659e-02 -1.026599226164049555e-01 -8.136395102595339601e-01 1.727624835629505418e-01 3.156206330819689154e-01 -9.330255839183072553e-01
-8.904158861662122421e-03 -1.389028036954944312e-01 -8.101081058103459798e-01 1.727624835629505418e-01 3.156206330819689154e-01 -9.330255839183072553e-01
-6.212298248383269633e-02 5.476602320549983811e-03 -7.716143226527351073e-01 5.615896528708334140e-02 2.708621060261189872e-01 -9.609786106552943297e-01
1.085464525052856066e-01 7.933872804515317012e-02 -7.443209881506588355e-01 -1.609395103439964503e-01 2.509004234593008587e-01 -9.545404399595536216e-01
6.323651979760157305e-02 -1.056041951711709365e-01 -8.098888279573759341e-01 -2.165798486400349609e-01 3.671792074828166830e-01 -9.045842131915360351e-01
-3.718134509786710784e-02 2.194514610375407626e-01 -7.094181182847626443e-01 2.347426625331866176e-02 1.563658669141041735e-01 -9.874202117072896634e-01
-5.649496299963394086e-02 9.640777746034939755e-02 -7.443556893218091775e-01 5.470250477771529396e-02 3.426830495258548770e-01 -9.378571125383142748e-01
9.470434347895115290e-02 -1.544851794350889651e-01 -8.209261124146149946e-01 -1.016310528166411015e-01 1.205704862778142900e-01 -9.874886768677968440e-01
-6.856298498195283024e-03 1.950092346889640837e-01 -7.125678124650178802e-01 2.347426625331866176e-02 1.563658669141041735e-01 -9.874202117072896634e-01
-1.603653606048723035e-02 -6.226801735096049867e-02 -7.880156067567823941e-01 5.615896528708334140e-02 2.708621060261189872e-01 -9.609786106552943297e-01
1.879997499914213416e-02 -1.487232411944168775e-01 -8.124106116554182799e-01 -1.016310528166411015e-01 1.205704862778142900e-01 -9.874886768677968440e-01
-1.211539506988783543e-01 -1.920837282074084884e-01 -8.430098476858708390e-01 2.904872526201156546e-01 1.640668834071828952e-01 -9.427084458273780054e-01
1.421383344364602341e-01 6.321067433893381993e-02 -7.542239698770296652e-01 -1.609395103439964503e-01 2.509004234593008587e-01 -9.545404399595536216e-01
-1.923510407086823359e-01 -8.653383759833760749e-03 -8.217881424233718368e-01 6.044624924871598859e-01 -1.084609551129704814e-02 -7.965597638522611268e-01
1.757629984800608836e-01 -1.186655461560677804e-01 -8.365536677711260527e-01 -4.108972460793882675e-01 3.830523652560102743e-01 -8.273054687575506216e-01
-1.686930116675336988e-01 8.295012266867112655e-03 -8.040662238428901709e-01 6.044624924871598859e-01 -1.084609551129704814e-02 -7.965597638522611268e-01
2.548363477629448925e-01 -5.946930646809720639e-02 -8.998141456211370404e-01 -8.039511006624506795e-01 3.412523063059888506e-01 -4.870415702837669336e-01
-1.768942128454510099e-01 -7.090778564412919538e-02 -8.182126513090509645e-01 1.727624835629505418e-01 3.156206330819689154e-01 -9.330255839183072553e-01
3.392318483706602272e-02 -5.660093482755061689e-02 -7.834986652860531642e-01 5.615896528708334140e-02 2.708621060261189872e-01 -9.609786106552943297e-01
-9.679060965547983675e-02 -1.288657223987716982e-01 -8.227766491727401821e-01 1.691532693058646342e-01 2.983363359999201547e-01 -9.393522247300424288e-01
1.970228325428266536e-01 8.619948581373736152e-02 -7.697392042655517574e-01 -7.552902570086941214e-01 3.206031223518763795e-01 -5.716207358082527890e-01
2.199470075573049244e-01 8.833658022600883453e-02 -7.988306032567892290e-01 -7.552902570086941214e-01 3.206031223518763795e-01 -5.716207358082527890e-01
1.626771742826012834e-01 6.372376041497564841e-03 -8.014482288491521222e-01 -7.205234628331455005e-01 -1.221174803528596448e-01 -6.825930416428237502e-01
-1.315751328697672973e-01 -1.119000022877095907e-01 -8.236521727790684366e-01 1.691532693058646342e-01 2.983363359999201547e-01 -9.393522247300424288e-01
-1.441891057675042664e-01 2.555760272200528066e-02 -7.857066970442628806e-01 6.044624924871598859e-01 -1.084609551129704814e-02 -7.965597638522611268e-01
-1.123252530988263637e-01 6.327250433826561715e-02 -7.620406204550367324e-01 6.044624924871598859e-01 -1.084609551129704814e-02 -7.965597638522611268e-01
-2.006509632742813076e-01 1.685853077734440070e-02 -8.216228811269420396e-01 4.165197217920152406e-01 2.765882862033315903e-01 -8.660313165777586697e-01
-8.701766766341144377e-02 -6.035524148619222928e-02 -7.980010985365478815e-01 1.727624835629505418e-01 3.156206330819689154e-01 -9.330255839183072553e-01
-1.868354789001008542e-01 6.798015686232358745e-02 -7.981007817334834220e-01 3.679351126808654837e-01 4.274426293791371845e-01 -8.257823874641359030e-01
1.796921907199408863e-01 -8.518736052619704791e-02 -8.294838133207027564e-01 -2.165798486400349609e-01 3.671792074828166830e-01 -9.045842131915360351e-01
1.760111343385896143e-01 2.874801911031628701e-02 -7.925403074158671179e-01 -6.614947954974169653e-01 5.314078599233823530e-01 -5.291789129788538881e-01
1.546414145025392164e-02 1.521305628277928867e-02 -7.643358578173885531e-01 5.615896528708334140e-02 2.708621060261189872e-01 -9.609786106552943297e-01
-2.446827785978145930e-01 -5.636830928088046311e-02 -8.314065389761530200e-01 1.364040974097129877e-01 1.288614895571708052e-01 -9.822365492685295463e-01
-1.558053546821896451e-01 -4.692913529754665775e-02 -8.061963459602224935e-01 1.727624835629505418e-01 3.156206330819689154e-01 -9.330255839183072553e-01
-3.055410898992076338e-02 -1.105213956994107460e-01 -8.045161275235357401e-01 1.727624835629505418e-01 3.156206330819689154e-01 -9.330255839183072553e-01
-1.137027873571209990e-01 4.448267719761252875e-02 -7.674780097763020947e-01 1.727624835629505418e-01 3.156206330819689154e-01 -9.330255839183072553e-01
6.910783181478245829e-02 1.730702816824975475e-03 -7.677263246168425370e-01 -2.165798486400349609e-01 3.671792074828166830e-01 -9.045842131915360351e-01
-2.710887998602162785e-01 -6.684223742972815463e-02 -8.364476621994155758e-01 1.364040974097129877e-01 1.288614895571708052e-01 -9.822365492685295463e-01
-5.712538050058914296e-02 6.431962138849901811e-02 -7.547367313659575361e-01 5.615896528708334140e-02 2.708621060261189872e-01 -9.609786106552943297e-01
1.512419845631533810e-01 -3.924746495855452322e-02 -8.040246958015815348e-01 -2.165798486400349609e-01 3.671792074828166830e-01 -9.045842131915360351e-01
1.722954473424747890e-01 2.194267726455633588e-02 -8.112127110552316278e-01 4.915067921288245878e-01 8.550580037617456775e-01 -1.652176851738668129e-01
-1.750657361766213560e-01 6.529435954919465823e-02 -7.938484414697276614e-01 4.165197217920152406e-01 2.765882862033315903e-01 -8.660313165777586697e-01
-2.766677420054038383e-01 -8.611135545377299194e-02 -8.402512188817321537e-01 1.530063183524634218e-01 3.290460068082540213e-01 -9.318357108137500511e-01
1.415966657734286094e-01 4.462369805118852895e-02 -7.851566099707697477e-01 4.915067921288245878e-01 8.550580037617456775e-01 -1.652176851738668129e-01
-2.345323883309920754e-01 7.375978970154596637e-02 -8.221289732052330379e-01 8.228517764154676950e-01 1.320856524805168533e-02 -5.681025328706051924e-01
-1.851655611928214595e-01 -1.047728928877815768e-01 -8.310388806262714034e-01 1.691532693058646342e-01 2.983363359999201547e-01 -9.393522247300424288e-01
7.072457525467368278e-02 -1.554583672901372893e-01 -8.185769701790123198e-01 -1.016310528166411015e-01 1.205704862778142900e-01 -9.874886768677968440e-01
-6.982717743598676474e-02 -1.001401246805563583e-01 -8.082763347152615019e-01 1.727624835629505418e-01 3.156206330819689154e-01 -9.330255839183072553e-01
8.934959558841154906e-03 1.677344044906261544e-01 -7.165115886067471296e-01 2.347426625331866176e-02 1.563658669141041735e-01 -9.874202117072896634e-01
1.372497544239649758e-01 1.083607044721148771e-01 -7.415320745461024821e-01 -1.609395103439964503e-01 2.509004234593008587e-01 -9.545404399595536216e-01
1.235846148101709813e-01 1.027803064202950506e-01 -7.406948793781459317e-01 -1.609395103439964503e-01 2.509004234593008587e-01 -9.545404399595536216e-01
1.771676318392517990e-01 5.244816750231946767e-02 -7.720261855607472024e-01 -6.738616322281160143e-01 4.456227982020731226e-01 -5.893477940345698274e-01
8.790646281971561948e-02 -4.941091197624335185e-02 -7.929860427432304792e-01 -2.165798486400349609e-01 3.671792074828166830e-01 -9.045842131915360351e-01
2.278383474099941186e-01 -6.000112620081228532e-02 -8.590204551022255774e-01 -7.897158005008737547e-01 4.182095265535869244e-02 -6.120457191732184832e-01
-4.972763238763252408e-02 -2.484861702843459835e-02 -7.794374340721139660e-01 5.615896528708334140e-02 2.708621060261189872e-01 -9.609786106552943297e-01
1.883984811029140727e-01 9.270542536901436176e-03 -8.288903570857955039e-01 4.915067921288245878e-01 8.550580037617456775e-01 -1.652176851738668129e-01
-1.134049626919049654e-02 1.489275667904349232e-01 -7.199718164701308654e-01 2.347426625331866176e-02 1.563658669141041735e-01 -9.874202117072896634e-01
-8.493714047623517061e-02 -1.564288133288916638e-01 -8.276135135241011742e-01 2.048920896466099317e-01 1.057910606622711018e-02 -9.787273952000550281e-01
3.789732583746834721e-02 6.948752159309237730e-02 -7.477270381998638582e-01 5.615896528708334140e-02 2.708621060261189872e-01 -9.609786106552943297e-01
4.937817813062880812e-02 -1.359443114266415675e-01 -8.153034205871984019e-01 -1.133280961263319064e-01 7.443140785925899013e-03 -9.935297390031270215e-01
1.666054604372075865e-01 -2.180534803215144687e-02 -8.006231734827078395e-01 -2.165798486400349609e-01 3.671792074828166830e-01 -9.045842131915360351e-01
3.109534098791034290e-02 1.597940381601029303e-01 -7.172421828992210369e-01 2.347426625331866176e-02 1.563658669141041735e-01 -9.874202117072896634e-01
2.271906954701297804e-02 2.612237017692904673e-02 -7.608369776607086798e-01 5.615896528708334140e-02 2.708621060261189872e-01 -9.609786106552943297e-01
-8.694681645087158628e-02 -1.485195436792588752e-01 -8.272460474620709769e-01 1.691532693058646342e-01 2.983363359999201547e-01 -9.393522247300424288e-01
1.537031347528976799e-01 -1.400797688410197750e-01 -8.355122524326270561e-01 -4.108972460793882675e-01 3.830523652560102743e-01 -8.273054687575506216e-01
-1.777318527701323703e-01 -4.161463440082276838e-03 -8.107556607673100935e-01 6.044624924871598859e-01 -1.084609551129704814e-02 -7.965597638522611268e-01
-2.324472406730856699e-01 1.313965088780038037e-01 -8.177687289236132973e-01 8.228517764154676950e-01 1.320856524805168533e-02 -5.681025328706051924e-01
-1.146802912678596478e-02 -6.238839144674916681e-02 -7.877825549086725498e-01 5.615896528708334140e-02 2.708621060261189872e-01 -9.609786106552943297e-01
-8.827561931585313493e-02 3.733048598921989009e-02 -7.651892391139827332e-01 1.727624835629505418e-01 3.156206330819689154e-01 -9.330255839183072553e-01
3.710056623494500938e-02 -5.908803384444689943e-02 -7.847498881150357652e-01 -2.165798486400349609e-01 3.671792074828166830e-01 -9.045842131915360351e-01
-2.131332529282215227e-01 -1.099803831681424593e-01 -8.382474643736921305e-01 1.530063183524634218e-01 3.290460068082540213e-01 -9.318357108137500511e-01
-1.421840657829235299e-01 1.458371499278537931e-02 -7.840357674273554789e-01 6.044624924871598859e-01 -1.084609551129704814e-02 -7.965597638522611268e-01
1.776538718333086631e-01 -4.495616889319976189e-02 -8.126655717087204467e-01 -2.165798486400349609e-01 3.671792074828166830e-01 -9.045842131915360351e-01
1.939397456439699574e-01 -5.187551543730776343e-02 -8.240273198900008866e-01 -7.205234628331455005e-01 -1.221174803528596448e-01 -6.825930416428237502e-01
1.494722977311422618e-01 -1.157755447708018748e-01 -8.265696732202606478e-01 -1.133280961263319064e-01 7.443140785925899013e-03 -9.935297390031270215e-01
1.707928211680195540e-01 7.813599322997583085e-02 -7.549027857533980868e-01 -1.504413674180470617e-01 2.538580342262657941e-01 -9.554702996054685871e-01
1.060444127143419027e-02 6.240477054367073867e-02 -7.513183658156575850e-01 5.615896528708334140e-02 2.708621060261189872e-01 -9.609786106552943297e-01
-1.672585922299979211e-01 -5.510897768590568638e-03 -8.027897433909620961e-01 6.044624924871598859e-01 -1.084609551129704814e-02 -7.965597638522611268e-01
-1.312013177954743370e-01 9.488797538168508572e-02 -7.593843952870636960e-01 3.679351126808654837e-01 4.274426293791371845e-01 -8.257823874641359030e-01
1.465235472721813093e-01 9.930379259704037731e-02 -7.454574699847358321e-01 -1.504413674180470617e-01 2.538580342262657941e-01 -9.554702996054685871e-01
-8.387552663820573018e-02 5.519243200675454097e-02 -7.588725885248336356e-01 5.615896528708334140e-02 2.708621060261189872e-01 -9.609786106552943297e-01
-2.332135833502338718e-01 1.743300487131157761e-01 -8.179395819628845210e-01 5.401933734150951016e-01 -1.627490793456149998e-01 -8.256535935188402675e-01
1.462892058028969211e-01 8.605419554527238279e-02 -7.489194173124770204e-01 -1.609395103439964503e-01 2.509004234593008587e-01 -9.545404399595536216e-01
-4.333929129583051140e-03 1.532511887688787489e-01 -7.191205670107220227e-01 2.347426625331866176e-02 1.563658669141041735e-01 -9.874202117072896634e-01
-7.348670707983137595e-02 2.251686661178071633e-02 -7.674754304714268560e-01 5.615896528708334140e-02 2.708621060261189872e-01 -9.609786106552943297e-01
-1.587808173178073823e-01 8.378104766549930582e-02 -7.774218841919826595e-01 3.679351126808654837e-01 4.274426293791371845e-01 -8.257823874641359030e-01
-2.024624838612298222e-02 -5.045602008023215845e-02 -7.849322817629620364e-01 5.615896528708334140e-02 2.708621060261189872e-01 -9.609786106552943297e-01
-1.642798274397685998e-01 -1.445750136677779463e-01 -8.410736830758008820e-01 1.923864843487708975e-01 3.338795182200399170e-01 -9.227740286511503243e-01
-1.905113695997047718e-01 1.285738125977642365e-01 -7.809819057172853185e-01 5.401933734150951016e-01 -1.627490793456149998e-01 -8.256535935188402675e-01
1.625210502928836342e-01 1.128559802277300239e-01 -7.455986971067315450e-01 -2.760572768896117912e-01 4.757561229363988647e-02 -9.599629893861414409e-01
-1.846147375576736027e-01 2.784410321195668336e-02 -8.104017107827461430e-01 4.165197217920152406e-01 2.765882862033315903e-01 -8.660313165777586697e-01
-4.855512014466743646e-04 4.440371923177209579e-02 -7.570402467299414129e-01 5.615896528708334140e-02 2.708621060261189872e-01 -9.609786106552943297e-01
-9.097406520078755998e-02 -1.183102398777928221e-01 -8.183384940744630187e-01 1.727624835629505418e-01 3.156206330819689154e-01 -9.330255839183072553e-01
1.665943529590474259e-01 7.867728554927737317e-02 -7.540979101828479969e-01 -1.504413674180470617e-01 2.538580342262657941e-01 -9.554702996054685871e-01
-2.508476550864771060e-01 -6.076241996160000602e-02 -8.328391328474793465e-01 1.364040974097129877e-01 1.288614895571708052e-01 -9.822365492685295463e-01
1.443341980405318803e-01 9.151222419568028066e-02 -7.471551550338610959e-01 -1.609395103439964503e-01 2.509004234593008587e-01 -9.545404399595536216e-01
-1.699923318982582698e-01 -7.451198726792911120e-02 -8.181538901170976041e-01 1.727624835629505418e-01 3.156206330819689154e-01 -9.330255839183072553e-01
-3.008697346269116526e-03 2.047905924778378461e-01 -7.109273861450720045e-01 2.347426625331866176e-02 1.563658669141041735e-01 -9.874202117072896634e-01
2.429009312137737908e-01 -2.811564255831497730e-02 -8.762768116023158527e-01 -7.897158005008737547e-01 4.182095265535869244e-02 -6.120457191732184832e-01
-2.603543733022992482e-02 1.271481935435638533e-01 -7.298002638318741297e-01 1.580509318713982717e-02 4.205470206577769932e-01 -9.071330676616373712e-01
2.173590128793974341e-01 -2.788247385526674421e-02 -8.433044254081736302e-01 -7.897158005008737547e-01 4.182095265535869244e-02 -6.120457191732184832e-01
1.443271818386152594e-01 -4.434146244589227959e-02 -8.044368221989113277e-01 -2.165798486400349609e-01 3.671792074828166830e-01 -9.045842131915360351e-01
-4.835285441452372851e-02 -8.245010095872346012e-02 -7.983159498935366027e-01 1.727624835629505418e-01 3.156206330819689154e-01 -9.330255839183072553e-01
-2.252302356390620611e-02 -6.459693454528438183e-02 -7.890511031055263969e-01 5.615896528708334140e-02 2.708621060261189872e-01 -9.609786106552943297e-01
-2.567078816674663380e-02 -2.286980800938123032e-02 -7.774738192351978716e-01 5.615896528708334140e-02 2.708621060261189872e-01 -9.609786106552943297e-01
1.282576075405478522e-01 8.704477614426563842e-03 -7.790575243226911528e-01 -2.165798486400349609e-01 3.671792074828166830e-01 -9.045842131915360351e-01
1.147828734040148985e-01 7.914870223686069906e-02 -7.454224229746815311e-01 -1.609395103439964503e-01 2.509004234593008587e-01 -9.545404399595536216e-01
1.375174820509844631e-01 1.108634999372679758e-01 -7.409193561484768153e-01 -1.609395103439964503e-01 2.509004234593008587e-01 -9.545404399595536216e-01
1.331002034123305866e-01 -1.017877111682668062e-01 -8.245973802766074501e-01 -1.133280961263319064e-01 7.443140785925899013e-03 -9.935297390031270215e-01
5.859218889081054676e-02 -1.624751081379186834e-01 -8.181850514134596519e-01 -1.016310528166411015e-01 1.205704862778142900e-01 -9.874886768677968440e-01
2.236371850266498373e-01 1.369603348810813637e-01 -7.764350327819755648e-01 -7.552902570086941214e-01 3.206031223518763795e-01 -5.716207358082527890e-01
6.539016392570246028e-02 -9.510483417337743661e-02 -8.061426746622600836e-01 -2.165798486400349609e-01 3.671792074828166830e-01 -9.045842131915360351e-01
3.911394299127510243e-02 6.269092323038126524e-02 -7.495716338715829874e-01 5.615896528708334140e-02 2.708621060261189872e-01 -9.609786106552943297e-01
-1.314334361323356570e-01 -1.348935298073516975e-01 -8.309293539104606330e-01 1.691532693058646342e-01 2.983363359999201547e-01 -9.393522247300424288e-01
2.313657668581056703e-01 -6.811791153411221600e-02 -8.671314263262500655e-01 -8.039511006624506795e-01 3.412523063059888506e-01 -4.870415702837669336e-01
2.495735937263259541e-01 -6.547626884738834419e-02 -8.953358684729291195e-01 -8.039511006624506795e-01 3.412523063059888506e-01 -4.870415702837669336e-01
-2.303160204386111576e-01 1.500301800084438142e-01 -8.142485854616537955e-01 8.228517764154676950e-01 1.320856524805168533e-02 -5.681025328706051924e-01
-3.487619446210109622e-03 2.266543884747274085e-01 -7.074764652202244486e-01 2.347426625331866176e-02 1.563658669141041735e-01 -9.874202117072896634e-01
-1.332644017830318384e-01 -1.314908194622693427e-01 -8.301783701022074080e-01 1.691532693058646342e-01 2.983363359999201547e-01 -9.393522247300424288e-01
-1.647134415114665518e-01 3.484869846749925892e-02 -7.985930485623574659e-01 4.165197217920152406e-01 2.765882862033315903e-01 -8.660313165777586697e-01
-7.898266920701686733e-02 2.179922439195345826e-02 -7.687223828286682270e-01 1.727624835629505418e-01 3.156206330819689154e-01 -9.330255839183072553e-01
1.149206191576659097e-01 -6.405983020774864110e-03 -7.819977967668356733e-01 -2.165798486400349609e-01 3.671792074828166830e-01 -9.045842131915360351e-01
1.398724325728326612e-01 4.727218122428505226e-02 -7.765792327717960797e-01 4.915067921288245878e-01 8.550580037617456775e-01 -1.652176851738668129e-01
2.054957737288455877e-01 3.899304733347840751e-02 -8.191091041611922030e-01 -6.614947954974169653e-01 5.314078599233823530e-01 -5.291789129788538881e-01
6.695728521172475411e-02 9.120238116629902914e-02 -7.390570718084052970e-01 5.470250477771529396e-02 3.426830495258548770e-01 -9.378571125383142748e-01
2.342550880234457178e-01 -3.307288926877760549e-02 -8.654599036676945412e-01 -7.897158005008737547e-01 4.182095265535869244e-02 -6.120457191732184832e-01
-1.775937870170395672e-01 -8.166987459988984954e-02 -8.219827488942097471e-01 1.727624835629505418e-01 3.156206330819689154e-01 -9.330255839183072553e-01
6.419053568819291233e-02 -5.072003237942351167e-02 -7.878392470679689286e-01 -2.165798486400349609e-01 3.671792074828166830e-01 -9.045842131915360351e-01
