1.771263542337277452e-01 7.466557083643942869e-03 -8.919043508907931184e-01 5.806501407327647746e-01 -6.143818962005879181e-01 5.342099771512981432e-01
-5.659372326804386344e-02 -1.249613870700192753e-01 -7.696414691175970102e-01 7.229484861524697603e-01 -6.244247694495224099e-01 2.957011898314972353e-01
2.242556256083835520e-01 1.472316191981489497e-01 -7.566912641476948309e-01 -2.002763613350861394e-01 -6.321372955322840381e-01 7.485264315222995846e-01
1.149770169519002128e-01 3.764818362423127951e-02 -8.178850489818103586e-01 9.138164894657538340e-02 -7.321223100138354312e-01 6.750157904936820996e-01
1.640206338997535901e-02 1.997855830935705568e-01 -5.926752765925580313e-01 6.711394978435103464e-01 -5.636134120979384710e-01 4.815721089698613566e-01
1.286529120153494798e-01 1.175830291080764110e-02 -8.478166230281536375e-01 9.138164894657538340e-02 -7.321223100138354312e-01 6.750157904936820996e-01
-1.187206956768657173e-01 -9.919613010354213015e-03 -5.505079684401125162e-01 9.898560637254028016e-01 1.181047953714397664e-01 7.896980699179514951e-02
2.534028651882565611e-02 5.611150173226595733e-02 -7.251659943252036777e-01 6.676069322192210720e-01 -4.793414911222004804e-01 5.696777325309336781e-01
-1.406902355929327310e-02 2.236969067038573761e-02 -7.073733406971045579e-01 6.676069322192210720e-01 -4.793414911222004804e-01 5.696777325309336781e-01
1.808272347328181429e-01 1.567132122386970805e-01 -7.451407494818838018e-01 1.067204530289421610e-01 -8.332970903682982433e-01 5.424266808417759211e-01
1.904781335071373538e-01 6.816321036082532980e-02 -8.172479947526377630e-01 3.577995307959414006e-01 -5.260334769266246102e-01 7.715363095245035829e-01
3.286402060916299162e-02 -9.118650148950635526e-02 -8.418338490659170725e-01 5.838565170120593173e-01 -4.821861587351063405e-01 6.531524139638693605e-01
-3.478591692371958699e-02 -1.058829893355991564e-01 -7.893213941108214726e-01 8.510905651452889131e-01 -2.905019237711625180e-01 4.373253733845390290e-01
-1.321716756799352077e-01 -1.839639609726913816e-01 -5.973330352330933346e-01 9.810650340024460458e-01 1.576970432434969260e-01 -1.124412807203730436e-01
5.320268076490004133e-02 7.612876410944438565e-02 -7.409749730452103167e-01 6.676069322192210720e-01 -4.793414911222004804e-01 5.696777325309336781e-01
7.685084189923253872e-02 4.751927759766529091e-02 -7.823711749870574383e-01 5.827348045398440535e-01 -4.674813082641396944e-01 6.647415843781386835e-01
6.964584799783771207e-02 -2.451745447313345618e-03 -8.111972917305282360e-01 5.827348045398440535e-01 -4.674813082641396944e-01 6.647415843781386835e-01
-3.306512893860333313e-02 -7.593423142726399289e-02 -7.678271990777877365e-01 6.676069322192210720e-01 -4.793414911222004804e-01 5.696777325309336781e-01
3.318035057832886825e-02 -1.137737710450325984e-01 -8.665645493924972742e-01 4.592447412086620995e-01 -6.130572212912940300e-01 6.428492133422784027e-01
1.525778733740636717e-01 -6.216303938292743261e-03 -8.796637079241681478e-01 7.021251782519911666e-01 -6.317359934842773361e-01 3.285268156498687420e-01
-1.010252726632271392e-01 6.031386596264759481e-02 -5.448859668031700298e-01 8.269875363948574476e-01 -5.234533551678952623e-01 2.051540874831336014e-01
-4.041550895421831824e-02 1.745240162453236266e-02 -6.806353540145742009e-01 6.676069322192210720e-01 -4.793414911222004804e-01 5.696777325309336781e-01
-6.114400768774969075e-02 -1.031049341255443723e-02 -6.745393134341827190e-01 8.510905651452889131e-01 -2.905019237711625180e-01 4.373253733845390290e-01
-1.266425584416375205e-01 -1.883534001085472587e-01 -5.552468726791403020e-01 9.810650340024460458e-01 1.576970432434969260e-01 -1.124412807203730436e-01
6.829599963278069896e-02 1.625815654496933285e-02 -7.968561803753024808e-01 5.827348045398440535e-01 -4.674813082641396944e-01 6.647415843781386835e-01
2.535572150932649885e-03 7.318508647492166785e-02 -6.840749324284506327e-01 6.676069322192210720e-01 -4.793414911222004804e-01 5.696777325309336781e-01
1.016012875750030714e-01 -5.674644827591666246e-02 -8.778532892623234218e-01 5.838565170120593173e-01 -4.821861587351063405e-01 6.531524139638693605e-01
5.525691302824031759e-02 1.475724803104314919e-01 -6.955069777860833913e-01 7.082376422134327720e-01 -3.299496154881140786e-01 6.241255429728885806e-01
-1.721751658428597245e-02 1.267412021447383019e-01 -6.242779639615783083e-01 7.082376422134327720e-01 -3.299496154881140786e-01 6.241255429728885806e-01
2.261553374191858576e-02 1.912996054803718371e-01 -6.112662954714996877e-01 6.711394978435103464e-01 -5.636134120979384710e-01 4.815721089698613566e-01
8.605147914551264376e-02 6.373256393179311044e-03 -8.193728128384039078e-01 5.827348045398440535e-01 -4.674813082641396944e-01 6.647415843781386835e-01
6.177926565052847818e-02 1.172534776337888773e-01 -7.189367493804027509e-01 7.082376422134327720e-01 -3.299496154881140786e-01 6.241255429728885806e-01
-1.160815444070122798e-01 -1.898864049901303336e-02 -5.690087666627928753e-01 9.695545026782318443e-01 2.121088466526538652e-01 1.223679022785278681e-01
-1.142980871731938408e-01 -3.098548833611626876e-02 -5.623446124881427144e-01 9.695545026782318443e-01 2.121088466526538652e-01 1.223679022785278681e-01
1.398964490745655265e-01 3.929185831195243506e-02 -8.194758382700286781e-01 9.138164894657538340e-02 -7.321223100138354312e-01 6.750157904936820996e-01
1.108898420849461219e-01 1.020916912789907038e-02 -8.384493402695102349e-01 5.827348045398440535e-01 -4.674813082641396944e-01 6.647415843781386835e-01
5.821699555793571901e-02 -7.590753118208508343e-02 -8.532173967472281850e-01 5.838565170120593173e-01 -4.821861587351063405e-01 6.531524139638693605e-01
1.635630193131568655e-01 2.885436845010384832e-02 -8.357024304124182068e-01 7.021251782519911666e-01 -6.317359934842773361e-01 3.285268156498687420e-01
4.877528239019564976e-02 1.671215891467074666e-01 -6.760206578489207363e-01 6.711394978435103464e-01 -5.636134120979384710e-01 4.815721089698613566e-01
1.063885555143419259e-01 -2.667286725083988343e-04 -8.418705645655719660e-01 5.827348045398440535e-01 -4.674813082641396944e-01 6.647415843781386835e-01
-1.029441090536732939e-01 -4.029570022827989872e-02 -6.111919189970878019e-01 9.027539823388368578e-01 -3.109550286830877197e-01 -2.972241872864172518e-01
-1.074268519435581382e-01 -9.009991011412485373e-02 -6.374687156310975267e-01 8.510905651452889131e-01 -2.905019237711625180e-01 4.373253733845390290e-01
1.586673782481651807e-01 2.786776144480367090e-02 -8.344075699276989333e-01 9.138164894657538340e-02 -7.321223100138354312e-01 6.750157904936820996e-01
4.507822853153881787e-02 1.734863867878908006e-01 -6.634191718553883454e-01 6.711394978435103464e-01 -5.636134120979384710e-01 4.815721089698613566e-01
-6.728826331364208546e-02 -1.363567456855078464e-01 -7.663134637161428397e-01 7.467389392891177202e-01 -5.480871767906196901e-01 3.768041974116678183e-01
3.289535557285262757e-02 2.984289521930298672e-02 -7.561228818467493618e-01 6.676069322192210720e-01 -4.793414911222004804e-01 5.696777325309336781e-01
1.272269160331544469e-01 -6.484810580174819872e-02 -9.045521214974548974e-01 5.682632944326067026e-01 -4.545650433602556606e-01 6.858917185354328483e-01
-1.079667002627106992e-01 5.985656633203031984e-02 -5.180714921266720285e-01 8.269875363948574476e-01 -5.234533551678952623e-01 2.051540874831336014e-01
-5.029017996364704493e-03 -4.347683580071006609e-03 -7.404480341900122609e-01 6.676069322192210720e-01 -4.793414911222004804e-01 5.696777325309336781e-01
-9.136715839332772149e-02 -9.253911968941350152e-02 -6.703432059049253544e-01 8.510905651452889131e-01 -2.905019237711625180e-01 4.373253733845390290e-01
1.020044782940379563e-01 6.048112472231514936e-02 -7.913642507918526858e-01 9.138164894657538340e-02 -7.321223100138354312e-01 6.750157904936820996e-01
-1.250699495395746486e-01 -1.861383679029631477e-01 -5.384191060140658402e-01 9.810650340024460458e-01 1.576970432434969260e-01 -1.124412807203730436e-01
1.445249473221733028e-01 1.100491054361700111e-01 -7.699922845744601174e-01 4.133011925201183767e-01 -3.823544042519027020e-01 8.264304167990313976e-01
-1.228170355508819145e-01 2.175726841204250403e-02 -5.461482953703311605e-01 8.021529982083055454e-01 -4.216491754622456734e-01 4.228031933387380037e-01
-1.330486907023793186e-01 -1.796648228469770459e-01 -5.989556368321268254e-01 9.810650340024460458e-01 1.576970432434969260e-01 -1.124412807203730436e-01
5.257945746257377401e-02 -1.821612334465734159e-02 -8.073226616338471384e-01 5.827348045398440535e-01 -4.674813082641396944e-01 6.647415843781386835e-01
-5.362987171935225394e-02 -5.425357692095204853e-02 -7.183528255001753182e-01 8.510905651452889131e-01 -2.905019237711625180e-01 4.373253733845390290e-01
-5.680850028899318838e-02 -3.934551590312342084e-02 -7.022638409149776217e-01 8.510905651452889131e-01 -2.905019237711625180e-01 4.373253733845390290e-01
-7.772193565735688488e-03 -1.005954804107158096e-01 -8.124550415183476870e-01 5.838565170120593173e-01 -4.821861587351063405e-01 6.531524139638693605e-01
-1.221660222778868099e-01 3.184279227296392401e-02 -5.323107487077336497e-01 8.269875363948574476e-01 -5.234533551678952623e-01 2.051540874831336014e-01
6.689452853982651159e-02 1.209342375848500573e-01 -7.227955185408345695e-01 7.082376422134327720e-01 -3.299496154881140786e-01 6.241255429728885806e-01
1.385166037454126919e-01 -5.570623044066805307e-02 -9.083436720916525653e-01 5.999377622195768422e-01 -4.514092165435009130e-01 6.605334213213962524e-01
-5.778150285750493359e-02 -2.632831280445532482e-02 -6.917233231935138171e-01 8.510905651452889131e-01 -2.905019237711625180e-01 4.373253733845390290e-01
7.097118844621654044e-02 1.061780844729256525e-02 -8.031679307406672796e-01 5.827348045398440535e-01 -4.674813082641396944e-01 6.647415843781386835e-01
-9.049168308290085616e-02 -1.891675864753735413e-03 -5.928185423639876772e-01 3.609853735661616714e-02 3.081202057431718377e-01 9.506623135548704084e-01
5.767465653919359725e-02 2.938009464904259641e-02 -7.783171159131715422e-01 5.827348045398440535e-01 -4.674813082641396944e-01 6.647415843781386835e-01
1.619326643687150069e-01 -3.768235125971997751e-02 -9.172940652729217881e-01 5.999377622195768422e-01 -4.514092165435009130e-01 6.605334213213962524e-01
2.369006902471385706e-02 -2.166365884222212421e-02 -7.844217418212787729e-01 5.827348045398440535e-01 -4.674813082641396944e-01 6.647415843781386835e-01
8.714493079815641141e-02 1.013550264516884236e-01 -7.466970988366077311e-01 3.577995307959414006e-01 -5.260334769266246102e-01 7.715363095245035829e-01
1.818580141803686490e-01 1.512076168554078726e-01 -7.538014625868607599e-01 1.067204530289421610e-01 -8.332970903682982433e-01 5.424266808417759211e-01
6.613579256549857732e-02 4.703557254056580511e-02 -7.733181696573981911e-01 5.827348045398440535e-01 -4.674813082641396944e-01 6.647415843781386835e-01
9.476432025332510306e-03 3.988395539222307912e-02 -7.202293734760999433e-01 6.676069322192210720e-01 -4.793414911222004804e-01 5.696777325309336781e-01
-1.055954745339951206e-01 -1.116894335261744559e-01 -6.553740707638238128e-01 8.510905651452889131e-01 -2.905019237711625180e-01 4.373253733845390290e-01
3.638782934815427278e-02 1.771988180609164812e-02 -7.678564441402633278e-01 5.827348045398440535e-01 -4.674813082641396944e-01 6.647415843781386835e-01
-1.020949341398851573e-01 -1.022627463763690625e-01 -6.559247046057753439e-01 8.510905651452889131e-01 -2.905019237711625180e-01 4.373253733845390290e-01
3.731100378010671764e-02 1.985096428942023650e-02 -7.671670403690309392e-01 5.827348045398440535e-01 -4.674813082641396944e-01 6.647415843781386835e-01
3.939954440245025530e-02 9.656278239381916977e-04 -7.822790889384378943e-01 5.827348045398440535e-01 -4.674813082641396944e-01 6.647415843781386835e-01
-2.747526403908864476e-02 1.127173564846858517e-01 -6.219387454622616884e-01 6.764197312393808170e-01 -4.151492919254174963e-01 6.083645392393184359e-01
-1.197610306637814231e-01 1.657600471589207314e-02 -4.859234133246652654e-01 9.953747781131800920e-01 7.177719294355176805e-02 -6.385206080684899255e-02
1.698573934748402181e-01 5.293557516092420312e-02 -8.180673402241980252e-01 3.577995307959414006e-01 -5.260334769266246102e-01 7.715363095245035829e-01
-1.186536816738850003e-01 -2.204984727653686027e-02 -5.120811904559322558e-01 9.953747781131800920e-01 7.177719294355176805e-02 -6.385206080684899255e-02
-1.346531058480991520e-02 9.407254864051953214e-02 -6.502391913533686063e-01 6.764197312393808170e-01 -4.151492919254174963e-01 6.083645392393184359e-01
-1.196423339449820683e-01 4.072294871858336135e-02 -5.198260406512659193e-01 8.269875363948574476e-01 -5.234533551678952623e-01 2.051540874831336014e-01
4.795823694435446399e-02 4.149343022411380866e-02 -7.612806402335330347e-01 5.827348045398440535e-01 -4.674813082641396944e-01 6.647415843781386835e-01
1.563547425927668821e-01 1.274368754840981000e-01 -7.678638271392260739e-01 4.133011925201183767e-01 -3.823544042519027020e-01 8.264304167990313976e-01
8.400265883591113980e-02 6.858263674790726627e-02 -7.738278339643873682e-01 5.827348045398440535e-01 -4.674813082641396944e-01 6.647415843781386835e-01
1.476714741307088852e-01 1.265596537783472419e-01 -7.639271428624749838e-01 4.133011925201183767e-01 -3.823544042519027020e-01 8.264304167990313976e-01
1.640248725237797578e-01 8.188740461527441172e-03 -8.764281768623943814e-01 7.021251782519911666e-01 -6.317359934842773361e-01 3.285268156498687420e-01
1.643386072661506547e-01 1.134865044263102390e-01 -7.783108368690504486e-01 4.133011925201183767e-01 -3.823544042519027020e-01 8.264304167990313976e-01
-3.060356907923109104e-02 5.513625567174081088e-02 -6.604258301842997891e-01 6.676069322192210720e-01 -4.793414911222004804e-01 5.696777325309336781e-01
-1.201724061661176846e-01 5.158586160032828383e-02 -4.899724248142538485e-01 8.269875363948574476e-01 -5.234533551678952623e-01 2.051540874831336014e-01
-1.144788823064400995e-01 5.087404577106815345e-02 -5.147395436006425573e-01 8.269875363948574476e-01 -5.234533551678952623e-01 2.051540874831336014e-01
-8.875854769903236685e-02 4.750686366543249717e-02 -5.856247449620753942e-01 8.079070310635859675e-01 -4.196887805136687022e-01 4.136998388553853045e-01
2.136966560659183390e-01 1.367907093841702615e-01 -7.683338730458126875e-01 -2.002763613350861394e-01 -6.321372955322840381e-01 7.485264315222995846e-01
5.673024934417505993e-02 7.897002830447166777e-02 -7.426149625322171488e-01 5.827348045398440535e-01 -4.674813082641396944e-01 6.647415843781386835e-01
8.492872151492472654e-02 -2.820310419912074040e-02 -8.427044844244441224e-01 5.827348045398440535e-01 -4.674813082641396944e-01 6.647415843781386835e-01
-4.421789642900316591e-02 2.142064795566540544e-02 -6.728403409798768831e-01 6.676069322192210720e-01 -4.793414911222004804e-01 5.696777325309336781e-01
-1.360118373086589005e-01 -1.546626370230585190e-01 -5.936789911652803342e-01 9.571360312301839812e-01 -1.316710320491237818e-01 -2.579793732840878207e-01
2.018089718681486955e-01 1.575266157642336573e-01 -7.480192467174339166e-01 1.067204530289421610e-01 -8.332970903682982433e-01 5.424266808417759211e-01
1.278552614921885933e-01 1.992252076367724556e-02 -8.388537265460375147e-01 9.138164894657538340e-02 -7.321223100138354312e-01 6.750157904936820996e-01
-4.629256373051406082e-02 2.890987285268591112e-02 -6.641074061679050899e-01 6.676069322192210720e-01 -4.793414911222004804e-01 5.696777325309336781e-01
5.401144792788709764e-02 1.748777691577848292e-01 -6.742404684331938514e-01 6.711394978435103464e-01 -5.636134120979384710e-01 4.815721089698613566e-01
-1.146799547886139664e-01 -1.219724543160145697e-01 -6.445252190825023764e-01 8.510905651452889131e-01 -2.905019237711625180e-01 4.373253733845390290e-01
-7.480870939289785415e-02 -4.261965645694781868e-02 -6.694080660529091453e-01 8.510905651452889131e-01 -2.905019237711625180e-01 4.373253733845390290e-01
-1.189344322900575401e-01 -1.663744744159220993e-03 -4.935413795618625032e-01 9.953747781131800920e-01 7.177719294355176805e-02 -6.385206080684899255e-02
1.315434639254293436e-01 8.577574007968832848e-02 -7.779088515460896858e-01 3.577995307959414006e-01 -5.260334769266246102e-01 7.715363095245035829e-01
-1.171369610052731686e-01 -1.401737012186741738e-01 -6.537450930043985364e-01 7.229484861524697603e-01 -6.244247694495224099e-01 2.957011898314972353e-01
8.882948866009900135e-02 3.471684029587124992e-02 -8.018754076427991873e-01 5.827348045398440535e-01 -4.674813082641396944e-01 6.647415843781386835e-01
-1.234355757218586341e-01 -1.619996034723932832e-01 -5.432747325539645233e-01 9.571360312301839812e-01 -1.316710320491237818e-01 -2.579793732840878207e-01
-1.209656127003228415e-01 -1.155550414150821464e-01 -6.280296407859332630e-01 8.510905651452889131e-01 -2.905019237711625180e-01 4.373253733845390290e-01
-9.130002328034664272e-02 -1.824568233833188252e-02 -5.988941955496619451e-01 9.027539823388368578e-01 -3.109550286830877197e-01 -2.972241872864172518e-01
7.366743790660888573e-03 1.460301891328904811e-01 -6.419780963916611460e-01 7.082376422134327720e-01 -3.299496154881140786e-01 6.241255429728885806e-01
8.327903255336410737e-02 -6.191726990157427751e-02 -8.652922557146245364e-01 5.838565170120593173e-01 -4.821861587351063405e-01 6.531524139638693605e-01
5.272599319770281817e-02 1.152572811178574760e-03 -7.938300320825864009e-01 5.827348045398440535e-01 -4.674813082641396944e-01 6.647415843781386835e-01
-7.067458414710216241e-02 -7.099189517474904787e-02 -6.963004112878160567e-01 8.510905651452889131e-01 -2.905019237711625180e-01 4.373253733845390290e-01
8.199616276914691027e-02 1.485958601613491213e-02 -8.098497521194768511e-01 5.827348045398440535e-01 -4.674813082641396944e-01 6.647415843781386835e-01
-4.267594583334074348e-02 4.715419315335142580e-02 -6.529944906429030471e-01 6.676069322192210720e-01 -4.793414911222004804e-01 5.696777325309336781e-01
-7.881358455661961748e-02 2.881867476098727912e-03 -6.313887954699556326e-01 8.510905651452889131e-01 -2.905019237711625180e-01 4.373253733845390290e-01
-2.162888444931265752e-02 1.033123694465688802e-01 -6.348571187621067091e-01 6.764197312393808170e-01 -4.151492919254174963e-01 6.083645392393184359e-01
8.713412850980330193e-02 -1.277960475574393441e-02 -8.337912007922000379e-01 5.827348045398440535e-01 -4.674813082641396944e-01 6.647415843781386835e-01
-1.084865193190473198e-01 -1.557256654396331763e-01 -7.077349176779624829e-01 7.229484861524697603e-01 -6.244247694495224099e-01 2.957011898314972353e-01
-5.982931992344731054e-02 -1.142215464979453865e-01 -7.461228095675672689e-01 8.510905651452889131e-01 -2.905019237711625180e-01 4.373253733845390290e-01
5.709482648003525070e-03 9.105690466869960364e-02 -6.736168704049673162e-01 6.764197312393808170e-01 -4.151492919254174963e-01 6.083645392393184359e-01
8.423871482152046897e-02 -6.637860328483967398e-02 -8.694436756519432485e-01 5.838565170120593173e-01 -4.821861587351063405e-01 6.531524139638693605e-01
-1.178635973024226846e-01 -1.023006604872015307e-01 -5.916372292598427451e-01 9.027539823388368578e-01 -3.109550286830877197e-01 -2.972241872864172518e-01
-7.455223701887465915e-02 -1.404635751258934973e-01 -7.578916056584930061e-01 7.467389392891177202e-01 -5.480871767906196901e-01 3.768041974116678183e-01
3.778926237004359701e-02 2.361259393264087680e-01 -5.799500417308650624e-01 6.711394978435103464e-01 -5.636134120979384710e-01 4.815721089698613566e-01
-1.153712817468826313e-01 -1.349681909366762800e-01 -6.518124812252144018e-01 8.510905651452889131e-01 -2.905019237711625180e-01 4.373253733845390290e-01
2.521919332953115669e-02 1.164350596765061086e-02 -7.623388702633993042e-01 5.827348045398440535e-01 -4.674813082641396944e-01 6.647415843781386835e-01
-8.116470874443730554e-02 5.878017288574044485e-02 -5.890181097964478640e-01 8.079070310635859675e-01 -4.196887805136687022e-01 4.136998388553853045e-01
-4.604104147462655117e-02 8.947238481424752213e-03 -6.811992396236857816e-01 6.676069322192210720e-01 -4.793414911222004804e-01 5.696777325309336781e-01
-1.128987751244273641e-01 -1.782030952663165857e-01 -7.284024609127204286e-01 8.192724769589158074e-01 -3.817109410269855507e-01 4.278894319773461352e-01
6.802969817854362389e-02 1.224282118915754336e-01 -7.232938695919749472e-01 7.082376422134327720e-01 -3.299496154881140786e-01 6.241255429728885806e-01
7.846020157477605339e-02 5.860773158912579821e-03 -8.130784491083437038e-01 5.827348045398440535e-01 -4.674813082641396944e-01 6.647415843781386835e-01
1.739920776543865399e-01 1.380068468098379075e-01 -7.725334079702931289e-01 1.067204530289421610e-01 -8.332970903682982433e-01 5.424266808417759211e-01
-4.324038795811400993e-02 -2.388553599587323051e-02 -7.121076739410457934e-01 6.676069322192210720e-01 -4.793414911222004804e-01 5.696777325309336781e-01
3.595851531595932460e-02 9.962540252236223859e-02 -7.014025739435620910e-01 6.764197312393808170e-01 -4.151492919254174963e-01 6.083645392393184359e-01
-1.083347009082283596e-01 5.502011977220971906e-02 -5.289283181296298153e-01 8.269875363948574476e-01 -5.234533551678952623e-01 2.051540874831336014e-01
1.497743799293427443e-02 -5.156848589556270457e-02 -7.978146068716956973e-01 5.827348045398440535e-01 -4.674813082641396944e-01 6.647415843781386835e-01
5.243356687114334586e-02 -3.612632141591810148e-02 -8.197901640364453346e-01 5.827348045398440535e-01 -4.674813082641396944e-01 6.647415843781386835e-01
1.797529682768130022e-02 1.993608224307938381e-01 -5.953649255188960820e-01 6.711394978435103464e-01 -5.636134120979384710e-01 4.815721089698613566e-01
-2.524549198948860054e-02 -1.894983728637548298e-02 -7.290429191914006291e-01 6.676069322192210720e-01 -4.793414911222004804e-01 5.696777325309336781e-01
-1.144697395758839664e-01 -1.328571215613676415e-01 -6.521646773941308650e-01 8.510905651452889131e-01 -2.905019237711625180e-01 4.373253733845390290e-01
1.961822947413070228e-01 8.959690425903273081e-02 -8.052887014227910756e-01 4.133011925201183767e-01 -3.823544042519027020e-01 8.264304167990313976e-01
1.545469693663150679e-01 1.356674665654200029e-01 -7.661559057753241087e-01 7.776910238495887695e-01 3.691722186761334235e-01 5.088305654945655121e-01
2.693465885995909026e-02 6.139040819135917204e-02 -7.225926361221296501e-01 6.676069322192210720e-01 -4.793414911222004804e-01 5.696777325309336781e-01
2.963885926120542191e-02 -1.247938994997137285e-01 -8.745439603629261427e-01 4.592447412086620995e-01 -6.130572212912940300e-01 6.428492133422784027e-01
1.228716564209886286e-02 7.983701398176226705e-02 -6.899057493539486607e-01 6.676069322192210720e-01 -4.793414911222004804e-01 5.696777325309336781e-01
2.768093023561733756e-02 1.818753410329383147e-01 -6.293554441963393753e-01 6.711394978435103464e-01 -5.636134120979384710e-01 4.815721089698613566e-01
-4.557491604612192576e-02 1.136300483891796165e-01 -6.011915382700040444e-01 6.764197312393808170e-01 -4.151492919254174963e-01 6.083645392393184359e-01
3.726350917849444860e-02 -1.340322700171438577e-02 -7.905115045297549381e-01 5.827348045398440535e-01 -4.674813082641396944e-01 6.647415843781386835e-01
5.518022143871441354e-02 -1.230603985315863319e-01 -8.911372776686148356e-01 4.592447412086620995e-01 -6.130572212912940300e-01 6.428492133422784027e-01
-8.317006835884956095e-02 -6.302055526487913839e-02 -6.666874981422440394e-01 8.510905651452889131e-01 -2.905019237711625180e-01 4.373253733845390290e-01
-1.273218581767329716e-01 -1.569889702265420128e-01 -6.578708774411503590e-01 9.411468724571673272e-01 -1.665523629280596662e-01 2.941137107772639481e-01
-5.512258920609915125e-02 4.730854276745011071e-03 -6.741043224482525797e-01 6.676069322192210720e-01 -4.793414911222004804e-01 5.696777325309336781e-01
5.033085736442394209e-02 1.302181250459698014e-01 -6.990915847982291931e-01 7.082376422134327720e-01 -3.299496154881140786e-01 6.241255429728885806e-01
-1.050904257192618874e-01 -6.611798714354558126e-02 -6.260852360847344311e-01 8.510905651452889131e-01 -2.905019237711625180e-01 4.373253733845390290e-01
1.195257830016092787e-01 1.002487932607688398e-01 -7.624679307037148801e-01 3.577995307959414006e-01 -5.260334769266246102e-01 7.715363095245035829e-01
-2.320268685263813385e-02 9.469506788613246684e-02 -6.389877271068725717e-01 6.764197312393808170e-01 -4.151492919254174963e-01 6.083645392393184359e-01
-7.467894047251698308e-02 5.921723949771186876e-04 -6.409563112162915965e-01 8.510905651452889131e-01 -2.905019237711625180e-01 4.373253733845390290e-01
1.327725069408634551e-01 -1.966957396745094497e-02 -8.786447259156816569e-01 5.827348045398440535e-01 -4.674813082641396944e-01 6.647415843781386835e-01
-6.905153594701138320e-02 -1.461919547044782386e-01 -7.771250407538120575e-01 7.467389392891177202e-01 -5.480871767906196901e-01 3.768041974116678183e-01
-7.575255322507101242e-03 -9.870935941186509410e-02 -8.112386672914408958e-01 5.838565170120593173e-01 -4.821861587351063405e-01 6.531524139638693605e-01
-1.330970206750236029e-01 -1.577547333631492688e-01 -6.398243319423837505e-01 9.411468724571673272e-01 -1.665523629280596662e-01 2.941137107772639481e-01
-1.589085527837017300e-02 -3.153886844675275747e-02 -7.505983786796603940e-01 6.676069322192210720e-01 -4.793414911222004804e-01 5.696777325309336781e-01
8.079572314854249759e-02 1.005524483734342167e-01 -7.450317034729293519e-01 9.138164894657538340e-02 -7.321223100138354312e-01 6.750157904936820996e-01
2.832765691856560172e-02 1.414280419978952152e-01 -6.681968348397205881e-01 7.082376422134327720e-01 -3.299496154881140786e-01 6.241255429728885806e-01
-5.196958568140395973e-02 -5.408668227605267775e-02 -7.214730893814343959e-01 8.510905651452889131e-01 -2.905019237711625180e-01 4.373253733845390290e-01
-1.170777140641576647e-01 -8.036902119672430234e-02 -6.121950928624851906e-01 9.027539823388368578e-01 -3.109550286830877197e-01 -2.972241872864172518e-01
1.822164690683369115e-01 -2.610435959166013467e-03 -9.090262662048401721e-01 5.806501407327647746e-01 -6.143818962005879181e-01 5.342099771512981432e-01
4.862607090214778743e-02 -1.165974184872811126e-01 -8.802915993827511443e-01 4.592447412086620995e-01 -6.130572212912940300e-01 6.428492133422784027e-01
6.180239606647288525e-02 4.845971489736534965e-02 -7.685178367626996909e-01 5.827348045398440535e-01 -4.674813082641396944e-01 6.647415843781386835e-01
-5.376819494560624441e-02 -1.075514323933045580e-01 -7.534877728184042889e-01 8.510905651452889131e-01 -2.905019237711625180e-01 4.373253733845390290e-01
5.376966278978603103e-02 4.321025983988865948e-02 -7.651677663138181096e-01 5.827348045398440535e-01 -4.674813082641396944e-01 6.647415843781386835e-01
-1.280509078052565752e-01 -1.440815526790745205e-01 -5.695434562395403910e-01 9.571360312301839812e-01 -1.316710320491237818e-01 -2.579793732840878207e-01
-6.837983630475069630e-02 1.431211860570256317e-02 -6.441014233947958134e-01 8.510905651452889131e-01 -2.905019237711625180e-01 4.373253733845390290e-01
-1.292709744266531680e-01 -1.784168034810225678e-01 -6.637680917998778352e-01 9.411468724571673272e-01 -1.665523629280596662e-01 2.941137107772639481e-01
1.382799420196541840e-01 1.339998850037305567e-01 -7.557881193439305312e-01 4.133011925201183767e-01 -3.823544042519027020e-01 8.264304167990313976e-01
1.414706227352443280e-01 -4.927706366204500504e-02 -9.066329977188227751e-01 5.999377622195768422e-01 -4.514092165435009130e-01 6.605334213213962524e-01
2.526837335623501393e-02 2.034167254062785035e-01 -6.007819967224944380e-01 6.711394978435103464e-01 -5.636134120979384710e-01 4.815721089698613566e-01
1.273769385814143840e-01 1.278389931025551152e-01 -7.531858673855976738e-01 4.133011925201183767e-01 -3.823544042519027020e-01 8.264304167990313976e-01
9.423153467035010056e-02 -3.190993116558556858e-02 -8.534664790005495050e-01 5.827348045398440535e-01 -4.674813082641396944e-01 6.647415843781386835e-01
-7.947669647030587703e-02 -3.030032610771231719e-02 -6.521402161054346003e-01 8.510905651452889131e-01 -2.905019237711625180e-01 4.373253733845390290e-01
-5.999449253832712242e-02 2.216288363278266435e-02 -6.537271675769656953e-01 6.676069322192210720e-01 -4.793414911222004804e-01 5.696777325309336781e-01
5.891289005717331023e-02 4.932219070376822612e-02 -7.653782602913078437e-01 5.827348045398440535e-01 -4.674813082641396944e-01 6.647415843781386835e-01
1.160137336485984189e-01 7.035340739236559116e-02 -7.825533020370928350e-01 9.138164894657538340e-02 -7.321223100138354312e-01 6.750157904936820996e-01
-1.080282111218839325e-01 -9.412968891415697190e-04 -5.924606739156752511e-01 3.609853735661616714e-02 3.081202057431718377e-01 9.506623135548704084e-01
-1.169623358998429369e-01 -1.545913397644643472e-01 -6.846173921174952826e-01 7.229484861524697603e-01 -6.244247694495224099e-01 2.957011898314972353e-01
-1.202255076053810184e-01 -1.591086371770888686e-01 -5.328405055574605420e-01 9.571360312301839812e-01 -1.316710320491237818e-01 -2.579793732840878207e-01
9.048652740654675175e-02 2.153090461416193313e-02 -8.126010682314447342e-01 5.827348045398440535e-01 -4.674813082641396944e-01 6.647415843781386835e-01
-3.406325735779965752e-02 -9.469998215435471850e-03 -7.107327748996654648e-01 6.676069322192210720e-01 -4.793414911222004804e-01 5.696777325309336781e-01
-5.542559104353961957e-02 -1.856640135516215333e-03 -6.792921209146804973e-01 6.676069322192210720e-01 -4.793414911222004804e-01 5.696777325309336781e-01
9.466621456169765914e-02 -7.629974425255964254e-02 -8.851648966645592198e-01 5.682632944326067026e-01 -4.545650433602556606e-01 6.858917185354328483e-01
1.056780388761612843e-01 8.488472314201321589e-02 -7.665212705595841891e-01 3.577995307959414006e-01 -5.260334769266246102e-01 7.715363095245035829e-01
3.624266993127012171e-02 -6.309987586272107485e-02 -8.245659046134599102e-01 5.827348045398440535e-01 -4.674813082641396944e-01 6.647415843781386835e-01
-7.211607581859501293e-02 -2.879622078641923266e-02 -6.654657847908134194e-01 8.510905651452889131e-01 -2.905019237711625180e-01 4.373253733845390290e-01
-1.226421466380803044e-01 -1.627419751877849374e-01 -6.761035277812688093e-01 9.411468724571673272e-01 -1.665523629280596662e-01 2.941137107772639481e-01
2.047135875359916424e-02 1.170614963892726706e-01 -6.722845054832989886e-01 6.764197312393808170e-01 -4.151492919254174963e-01 6.083645392393184359e-01
-5.549687406526235961e-02 -7.446699275969108356e-02 -7.281465588760476226e-01 8.510905651452889131e-01 -2.905019237711625180e-01 4.373253733845390290e-01
6.504205559189626951e-02 6.641108785936772341e-02 -7.587334797885897375e-01 5.827348045398440535e-01 -4.674813082641396944e-01 6.647415843781386835e-01
-1.232479529026176412e-01 2.544040999700412919e-02 -5.303155955936404986e-01 9.953747781131800920e-01 7.177719294355176805e-02 -6.385206080684899255e-02
4.071634224919322420e-02 1.770010554156825067e-01 -6.532268279561814772e-01 6.711394978435103464e-01 -5.636134120979384710e-01 4.815721089698613566e-01
-1.197212677880026277e-01 -1.668416249374360741e-02 -5.226918816531538337e-01 9.953747781131800920e-01 7.177719294355176805e-02 -6.385206080684899255e-02
-1.084577259942337418e-01 -6.027758938211592865e-02 -5.578453501789883973e-01 9.695545026782318443e-01 2.121088466526538652e-01 1.223679022785278681e-01
-2.818309836358952672e-02 1.211946958300642030e-01 -6.153667737704444640e-01 6.764197312393808170e-01 -4.151492919254174963e-01 6.083645392393184359e-01
-1.350735292143812605e-01 -1.556793259834254040e-01 -5.896788381415107860e-01 9.571360312301839812e-01 -1.316710320491237818e-01 -2.579793732840878207e-01
-8.350206567327789556e-03 5.864308813098017409e-02 -6.835538691186475724e-01 6.676069322192210720e-01 -4.793414911222004804e-01 5.696777325309336781e-01
8.721260578758523174e-02 1.265736736150364049e-02 -8.159713775091392840e-01 5.827348045398440535e-01 -4.674813082641396944e-01 6.647415843781386835e-01
-6.589311971033140480e-02 -1.271912497511389628e-01 -7.516144767589976183e-01 7.229484861524697603e-01 -6.244247694495224099e-01 2.957011898314972353e-01
-1.143955940167928620e-01 3.015602626315968399e-02 -5.537498350550136283e-01 8.021529982083055454e-01 -4.216491754622456734e-01 4.228031933387380037e-01
1.759431052226888975e-02 -4.618315699607421221e-02 -7.963213982011314584e-01 5.827348045398440535e-01 -4.674813082641396944e-01 6.647415843781386835e-01
-1.519594123272405457e-02 1.154871338468795999e-01 -6.337016025326700497e-01 6.764197312393808170e-01 -4.151492919254174963e-01 6.083645392393184359e-01
1.934083102705140556e-02 -1.992859498617001804e-02 -7.793888653555408608e-01 5.827348045398440535e-01 -4.674813082641396944e-01 6.647415843781386835e-01
1.779730995915713709e-01 -1.060243469173301201e-02 -9.133565489786108493e-01 5.999377622195768422e-01 -4.514092165435009130e-01 6.605334213213962524e-01
-1.779493849616550424e-02 -3.812521137447189012e-02 -7.539088964980659169e-01 6.676069322192210720e-01 -4.793414911222004804e-01 5.696777325309336781e-01
-3.339476562031384616e-03 -3.191184905469771765e-02 -7.656212100666038856e-01 6.676069322192210720e-01 -4.793414911222004804e-01 5.696777325309336781e-01
-8.623627754867176087e-02 -1.480170321847120996e-01 -7.457235483254013308e-01 7.467389392891177202e-01 -5.480871767906196901e-01 3.768041974116678183e-01
-8.157918625801817425e-02 1.087266665120129733e-02 -6.206985398105029361e-01 8.510905651452889131e-01 -2.905019237711625180e-01 4.373253733845390290e-01
-1.254721234855750989e-01 -1.572236044622889461e-01 -6.639227915159557902e-01 9.411468724571673272e-01 -1.665523629280596662e-01 2.941137107772639481e-01
1.132050094048447919e-01 3.416920355195367937e-02 -8.214184625537621631e-01 9.138164894657538340e-02 -7.321223100138354312e-01 6.750157904936820996e-01
4.926526470691662551e-02 -6.835594589610148597e-02 -8.396782940784855986e-01 5.827348045398440535e-01 -4.674813082641396944e-01 6.647415843781386835e-01
-1.049736347364975918e-02 1.570498153835943045e-01 -6.052033775928812309e-01 6.711394978435103464e-01 -5.636134120979384710e-01 4.815721089698613566e-01
1.037266495752497963e-02 -1.126078867672456046e-01 -8.438222455104079645e-01 4.933672525040412871e-01 -7.131804353474137104e-01 4.979582520596350648e-01
-9.798290261181795413e-02 -3.307946886746577358e-02 -6.036729298353791240e-01 9.027539823388368578e-01 -3.109550286830877197e-01 -2.972241872864172518e-01
-2.198600604109736401e-02 -8.986535491455167890e-02 -7.923435862700948240e-01 5.827348045398440535e-01 -4.674813082641396944e-01 6.647415843781386835e-01
-8.181604696132765975e-02 7.378162873496157091e-03 -6.225588712930147928e-01 8.510905651452889131e-01 -2.905019237711625180e-01 4.373253733845390290e-01
-1.355171961672016478e-01 -1.796460081119456709e-01 -6.204672858830879711e-01 9.810650340024460458e-01 1.576970432434969260e-01 -1.124412807203730436e-01
-1.329273355881480656e-01 -1.722710171871608131e-01 -6.485876770915357525e-01 9.411468724571673272e-01 -1.665523629280596662e-01 2.941137107772639481e-01
-1.069008747079664978e-01 3.208901040000986665e-02 -5.660412994495520600e-01 8.021529982083055454e-01 -4.216491754622456734e-01 4.228031933387380037e-01
-3.678745586754039038e-02 1.236506766737548585e-01 -6.041239161457991891e-01 6.764197312393808170e-01 -4.151492919254174963e-01 6.083645392393184359e-01
-1.876344284100088522e-02 9.169047703664902349e-02 -6.459739101119842397e-01 6.764197312393808170e-01 -4.151492919254174963e-01 6.083645392393184359e-01
8.858318183999511208e-02 -3.069217921695348988e-02 -8.476585558204938753e-01 5.827348045398440535e-01 -4.674813082641396944e-01 6.647415843781386835e-01
8.406557741400910722e-02 -5.525499684720697191e-02 -8.610769662188528795e-01 5.838565170120593173e-01 -4.821861587351063405e-01 6.531524139638693605e-01
-7.337536326414953458e-02 -9.307995329832346662e-03 -6.500696174071717293e-01 8.510905651452889131e-01 -2.905019237711625180e-01 4.373253733845390290e-01
-1.212796675079631653e-01 3.138084883026060617e-02 -5.370623488561440118e-01 8.269875363948574476e-01 -5.234533551678952623e-01 2.051540874831336014e-01
3.394773550940380358e-02 -4.159912713951511437e-02 -8.074336285964648363e-01 5.827348045398440535e-01 -4.674813082641396944e-01 6.647415843781386835e-01
-3.090701692612767872e-03 9.600755976152247628e-02 -6.604539084530728354e-01 6.764197312393808170e-01 -4.151492919254174963e-01 6.083645392393184359e-01
-1.169915302713470800e-01 -3.247489026146850588e-02 -5.384220384012904370e-01 9.695545026782318443e-01 2.121088466526538652e-01 1.223679022785278681e-01
3.553263464225224488e-02 1.135822487503294342e-01 -6.914048693970306081e-01 6.764197312393808170e-01 -4.151492919254174963e-01 6.083645392393184359e-01
-9.659317277031569116e-02 -8.415129167993749826e-02 -6.546009413998905568e-01 8.510905651452889131e-01 -2.905019237711625180e-01 4.373253733845390290e-01
8.121168402523128160e-02 -1.070011776680840354e-02 -8.271369821737590833e-01 5.827348045398440535e-01 -4.674813082641396944e-01 6.647415843781386835e-01
-8.056149093871747824e-02 -1.449785930955992293e-02 -6.395319713568919928e-01 8.510905651452889131e-01 -2.905019237711625180e-01 4.373253733845390290e-01
-9.896407914959803875e-02 -2.068858249989923362e-02 -5.864045426095754188e-01 3.609853735661616714e-02 3.081202057431718377e-01 9.506623135548704084e-01
1.186703355611843230e-01 -1.326543659776536523e-02 -8.617785618875998255e-01 5.827348045398440535e-01 -4.674813082641396944e-01 6.647415843781386835e-01
1.808345496272474595e-02 -6.138215730295665251e-02 -8.074389365218050951e-01 5.827348045398440535e-01 -4.674813082641396944e-01 6.647415843781386835e-01
-1.579227310808079682e-02 -9.053911623842156309e-03 -7.317944866204736387e-01 6.676069322192210720e-01 -4.793414911222004804e-01 5.696777325309336781e-01
8.809188844421997344e-02 2.045324494132869011e-03 -8.242051339321908587e-01 5.827348045398440535e-01 -4.674813082641396944e-01 6.647415843781386835e-01
7.064026915351488689e-02 3.750011063576375731e-02 -7.839727844079668051e-01 5.827348045398440535e-01 -4.674813082641396944e-01 6.647415843781386835e-01
-9.632817498820239743e-02 -1.431450355897302129e-01 -7.108941871252099087e-01 7.229484861524697603e-01 -6.244247694495224099e-01 2.957011898314972353e-01
1.137052677847266435e-01 -1.857526020727273686e-02 -8.611601644196553718e-01 5.827348045398440535e-01 -4.674813082641396944e-01 6.647415843781386835e-01
-9.068232634815753812e-02 -5.791528928221810826e-03 -6.100475720487882336e-01 9.027539823388368578e-01 -3.109550286830877197e-01 -2.972241872864172518e-01
-1.202850659271492012e-01 2.677494841229431481e-03 -5.497390349022887035e-01 9.898560637254028016e-01 1.181047953714397664e-01 7.896980699179514951e-02
1.537999500978206313e-01 9.445666254986895272e-02 -7.823116313476285999e-01 3.577995307959414006e-01 -5.260334769266246102e-01 7.715363095245035829e-01
-1.184139444791776005e-02 4.407110977280010279e-04 -7.284355127272569286e-01 6.676069322192210720e-01 -4.793414911222004804e-01 5.696777325309336781e-01
-5.338781647627419136e-02 -1.231337376051285515e-01 -7.736200661153879166e-01 7.229484861524697603e-01 -6.244247694495224099e-01 2.957011898314972353e-01
-1.140416391031723875e-01 -8.295868247769268289e-02 -6.198518020529117933e-01 8.510905651452889131e-01 -2.905019237711625180e-01 4.373253733845390290e-01
-1.229373341934248548e-01 -1.233469599844780884e-01 -6.293683551849481583e-01 8.510905651452889131e-01 -2.905019237711625180e-01 4.373253733845390290e-01
3.368017672102831261e-02 -1.160495037963948650e-01 -8.690918868937101971e-01 4.592447412086620995e-01 -6.130572212912940300e-01 6.428492133422784027e-01
3.979356666158945233e-02 1.873311730573047340e-01 -6.398508373706102148e-01 6.711394978435103464e-01 -5.636134120979384710e-01 4.815721089698613566e-01
-1.367734502576821963e-02 1.508980602888034817e-01 -6.079713959903273457e-01 6.711394978435103464e-01 -5.636134120979384710e-01 4.815721089698613566e-01
1.686883090537586727e-01 6.177590737480754407e-02 -8.114978392345385538e-01 3.577995307959414006e-01 -5.260334769266246102e-01 7.715363095245035829e-01
1.930158746298086259e-01 1.432670428121414485e-01 -7.681953510954228070e-01 1.067204530289421610e-01 -8.332970903682982433e-01 5.424266808417759211e-01
-8.557148840170489268e-02 6.498818020708336911e-03 -6.158344286115660093e-01 8.510905651452889131e-01 -2.905019237711625180e-01 4.373253733845390290e-01
8.849330600105666245e-02 -2.651934703645464006e-02 -8.446452121792700218e-01 5.827348045398440535e-01 -4.674813082641396944e-01 6.647415843781386835e-01
3.698281885125381113e-02 4.978111448062247368e-02 -7.441364612070426876e-01 6.676069322192210720e-01 -4.793414911222004804e-01 5.696777325309336781e-01
6.503535911090746469e-02 1.090313160564649608e-01 -7.273135064597533450e-01 6.764197312393808170e-01 -4.151492919254174963e-01 6.083645392393184359e-01
-7.653572091751761897e-02 2.807164387732517807e-02 -6.190890054752308247e-01 8.510905651452889131e-01 -2.905019237711625180e-01 4.373253733845390290e-01
4.038198661226152092e-02 2.099420667598999313e-01 -6.142079671751082826e-01 6.711394978435103464e-01 -5.636134120979384710e-01 4.815721089698613566e-01
-5.058821241841622574e-02 3.965921984800278854e-02 -6.500285464868106322e-01 6.676069322192210720e-01 -4.793414911222004804e-01 5.696777325309336781e-01
-1.897794581731419503e-02 -2.767291947302260094e-02 -7.437276997565640535e-01 6.676069322192210720e-01 -4.793414911222004804e-01 5.696777325309336781e-01
2.780930614574679549e-02 -1.114548217475816727e-01 -8.594466965784310908e-01 4.933672525040412871e-01 -7.131804353474137104e-01 4.979582520596350648e-01
-1.003140882555018237e-01 -1.332151753796375904e-01 -6.801805446131266031e-01 7.229484861524697603e-01 -6.244247694495224099e-01 2.957011898314972353e-01
1.697279369306135544e-01 1.171580740317566399e-01 -7.793073824357499291e-01 4.133011925201183767e-01 -3.823544042519027020e-01 8.264304167990313976e-01
-1.383424479472497026e-01 -1.504523432065276722e-01 -6.189040294127787778e-01 9.411468724571673272e-01 -1.665523629280596662e-01 2.941137107772639481e-01
1.974687763475626301e-01 7.697195615148944015e-02 -8.144840983280172697e-01 3.577995307959414006e-01 -5.260334769266246102e-01 7.715363095245035829e-01
-1.268508377127136946e-02 -1.080108615114779430e-01 -8.143931788128422333e-01 4.933672525040412871e-01 -7.131804353474137104e-01 4.979582520596350648e-01
1.675311047389346220e-01 8.407276204419803986e-03 -8.803930650111767564e-01 5.806501407327647746e-01 -6.143818962005879181e-01 5.342099771512981432e-01
-5.830547881158603535e-02 -1.150538905713825027e-01 -7.496412981833781020e-01 8.510905651452889131e-01 -2.905019237711625180e-01 4.373253733845390290e-01
-1.096629968504119340e-01 -1.054769288837729829e-01 -6.433313795833048854e-01 8.510905651452889131e-01 -2.905019237711625180e-01 4.373253733845390290e-01
-1.157515816927078417e-01 -4.703459901812398480e-02 -5.230091297108183657e-01 9.695545026782318443e-01 2.121088466526538652e-01 1.223679022785278681e-01
-9.013818181942959140e-02 -1.024596194722850045e-01 -6.793248357795566017e-01 8.510905651452889131e-01 -2.905019237711625180e-01 4.373253733845390290e-01
3.583562152541074162e-03 1.360977155695697327e-02 -7.354312765615494962e-01 6.676069322192210720e-01 -4.793414911222004804e-01 5.696777325309336781e-01
1.568424207726158703e-01 1.244419347500488188e-02 -8.528949287834710624e-01 7.021251782519911666e-01 -6.317359934842773361e-01 3.285268156498687420e-01
1.848746487911094583e-01 6.272011456742405955e-02 -8.183604847192595955e-01 3.577995307959414006e-01 -5.260334769266246102e-01 7.715363095245035829e-01
-1.067723078908298928e-01 3.761489870696171217e-02 -5.607744139918010573e-01 8.021529982083055454e-01 -4.216491754622456734e-01 4.228031933387380037e-01
-8.079708535030913352e-02 1.768143169132224343e-02 -6.176977520241415665e-01 8.510905651452889131e-01 -2.905019237711625180e-01 4.373253733845390290e-01
2.096813381262804810e-02 2.139482964142604970e-01 -5.824632545982163512e-01 6.711394978435103464e-01 -5.636134120979384710e-01 4.815721089698613566e-01
-4.749885302182024066e-02 6.993213609177495460e-02 -6.288719294346816202e-01 6.764197312393808170e-01 -4.151492919254174963e-01 6.083645392393184359e-01
-4.156902326713812768e-03 3.228730858069863568e-02 -7.106444446633396472e-01 6.676069322192210720e-01 -4.793414911222004804e-01 5.696777325309336781e-01
1.481980133263439137e-01 4.555358172855852872e-02 -8.138082126586753118e-01 9.138164894657538340e-02 -7.321223100138354312e-01 6.750157904936820996e-01
-5.458319014238309855e-03 2.821594827366775624e-02 -7.125450580388359434e-01 6.676069322192210720e-01 -4.793414911222004804e-01 5.696777325309336781e-01
-9.272437204137737310e-02 -6.746086146869539890e-02 -6.510431732464763144e-01 8.510905651452889131e-01 -2.905019237711625180e-01 4.373253733845390290e-01
-7.580284039279999719e-02 -4.805356742623925238e-03 -6.423544738132419551e-01 8.510905651452889131e-01 -2.905019237711625180e-01 4.373253733845390290e-01
-1.082165615029180988e-01 -7.283625035960394900e-02 -5.931620261302689157e-01 9.027539823388368578e-01 -3.109550286830877197e-01 -2.972241872864172518e-01
4.973909298832884102e-02 1.696367304315475055e-01 -6.744202412420322590e-01 6.711394978435103464e-01 -5.636134120979384710e-01 4.815721089698613566e-01
2.095291130671184665e-01 1.184020914398691282e-01 -7.849782973957400989e-01 -2.002763613350861394e-01 -6.321372955322840381e-01 7.485264315222995846e-01
1.710833577510417203e-01 -5.363608906630935001e-03 -9.000916838471663128e-01 5.806501407327647746e-01 -6.143818962005879181e-01 5.342099771512981432e-01
-1.113474764446643200e-01 -1.090223725777440394e-01 -6.424082991935189391e-01 8.510905651452889131e-01 -2.905019237711625180e-01 4.373253733845390290e-01
3.336191549653733102e-02 3.317364682472041110e-02 -7.538670646919493068e-01 6.676069322192210720e-01 -4.793414911222004804e-01 5.696777325309336781e-01
-1.214427627295160683e-01 8.469780229039122407e-03 -5.438905146017884995e-01 9.898560637254028016e-01 1.181047953714397664e-01 7.896980699179514951e-02
-5.657669940088463911e-02 -7.324587243857857977e-02 -7.252339289782343545e-01 8.510905651452889131e-01 -2.905019237711625180e-01 4.373253733845390290e-01
-3.228476566638983653e-03 -1.085872500129356627e-01 -8.245881083997312899e-01 4.933672525040412871e-01 -7.131804353474137104e-01 4.979582520596350648e-01
1.247521713437853424e-01 8.946468363044643435e-02 -7.722442716067540180e-01 3.577995307959414006e-01 -5.260334769266246102e-01 7.715363095245035829e-01
-1.148824840913887091e-01 -8.049853055904393484e-02 -6.165812072317424786e-01 8.510905651452889131e-01 -2.905019237711625180e-01 4.373253733845390290e-01
-1.211035040818149167e-01 5.247476934863415376e-02 -4.839510575098766587e-01 8.269875363948574476e-01 -5.234533551678952623e-01 2.051540874831336014e-01
1.078503139969415880e-01 7.711242038355138606e-02 -7.741173350070962300e-01 9.138164894657538340e-02 -7.321223100138354312e-01 6.750157904936820996e-01
1.968469655013061759e-01 -1.572207729618097221e-03 -9.237345860051083823e-01 5.806501407327647746e-01 -6.143818962005879181e-01 5.342099771512981432e-01
-1.106450647266154219e-01 -9.632428296049312666e-02 -5.743101176272527031e-01 8.813008360574532407e-01 -4.692407583067348398e-01 -5.587438687049853248e-02
-2.623767344006376970e-02 -5.350925886687263322e-02 -7.569593648415373632e-01 6.676069322192210720e-01 -4.793414911222004804e-01 5.696777325309336781e-01
-1.128560680991659987e-01 -7.469032214849320728e-02 -6.053137966255652813e-01 9.027539823388368578e-01 -3.109550286830877197e-01 -2.972241872864172518e-01
-1.059206500862839712e-01 -5.078708826084259165e-02 -6.092564587606288384e-01 9.027539823388368578e-01 -3.109550286830877197e-01 -2.972241872864172518e-01
5.223469921575962793e-02 5.387803908929495594e-02 -7.563200212106235831e-01 5.827348045398440535e-01 -4.674813082641396944e-01 6.647415843781386835e-01
-6.216593686057320794e-02 -1.368242382436975213e-01 -7.771447318566813145e-01 7.467389392891177202e-01 -5.480871767906196901e-01 3.768041974116678183e-01
