-5.997409310157539308e-02 -2.152869476362339329e-01 -5.847191899111063851e-01 -8.187384699499864471e-01 1.769672357334377832e-01 -5.462141661480607313e-01
5.377465988651691786e-02 -3.790672812695528721e-02 -7.648424391225346897e-01 -9.797302037792620100e-01 3.018161312561283560e-02 -1.980348404493051662e-01
5.009641255950376265e-02 -1.166260217873022051e-03 -7.410457345576254573e-01 -9.797302037792620100e-01 3.018161312561283560e-02 -1.980348404493051662e-01
-9.113332086721738501e-02 -2.757257559729437910e-02 -5.170051343949467748e-01 -6.597709570495744469e-01 2.377352727170224667e-01 -7.128704120245500375e-01
-7.553445392887833676e-02 2.085600294952173403e-02 -5.109675695045841071e-01 -7.068312215964458467e-01 3.566015843514424577e-01 -6.109213813695811846e-01
-4.161312016242989069e-03 -1.984215534096102351e-01 -6.552974379845087904e-01 -7.276043312896471882e-01 6.770630877699318484e-02 -6.826476344647651739e-01
8.332823083045228299e-03 7.582100667419433560e-02 -6.304066917852823027e-01 -8.789122987083483052e-01 5.391293286934362161e-02 -4.739267526196775937e-01
-1.776043240973315118e-01 1.186796294169431727e-02 -4.520584867789960160e-01 -1.464327257835488783e-01 2.508087257307172746e-01 -9.568972985210764115e-01
-5.780178533944761027e-02 -1.451968507876114645e-01 -5.675054502831863301e-01 -8.276117209571578481e-01 1.502120525079922719e-01 -5.408282339298381425e-01
-1.784025045771010509e-01 1.380253226763097918e-02 -4.514292796407521347e-01 -1.464327257835488783e-01 2.508087257307172746e-01 -9.568972985210764115e-01
-3.685870875329340379e-02 8.490051047272009765e-02 -5.302279620145846639e-01 -9.110255199749394128e-01 1.783052672495792357e-01 -3.718060430190010535e-01
-8.282799127307965970e-02 -1.604323547215505963e-01 -5.414099804477126021e-01 -4.117629760272755735e-01 8.464535240599674326e-02 -9.073513188887897263e-01
-1.580724515388635606e-02 -4.638783265492484736e-02 -6.043246601625839043e-01 -8.276117209571578481e-01 1.502120525079922719e-01 -5.408282339298381425e-01
1.599698491964706565e-02 1.356806424688753732e-01 -6.310627288414158986e-01 -8.894410763032704059e-01 1.208832256799854399e-01 -4.407741116872469500e-01
7.977379813223929583e-02 -7.425088872907856241e-02 -8.353939248764851166e-01 -9.996883080955708545e-01 -2.473548981031185867e-02 3.382632238180219471e-03
5.642389265651633068e-02 -1.124927225887944592e-03 -7.723431358351977583e-01 -9.797302037792620100e-01 3.018161312561283560e-02 -1.980348404493051662e-01
6.072661265183579293e-02 4.725191553914211140e-02 -8.441204572495438763e-01 -7.995031991717945763e-01 -5.701770031766831837e-01 1.889254338688219348e-01
4.831742475275562637e-02 5.962979230520655538e-02 -7.229789589583182075e-01 -9.797302037792620100e-01 3.018161312561283560e-02 -1.980348404493051662e-01
-2.386870324202159874e-02 5.203552362452101496e-03 -5.787212291791523633e-01 -8.789122987083483052e-01 5.391293286934362161e-02 -4.739267526196775937e-01
-9.114340558383574042e-03 -1.172579334575969828e-01 -6.342503714663385583e-01 -8.276117209571578481e-01 1.502120525079922719e-01 -5.408282339298381425e-01
-8.242853042567493960e-02 -5.912229916853987965e-02 -5.321402058938796698e-01 -4.117629760272755735e-01 8.464535240599674326e-02 -9.073513188887897263e-01
-4.185458807999292881e-03 -1.523940518641539732e-01 -6.513877323509369432e-01 -8.272796882152405606e-01 1.321906216893998787e-01 -5.460164438951122801e-01
4.991574270931464774e-02 -2.741143348644218408e-02 -7.441518241500856279e-01 -9.797302037792620100e-01 3.018161312561283560e-02 -1.980348404493051662e-01
2.632146609321722036e-02 1.538279846865694411e-01 -6.469196228766511680e-01 -8.894410763032704059e-01 1.208832256799854399e-01 -4.407741116872469500e-01
6.264658151034502298e-02 -9.988204903392464140e-02 -7.756243352880144437e-01 -8.667210533185090160e-01 -2.572992331547033773e-01 -4.273075243340048179e-01
-5.758020348459413906e-02 -1.022313182183887670e-01 -5.559110905573085848e-01 -8.276117209571578481e-01 1.502120525079922719e-01 -5.408282339298381425e-01
-1.253432376321383379e-01 2.895967505989689023e-02 -4.680597818027245061e-01 -3.999382595960159215e-01 -8.233241328944410076e-02 -9.128366569289635413e-01
-5.529578167655462007e-02 -1.427973819175932246e-01 -5.706738663398445155e-01 -8.276117209571578481e-01 1.502120525079922719e-01 -5.408282339298381425e-01
-1.523707237303496484e-02 2.052873057881142160e-01 -5.721991182179563262e-01 -8.674550197427527420e-01 -6.599205427427934367e-02 -4.931194961627059503e-01
-3.497653695406966606e-02 8.696318662072574646e-02 -5.338506049100947282e-01 -9.110255199749394128e-01 1.783052672495792357e-01 -3.718060430190010535e-01
-3.206697157143004878e-02 -6.764092887620867800e-02 -5.853458637292257016e-01 -8.276117209571578481e-01 1.502120525079922719e-01 -5.408282339298381425e-01
3.998740819214793851e-02 1.073679474502251124e-01 -6.855224157198855917e-01 -8.789122987083483052e-01 5.391293286934362161e-02 -4.739267526196775937e-01
-4.318363448321620862e-02 -2.015204056582672598e-01 -6.054267588840408498e-01 -8.187384699499864471e-01 1.769672357334377832e-01 -5.462141661480607313e-01
-1.591449617031764352e-01 1.239939640199885958e-02 -4.547440065381012642e-01 -1.464327257835488783e-01 2.508087257307172746e-01 -9.568972985210764115e-01
4.043910112851472477e-02 -1.100439443818443386e-01 -7.110924244593515020e-01 -8.789122987083483052e-01 5.391293286934362161e-02 -4.739267526196775937e-01
6.420699596784339158e-03 5.831401987073760174e-02 -6.288521565319500350e-01 -8.789122987083483052e-01 5.391293286934362161e-02 -4.739267526196775937e-01
-7.452733744449487052e-02 -2.424610865459633433e-02 -5.312648467890732640e-01 -6.597709570495744469e-01 2.377352727170224667e-01 -7.128704120245500375e-01
4.681788177643284032e-02 2.405682789861054438e-01 -7.780935391372266752e-01 -9.199404522326316558e-01 -2.865926668868303828e-01 -2.675335635629954023e-01
2.779192043977891241e-02 -8.069295476847369517e-03 -6.760373975796201140e-01 -8.789122987083483052e-01 5.391293286934362161e-02 -4.739267526196775937e-01
-3.730539764128292662e-02 2.084411687487466580e-01 -5.338004140845099554e-01 -8.674550197427527420e-01 -6.599205427427934367e-02 -4.931194961627059503e-01
-1.081379023184758995e-02 -1.892832220970146542e-02 -6.056771747264623196e-01 -8.789122987083483052e-01 5.391293286934362161e-02 -4.739267526196775937e-01
5.188762686514645367e-02 5.873719792422227998e-03 -9.218925385268464945e-01 -8.586382943950348068e-01 -1.606505331038026174e-01 4.867562897506815811e-01
-8.765615344958964383e-02 1.903874606471448253e-02 -4.980036117233089255e-01 -7.068312215964458467e-01 3.566015843514424577e-01 -6.109213813695811846e-01
4.829533538535248083e-02 -8.139542916263967087e-02 -7.443627066123235103e-01 -9.797302037792620100e-01 3.018161312561283560e-02 -1.980348404493051662e-01
6.126843786152950250e-02 1.720340853658594918e-02 -7.935170288339881139e-01 -9.797302037792620100e-01 3.018161312561283560e-02 -1.980348404493051662e-01
-1.101339238945592686e-01 -1.683696582204460279e-01 -5.027009621572740006e-01 -8.071958826406236964e-01 -3.922750772325855201e-02 -5.889787854293617730e-01
4.405108743259845971e-02 7.520120013695079375e-02 -8.303377519835679621e-01 -7.995031991717945763e-01 -5.701770031766831837e-01 1.889254338688219348e-01
4.513682979802872974e-02 9.867143533258151966e-02 -7.797797965835042699e-01 -2.860871118855537465e-01 9.260780624435137609e-01 -2.460357426754293253e-01
-4.151627601547534796e-02 -1.709583568131416986e-01 -5.993215352141274543e-01 -8.272796882152405606e-01 1.321906216893998787e-01 -5.460164438951122801e-01
3.248326426196114503e-02 -1.183698826088196154e-01 -6.982146605086869684e-01 -8.276117209571578481e-01 1.502120525079922719e-01 -5.408282339298381425e-01
3.751164572142388215e-02 5.416526358053436185e-02 -6.869832630679383323e-01 -8.789122987083483052e-01 5.391293286934362161e-02 -4.739267526196775937e-01
-7.806634335613305171e-04 -8.475172155832472187e-02 -6.379747037629164286e-01 -8.276117209571578481e-01 1.502120525079922719e-01 -5.408282339298381425e-01
5.028744858450973076e-02 -3.483301143226708724e-02 -7.471218402637088696e-01 -9.797302037792620100e-01 3.018161312561283560e-02 -1.980348404493051662e-01
4.484914352971466900e-02 1.083552406036719790e-01 -6.983944338904862770e-01 -9.797302037792620100e-01 3.018161312561283560e-02 -1.980348404493051662e-01
4.900583190433356606e-02 1.977422691488880668e-01 -7.397400839497983993e-01 -9.199404522326316558e-01 -2.865926668868303828e-01 -2.675335635629954023e-01
-4.147784848075047881e-02 -1.826699252094940995e-01 -6.022151290680908264e-01 -8.272796882152405606e-01 1.321906216893998787e-01 -5.460164438951122801e-01
4.448687348660074897e-02 1.012979681865187609e-01 -7.497335208242924542e-01 -7.995031991717945763e-01 -5.701770031766831837e-01 1.889254338688219348e-01
-1.462598133219265850e-02 -4.989217721373411657e-02 -6.071056218041787078e-01 -8.276117209571578481e-01 1.502120525079922719e-01 -5.408282339298381425e-01
-8.423878385844536798e-02 -8.902456890701443415e-02 -5.341082339131678625e-01 -4.117629760272755735e-01 8.464535240599674326e-02 -9.073513188887897263e-01
5.200816275591879645e-02 1.859774118857577541e-01 -7.374609074266608166e-01 -9.199404522326316558e-01 -2.865926668868303828e-01 -2.675335635629954023e-01
7.427623863756765976e-02 -5.058847431977179371e-02 -8.288947935696067137e-01 -8.667210533185090160e-01 -2.572992331547033773e-01 -4.273075243340048179e-01
-1.288351470806198273e-01 -2.103167473624958927e-01 -4.742771368284630640e-01 -8.071958826406236964e-01 -3.922750772325855201e-02 -5.889787854293617730e-01
9.500612168410383154e-03 2.889745101352273610e-02 -6.379103211459216105e-01 -8.789122987083483052e-01 5.391293286934362161e-02 -4.739267526196775937e-01
4.499961239008194724e-02 5.972736503170996553e-02 -8.949609137771823431e-01 -8.350709107314874258e-01 -4.424324900838537689e-01 3.269710472936169232e-01
-4.569526857031917799e-02 -1.707148199570490965e-01 -5.929309054350241359e-01 -8.272796882152405606e-01 1.321906216893998787e-01 -5.460164438951122801e-01
2.040404342615573935e-02 -7.716994813239314889e-03 -6.622962667094007827e-01 -8.789122987083483052e-01 5.391293286934362161e-02 -4.739267526196775937e-01
-5.509549249401154980e-03 -1.290724616991897056e-01 -6.430480853743718583e-01 -8.276117209571578481e-01 1.502120525079922719e-01 -5.408282339298381425e-01
6.692649939687209115e-02 -4.862976876892853551e-04 -8.974630408255911407e-01 -8.586382943950348068e-01 -1.606505331038026174e-01 4.867562897506815811e-01
5.013250363692158679e-02 -9.508194158837200705e-02 -7.531319843612612752e-01 -8.667210533185090160e-01 -2.572992331547033773e-01 -4.273075243340048179e-01
4.462617808741999731e-02 2.362241062800642666e-01 -7.659034988273727418e-01 -9.199404522326316558e-01 -2.865926668868303828e-01 -2.675335635629954023e-01
4.347372332232210534e-02 1.215741796307384104e-01 -8.294248454225418010e-01 -9.135313806753736499e-01 5.870698003511042040e-02 4.025095117093541730e-01
-1.703839130524566203e-02 4.184616436164090292e-02 -5.872198726132132895e-01 -8.789122987083483052e-01 5.391293286934362161e-02 -4.739267526196775937e-01
5.167206209827195779e-02 1.398936193611881318e-01 -8.120366591297222270e-01 -9.333847567047840466e-01 -3.449503289129399880e-02 3.572156052819916994e-01
3.573527819997385224e-02 -3.452339458823736745e-02 -6.937779721547258083e-01 -8.789122987083483052e-01 5.391293286934362161e-02 -4.739267526196775937e-01
-7.544014969464019407e-03 3.622924072582618671e-02 -6.054664664364016735e-01 -8.789122987083483052e-01 5.391293286934362161e-02 -4.739267526196775937e-01
-5.398244069217185415e-02 -1.400263859740672467e-01 -5.719140001975884235e-01 -8.276117209571578481e-01 1.502120525079922719e-01 -5.408282339298381425e-01
2.061981514832410647e-04 1.485575679017014927e-01 -5.917737460136253125e-01 -8.674550197427527420e-01 -6.599205427427934367e-02 -4.931194961627059503e-01
-1.839172424927800267e-02 -1.362039733696295690e-02 -5.912687424728931829e-01 -8.276117209571578481e-01 1.502120525079922719e-01 -5.408282339298381425e-01
-3.224917281501060023e-02 9.052205212327314732e-02 -5.388266775241585815e-01 -9.110255199749394128e-01 1.783052672495792357e-01 -3.718060430190010535e-01
2.543544783629480763e-02 7.085154173174455783e-02 -6.626893717165027731e-01 -8.789122987083483052e-01 5.391293286934362161e-02 -4.739267526196775937e-01
-8.076040441947916759e-02 -1.730159538421591897e-02 -5.231801343049452546e-01 -6.597709570495744469e-01 2.377352727170224667e-01 -7.128704120245500375e-01
-4.881042683434150958e-02 -9.255657667251397658e-02 -5.666440863527689720e-01 -8.276117209571578481e-01 1.502120525079922719e-01 -5.408282339298381425e-01
-1.478166233361724868e-01 -4.199599096171714729e-02 -4.707349360554596296e-01 -1.464327257835488783e-01 2.508087257307172746e-01 -9.568972985210764115e-01
-6.395958462466126704e-02 -1.720217155099946216e-01 -5.655328297567135953e-01 -8.276117209571578481e-01 1.502120525079922719e-01 -5.408282339298381425e-01
-7.207888072226570353e-02 -1.281653919440744749e-01 -5.432778758035646804e-01 -4.117629760272755735e-01 8.464535240599674326e-02 -9.073513188887897263e-01
-4.124196684521922764e-03 2.946952824250834851e-02 -6.125775996583260330e-01 -8.789122987083483052e-01 5.391293286934362161e-02 -4.739267526196775937e-01
-5.886525372703967085e-02 -1.558636596302396538e-01 -5.688407066589041827e-01 -8.276117209571578481e-01 1.502120525079922719e-01 -5.408282339298381425e-01
1.495083536583646441e-02 -5.459381494224561232e-02 -6.575157288681346968e-01 -8.789122987083483052e-01 5.391293286934362161e-02 -4.739267526196775937e-01
-3.456668279093317447e-02 7.790467540994870654e-02 -5.391990060502682702e-01 -9.110255199749394128e-01 1.783052672495792357e-01 -3.718060430190010535e-01
-5.146249695560513315e-02 -8.057092521900031945e-02 -5.592567619270364387e-01 -8.276117209571578481e-01 1.502120525079922719e-01 -5.408282339298381425e-01
1.340728378017534694e-02 -1.897405309372160176e-01 -6.740672260439828367e-01 -7.293215077364731957e-01 -1.115178150590093870e-01 -6.750214183842331295e-01
6.076129661615350952e-02 3.120518295560874636e-02 -8.933002653275183835e-01 -8.350709107314874258e-01 -4.424324900838537689e-01 3.269710472936169232e-01
5.001209267830953459e-02 1.378494169256898327e-01 -8.165714693661314527e-01 -9.333847567047840466e-01 -3.449503289129399880e-02 3.572156052819916994e-01
-3.052690073264771944e-02 8.596880200878097289e-02 -5.452302912969717585e-01 -9.110255199749394128e-01 1.783052672495792357e-01 -3.718060430190010535e-01
1.424570456022875888e-02 1.777905459963368684e-01 -6.203830074518345006e-01 -8.674550197427527420e-01 -6.599205427427934367e-02 -4.931194961627059503e-01
-8.578935736314191596e-02 2.258354518179507293e-03 -5.099583806878754677e-01 -7.068312215964458467e-01 3.566015843514424577e-01 -6.109213813695811846e-01
6.407472755051428492e-02 -5.539232375246105899e-02 -8.053101604046742912e-01 -8.667210533185090160e-01 -2.572992331547033773e-01 -4.273075243340048179e-01
6.010464690370560803e-02 -1.105962387878742931e-01 -7.641617933279614139e-01 -9.027767715455979891e-01 -1.522058831344801355e-01 -4.022778516112463509e-01
5.290962917680029805e-03 2.313295733110000765e-02 -6.307591491134181272e-01 -8.789122987083483052e-01 5.391293286934362161e-02 -4.739267526196775937e-01
7.283846170959314137e-02 -1.241778998595637409e-02 -8.909722430592174058e-01 -8.586382943950348068e-01 -1.606505331038026174e-01 4.867562897506815811e-01
2.887238092930357811e-02 5.392688985897824833e-02 -9.439979788952836959e-01 -8.350709107314874258e-01 -4.424324900838537689e-01 3.269710472936169232e-01
-1.147486318229054142e-01 -5.659983687369685851e-02 -5.048291592274083417e-01 -6.597709570495744469e-01 2.377352727170224667e-01 -7.128704120245500375e-01
4.361737108922423417e-02 1.062356066581291725e-01 -7.385113263600214806e-01 -7.995031991717945763e-01 -5.701770031766831837e-01 1.889254338688219348e-01
7.485537205603937962e-03 -1.748088698747657099e-01 -6.701359271976949916e-01 -7.293215077364731957e-01 -1.115178150590093870e-01 -6.750214183842331295e-01
4.372618971867556908e-02 2.540326421391747580e-01 -7.818860171376730284e-01 -9.199404522326316558e-01 -2.865926668868303828e-01 -2.675335635629954023e-01
-1.084972368806661064e-01 -5.223849194214665731e-02 -5.091604419474361487e-01 -6.597709570495744469e-01 2.377352727170224667e-01 -7.128704120245500375e-01
-4.121813521107846323e-02 -6.409463989321749489e-02 -5.703571757744781978e-01 -8.276117209571578481e-01 1.502120525079922719e-01 -5.408282339298381425e-01
6.414919781945520316e-03 1.886267127264492638e-01 -6.080578961780696012e-01 -8.674550197427527420e-01 -6.599205427427934367e-02 -4.931194961627059503e-01
4.019828629017321159e-02 7.922406461887110396e-02 -8.444905096672259415e-01 -8.800479387209372284e-01 -4.696596911828175291e-01 -7.025240231543451730e-02
5.281296827814835337e-02 -9.638188077479778459e-02 -7.577861073714086126e-01 -8.667210533185090160e-01 -2.572992331547033773e-01 -4.273075243340048179e-01
6.818754864505638391e-02 1.215547175440318400e-01 -7.677865729664851147e-01 -9.496150731273326207e-01 -5.053034549280963073e-02 -3.093184395954236554e-01
4.082058876658644503e-03 -1.130169818986203750e-01 -6.532664881618044372e-01 -8.276117209571578481e-01 1.502120525079922719e-01 -5.408282339298381425e-01
-9.066844235109156047e-02 -1.132288445819319700e-01 -5.334483837988053256e-01 -4.117629760272755735e-01 8.464535240599674326e-02 -9.073513188887897263e-01
-1.113748260965417153e-01 -1.652604939684540197e-01 -5.012073830925360962e-01 -8.071958826406236964e-01 -3.922750772325855201e-02 -5.889787854293617730e-01
6.381133717061059085e-02 -1.167754067422017289e-02 -8.104990350629275309e-01 -9.797302037792620100e-01 3.018161312561283560e-02 -1.980348404493051662e-01
4.748393438816092549e-02 -1.002755078722696175e-01 -7.432259226382550432e-01 -9.797302037792620100e-01 3.018161312561283560e-02 -1.980348404493051662e-01
-3.406352140551266450e-02 -3.786059709681428853e-02 -5.740192864153861318e-01 -8.276117209571578481e-01 1.502120525079922719e-01 -5.408282339298381425e-01
9.618753620517360436e-03 -2.126038308422362189e-02 -6.438352703122350862e-01 -8.789122987083483052e-01 5.391293286934362161e-02 -4.739267526196775937e-01
-1.971497651764310931e-03 4.792343718508680628e-02 -6.144705700305428397e-01 -8.789122987083483052e-01 5.391293286934362161e-02 -4.739267526196775937e-01
-4.823514656719427030e-02 -5.497060550940823659e-02 -5.570851231595482789e-01 -8.276117209571578481e-01 1.502120525079922719e-01 -5.408282339298381425e-01
4.252230020598564419e-02 -2.724967161058060652e-02 -7.075498749762580974e-01 -9.797302037792620100e-01 3.018161312561283560e-02 -1.980348404493051662e-01
6.243615010250230107e-02 1.333078265637666071e-01 -7.845466548336803569e-01 -9.333847567047840466e-01 -3.449503289129399880e-02 3.572156052819916994e-01
-3.074889768590881312e-02 -1.245789529044975114e-01 -6.031770904418360946e-01 -8.276117209571578481e-01 1.502120525079922719e-01 -5.408282339298381425e-01
6.568473795339578591e-02 -3.692973607574639256e-04 -8.996148933748688847e-01 -8.586382943950348068e-01 -1.606505331038026174e-01 4.867562897506815811e-01
-5.362317204057106407e-02 1.977738216818341211e-03 -5.395123733866997728e-01 -4.117629760272755735e-01 8.464535240599674326e-02 -9.073513188887897263e-01
2.762672427562815405e-02 4.901242908653640623e-02 -9.504511492056294530e-01 -8.586382943950348068e-01 -1.606505331038026174e-01 4.867562897506815811e-01
5.965029784725944806e-02 -3.224509841954933693e-03 -9.112019912436604141e-01 -8.586382943950348068e-01 -1.606505331038026174e-01 4.867562897506815811e-01
5.656166884621736252e-02 -6.472497851714149875e-02 -7.827177529106179588e-01 -9.797302037792620100e-01 3.018161312561283560e-02 -1.980348404493051662e-01
6.921100648019802570e-02 3.003848700883176431e-02 -8.308548577818468672e-01 -9.797302037792620100e-01 3.018161312561283560e-02 -1.980348404493051662e-01
4.577529561803863473e-02 -8.581413581366514887e-02 -7.325688456189428654e-01 -9.797302037792620100e-01 3.018161312561283560e-02 -1.980348404493051662e-01
-5.494551428335479881e-02 -5.296244154840120538e-02 -5.462587109331814572e-01 -8.276117209571578481e-01 1.502120525079922719e-01 -5.408282339298381425e-01
5.469154587518394728e-02 1.495429278603601919e-01 -8.032151146676411724e-01 -9.333847567047840466e-01 -3.449503289129399880e-02 3.572156052819916994e-01
5.361103095063605301e-02 3.301408990257111847e-02 -7.532241961012875464e-01 -9.797302037792620100e-01 3.018161312561283560e-02 -1.980348404493051662e-01
-1.516926115733877381e-02 1.347863891362514055e-01 -5.628835726466047129e-01 -8.674550197427527420e-01 -6.599205427427934367e-02 -4.931194961627059503e-01
5.062684077461086785e-02 6.108501916187702302e-02 -8.787521238145473701e-01 -8.350709107314874258e-01 -4.424324900838537689e-01 3.269710472936169232e-01
5.577152270605647416e-02 1.560272592176832340e-01 -7.353005176496002493e-01 -9.496150731273326207e-01 -5.053034549280963073e-02 -3.093184395954236554e-01
6.100488145468140055e-02 1.408441673601990851e-01 -7.488867412160516990e-01 -9.496150731273326207e-01 -5.053034549280963073e-02 -3.093184395954236554e-01
5.009151269480740382e-02 1.597958946790352663e-01 -8.122161238077352241e-01 -9.006547213539113361e-01 -1.754871079392492650e-01 3.975240217270228915e-01
-1.275295430672993835e-01 -4.612778849862850944e-02 -4.895079323454935571e-01 -6.597709570495744469e-01 2.377352727170224667e-01 -7.128704120245500375e-01
-9.229707976644560552e-02 -4.886276698923350259e-02 -5.230281296849990103e-01 -6.597709570495744469e-01 2.377352727170224667e-01 -7.128704120245500375e-01
-7.797876610786778906e-02 -9.899104949254804164e-02 -5.378788349242088485e-01 -4.117629760272755735e-01 8.464535240599674326e-02 -9.073513188887897263e-01
-1.215507163449674154e-02 -5.075271971096707857e-02 -6.111257848533985237e-01 -8.276117209571578481e-01 1.502120525079922719e-01 -5.408282339298381425e-01
-1.086555137934808657e-03 1.251231191580245150e-01 -5.985900619163554426e-01 -9.110255199749394128e-01 1.783052672495792357e-01 -3.718060430190010535e-01
3.514085019444557201e-02 5.963838164218498994e-02 -9.202602017002826651e-01 -8.350709107314874258e-01 -4.424324900838537689e-01 3.269710472936169232e-01
-1.768749928428721765e-02 -6.743305711480818143e-02 -6.072925636561742335e-01 -8.276117209571578481e-01 1.502120525079922719e-01 -5.408282339298381425e-01
-8.527267535846719260e-03 4.003048012335113509e-02 -6.032105719719519366e-01 -8.789122987083483052e-01 5.391293286934362161e-02 -4.739267526196775937e-01
4.721477654749181574e-02 -8.706420595210924429e-02 -7.398808523060622644e-01 -9.797302037792620100e-01 3.018161312561283560e-02 -1.980348404493051662e-01
-9.800430779493052302e-02 -1.861595046409228460e-01 -5.181397607366626801e-01 -8.071958826406236964e-01 -3.922750772325855201e-02 -5.889787854293617730e-01
7.834817868007311337e-02 -2.042105911250394201e-02 -8.630847554359654117e-01 -9.996883080955708545e-01 -2.473548981031185867e-02 3.382632238180219471e-03
-1.705417973331889436e-02 3.870011773567629682e-02 -5.875484802642434445e-01 -8.789122987083483052e-01 5.391293286934362161e-02 -4.739267526196775937e-01
-2.649150951778177915e-02 -1.066354967007115268e-01 -6.047083362444649612e-01 -8.276117209571578481e-01 1.502120525079922719e-01 -5.408282339298381425e-01
4.358458438054351597e-02 -6.941665439524048742e-02 -7.192317560363949980e-01 -9.797302037792620100e-01 3.018161312561283560e-02 -1.980348404493051662e-01
-7.355837641966964102e-02 -6.948738664640764784e-02 -5.371324921222875304e-01 -4.117629760272755735e-01 8.464535240599674326e-02 -9.073513188887897263e-01
-1.015566129702563658e-01 9.256133910688109714e-03 -4.876311088387030868e-01 -7.068312215964458467e-01 3.566015843514424577e-01 -6.109213813695811846e-01
-3.709630709665145964e-02 -2.196108481558602804e-02 -5.649623122201142822e-01 -8.276117209571578481e-01 1.502120525079922719e-01 -5.408282339298381425e-01
2.198838763541989885e-02 9.808664895392042726e-02 -6.531984786883449079e-01 -8.789122987083483052e-01 5.391293286934362161e-02 -4.739267526196775937e-01
-9.448539348924392400e-02 -1.907822403741946948e-01 -5.229108362967234136e-01 -8.399041906400849244e-01 1.534928703736392896e-01 -5.205774575312354102e-01
7.736844101766923720e-02 -1.039494381485137620e-01 -8.056516235766696399e-01 -9.610706557944345141e-01 -2.580042905323127328e-02 -2.750954969306566578e-01
-1.782508740924175494e-01 2.594593672661592645e-02 -4.482696217152050688e-01 -1.464327257835488783e-01 2.508087257307172746e-01 -9.568972985210764115e-01
6.480665180282355053e-02 1.064605546863327951e-02 -8.975282969998554794e-01 -8.586382943950348068e-01 -1.606505331038026174e-01 4.867562897506815811e-01
6.208373795412725632e-02 4.848349817269743955e-02 -8.346603963174356045e-01 -7.995031991717945763e-01 -5.701770031766831837e-01 1.889254338688219348e-01
-1.385502576022970556e-01 -1.155096552061800688e-02 -4.641731254485040870e-01 -1.464327257835488783e-01 2.508087257307172746e-01 -9.568972985210764115e-01
5.583178072650673424e-02 1.390100105677647691e-01 -7.323237203686532304e-01 -9.518267640872037916e-01 -5.752318981887257626e-02 -3.011924530932749700e-01
-7.793635391175064708e-02 -1.392229378402886075e-01 -5.416512503800415823e-01 -4.117629760272755735e-01 8.464535240599674326e-02 -9.073513188887897263e-01
6.534914111320032359e-02 -1.170405707974328663e-01 -7.734930112686850823e-01 -9.027767715455979891e-01 -1.522058831344801355e-01 -4.022778516112463509e-01
4.966840165964962750e-02 1.356764648977313026e-01 -7.122095864613190441e-01 -9.518267640872037916e-01 -5.752318981887257626e-02 -3.011924530932749700e-01
-8.956277167428590424e-02 -1.859599057534379318e-01 -5.297221863441889944e-01 -8.071958826406236964e-01 -3.922750772325855201e-02 -5.889787854293617730e-01
8.373018362959111852e-03 1.636747816421841861e-01 -6.081632119347871734e-01 -8.674550197427527420e-01 -6.599205427427934367e-02 -4.931194961627059503e-01
-4.833489151630117331e-02 -2.737424475771120871e-03 -5.424250094235115727e-01 -8.276117209571578481e-01 1.502120525079922719e-01 -5.408282339298381425e-01
-1.096078720495556186e-01 2.398756217368129724e-03 -4.823185929578535092e-01 -7.068312215964458467e-01 3.566015843514424577e-01 -6.109213813695811846e-01
4.985818140803718879e-02 -5.504414712637108187e-02 -7.480784328493252922e-01 -9.797302037792620100e-01 3.018161312561283560e-02 -1.980348404493051662e-01
-5.680726969839517554e-02 -1.179004152172661440e-01 -5.614458908771428058e-01 -8.276117209571578481e-01 1.502120525079922719e-01 -5.408282339298381425e-01
-1.256095565963043226e-01 -2.423295284818831677e-02 -4.784136187194547030e-01 -8.315442246137342286e-01 4.887281356796765452e-01 2.639678236198704786e-01
4.716309282709626322e-02 1.391659881240651063e-02 -9.275721221382032811e-01 -8.586382943950348068e-01 -1.606505331038026174e-01 4.867562897506815811e-01
-1.433222412787187872e-01 -4.430055887544649684e-02 -4.720267469520924020e-01 -1.464327257835488783e-01 2.508087257307172746e-01 -9.568972985210764115e-01
3.040257529602558018e-02 -6.143580679577712728e-02 -6.869498049811002538e-01 -8.789122987083483052e-01 5.391293286934362161e-02 -4.739267526196775937e-01
5.140653753770884488e-02 3.261597724500377420e-03 -7.468524356101892137e-01 -9.797302037792620100e-01 3.018161312561283560e-02 -1.980348404493051662e-01
5.580556201823674498e-03 8.813626767662555150e-02 -6.230824911438634928e-01 -8.894410763032704059e-01 1.208832256799854399e-01 -4.407741116872469500e-01
-2.880189670150691203e-02 1.734809443853165822e-01 -5.440804934393340675e-01 -8.674550197427527420e-01 -6.599205427427934367e-02 -4.931194961627059503e-01
3.873711098473497927e-02 -3.390888466316382965e-02 -6.992750615392221425e-01 -8.789122987083483052e-01 5.391293286934362161e-02 -4.739267526196775937e-01
-4.969866343567006309e-03 1.230922029244183868e-01 -5.900488544557261905e-01 -9.110255199749394128e-01 1.783052672495792357e-01 -3.718060430190010535e-01
5.539692235464440534e-02 -5.484694010392153485e-02 -7.754499789769895290e-01 -9.797302037792620100e-01 3.018161312561283560e-02 -1.980348404493051662e-01
5.197902882411309378e-02 6.799110096858940189e-02 -7.398195629253846439e-01 -9.797302037792620100e-01 3.018161312561283560e-02 -1.980348404493051662e-01
-1.680630489149917070e-02 -1.069025996102580672e-01 -6.196034738121143359e-01 -8.276117209571578481e-01 1.502120525079922719e-01 -5.408282339298381425e-01
-5.152391289201607022e-02 -6.757800285995768652e-02 -5.555540667664952137e-01 -8.276117209571578481e-01 1.502120525079922719e-01 -5.408282339298381425e-01
-8.602765569492130601e-03 8.931667574452650804e-02 -5.941381403337284706e-01 -8.894410763032704059e-01 1.208832256799854399e-01 -4.407741116872469500e-01
-7.372543176305539070e-02 4.106731108607587083e-03 -5.225516277948101251e-01 -6.597709570495744469e-01 2.377352727170224667e-01 -7.128704120245500375e-01
3.955242738315628559e-02 6.743800132478952603e-02 -6.892580784830152352e-01 -8.789122987083483052e-01 5.391293286934362161e-02 -4.739267526196775937e-01
-1.852664361083269234e-02 -1.472824017925707107e-01 -6.281861627072677923e-01 -8.276117209571578481e-01 1.502120525079922719e-01 -5.408282339298381425e-01
8.132934415631716193e-03 -1.557768656558747022e-01 -6.708705389266099717e-01 -8.272796882152405606e-01 1.321906216893998787e-01 -5.460164438951122801e-01
4.728378101897413865e-02 9.428569675303810627e-02 -7.590604777903233735e-01 -7.995031991717945763e-01 -5.701770031766831837e-01 1.889254338688219348e-01
-1.216956569109776953e-02 -1.325567018846475209e-01 -6.338242089451058270e-01 -8.276117209571578481e-01 1.502120525079922719e-01 -5.408282339298381425e-01
-1.095363675880807880e-01 -2.078940531913170686e-01 -5.036729019464236679e-01 -8.399041906400849244e-01 1.534928703736392896e-01 -5.205774575312354102e-01
-5.102458331924741852e-02 -3.390254834892415109e-02 -5.469650030993780110e-01 -8.276117209571578481e-01 1.502120525079922719e-01 -5.408282339298381425e-01
4.808438952813055833e-02 1.972692337107013680e-02 -7.279074922530054392e-01 -9.797302037792620100e-01 3.018161312561283560e-02 -1.980348404493051662e-01
5.616302930561398177e-02 1.504250802802317710e-01 -7.992850229815923191e-01 -9.333847567047840466e-01 -3.449503289129399880e-02 3.572156052819916994e-01
-9.617278078142462165e-05 -1.723284681825079934e-01 -6.623541071868935814e-01 -7.293215077364731957e-01 -1.115178150590093870e-01 -6.750214183842331295e-01
-3.404063892997591378e-02 -2.106040001035892895e-02 -5.693881408412416745e-01 -8.276117209571578481e-01 1.502120525079922719e-01 -5.408282339298381425e-01
-6.846293998034626294e-02 -2.101107053407218206e-01 -5.703179325230737229e-01 -8.187384699499864471e-01 1.769672357334377832e-01 -5.462141661480607313e-01
-1.133602545905517123e-01 -1.346947485673529767e-02 -4.872395783713792117e-01 -7.068312215964458467e-01 3.566015843514424577e-01 -6.109213813695811846e-01
8.724218198211669897e-03 -7.976966414109481346e-03 -6.406652316360016419e-01 -8.789122987083483052e-01 5.391293286934362161e-02 -4.739267526196775937e-01
1.705480276529321507e-02 -7.721789277529027273e-02 -6.639912721792978756e-01 -8.789122987083483052e-01 5.391293286934362161e-02 -4.739267526196775937e-01
4.839326834136113004e-02 9.418413783708076692e-02 -8.004565194564357000e-01 -2.860871118855537465e-01 9.260780624435137609e-01 -2.460357426754293253e-01
4.128995390440737268e-02 -7.522690218695617104e-02 -7.087651324449770751e-01 -9.797302037792620100e-01 3.018161312561283560e-02 -1.980348404493051662e-01
-9.570150303851307494e-02 -1.837110229910493553e-01 -5.214588316422658076e-01 -8.071958826406236964e-01 -3.922750772325855201e-02 -5.889787854293617730e-01
-2.183336839004398552e-02 -4.096127755466236198e-02 -5.935958855945993040e-01 -8.276117209571578481e-01 1.502120525079922719e-01 -5.408282339298381425e-01
4.154521069844711173e-02 5.229873422619591566e-02 -6.946759706806054924e-01 -8.789122987083483052e-01 5.391293286934362161e-02 -4.739267526196775937e-01
-1.089860125134438709e-02 -1.582238957065882634e-01 -6.426279307752351677e-01 -8.272796882152405606e-01 1.321906216893998787e-01 -5.460164438951122801e-01
-2.306426070875407242e-02 4.986948342386626071e-02 -5.751319890753489039e-01 -8.789122987083483052e-01 5.391293286934362161e-02 -4.739267526196775937e-01
5.226294995652090714e-02 7.038256434672324202e-02 -7.408597227576692035e-01 -9.797302037792620100e-01 3.018161312561283560e-02 -1.980348404493051662e-01
7.197723712774422439e-03 2.809073651407096792e-02 -6.337313111393952925e-01 -8.789122987083483052e-01 5.391293286934362161e-02 -4.739267526196775937e-01
4.998073038995752559e-02 6.542714051042161638e-02 -8.347425348406364298e-01 -7.995031991717945763e-01 -5.701770031766831837e-01 1.889254338688219348e-01
-3.273436882483613669e-02 -6.346277411361353482e-02 -5.831641081957450456e-01 -8.276117209571578481e-01 1.502120525079922719e-01 -5.408282339298381425e-01
5.399678674248976212e-02 9.604979663756306463e-02 -7.999498805022765557e-01 -2.860871118855537465e-01 9.260780624435137609e-01 -2.460357426754293253e-01
-3.087679262724354196e-02 -1.824564402257592144e-01 -6.182253015935900153e-01 -8.272796882152405606e-01 1.321906216893998787e-01 -5.460164438951122801e-01
-1.145738546977234235e-01 -9.762634885194088064e-02 -5.186728560879646510e-01 -6.597709570495744469e-01 2.377352727170224667e-01 -7.128704120245500375e-01
5.269231751269994046e-02 1.247421776104335051e-01 -7.196774660015243796e-01 -9.518267640872037916e-01 -5.752318981887257626e-02 -3.011924530932749700e-01
1.186342160720803979e-02 1.224318612073770352e-01 -6.263550894149032544e-01 -8.894410763032704059e-01 1.208832256799854399e-01 -4.407741116872469500e-01
-3.681895687322087746e-02 -1.921023718563056315e-01 -6.119156477115681447e-01 -8.187384699499864471e-01 1.769672357334377832e-01 -5.462141661480607313e-01
-8.332898076868545945e-02 -1.334608454652376208e-01 -5.386664986454929860e-01 -4.117629760272755735e-01 8.464535240599674326e-02 -9.073513188887897263e-01
4.022561203395001034e-02 7.856639797482953269e-02 -8.363704040089451341e-01 -7.995031991717945763e-01 -5.701770031766831837e-01 1.889254338688219348e-01
-6.580448642889660804e-02 -2.053372890230692194e-01 -5.727562433266900621e-01 -8.187384699499864471e-01 1.769672357334377832e-01 -5.462141661480607313e-01
-1.016966314735877515e-02 1.265113365526614186e-01 -5.756682460103409449e-01 -9.110255199749394128e-01 1.783052672495792357e-01 -3.718060430190010535e-01
-9.477989273723616548e-02 3.587758109088801800e-02 -4.820743579769332654e-01 -3.999382595960159215e-01 -8.233241328944410076e-02 -9.128366569289635413e-01
-1.247244892823141590e-02 -1.336871235880703751e-03 -6.005999719103379819e-01 -8.789122987083483052e-01 5.391293286934362161e-02 -4.739267526196775937e-01
-1.265363713390664779e-01 1.328008681310182890e-02 -4.661228326842413727e-01 -3.999382595960159215e-01 -8.233241328944410076e-02 -9.128366569289635413e-01
6.039404668489432859e-02 1.633477134913877415e-01 -7.869817145038877637e-01 -9.333847567047840466e-01 -3.449503289129399880e-02 3.572156052819916994e-01
3.689753893227298853e-02 3.955867503457932005e-02 -6.875059978927898774e-01 -8.789122987083483052e-01 5.391293286934362161e-02 -4.739267526196775937e-01
-1.042287369473651887e-01 -8.526858832885067518e-02 -5.241262072233768832e-01 -6.597709570495744469e-01 2.377352727170224667e-01 -7.128704120245500375e-01
4.917027064782552442e-02 8.797928924621910285e-02 -7.701098849391108114e-01 -7.995031991717945763e-01 -5.701770031766831837e-01 1.889254338688219348e-01
7.338024803500148296e-02 1.159564339470203070e-02 -8.542919794441763415e-01 -9.797302037792620100e-01 3.018161312561283560e-02 -1.980348404493051662e-01
-1.434014849775243627e-01 -3.256105475578572640e-03 -4.612566142092367483e-01 -1.464327257835488783e-01 2.508087257307172746e-01 -9.568972985210764115e-01
-2.479372125938747798e-02 2.605213082460355184e-02 -5.746340623071961584e-01 -8.789122987083483052e-01 5.391293286934362161e-02 -4.739267526196775937e-01
-9.715609746398615187e-02 -6.883214413024295319e-02 -5.251906357141127302e-01 -6.597709570495744469e-01 2.377352727170224667e-01 -7.128704120245500375e-01
5.769351606160932899e-02 2.032004918928963233e-01 -7.758315868493145251e-01 -9.006547213539113361e-01 -1.754871079392492650e-01 3.975240217270228915e-01
5.668374355517787067e-02 2.040413525049480370e-01 -7.728891681100269473e-01 -9.199404522326316558e-01 -2.865926668868303828e-01 -2.675335635629954023e-01
3.941458253113892807e-02 1.207745844192429224e-01 -6.824052759719344552e-01 -8.894410763032704059e-01 1.208832256799854399e-01 -4.407741116872469500e-01
6.245225122864373618e-02 -7.103179504837567326e-02 -7.926020800437600933e-01 -8.667210533185090160e-01 -2.572992331547033773e-01 -4.273075243340048179e-01
8.545889648590951349e-02 -1.119930270409514178e-01 -8.331619659211401130e-01 -9.610706557944345141e-01 -2.580042905323127328e-02 -2.750954969306566578e-01
4.760163531817157567e-02 -3.312772793535234683e-02 -7.335745241478729417e-01 -9.797302037792620100e-01 3.018161312561283560e-02 -1.980348404493051662e-01
-1.086911779569883357e-01 -1.429495188491423374e-01 -5.072149545647223201e-01 -8.587132630798900434e-01 -2.322143940252712480e-01 -4.568238249239676696e-01
8.384039271310514407e-02 -1.091536999235401678e-01 -8.277738710921769272e-01 -9.610706557944345141e-01 -2.580042905323127328e-02 -2.750954969306566578e-01
7.004053673733039165e-02 -1.039107117612137199e-01 -7.889890788763503915e-01 -9.027767715455979891e-01 -1.522058831344801355e-01 -4.022778516112463509e-01
2.810541861261069488e-02 6.720204542576105333e-02 -6.680560769885480754e-01 -8.789122987083483052e-01 5.391293286934362161e-02 -4.739267526196775937e-01
-8.064519244082975213e-02 -5.286921487960442867e-02 -5.323661581004539567e-01 -4.117629760272755735e-01 8.464535240599674326e-02 -9.073513188887897263e-01
4.883717442855849827e-02 1.085840739267515120e-01 -7.467713558327804257e-01 -2.860871118855537465e-01 9.260780624435137609e-01 -2.460357426754293253e-01
4.301754183011798766e-02 1.023774529828703483e-01 -7.526936196441905702e-01 -7.995031991717945763e-01 -5.701770031766831837e-01 1.889254338688219348e-01
6.369391827898426839e-02 4.696454384990400577e-02 -8.324305668624639720e-01 -7.995031991717945763e-01 -5.701770031766831837e-01 1.889254338688219348e-01
7.863697483099894858e-02 -3.542836289271941719e-02 -8.874760780577395369e-01 -9.996883080955708545e-01 -2.473548981031185867e-02 3.382632238180219471e-03
-1.445918990898425738e-01 -3.452140635036212574e-02 -4.692692762792040062e-01 -1.464327257835488783e-01 2.508087257307172746e-01 -9.568972985210764115e-01
6.652084814229944354e-02 -2.038163436217614588e-02 -8.252302476016659671e-01 -9.797302037792620100e-01 3.018161312561283560e-02 -1.980348404493051662e-01
4.787052007662549735e-02 1.068598368891361117e-01 -7.186287310552645913e-01 -7.995031991717945763e-01 -5.701770031766831837e-01 1.889254338688219348e-01
8.228435852327541100e-03 1.824976967697787833e-01 -6.104278638513633837e-01 -8.674550197427527420e-01 -6.599205427427934367e-02 -4.931194961627059503e-01
1.383877681063432757e-02 9.598660912287966529e-02 -6.375938380227754720e-01 -8.894410763032704059e-01 1.208832256799854399e-01 -4.407741116872469500e-01
-2.339645247886840140e-02 -1.155695238169479472e-01 -6.119259772399497921e-01 -8.276117209571578481e-01 1.502120525079922719e-01 -5.408282339298381425e-01
4.178327627182881060e-02 -1.153275402135136435e-02 -7.023788097396069796e-01 -8.789122987083483052e-01 5.391293286934362161e-02 -4.739267526196775937e-01
-1.011693255956006565e-01 -6.521513297884234950e-02 -5.202701025588784001e-01 -6.597709570495744469e-01 2.377352727170224667e-01 -7.128704120245500375e-01
6.682800601042375443e-02 3.322921968171056034e-02 -8.185792451196375330e-01 -9.797302037792620100e-01 3.018161312561283560e-02 -1.980348404493051662e-01
-4.143078416134773900e-02 1.691598875585770614e-02 -5.475315117400187948e-01 -8.276117209571578481e-01 1.502120525079922719e-01 -5.408282339298381425e-01
4.705191294651154404e-02 1.048908656813119650e-01 -8.188705222001875228e-01 -9.135313806753736499e-01 5.870698003511042040e-02 4.025095117093541730e-01
-1.464920047002865079e-02 6.479740152133039999e-02 -5.886614606869627897e-01 -8.894410763032704059e-01 1.208832256799854399e-01 -4.407741116872469500e-01
3.899207784231335794e-02 -3.977121420342483865e-02 -7.004147922736974063e-01 -8.789122987083483052e-01 5.391293286934362161e-02 -4.739267526196775937e-01
4.458979130446428379e-02 2.154225518733378364e-01 -8.001247542631031440e-01 -9.006547213539113361e-01 -1.754871079392492650e-01 3.975240217270228915e-01
3.664124046627114523e-02 1.237478848131796372e-01 -6.759934962899345479e-01 -8.894410763032704059e-01 1.208832256799854399e-01 -4.407741116872469500e-01
4.620375155846949411e-02 -3.804796569674454010e-02 -7.274086988547986410e-01 -9.797302037792620100e-01 3.018161312561283560e-02 -1.980348404493051662e-01
7.682883727074682478e-02 -1.077326257802927456e-01 -8.034116552824303037e-01 -9.610706557944345141e-01 -2.580042905323127328e-02 -2.750954969306566578e-01
6.591903053864489603e-02 1.716095371539911596e-01 -7.711411956698421832e-01 -9.006547213539113361e-01 -1.754871079392492650e-01 3.975240217270228915e-01
-4.844065083503740210e-03 5.438411615087982570e-02 -6.084083484317052148e-01 -8.789122987083483052e-01 5.391293286934362161e-02 -4.739267526196775937e-01
5.918441081730096281e-02 -4.220087018980169837e-03 -7.864718615144309366e-01 -9.797302037792620100e-01 3.018161312561283560e-02 -1.980348404493051662e-01
-9.140796856091433498e-03 1.351343075667550964e-01 -5.740539696572904971e-01 -9.110255199749394128e-01 1.783052672495792357e-01 -3.718060430190010535e-01
-2.001460456343843834e-03 -2.258659438511839007e-02 -6.224360792581692392e-01 -8.789122987083483052e-01 5.391293286934362161e-02 -4.739267526196775937e-01
5.689877036758973772e-02 5.408512805964790782e-02 -7.662781601475533444e-01 -9.797302037792620100e-01 3.018161312561283560e-02 -1.980348404493051662e-01
-7.052040895643613139e-02 -1.992058057770008106e-01 -5.637008596655818105e-01 -8.187384699499864471e-01 1.769672357334377832e-01 -5.462141661480607313e-01
7.877957370257154812e-02 -3.953842337488218395e-02 -8.753878394898848558e-01 -9.996883080955708545e-01 -2.473548981031185867e-02 3.382632238180219471e-03
6.513019699879764313e-02 1.677780197142027807e-01 -7.659514810159270271e-01 -9.496150731273326207e-01 -5.053034549280963073e-02 -3.093184395954236554e-01
5.345191565176728166e-02 8.785079022434216789e-02 -7.440795923827030478e-01 -9.797302037792620100e-01 3.018161312561283560e-02 -1.980348404493051662e-01
-8.572823673980800238e-03 -1.393732539570212980e-01 -6.412214450312730962e-01 -8.276117209571578481e-01 1.502120525079922719e-01 -5.408282339298381425e-01
-9.166344692350567036e-02 -1.978233283027808764e-01 -5.295398623774978386e-01 -8.399041906400849244e-01 1.534928703736392896e-01 -5.205774575312354102e-01
2.519076302694707448e-02 -3.806240067920115683e-02 -6.746254220580912841e-01 -8.789122987083483052e-01 5.391293286934362161e-02 -4.739267526196775937e-01
-4.483833923727867377e-02 -1.309791289173664608e-02 -5.506532371672266946e-01 -8.276117209571578481e-01 1.502120525079922719e-01 -5.408282339298381425e-01
-5.487814963450630967e-02 -1.382870152226258753e-01 -5.700602255479118030e-01 -8.276117209571578481e-01 1.502120525079922719e-01 -5.408282339298381425e-01
4.715721779050893736e-02 6.076833394675655586e-02 -8.880419159189831824e-01 -8.350709107314874258e-01 -4.424324900838537689e-01 3.269710472936169232e-01
4.906200658782305934e-02 5.569997835393387942e-02 -8.900352773350277413e-01 -8.350709107314874258e-01 -4.424324900838537689e-01 3.269710472936169232e-01
-3.507515459603803565e-02 4.649250441000699757e-02 -5.524639454728139665e-01 -8.894410763032704059e-01 1.208832256799854399e-01 -4.407741116872469500e-01
1.707192742032628829e-02 9.603342268511108615e-02 -6.441051958989006954e-01 -8.894410763032704059e-01 1.208832256799854399e-01 -4.407741116872469500e-01
8.539908158099610014e-02 -1.034088633725345346e-01 -8.337580816614796886e-01 -9.610706557944345141e-01 -2.580042905323127328e-02 -2.750954969306566578e-01
-7.353907731448247609e-02 -1.702254046401275867e-01 -5.503747306425906816e-01 -8.276117209571578481e-01 1.502120525079922719e-01 -5.408282339298381425e-01
4.312825420290227613e-02 1.088951724713274338e-01 -7.325546230898910549e-01 -7.995031991717945763e-01 -5.701770031766831837e-01 1.889254338688219348e-01
1.532425069910672670e-02 -1.967050351251983520e-01 -6.758960015807098376e-01 -7.276043312896471882e-01 6.770630877699318484e-02 -6.826476344647651739e-01
-1.686456513602104801e-01 3.290988105215496284e-02 -4.494441161615700397e-01 -3.999382595960159215e-01 -8.233241328944410076e-02 -9.128366569289635413e-01
-4.086361770626836809e-03 -1.352086345448940408e-01 -6.469302306185170659e-01 -8.276117209571578481e-01 1.502120525079922719e-01 -5.408282339298381425e-01
6.862305231421256257e-02 -1.144055107045424818e-01 -7.818372007871560170e-01 -9.027767715455979891e-01 -1.522058831344801355e-01 -4.022778516112463509e-01
6.953679042887372930e-02 2.808112800260236311e-02 -8.327649086892517927e-01 -9.797302037792620100e-01 3.018161312561283560e-02 -1.980348404493051662e-01
3.879640292936234469e-02 6.030530870386548864e-02 -6.886674074340253249e-01 -8.789122987083483052e-01 5.391293286934362161e-02 -4.739267526196775937e-01
3.811072101689438885e-02 4.653921580848009720e-02 -6.889617908498189003e-01 -8.789122987083483052e-01 5.391293286934362161e-02 -4.739267526196775937e-01
6.464897195272296948e-02 -7.119849199874310475e-02 -7.969573815452313248e-01 -8.667210533185090160e-01 -2.572992331547033773e-01 -4.273075243340048179e-01
4.810661876178078805e-02 9.080740430683827136e-02 -7.660758432084777692e-01 -7.995031991717945763e-01 -5.701770031766831837e-01 1.889254338688219348e-01
4.289167272693012595e-02 1.084262229306769132e-01 -7.349710891065879270e-01 -7.995031991717945763e-01 -5.701770031766831837e-01 1.889254338688219348e-01
6.236102214843645269e-02 4.950976680985991196e-02 -8.303896935332792939e-01 -7.995031991717945763e-01 -5.701770031766831837e-01 1.889254338688219348e-01
1.507236584884504883e-03 -1.771972179516395629e-02 -6.283894245613315110e-01 -8.789122987083483052e-01 5.391293286934362161e-02 -4.739267526196775937e-01
-1.612145744638694700e-02 -1.361845593121034370e-01 -6.287843758608729905e-01 -8.276117209571578481e-01 1.502120525079922719e-01 -5.408282339298381425e-01
3.531782186310791771e-02 -1.295465581277212563e-01 -7.056565509497644273e-01 -8.276117209571578481e-01 1.502120525079922719e-01 -5.408282339298381425e-01
-1.241578474854239909e-02 -1.874140500085414579e-02 -6.026849614144251799e-01 -8.789122987083483052e-01 5.391293286934362161e-02 -4.739267526196775937e-01
4.807593435741385618e-02 1.265572075855259104e-01 -7.054354400721096763e-01 -9.518267640872037916e-01 -5.752318981887257626e-02 -3.011924530932749700e-01
5.072260320257281768e-02 -6.875563845753371317e-02 -7.544446614623491199e-01 -9.797302037792620100e-01 3.018161312561283560e-02 -1.980348404493051662e-01
-3.765904950378662353e-02 1.922103074825115554e-01 -5.310061928628950767e-01 -8.674550197427527420e-01 -6.599205427427934367e-02 -4.931194961627059503e-01
-2.443694301880570963e-02 6.889842676227764251e-02 -5.677859936781081140e-01 -8.894410763032704059e-01 1.208832256799854399e-01 -4.407741116872469500e-01
7.387267457233084866e-02 -9.992868760018600027e-02 -7.990956569805321985e-01 -9.027767715455979891e-01 -1.522058831344801355e-01 -4.022778516112463509e-01
-1.833240123033691091e-02 1.835453290121155379e-01 -5.638444368506357884e-01 -8.674550197427527420e-01 -6.599205427427934367e-02 -4.931194961627059503e-01
1.974149782338995365e-02 -6.109461297343895397e-02 -6.671396828136449964e-01 -8.789122987083483052e-01 5.391293286934362161e-02 -4.739267526196775937e-01
4.839647471940704965e-02 -1.264302127918867646e-01 -7.318958114200297960e-01 -9.027767715455979891e-01 -1.522058831344801355e-01 -4.022778516112463509e-01
