4.386738649665516965e-02 1.217212868771737483e-01 -7.667353099856396570e-01 4.895674268720904276e-01 -4.343016462294809199e-01 7.561123029208050017e-01
7.918384742453077330e-02 -3.893115880070606178e-04 -8.773584836407535281e-01 3.424086184211873607e-01 -5.553672774479579966e-01 7.578413588416356150e-01
-1.618232171521361284e-01 -3.069785460811202960e-02 -6.598370388991272595e-01 9.284972481874425032e-01 8.155305803979211177e-02 3.622733206195364319e-01
-2.288299272241428248e-02 -8.493530378994870733e-02 -8.912122060512805977e-01 4.458807307262033781e-01 -5.757740018221119138e-01 6.853281497157533986e-01
-7.256702880269532904e-03 7.864024978569934821e-02 -7.639518715891158163e-01 4.458807307262033781e-01 -5.757740018221119138e-01 6.853281497157533986e-01
-8.544098747767346624e-02 -3.756473334762731181e-02 -7.928411456932423773e-01 6.773853458815732864e-01 -4.090960393299238884e-01 6.113832871362049337e-01
-1.776086937545456601e-01 -1.466989056679877113e-01 -7.379806917331445115e-01 9.904143966401289800e-01 3.193198261739257915e-02 1.343862768815776154e-01
-6.905769224644539572e-02 -1.139997526746398260e-01 -8.656560622285855988e-01 5.486862538976844395e-01 -7.199864472263495241e-01 4.249269473616670290e-01
-1.128283332567595748e-01 -2.376927529502367853e-02 -7.532662105380123485e-01 6.773853458815732864e-01 -4.090960393299238884e-01 6.113832871362049337e-01
7.611820869676741430e-02 9.690985594098520950e-02 -8.028472566123560084e-01 4.458807307262033781e-01 -5.757740018221119138e-01 6.853281497157533986e-01
9.893037231668691533e-02 7.721764960676090472e-02 -8.294078327309785115e-01 3.424086184211873607e-01 -5.553672774479579966e-01 7.578413588416356150e-01
2.423040388879560761e-02 1.890553291801729541e-01 -6.933790666816799231e-01 4.607106532950128175e-01 -6.575879900430898761e-01 5.960903700711593922e-01
-9.897798318350746558e-04 -9.863396089093526276e-02 -9.132332157561544594e-01 3.445581249614472208e-01 -5.698023296421609318e-01 7.460596515409595453e-01
-9.899288699524279311e-02 -7.904398482963601036e-02 -8.055813358775111288e-01 6.773853458815732864e-01 -4.090960393299238884e-01 6.113832871362049337e-01
1.602129440717776077e-01 -1.572982334060707074e-02 -9.252110834738258571e-01 3.424086184211873607e-01 -5.553672774479579966e-01 7.578413588416356150e-01
-1.811614147421150012e-01 -1.620052819679271838e-01 -7.081604671665352457e-01 9.904143966401289800e-01 3.193198261739257915e-02 1.343862768815776154e-01
3.903857209957301705e-02 -1.135682214635643228e-01 -9.512503061457500131e-01 2.677311081799561010e-01 -7.832092722779023797e-01 5.611624448683741884e-01
2.680923601183472088e-02 -1.152006143844904601e-02 -8.618514597014209633e-01 3.424086184211873607e-01 -5.553672774479579966e-01 7.578413588416356150e-01
1.302416017922231051e-01 -2.470847464906714488e-02 -9.182492085269357007e-01 3.424086184211873607e-01 -5.553672774479579966e-01 7.578413588416356150e-01
3.489650991908344047e-02 1.711061466765784467e-01 -7.214237329976068702e-01 4.607106532950128175e-01 -6.575879900430898761e-01 5.960903700711593922e-01
1.483258205413905684e-01 1.161857468771092250e-01 -8.093898488992976592e-01 1.500627349327409710e-01 -4.530212439230756338e-01 8.787792260510574049e-01
9.376893859292009803e-02 -1.240583864430922119e-02 -8.927543797554595706e-01 3.424086184211873607e-01 -5.553672774479579966e-01 7.578413588416356150e-01
1.865722945314602366e-01 -2.509315762586589171e-02 -9.401362263604722269e-01 5.197546242449794240e-01 -7.253463846591126085e-01 4.513621083320079608e-01
1.061257560330396976e-01 4.649504779031653906e-03 -8.858388178188331130e-01 3.424086184211873607e-01 -5.553672774479579966e-01 7.578413588416356150e-01
-1.228862553836003180e-01 -1.307403753743734687e-01 -8.245149406616280041e-01 5.486862538976844395e-01 -7.199864472263495241e-01 4.249269473616670290e-01
2.617759704587555372e-02 2.233097223045285851e-01 -6.570956674200559844e-01 4.607106532950128175e-01 -6.575879900430898761e-01 5.960903700711593922e-01
6.621548955209557996e-02 1.614465183138684701e-01 -7.562859690112085920e-01 4.607106532950128175e-01 -6.575879900430898761e-01 5.960903700711593922e-01
-6.286780931056720756e-02 -5.429774392438300318e-02 -8.290478083860951530e-01 6.773853458815732864e-01 -4.090960393299238884e-01 6.113832871362049337e-01
-1.180906604263223109e-02 -2.514835504632966651e-02 -8.481873861499134026e-01 4.458807307262033781e-01 -5.757740018221119138e-01 6.853281497157533986e-01
2.158053785621309034e-02 4.765929498368055156e-02 -8.087420911519197508e-01 4.458807307262033781e-01 -5.757740018221119138e-01 6.853281497157533986e-01
-7.814122606278743610e-02 -1.198947004928263282e-01 -8.639152274563175471e-01 5.486862538976844395e-01 -7.199864472263495241e-01 4.249269473616670290e-01
-1.814830862228074826e-01 -1.586254720600289436e-01 -6.897491397294202020e-01 9.682891931572682465e-01 -2.482047015570463255e-01 -2.846865890456249520e-02
4.178077868463342393e-02 5.693521848302561528e-02 -8.140914446683747974e-01 4.458807307262033781e-01 -5.757740018221119138e-01 6.853281497157533986e-01
6.564792885410671019e-02 -1.301476098647009159e-02 -8.804949531069410362e-01 3.424086184211873607e-01 -5.553672774479579966e-01 7.578413588416356150e-01
3.157145981004198798e-02 1.163468002788636546e-01 -7.618609853681831412e-01 4.895674268720904276e-01 -4.343016462294809199e-01 7.561123029208050017e-01
6.346651643345720128e-02 -1.058090379642911832e-01 -9.520754792295285096e-01 2.677311081799561010e-01 -7.832092722779023797e-01 5.611624448683741884e-01
8.819830793545266681e-03 1.214138367677228270e-02 -8.302800019264561238e-01 4.458807307262033781e-01 -5.757740018221119138e-01 6.853281497157533986e-01
-2.963655788209073119e-02 1.346646876658500747e-01 -7.117084614288058386e-01 4.895674268720904276e-01 -4.343016462294809199e-01 7.561123029208050017e-01
-1.539646882798372807e-01 2.234739794249263403e-02 -6.820258311890310399e-01 9.473779095040331111e-01 -1.318720300484976446e-02 3.198455787730654087e-01
3.429506980794991972e-02 6.045535692777855019e-02 -8.062637528604905679e-01 4.458807307262033781e-01 -5.757740018221119138e-01 6.853281497157533986e-01
1.746193041384387357e-01 1.232272216123772718e-01 -8.128015695854512446e-01 -1.295789353429451507e-01 -8.532576589379491372e-01 5.051343058822272969e-01
1.101337963520116481e-01 -2.910811634970193046e-02 -9.123882604598813062e-01 3.424086184211873607e-01 -5.553672774479579966e-01 7.578413588416356150e-01
-7.864918712388480060e-02 -1.339718693253620918e-01 -8.846829656638336425e-01 5.609093750565937730e-01 -6.494058656520048656e-01 5.134712208394853761e-01
1.933213749123195713e-01 -2.709357052641271982e-02 -9.463180279722765986e-01 3.546972870077538253e-01 -6.974849336622565010e-01 6.226592984156720245e-01
1.020566240968233396e-01 -5.628954073787294232e-02 -9.286581302988848874e-01 3.424086184211873607e-01 -5.553672774479579966e-01 7.578413588416356150e-01
3.407931559665005466e-02 -3.418703780422853444e-02 -8.817472263850121283e-01 3.424086184211873607e-01 -5.553672774479579966e-01 7.578413588416356150e-01
-1.109545863929349424e-01 4.284361936216305594e-02 -7.164022657497951529e-01 6.261325916060205277e-01 -5.309714115668313639e-01 5.709880365011645864e-01
-1.524131401766950500e-01 5.663738139424167456e-02 -6.480382215417357372e-01 6.830095087499765683e-01 -6.311444080303648674e-01 3.676339853293163484e-01
6.173458521755072204e-02 -1.242095427413794084e-01 -9.700848607241703281e-01 2.114921573018337386e-01 -6.831218266624292657e-01 6.990104701198703863e-01
-1.589497573985383383e-01 -9.543711373643949669e-02 -7.422672631652214026e-01 9.040769288539867166e-01 -4.179012877479749144e-01 -8.946183774396831989e-02
-8.441186354992143148e-02 3.986702493005893355e-02 -7.421693121416386152e-01 6.773853458815732864e-01 -4.090960393299238884e-01 6.113832871362049337e-01
-9.109962085676739929e-02 -5.222869527603538758e-02 -7.963837571166381135e-01 6.773853458815732864e-01 -4.090960393299238884e-01 6.113832871362049337e-01
-1.351975348175461500e-01 -1.331440344881440474e-01 -8.126907251374568819e-01 5.486862538976844395e-01 -7.199864472263495241e-01 4.249269473616670290e-01
-1.631735915430485295e-01 -1.389494627316915365e-01 -7.804057133667393620e-01 8.138687357256310095e-01 -2.943619223998228951e-01 5.009678030067838961e-01
2.393492386474828926e-01 -1.343792082890136845e-02 -9.572410937444365553e-01 3.546972870077538253e-01 -6.974849336622565010e-01 6.226592984156720245e-01
3.925282594770147099e-02 -8.165503032962716234e-02 -9.188705952513462893e-01 3.424086184211873607e-01 -5.553672774479579966e-01 7.578413588416356150e-01
8.661905546873494011e-02 4.003446748895472113e-02 -8.510941941772389718e-01 3.424086184211873607e-01 -5.553672774479579966e-01 7.578413588416356150e-01
-3.740678969760700273e-02 9.848348564922959625e-02 -7.310234261133731204e-01 4.525976104819674495e-01 -5.142422165628507402e-01 7.284986929916480447e-01
-1.771075190385864584e-01 -1.429181557136289527e-01 -6.778699481760631640e-01 9.682891931572682465e-01 -2.482047015570463255e-01 -2.846865890456249520e-02
-1.639128132380525404e-01 -1.290054274508965482e-01 -7.685998063578477479e-01 5.486862538976844395e-01 -7.199864472263495241e-01 4.249269473616670290e-01
3.735598757839266731e-02 1.305305817015539604e-01 -7.574593597980716631e-01 4.895674268720904276e-01 -4.343016462294809199e-01 7.561123029208050017e-01
1.944242506650680491e-01 4.745740967178926385e-03 -9.012263436240484094e-01 5.197546242449794240e-01 -7.253463846591126085e-01 4.513621083320079608e-01
-1.751853089888177895e-01 -1.490375855794512927e-01 -7.552851109659506346e-01 9.904143966401289800e-01 3.193198261739257915e-02 1.343862768815776154e-01
-1.768940045398380845e-01 -1.350649600087876767e-01 -7.390760738425419252e-01 9.682891931572682465e-01 -2.482047015570463255e-01 -2.846865890456249520e-02
-2.043722833926610652e-02 -9.928082498897791708e-02 -9.048180507381465842e-01 3.424086184211873607e-01 -5.553672774479579966e-01 7.578413588416356150e-01
2.092554153659517691e-01 -4.261585349125061872e-02 -9.678228177282908185e-01 3.619151726716386963e-01 -5.415615307969526837e-01 7.587677616708022876e-01
-4.051945090783123926e-02 -1.118509299487472491e-01 -8.983582378935666135e-01 5.609093750565937730e-01 -6.494058656520048656e-01 5.134712208394853761e-01
-1.214379564072672751e-01 2.221122109306768524e-02 -7.212099500833701882e-01 -1.605834199322857814e-01 2.772363990532024092e-01 9.472871498562961401e-01
-3.010335580071532742e-03 1.511201021252670806e-01 -7.141739854662982889e-01 4.607106532950128175e-01 -6.575879900430898761e-01 5.960903700711593922e-01
2.340556228838737984e-01 -1.707869355617386981e-02 -9.583038787635170808e-01 3.546972870077538253e-01 -6.974849336622565010e-01 6.226592984156720245e-01
-6.920292452297963082e-02 4.961179357560155379e-02 -7.480371653604330762e-01 4.458807307262033781e-01 -5.757740018221119138e-01 6.853281497157533986e-01
2.141472363426153991e-01 6.641840557433988101e-02 -8.466187968647771456e-01 9.285897330103477787e-02 -5.868921278362245753e-01 8.043225978184043168e-01
-1.004309378441097383e-01 -5.734432662901830374e-02 -7.894681070673389423e-01 6.773853458815732864e-01 -4.090960393299238884e-01 6.113832871362049337e-01
-1.236735206803634690e-01 -1.339970858609418614e-01 -8.290164809339997110e-01 5.486862538976844395e-01 -7.199864472263495241e-01 4.249269473616670290e-01
9.272318103399920797e-02 4.640122806074518241e-02 -8.491864264543786955e-01 3.424086184211873607e-01 -5.553672774479579966e-01 7.578413588416356150e-01
-1.347826169270874286e-01 -1.784614516733328826e-01 -8.663801837461727606e-01 6.381508077823251357e-01 -4.951497977405541762e-01 5.895678284338914388e-01
1.261569924076256510e-01 -3.493988123220646141e-02 -9.239015563598891312e-01 3.424086184211873607e-01 -5.553672774479579966e-01 7.578413588416356150e-01
1.314887263320847210e-01 1.729144525536325736e-02 -8.880339732240448702e-01 3.424086184211873607e-01 -5.553672774479579966e-01 7.578413588416356150e-01
-8.762897203521620090e-03 4.052753674826636843e-02 -7.949920766196786337e-01 4.458807307262033781e-01 -5.757740018221119138e-01 6.853281497157533986e-01
-5.562022038714841549e-02 9.559317505883353772e-02 -7.217481377028248657e-01 4.525976104819674495e-01 -5.142422165628507402e-01 7.284986929916480447e-01
-2.146321080670091346e-03 6.148526543678415474e-02 -7.816893813731626839e-01 4.458807307262033781e-01 -5.757740018221119138e-01 6.853281497157533986e-01
-5.673139109172802008e-02 1.206411925257031142e-01 -7.033765725138235725e-01 4.525976104819674495e-01 -5.142422165628507402e-01 7.284986929916480447e-01
-4.987792660007115547e-02 4.563523215670337030e-02 -7.639510671625444616e-01 4.458807307262033781e-01 -5.757740018221119138e-01 6.853281497157533986e-01
4.718543986083922892e-02 1.658543473781973754e-01 -7.367153088125407701e-01 4.607106532950128175e-01 -6.575879900430898761e-01 5.960903700711593922e-01
-5.073557973320043379e-02 -4.004464465655647315e-02 -8.329525734003918602e-01 6.773853458815732864e-01 -4.090960393299238884e-01 6.113832871362049337e-01
-4.415505748246438024e-03 -4.079309306516352290e-02 -8.661415289768131798e-01 4.458807307262033781e-01 -5.757740018221119138e-01 6.853281497157533986e-01
6.328342955171738227e-02 6.894578202727012772e-02 -8.179906679036464956e-01 4.458807307262033781e-01 -5.757740018221119138e-01 6.853281497157533986e-01
-7.830171249252161625e-02 -1.049074194710262892e-01 -8.458122803439457327e-01 6.773853458815732864e-01 -4.090960393299238884e-01 6.113832871362049337e-01
-2.522644322714265135e-03 5.755419133355237776e-02 -7.847472084689770533e-01 4.458807307262033781e-01 -5.757740018221119138e-01 6.853281497157533986e-01
-1.366381148016442837e-01 7.047697864743572571e-02 -6.535864243673228380e-01 6.830095087499765683e-01 -6.311444080303648674e-01 3.676339853293163484e-01
1.218859398963907381e-01 -6.255913920185302013e-02 -9.424296883277385461e-01 3.445581249614472208e-01 -5.698023296421609318e-01 7.460596515409595453e-01
9.275103831648335087e-03 1.855859621947815365e-03 -8.392175230589730139e-01 4.458807307262033781e-01 -5.757740018221119138e-01 6.853281497157533986e-01
9.986753550840943294e-02 9.356504556165291808e-02 -8.136170571817590291e-01 9.285897330103477787e-02 -5.868921278362245753e-01 8.043225978184043168e-01
5.745894221480589426e-02 -9.408821738366900111e-02 -9.367552046455694947e-01 3.445581249614472208e-01 -5.698023296421609318e-01 7.460596515409595453e-01
2.314195034975333534e-02 1.442948831272633514e-01 -7.403500119539745405e-01 4.895674268720904276e-01 -4.343016462294809199e-01 7.561123029208050017e-01
4.080660016085742997e-02 1.700653215710668312e-02 -8.470034622043397521e-01 4.458807307262033781e-01 -5.757740018221119138e-01 6.853281497157533986e-01
4.977676029147461850e-02 -1.239125918031716289e-01 -9.661767077359575406e-01 2.114921573018337386e-01 -6.831218266624292657e-01 6.990104701198703863e-01
-1.770530281236115944e-01 -1.381597958790060643e-01 -7.175024550089497133e-01 9.682891931572682465e-01 -2.482047015570463255e-01 -2.846865890456249520e-02
2.598151952389998048e-02 5.438197750456041230e-02 -8.059573917390657760e-01 4.458807307262033781e-01 -5.757740018221119138e-01 6.853281497157533986e-01
-1.741912013080204324e-01 -1.537245043037764325e-01 -7.614979175933239697e-01 9.904143966401289800e-01 3.193198261739257915e-02 1.343862768815776154e-01
-1.075143009936135319e-01 6.159170230902429044e-02 -7.027406463202091613e-01 6.261325916060205277e-01 -5.309714115668313639e-01 5.709880365011645864e-01
1.304558919732666245e-01 1.117554590639619795e-02 -8.920492185642724392e-01 3.424086184211873607e-01 -5.553672774479579966e-01 7.578413588416356150e-01
3.366082244581852442e-03 -1.079579912884545273e-01 -9.264007823390649765e-01 2.677311081799561010e-01 -7.832092722779023797e-01 5.611624448683741884e-01
-9.490200280874722116e-02 -7.070429192821464648e-02 -8.045334983768013259e-01 6.773853458815732864e-01 -4.090960393299238884e-01 6.113832871362049337e-01
1.701434787063859921e-01 -5.966417740716632723e-02 -9.613353426919186706e-01 3.619151726716386963e-01 -5.415615307969526837e-01 7.587677616708022876e-01
-1.463780405381275573e-01 -2.832620783059215663e-02 -6.999565238402690737e-01 9.284972481874425032e-01 8.155305803979211177e-02 3.622733206195364319e-01
-5.022983236334935091e-03 7.877454447166545859e-02 -7.652923231066757204e-01 4.458807307262033781e-01 -5.757740018221119138e-01 6.853281497157533986e-01
-1.413694727679870589e-01 1.017238007942114844e-02 -7.134843188580994866e-01 6.181371826096512256e-01 -5.323939481789066175e-01 5.783278546100630857e-01
6.025327744575765393e-02 6.601638866424930363e-02 -8.184803342108891711e-01 4.458807307262033781e-01 -5.757740018221119138e-01 6.853281497157533986e-01
1.176457774673933393e-01 -3.879614958397636232e-02 -9.228819919297812646e-01 3.424086184211873607e-01 -5.553672774479579966e-01 7.578413588416356150e-01
1.091007226711292188e-02 1.620787687738464156e-01 -7.128436378858004074e-01 4.607106532950128175e-01 -6.575879900430898761e-01 5.960903700711593922e-01
4.022950328240163659e-02 8.138239987941156550e-02 -7.925430298222927439e-01 4.458807307262033781e-01 -5.757740018221119138e-01 6.853281497157533986e-01
-1.724201586615649040e-01 -1.582274543211993068e-01 -7.734803762922050074e-01 9.904143966401289800e-01 3.193198261739257915e-02 1.343862768815776154e-01
-1.745710557097415738e-01 -1.264280319115749507e-01 -7.353681335403537966e-01 9.682891931572682465e-01 -2.482047015570463255e-01 -2.846865890456249520e-02
1.340406606843611570e-01 6.307479343616458067e-02 -8.398102417617526738e-01 9.285897330103477787e-02 -5.868921278362245753e-01 8.043225978184043168e-01
-1.234907235740769112e-02 7.783726629159103128e-02 -7.613133510430908357e-01 4.458807307262033781e-01 -5.757740018221119138e-01 6.853281497157533986e-01
-1.218500360270303035e-01 7.434210961625206671e-02 -6.744249293142177137e-01 6.830095087499765683e-01 -6.311444080303648674e-01 3.676339853293163484e-01
-8.866689484796665133e-02 -3.163092386687609003e-02 -7.852964835580898972e-01 6.773853458815732864e-01 -4.090960393299238884e-01 6.113832871362049337e-01
-1.628270727391030182e-01 6.765168560550811894e-02 -6.097816075284984150e-01 6.830095087499765683e-01 -6.311444080303648674e-01 3.676339853293163484e-01
5.422877666336350239e-03 -9.044999050310929822e-02 -9.100307072097220118e-01 3.424086184211873607e-01 -5.553672774479579966e-01 7.578413588416356150e-01
-1.462521266098117945e-01 -4.145842885485787055e-02 -6.973229817240511608e-01 9.284972481874425032e-01 8.155305803979211177e-02 3.622733206195364319e-01
-5.193583970849844494e-02 6.979135685608300887e-02 -7.423175586113757163e-01 4.458807307262033781e-01 -5.757740018221119138e-01 6.853281497157533986e-01
-1.172007478426589783e-01 2.783564686269195208e-03 -7.148058951487549217e-01 -1.605834199322857814e-01 2.772363990532024092e-01 9.472871498562961401e-01
-7.529648052636907229e-02 -7.348075108171381320e-02 -8.281133577527801659e-01 6.773853458815732864e-01 -4.090960393299238884e-01 6.113832871362049337e-01
1.761322879100419014e-01 1.294278144875349590e-01 -8.019395985747570510e-01 -1.295789353429451507e-01 -8.532576589379491372e-01 5.051343058822272969e-01
-9.442733358719709869e-02 4.029568248061743407e-02 -7.242671362570333171e-01 9.040769288539867166e-01 -4.179012877479749144e-01 -8.946183774396831989e-02
2.041127662822172020e-02 5.759564595547772613e-05 -8.479736182409788325e-01 4.458807307262033781e-01 -5.757740018221119138e-01 6.853281497157533986e-01
3.123238353335046347e-02 1.337733615154871603e-01 -7.516318369948523648e-01 4.895674268720904276e-01 -4.343016462294809199e-01 7.561123029208050017e-01
1.942207777289237380e-01 -5.183447394082596471e-02 -9.672313149040748792e-01 3.619151726716386963e-01 -5.415615307969526837e-01 7.587677616708022876e-01
-2.068939641059033829e-02 1.198192372966045971e-01 -7.263487547697574653e-01 4.525976104819674495e-01 -5.142422165628507402e-01 7.284986929916480447e-01
-4.293470994241536248e-02 -1.996349981262646525e-02 -8.235807364739430314e-01 4.458807307262033781e-01 -5.757740018221119138e-01 6.853281497157533986e-01
-8.707330046201204599e-02 -2.980422205729859469e-02 -7.858398104955104380e-01 6.773853458815732864e-01 -4.090960393299238884e-01 6.113832871362049337e-01
-1.506735757860044045e-01 2.298457034306167907e-02 -6.917451885614565033e-01 6.181371826096512256e-01 -5.323939481789066175e-01 5.783278546100630857e-01
1.046787329722535242e-01 3.422029450490535890e-02 -8.635147232682645058e-01 3.424086184211873607e-01 -5.553672774479579966e-01 7.578413588416356150e-01
-3.737408759825600058e-02 3.256217720868082033e-02 -7.830694209612463208e-01 4.458807307262033781e-01 -5.757740018221119138e-01 6.853281497157533986e-01
2.186836747624779642e-01 -2.086258166268014150e-02 -9.537858648883703605e-01 3.546972870077538253e-01 -6.974849336622565010e-01 6.226592984156720245e-01
-1.763352454821841275e-01 -1.534011650362874235e-01 -7.457733406328560521e-01 9.904143966401289800e-01 3.193198261739257915e-02 1.343862768815776154e-01
7.552588885795311069e-02 -2.110743232883604409e-02 -8.908885577796488153e-01 3.424086184211873607e-01 -5.553672774479579966e-01 7.578413588416356150e-01
4.966908948633640131e-02 -5.904392085090304915e-02 -9.070068300991720456e-01 3.424086184211873607e-01 -5.553672774479579966e-01 7.578413588416356150e-01
1.896666622379312439e-01 5.028854275120972148e-03 -8.952928951794716372e-01 5.197546242449794240e-01 -7.253463846591126085e-01 4.513621083320079608e-01
2.026505349713720594e-01 9.210589035863474272e-02 -8.318009108350158387e-01 6.682763628278101109e-01 2.525551351931647481e-01 6.997303813421248408e-01
2.108454198086320841e-01 1.252644917202726527e-01 -8.000674160184969574e-01 -1.295789353429451507e-01 -8.532576589379491372e-01 5.051343058822272969e-01
-9.567048328245919553e-02 -5.398489678684071508e-02 -7.924945763148428801e-01 6.773853458815732864e-01 -4.090960393299238884e-01 6.113832871362049337e-01
8.799839805050393982e-02 -9.126287083877275552e-02 -9.487016067574567391e-01 3.445581249614472208e-01 -5.698023296421609318e-01 7.460596515409595453e-01
5.703444389061849973e-02 -8.039541178520108466e-02 -9.261012886221547946e-01 3.445581249614472208e-01 -5.698023296421609318e-01 7.460596515409595453e-01
2.732190000955277143e-02 -4.225645556636969252e-02 -8.846075786376103034e-01 3.424086184211873607e-01 -5.553672774479579966e-01 7.578413588416356150e-01
5.012296698677358442e-02 1.903722099433977633e-01 -7.119383577583260347e-01 4.607106532950128175e-01 -6.575879900430898761e-01 5.960903700711593922e-01
-1.483958761272555216e-01 -7.399511161067486020e-02 -7.357742122551609310e-01 9.040769288539867166e-01 -4.179012877479749144e-01 -8.946183774396831989e-02
2.250058057869277761e-01 -3.881969804224852383e-02 -9.726259389161540092e-01 3.619151726716386963e-01 -5.415615307969526837e-01 7.587677616708022876e-01
1.631610383712965295e-01 9.259348118142872452e-02 -8.240852473912838594e-01 1.500627349327409710e-01 -4.530212439230756338e-01 8.787792260510574049e-01
5.764590163545229434e-02 -3.456602971598484592e-02 -8.926728400059329438e-01 3.424086184211873607e-01 -5.553672774479579966e-01 7.578413588416356150e-01
-1.785290404582032808e-01 -1.439934892394694466e-01 -7.168440703965938132e-01 9.682891931572682465e-01 -2.482047015570463255e-01 -2.846865890456249520e-02
-1.322368298639448325e-01 -4.119149382061361442e-02 -7.434202256725490621e-01 6.773853458815732864e-01 -4.090960393299238884e-01 6.113832871362049337e-01
5.681138905107435688e-02 -6.591401452398987226e-02 -9.152684670134160205e-01 3.424086184211873607e-01 -5.553672774479579966e-01 7.578413588416356150e-01
2.358977403103662551e-01 1.231189634178857795e-01 -7.925710285820447565e-01 -4.512545407651811780e-01 -6.191606273186579523e-01 6.426581183002137987e-01
-1.450586000760094862e-01 -9.904633661178006976e-02 -7.679267964396203627e-01 6.773853458815732864e-01 -4.090960393299238884e-01 6.113832871362049337e-01
1.116714494556912164e-02 1.366971241569831519e-01 -7.369606272942180736e-01 4.895674268720904276e-01 -4.343016462294809199e-01 7.561123029208050017e-01
-1.186211843823803541e-01 -1.155666560605421271e-02 -7.265467595134680323e-01 9.040769288539867166e-01 -4.179012877479749144e-01 -8.946183774396831989e-02
-1.265376684257159545e-01 -2.653091012557807354e-02 -7.365996998077665170e-01 9.040769288539867166e-01 -4.179012877479749144e-01 -8.946183774396831989e-02
2.594558981714757684e-02 1.905660286257883362e-02 -8.356124000267115548e-01 4.458807307262033781e-01 -5.757740018221119138e-01 6.853281497157533986e-01
8.452718353177263166e-02 -8.812704255808576081e-02 -9.447034848653997896e-01 3.445581249614472208e-01 -5.698023296421609318e-01 7.460596515409595453e-01
-1.828133565770338476e-01 -1.752654133237613321e-01 -6.928350239184167814e-01 9.904143966401289800e-01 3.193198261739257915e-02 1.343862768815776154e-01
1.006458953025181624e-01 8.597406819582621706e-02 -8.210072946495342583e-01 -1.646117263671520448e-01 -7.542583786638836774e-01 6.356078018383314321e-01
-1.300422451053158679e-01 3.109333617293865912e-02 -7.063979567261153836e-01 6.261325916060205277e-01 -5.309714115668313639e-01 5.709880365011645864e-01
-1.575202385001893968e-01 -4.191217023635391420e-02 -6.683409554965924482e-01 9.284972481874425032e-01 8.155305803979211177e-02 3.622733206195364319e-01
2.466358402000009553e-01 1.402103769183712101e-01 -7.656401847214613365e-01 -1.295789353429451507e-01 -8.532576589379491372e-01 5.051343058822272969e-01
1.949185520700971730e-01 1.117355357614102374e-01 -8.270057405309751974e-01 -1.295789353429451507e-01 -8.532576589379491372e-01 5.051343058822272969e-01
1.479142868652107701e-01 -5.463810505338597551e-02 -9.484008659772061867e-01 3.445581249614472208e-01 -5.698023296421609318e-01 7.460596515409595453e-01
2.303446614337989560e-03 -6.911967642856076122e-02 -8.929898339704911425e-01 3.424086184211873607e-01 -5.553672774479579966e-01 7.578413588416356150e-01
-1.117565759432142397e-01 -1.422722403589159190e-01 -8.584254485943664248e-01 5.486862538976844395e-01 -7.199864472263495241e-01 4.249269473616670290e-01
4.175837180313235475e-02 8.707992363811400960e-02 -7.887509879473240115e-01 4.458807307262033781e-01 -5.757740018221119138e-01 6.853281497157533986e-01
-9.998630030021289639e-02 -1.415651147697715440e-01 -8.709780326496598946e-01 5.609093750565937730e-01 -6.494058656520048656e-01 5.134712208394853761e-01
1.381959890015647119e-01 4.280524748891769565e-02 -8.625097099595431249e-01 -1.646117263671520448e-01 -7.542583786638836774e-01 6.356078018383314321e-01
1.658955919396237766e-01 5.741066340496799036e-02 -8.476208510301337373e-01 9.285897330103477787e-02 -5.868921278362245753e-01 8.043225978184043168e-01
5.001617019602751235e-02 5.904436568278560726e-02 -8.176774789824451384e-01 4.458807307262033781e-01 -5.757740018221119138e-01 6.853281497157533986e-01
4.229299196933075655e-02 2.028724869381668128e-01 -6.920967607063055471e-01 4.607106532950128175e-01 -6.575879900430898761e-01 5.960903700711593922e-01
-1.581682093060118588e-01 2.975918438027194950e-03 -6.703737478808915462e-01 9.473779095040331111e-01 -1.318720300484976446e-02 3.198455787730654087e-01
-1.405288339988294555e-01 6.340201768732040000e-02 -6.585041520845712482e-01 6.830095087499765683e-01 -6.311444080303648674e-01 3.676339853293163484e-01
-6.635573098695908729e-03 -1.211831533445566558e-02 -8.406062043515115656e-01 4.458807307262033781e-01 -5.757740018221119138e-01 6.853281497157533986e-01
5.789845071641376573e-02 5.775059810343994432e-02 -8.238927128621172935e-01 4.458807307262033781e-01 -5.757740018221119138e-01 6.853281497157533986e-01
-1.616845565420261255e-01 3.853834913563854853e-02 -6.481047456235851101e-01 9.820278188773388095e-01 -5.629298495538299918e-02 1.801456710438243403e-01
1.862477153553214193e-01 1.179509209154171456e-01 -8.187311744458772855e-01 -1.295789353429451507e-01 -8.532576589379491372e-01 5.051343058822272969e-01
1.310785999499377574e-01 -3.397328296921080237e-02 -9.254168917000240580e-01 3.424086184211873607e-01 -5.553672774479579966e-01 7.578413588416356150e-01
2.174775532802592781e-01 5.330387059166954988e-02 -8.565725979576146454e-01 9.285897330103477787e-02 -5.868921278362245753e-01 8.043225978184043168e-01
1.610236874408440821e-01 9.440542139020164855e-03 -8.961907026264308573e-01 -1.646117263671520448e-01 -7.542583786638836774e-01 6.356078018383314321e-01
1.634089226989332844e-01 2.251483773017283821e-02 -8.800580581580590422e-01 -1.646117263671520448e-01 -7.542583786638836774e-01 6.356078018383314321e-01
-1.213949880046969465e-01 3.328067905876231432e-04 -7.147996522004435027e-01 -1.605834199322857814e-01 2.772363990532024092e-01 9.472871498562961401e-01
2.294681049585330646e-01 1.110789950041578961e-01 -8.086854699141028391e-01 -4.512545407651811780e-01 -6.191606273186579523e-01 6.426581183002137987e-01
-6.266225908826021651e-02 -1.070051087263437922e-01 -8.645437261663898587e-01 6.773853458815732864e-01 -4.090960393299238884e-01 6.113832871362049337e-01
-1.534279650195137512e-01 -8.006662377853284579e-03 -6.848670926480746601e-01 9.473779095040331111e-01 -1.318720300484976446e-02 3.198455787730654087e-01
-1.792093445700533583e-01 -1.502390318431526262e-01 -6.855309719667536106e-01 9.682891931572682465e-01 -2.482047015570463255e-01 -2.846865890456249520e-02
-1.476723655199748964e-01 -7.588986116349541455e-02 -7.196117058460567151e-01 9.040769288539867166e-01 -4.179012877479749144e-01 -8.946183774396831989e-02
-1.616753864690345099e-01 1.482423078633137228e-02 -6.555650624130995308e-01 9.820278188773388095e-01 -5.629298495538299918e-02 1.801456710438243403e-01
3.655561487549671001e-02 -6.474592344988736037e-02 -9.052604737551177561e-01 3.424086184211873607e-01 -5.553672774479579966e-01 7.578413588416356150e-01
1.313811730925383836e-01 4.218663403277347901e-02 -8.650087242723255576e-01 -1.646117263671520448e-01 -7.542583786638836774e-01 6.356078018383314321e-01
-1.201909693517592553e-01 -1.007236666544304160e-01 -7.966013743768372013e-01 6.773853458815732864e-01 -4.090960393299238884e-01 6.113832871362049337e-01
1.509578878225515119e-01 -3.450563692459844567e-02 -9.347888946656013331e-01 3.424086184211873607e-01 -5.553672774479579966e-01 7.578413588416356150e-01
-1.596713142273598618e-01 4.826551199687773019e-02 -6.489262152397284877e-01 6.830095087499765683e-01 -6.311444080303648674e-01 3.676339853293163484e-01
-2.244987667745958551e-02 1.096011795512298742e-01 -7.324678700746274362e-01 4.525976104819674495e-01 -5.142422165628507402e-01 7.284986929916480447e-01
-1.338030009934360332e-01 -4.206988086188215292e-02 -7.374342866643578409e-01 9.040769288539867166e-01 -4.179012877479749144e-01 -8.946183774396831989e-02
8.228046461822664803e-02 6.714869382529795039e-02 -8.292638668052577655e-01 3.424086184211873607e-01 -5.553672774479579966e-01 7.578413588416356150e-01
1.602036901909440272e-02 1.642532583111899628e-03 -8.437852793008057128e-01 4.458807307262033781e-01 -5.757740018221119138e-01 6.853281497157533986e-01
2.121439837639319259e-01 1.366571764427967073e-01 -7.804901235736890763e-01 -1.295789353429451507e-01 -8.532576589379491372e-01 5.051343058822272969e-01
3.095362687123669534e-02 2.551087621230479704e-02 -8.334481585974639062e-01 4.458807307262033781e-01 -5.757740018221119138e-01 6.853281497157533986e-01
-1.830286616764778898e-02 1.035678405262137475e-01 -7.393031941854162348e-01 4.525976104819674495e-01 -5.142422165628507402e-01 7.284986929916480447e-01
1.494009059417451546e-01 -6.613697550064184805e-02 -9.571550509816727503e-01 3.248631896444320599e-01 -5.412112003250396652e-01 7.755993454463301351e-01
-5.020154326449289411e-02 6.729518854157602592e-02 -7.455430472861531710e-01 4.458807307262033781e-01 -5.757740018221119138e-01 6.853281497157533986e-01
-6.795303776987151635e-03 1.843223690693147898e-02 -8.148354337202743380e-01 4.458807307262033781e-01 -5.757740018221119138e-01 6.853281497157533986e-01
-1.585310417832479224e-01 -1.300247572167926857e-01 -7.772761392156741778e-01 5.486862538976844395e-01 -7.199864472263495241e-01 4.249269473616670290e-01
-1.535172533766545888e-01 -1.318456016548128218e-01 -7.868353825673884971e-01 5.486862538976844395e-01 -7.199864472263495241e-01 4.249269473616670290e-01
2.344354138691810696e-01 1.380961614453166675e-01 -7.723411526824373041e-01 -1.295789353429451507e-01 -8.532576589379491372e-01 5.051343058822272969e-01
-6.639006512116085723e-02 -1.713832300921590973e-02 -8.002807538054675929e-01 6.773853458815732864e-01 -4.090960393299238884e-01 6.113832871362049337e-01
-2.023050962733112176e-03 6.908190046400540518e-02 -7.753873183665079827e-01 4.458807307262033781e-01 -5.757740018221119138e-01 6.853281497157533986e-01
1.257038121955455223e-01 6.912635428440072616e-02 -8.345104366740272450e-01 -1.646117263671520448e-01 -7.542583786638836774e-01 6.356078018383314321e-01
-1.467365364994546902e-02 1.156083605130990705e-01 -7.330586108842432891e-01 4.525976104819674495e-01 -5.142422165628507402e-01 7.284986929916480447e-01
-1.005548948217511486e-02 1.312786250413326139e-01 -7.263317201713305193e-01 4.895674268720904276e-01 -4.343016462294809199e-01 7.561123029208050017e-01
-1.592873025824791955e-01 -1.541270258772767798e-01 -7.956374821592316904e-01 8.138687357256310095e-01 -2.943619223998228951e-01 5.009678030067838961e-01
1.636559068971923936e-01 -4.267364488297459985e-02 -9.465330874516445503e-01 3.445581249614472208e-01 -5.698023296421609318e-01 7.460596515409595453e-01
-8.313581991713728248e-02 -1.162095325204342000e-01 -8.512219021187558132e-01 5.486862538976844395e-01 -7.199864472263495241e-01 4.249269473616670290e-01
-1.473305748210988475e-01 3.921393636284781214e-02 -6.803779632040700687e-01 6.181371826096512256e-01 -5.323939481789066175e-01 5.783278546100630857e-01
-1.467767077753734384e-01 -1.150053814172277006e-01 -7.767019153479767235e-01 6.773853458815732864e-01 -4.090960393299238884e-01 6.113832871362049337e-01
-1.360154027317398429e-01 -5.076219781352329236e-02 -7.191879693539633411e-01 9.040769288539867166e-01 -4.179012877479749144e-01 -8.946183774396831989e-02
-5.466637526279120862e-02 -6.070197069341524282e-02 -8.424199028109433662e-01 6.773853458815732864e-01 -4.090960393299238884e-01 6.113832871362049337e-01
-7.968756106973332032e-02 -1.295782612697957414e-01 -8.779919022034812226e-01 5.609093750565937730e-01 -6.494058656520048656e-01 5.134712208394853761e-01
1.056750372045905939e-01 5.022150371296092708e-02 -8.522387421696703269e-01 3.424086184211873607e-01 -5.553672774479579966e-01 7.578413588416356150e-01
2.466213741172771853e-02 1.618576061339934979e-01 -7.237164134549994854e-01 4.607106532950128175e-01 -6.575879900430898761e-01 5.960903700711593922e-01
2.076202288202081414e-01 1.292538340147232623e-01 -7.941560771576522404e-01 -1.295789353429451507e-01 -8.532576589379491372e-01 5.051343058822272969e-01
2.236671068406859697e-01 5.663843538459933935e-02 -8.548540409486898861e-01 9.285897330103477787e-02 -5.868921278362245753e-01 8.043225978184043168e-01
-3.512584244677142975e-02 1.382881885108128983e-01 -7.035080794450965236e-01 4.607106532950128175e-01 -6.575879900430898761e-01 5.960903700711593922e-01
2.099518076318770410e-01 1.200599298864569592e-01 -8.090880378759544023e-01 -1.295789353429451507e-01 -8.532576589379491372e-01 5.051343058822272969e-01
1.068866901446796080e-01 -5.005233886023480183e-02 -9.262696599914390649e-01 3.424086184211873607e-01 -5.553672774479579966e-01 7.578413588416356150e-01
-1.569097771008200470e-01 9.657627081823581122e-03 -6.738257193845701432e-01 9.473779095040331111e-01 -1.318720300484976446e-02 3.198455787730654087e-01
-1.634381044966322083e-01 1.973173451508778917e-02 -6.444224345504486751e-01 9.820278188773388095e-01 -5.629298495538299918e-02 1.801456710438243403e-01
8.918766414076927107e-02 6.991405951175963529e-02 -8.303581473213047515e-01 3.424086184211873607e-01 -5.553672774479579966e-01 7.578413588416356150e-01
-4.352158364100385674e-02 7.994940317892552939e-02 -7.403075423227544194e-01 4.525976104819674495e-01 -5.142422165628507402e-01 7.284986929916480447e-01
1.229035187350926428e-01 -1.610232941957077599e-02 -9.086268855409941336e-01 3.424086184211873607e-01 -5.553672774479579966e-01 7.578413588416356150e-01
-2.922446977344708360e-02 -5.577668604511883815e-02 -8.625889597187375024e-01 4.458807307262033781e-01 -5.757740018221119138e-01 6.853281497157533986e-01
1.294305188114753258e-01 -1.524505156983446642e-03 -9.008928849815663886e-01 3.424086184211873607e-01 -5.553672774479579966e-01 7.578413588416356150e-01
7.401131015863535341e-03 -7.269259961743952669e-02 -8.979114124162925759e-01 3.424086184211873607e-01 -5.553672774479579966e-01 7.578413588416356150e-01
2.691629067651610599e-02 1.964697353653071799e-01 -6.872756166233205954e-01 4.607106532950128175e-01 -6.575879900430898761e-01 5.960903700711593922e-01
2.122728562703109778e-01 1.070464504153731816e-01 -8.246445414567703525e-01 -4.512545407651811780e-01 -6.191606273186579523e-01 6.426581183002137987e-01
-5.304498766222766337e-02 1.223774345935033647e-01 -7.044412393711435572e-01 4.525976104819674495e-01 -5.142422165628507402e-01 7.284986929916480447e-01
-1.454829860102642425e-01 9.466006342022060746e-03 -7.076796073727744663e-01 9.473779095040331111e-01 -1.318720300484976446e-02 3.198455787730654087e-01
1.807611482658921798e-01 4.313369212725515905e-02 -8.597545923631639830e-01 9.285897330103477787e-02 -5.868921278362245753e-01 8.043225978184043168e-01
-1.189786667231359507e-01 -1.416673959342970752e-02 -7.101465508012250183e-01 -1.605834199322857814e-01 2.772363990532024092e-01 9.472871498562961401e-01
-1.004440465056622572e-01 -1.130637258367826747e-02 -7.586481211918604250e-01 6.773853458815732864e-01 -4.090960393299238884e-01 6.113832871362049337e-01
-1.610864006721468844e-01 6.761501919332245369e-02 -6.130784664227442171e-01 6.830095087499765683e-01 -6.311444080303648674e-01 3.676339853293163484e-01
-1.806529943739125788e-01 -1.537074209845827322e-01 -7.043938208929481082e-01 9.682891931572682465e-01 -2.482047015570463255e-01 -2.846865890456249520e-02
1.249211915808881995e-01 8.862370975195109184e-04 -8.970888172358405521e-01 3.424086184211873607e-01 -5.553672774479579966e-01 7.578413588416356150e-01
-1.531197653327253383e-01 4.720737542506655421e-02 -6.629146041741742490e-01 6.830095087499765683e-01 -6.311444080303648674e-01 3.676339853293163484e-01
-5.594027350937570697e-02 -1.193086853273230413e-01 -8.909448255612792966e-01 5.609093750565937730e-01 -6.494058656520048656e-01 5.134712208394853761e-01
-1.074998827961288258e-03 9.376482651153787706e-02 -7.569263078176781123e-01 4.525976104819674495e-01 -5.142422165628507402e-01 7.284986929916480447e-01
1.241863017269146940e-01 7.921995318742632020e-02 -8.268918768616679849e-01 9.285897330103477787e-02 -5.868921278362245753e-01 8.043225978184043168e-01
-1.283880622946902417e-01 5.471799978938814146e-02 -6.863517404596711780e-01 6.181371826096512256e-01 -5.323939481789066175e-01 5.783278546100630857e-01
2.068782518247632152e-01 5.205380531238855413e-02 -8.562610478658306823e-01 9.285897330103477787e-02 -5.868921278362245753e-01 8.043225978184043168e-01
1.692273290351404558e-01 1.648968667223280320e-03 -9.033121444269436306e-01 -1.646117263671520448e-01 -7.542583786638836774e-01 6.356078018383314321e-01
-4.539060440084299874e-02 7.347094658655571597e-02 -7.437194654628149770e-01 4.525976104819674495e-01 -5.142422165628507402e-01 7.284986929916480447e-01
-1.515689619273718480e-01 -3.789523275569495891e-02 -6.844981967931799138e-01 9.284972481874425032e-01 8.155305803979211177e-02 3.622733206195364319e-01
1.023265330559273850e-01 -4.830729034751222485e-03 -8.910696288663098041e-01 3.424086184211873607e-01 -5.553672774479579966e-01 7.578413588416356150e-01
-1.024237475797668828e-01 -1.189889914491200212e-01 -8.310258470823181920e-01 5.486862538976844395e-01 -7.199864472263495241e-01 4.249269473616670290e-01
-8.913780610162032325e-02 6.344155028341724734e-02 -7.211716909454141122e-01 6.261325916060205277e-01 -5.309714115668313639e-01 5.709880365011645864e-01
1.170478969361565119e-01 4.958620148693347303e-04 -8.938175753512858090e-01 3.424086184211873607e-01 -5.553672774479579966e-01 7.578413588416356150e-01
-1.433605163642006908e-01 -6.424010503422061813e-02 -6.996056140602304740e-01 9.284972481874425032e-01 8.155305803979211177e-02 3.622733206195364319e-01
-1.604991955845633811e-01 -2.486739886306316843e-02 -6.645429937149305299e-01 9.284972481874425032e-01 8.155305803979211177e-02 3.622733206195364319e-01
3.227404148526352712e-02 1.316034176319662297e-01 -7.535526786455267745e-01 4.895674268720904276e-01 -4.343016462294809199e-01 7.561123029208050017e-01
-1.490702133102662919e-01 -1.306485741921073473e-01 -7.905494002700845790e-01 5.486862538976844395e-01 -7.199864472263495241e-01 4.249269473616670290e-01
1.642927214433339833e-01 6.489989804838698639e-02 -8.419711107683452989e-01 9.285897330103477787e-02 -5.868921278362245753e-01 8.043225978184043168e-01
4.563822497822962732e-02 4.103165923256215514e-02 -8.299624065272908080e-01 4.458807307262033781e-01 -5.757740018221119138e-01 6.853281497157533986e-01
-1.348700248528904126e-02 -8.613472497316497500e-03 -8.332040310574270192e-01 4.458807307262033781e-01 -5.757740018221119138e-01 6.853281497157533986e-01
-3.296729504761498637e-03 -3.676948577044338723e-02 -8.634890073991843273e-01 4.458807307262033781e-01 -5.757740018221119138e-01 6.853281497157533986e-01
-4.437990588364339878e-02 2.349481243539725678e-02 -7.861292595596468535e-01 4.458807307262033781e-01 -5.757740018221119138e-01 6.853281497157533986e-01
-1.797280838686546312e-01 -1.489220628149123815e-01 -7.146565997069119769e-01 9.682891931572682465e-01 -2.482047015570463255e-01 -2.846865890456249520e-02
-1.127642131704083422e-01 1.011147465137424021e-03 -7.260655791558473515e-01 9.040769288539867166e-01 -4.179012877479749144e-01 -8.946183774396831989e-02
-1.316566239755704859e-01 5.582277609628961274e-02 -6.818411575650433765e-01 6.181371826096512256e-01 -5.323939481789066175e-01 5.783278546100630857e-01
3.079674448336109510e-02 -6.750704188831481434e-02 -9.046819199197250194e-01 3.424086184211873607e-01 -5.553672774479579966e-01 7.578413588416356150e-01
-1.699603801140273929e-01 -1.430329055181811249e-01 -7.717793207336773875e-01 8.138687357256310095e-01 -2.943619223998228951e-01 5.009678030067838961e-01
1.694846980513689261e-01 -4.019381742848415762e-02 -9.473310744342753331e-01 3.445581249614472208e-01 -5.698023296421609318e-01 7.460596515409595453e-01
2.350542684890623291e-01 9.718677154022091480e-02 -8.181473221229523807e-01 -4.512545407651811780e-01 -6.191606273186579523e-01 6.426581183002137987e-01
-5.419994449522935048e-02 -1.681069604880517168e-02 -8.135676367732763703e-01 6.773853458815732864e-01 -4.090960393299238884e-01 6.113832871362049337e-01
2.233825553488357624e-03 4.342191976641145146e-02 -7.997149473884750392e-01 4.458807307262033781e-01 -5.757740018221119138e-01 6.853281497157533986e-01
-3.405166158975685749e-03 1.051043920380710650e-01 -7.474741131280941975e-01 4.525976104819674495e-01 -5.142422165628507402e-01 7.284986929916480447e-01
-1.113690509758708674e-01 3.462811035595498438e-03 -7.234188574380457926e-01 9.040769288539867166e-01 -4.179012877479749144e-01 -8.946183774396831989e-02
1.270812109588876360e-01 -8.599655887047133462e-02 -9.616643142630979524e-01 3.248631896444320599e-01 -5.412112003250396652e-01 7.755993454463301351e-01
4.870295616341448891e-02 3.293860478518958329e-02 -8.387556757501544169e-01 4.458807307262033781e-01 -5.757740018221119138e-01 6.853281497157533986e-01
-1.187529151301078278e-02 -6.809489525773781970e-02 -8.842255565811958373e-01 4.458807307262033781e-01 -5.757740018221119138e-01 6.853281497157533986e-01
-9.590624471405797061e-03 1.628048868485390266e-01 -6.961978801100248138e-01 4.607106532950128175e-01 -6.575879900430898761e-01 5.960903700711593922e-01
-3.813378268764881091e-03 1.856928433064732320e-01 -6.754137724761053452e-01 4.607106532950128175e-01 -6.575879900430898761e-01 5.960903700711593922e-01
1.557560601491605745e-01 6.314591185917663163e-02 -8.422653895617390196e-01 9.285897330103477787e-02 -5.868921278362245753e-01 8.043225978184043168e-01
-1.089530792988395664e-03 4.612497706051613133e-02 -7.952817854457299163e-01 4.458807307262033781e-01 -5.757740018221119138e-01 6.853281497157533986e-01
-1.742166059422252389e-01 -1.367141771243625126e-01 -7.611518869167124279e-01 8.138687357256310095e-01 -2.943619223998228951e-01 5.009678030067838961e-01
1.692548395200222169e-02 1.664837241720787397e-01 -7.126334658621283902e-01 4.607106532950128175e-01 -6.575879900430898761e-01 5.960903700711593922e-01
-1.084570533536525355e-01 -1.754302726644281496e-02 -7.539432122641666068e-01 6.773853458815732864e-01 -4.090960393299238884e-01 6.113832871362049337e-01
1.652697184142599696e-01 -5.952042218808251302e-03 -9.133570105302718511e-01 -1.646117263671520448e-01 -7.542583786638836774e-01 6.356078018383314321e-01
-1.894544749379392309e-02 2.045893780280915245e-02 -8.052277200331522389e-01 4.458807307262033781e-01 -5.757740018221119138e-01 6.853281497157533986e-01
1.297255411675331815e-01 -6.303983706658887465e-02 -9.464174406092964453e-01 3.445581249614472208e-01 -5.698023296421609318e-01 7.460596515409595453e-01
-6.126153390439259550e-02 -6.125257849865176768e-02 -8.354811911475782393e-01 6.773853458815732864e-01 -4.090960393299238884e-01 6.113832871362049337e-01
1.875321622972544733e-01 1.308311227998302795e-01 -7.966448341520866450e-01 -1.295789353429451507e-01 -8.532576589379491372e-01 5.051343058822272969e-01
5.825938695166260617e-02 6.575091345037070711e-02 -8.174061281907204490e-01 4.458807307262033781e-01 -5.757740018221119138e-01 6.853281497157533986e-01
2.825866667576234365e-02 1.521911636557143621e-01 -7.371598378572929988e-01 4.607106532950128175e-01 -6.575879900430898761e-01 5.960903700711593922e-01
1.709246995576819625e-02 -6.838962175693015511e-02 -8.991368204346326110e-01 3.424086184211873607e-01 -5.553672774479579966e-01 7.578413588416356150e-01
-4.890155296345676667e-02 3.327281775282753956e-02 -7.749725070482271772e-01 4.458807307262033781e-01 -5.757740018221119138e-01 6.853281497157533986e-01
1.366456609023470985e-02 1.646836254829311674e-01 -7.120989557684282989e-01 4.607106532950128175e-01 -6.575879900430898761e-01 5.960903700711593922e-01
6.457915993398999355e-02 1.269164183048514805e-01 -7.771617446115559602e-01 4.895674268720904276e-01 -4.343016462294809199e-01 7.561123029208050017e-01
-1.013237051636206327e-03 1.832802864846069246e-01 -6.802394221179105527e-01 4.607106532950128175e-01 -6.575879900430898761e-01 5.960903700711593922e-01
9.337609538473579107e-02 6.079230295976997822e-02 -8.389352459206155244e-01 3.424086184211873607e-01 -5.553672774479579966e-01 7.578413588416356150e-01
-1.145254781166357844e-01 -5.110446015429230548e-02 -7.696766931492657893e-01 6.773853458815732864e-01 -4.090960393299238884e-01 6.113832871362049337e-01
-5.712174706845841998e-02 1.021282140753327905e-01 -7.162022384773729655e-01 4.525976104819674495e-01 -5.142422165628507402e-01 7.284986929916480447e-01
4.274464067871536904e-03 -8.278724872933626577e-02 -9.038963590429509587e-01 3.424086184211873607e-01 -5.553672774479579966e-01 7.578413588416356150e-01
9.847731851724415147e-03 -3.607268845077156449e-02 -8.714555038223800176e-01 4.458807307262033781e-01 -5.757740018221119138e-01 6.853281497157533986e-01
5.719095418898535212e-03 1.798001934424903539e-02 -8.233573433722318757e-01 4.458807307262033781e-01 -5.757740018221119138e-01 6.853281497157533986e-01
1.903189998862067633e-02 1.218697283425317912e-01 -7.505695717078577633e-01 4.895674268720904276e-01 -4.343016462294809199e-01 7.561123029208050017e-01
-1.653954981355736098e-01 3.197498573706288039e-02 -6.299262540558179246e-01 9.820278188773388095e-01 -5.629298495538299918e-02 1.801456710438243403e-01
-1.143678877747830169e-01 -2.110005607887771670e-03 -7.276920975283495130e-01 9.040769288539867166e-01 -4.179012877479749144e-01 -8.946183774396831989e-02
