4.586177561577804707e-02 -9.360022353230572356e-02 -9.324538069346776092e-01 -9.553223904876555483e-01 -2.283100888043031185e-01 1.877062427920890841e-01
-1.133923881994262362e-01 1.622734167066046673e-01 -1.028058651502053777e+00 -2.632017421376777189e-01 -3.758966556505857759e-01 8.884967907687659761e-01
-1.137621579898747542e-01 5.093031873691525324e-02 -1.061574666977486814e+00 -1.924380373123875942e-01 -7.494056358753213853e-01 6.335288428427402474e-01
7.599122185172710320e-02 -1.086443003555259690e-01 -7.887559745840468928e-01 -9.020892701628988597e-01 -2.255340722185198432e-01 -3.679257138683027506e-01
-4.455723053338067619e-02 -6.800708849517386745e-02 -1.104959199696674554e+00 -6.439728694589094138e-01 -3.425077285767194613e-01 6.840960453518749596e-01
4.705779822353833158e-02 9.411584774726646299e-03 -7.113272061692172965e-01 -9.973042202912689724e-01 -1.137578179165520467e-02 7.249057716595248835e-02
5.136727643637313545e-02 -3.034735812451257522e-02 -6.846916958376010331e-01 -8.211620668151914382e-01 4.263770615919221935e-03 -5.706791395205697004e-01
3.570201579882226889e-02 -2.696709527655547639e-02 -8.955243354234441178e-01 -9.097478055828364107e-01 -3.214200889030677799e-01 2.627699691493646239e-01
4.914668760764218797e-02 -5.077396911010929881e-02 -7.206039561428702056e-01 -9.910581791735073587e-01 -1.259732628400928867e-01 -4.398207069606080433e-02
-2.396731137005412085e-02 1.050688700731539915e-01 -9.406018904032928951e-01 -9.097478055828364107e-01 -3.214200889030677799e-01 2.627699691493646239e-01
-8.161315592727888535e-02 -2.782759682144332614e-02 -1.119724997929920418e+00 -6.439728694589094138e-01 -3.425077285767194613e-01 6.840960453518749596e-01
1.737477286048522487e-02 -4.633668912072600593e-02 -9.805369932143411793e-01 -7.843078112971773042e-01 -3.233739467014218327e-01 5.294247328308129275e-01
5.650373125316730111e-02 -8.332211841066838875e-02 -7.564982635502173203e-01 -9.020892701628988597e-01 -2.255340722185198432e-01 -3.679257138683027506e-01
-1.050343097157630107e-01 2.196295800301016968e-02 -1.093583364988293338e+00 -4.534330747936620165e-01 -7.311026315621143024e-01 5.097915150393507178e-01
4.741328405025305864e-02 -1.301183534958909593e-01 -9.768211775387333207e-01 -8.851992125700863800e-01 -4.652120805861582609e-01 2.722902804112423592e-04
-1.822231706967524303e-02 1.061772229579565630e-01 -9.196624650590720096e-01 -9.188934110977613479e-01 -2.563442971420437644e-01 2.998708061213566367e-01
-5.883485211744615695e-03 -3.731024731228957392e-02 -1.009479194854639994e+00 -7.843078112971773042e-01 -3.233739467014218327e-01 5.294247328308129275e-01
2.640818595494824270e-02 7.120596727415338945e-02 -8.136305396489655894e-01 -9.080832764333255369e-01 -1.968738361777709334e-01 3.696288079827714790e-01
5.128134825927670865e-02 -1.023240625362703826e-01 -9.154820824565121917e-01 -9.553223904876555483e-01 -2.283100888043031185e-01 1.877062427920890841e-01
3.499970291565036168e-02 -1.134375044471219590e-01 -9.982216544630503341e-01 -7.582643992220502449e-01 -5.975068833253991407e-01 2.608076403236516683e-01
-1.397736279651445035e-01 1.826046906181678087e-01 -1.027272076232851994e+00 -2.632017421376777189e-01 -3.758966556505857759e-01 8.884967907687659761e-01
2.576313318594092294e-02 -8.475300067125121628e-02 -9.915749697088055425e-01 -7.843078112971773042e-01 -3.233739467014218327e-01 5.294247328308129275e-01
2.023705682056108762e-02 2.775367520293596166e-02 -8.821318521429044601e-01 -9.097478055828364107e-01 -3.214200889030677799e-01 2.627699691493646239e-01
-3.491629859817706183e-02 9.184288565234472596e-03 -1.024090413931589394e+00 -7.843078112971773042e-01 -3.233739467014218327e-01 5.294247328308129275e-01
6.569085133103796936e-02 -1.471375919321283587e-01 -8.972859758407069064e-01 -9.520254096765556895e-01 -2.459143310908650515e-01 1.821366549992582962e-01
-1.056687615993495005e-01 2.349297240563649053e-02 -1.091953451458562263e+00 -4.534330747936620165e-01 -7.311026315621143024e-01 5.097915150393507178e-01
4.753591179436986863e-02 -2.730091352283046946e-02 -7.515393994966059754e-01 -9.910581791735073587e-01 -1.259732628400928867e-01 -4.398207069606080433e-02
-2.222126764637485236e-02 1.215118712232151482e-01 -9.188076292764265629e-01 -9.188934110977613479e-01 -2.563442971420437644e-01 2.998708061213566367e-01
7.508591779994491788e-02 -1.610792129045774679e-01 -8.670015852096180087e-01 -9.520254096765556895e-01 -2.459143310908650515e-01 1.821366549992582962e-01
1.742442574004114675e-02 9.770017999870403425e-02 -8.215898357089989057e-01 -9.080832764333255369e-01 -1.968738361777709334e-01 3.696288079827714790e-01
7.780443914640668146e-02 -1.330246839280838367e-01 -7.782567809214181453e-01 -9.020892701628988597e-01 -2.255340722185198432e-01 -3.679257138683027506e-01
-1.788115235221615293e-02 1.803633927042948282e-01 -8.399256887302635199e-01 -8.715882022040770671e-01 -4.326782848627036548e-01 2.304853739110877819e-01
1.991533409641984415e-02 3.833583685444180017e-02 -8.703016083498894551e-01 -9.097478055828364107e-01 -3.214200889030677799e-01 2.627699691493646239e-01
7.599379093836695909e-02 -1.892657142248788671e-01 -9.372631420287991233e-01 -9.539658965294431914e-01 -2.997695114271347605e-01 9.343889849116410184e-03
-4.671374998874035928e-02 1.304993444440571693e-01 -9.695638065272871309e-01 -8.026907758071792909e-01 -4.154152358893825614e-01 4.279225399824569953e-01
4.921723534539294842e-02 -5.190859341538552052e-02 -6.912411364276315195e-01 -9.973042202912689724e-01 -1.137578179165520467e-02 7.249057716595248835e-02
-2.470093267537200668e-02 1.919077342259226382e-01 -8.440433217311542613e-01 -8.715882022040770671e-01 -4.326782848627036548e-01 2.304853739110877819e-01
-1.425450237228976513e-01 -1.322136543644089439e-02 -1.132015179921729731e+00 -1.818680204045854953e-01 -3.317333664878590049e-01 9.256765075947153143e-01
5.936677471657899469e-02 -9.328999087631482945e-02 -8.633433869678850403e-01 -9.553223904876555483e-01 -2.283100888043031185e-01 1.877062427920890841e-01
-1.957361787396766362e-02 2.192737376982645536e-01 -7.732814236588640977e-01 -8.715882022040770671e-01 -4.326782848627036548e-01 2.304853739110877819e-01
-5.817413923381255930e-02 1.152919395609568881e-01 -1.005823958707150911e+00 -8.026907758071792909e-01 -4.154152358893825614e-01 4.279225399824569953e-01
4.394938693046619368e-03 1.455839502336458147e-01 -8.209775509135959215e-01 -8.715882022040770671e-01 -4.326782848627036548e-01 2.304853739110877819e-01
-2.392236098876289116e-02 1.951888359125893146e-01 -8.349396839980495200e-01 -8.715882022040770671e-01 -4.326782848627036548e-01 2.304853739110877819e-01
3.455865438107149495e-02 3.972886637342226690e-02 -8.179003533213252686e-01 -9.097478055828364107e-01 -3.214200889030677799e-01 2.627699691493646239e-01
-1.833683673893009014e-01 -7.707601855720802066e-03 -1.138059798423276758e+00 -1.818680204045854953e-01 -3.317333664878590049e-01 9.256765075947153143e-01
-1.423844643276703063e-02 1.724363491752331501e-01 -8.410317029227039054e-01 -8.715882022040770671e-01 -4.326782848627036548e-01 2.304853739110877819e-01
-2.365247954292567026e-02 5.877022978943570453e-02 -9.771165926450918748e-01 -7.843078112971773042e-01 -3.233739467014218327e-01 5.294247328308129275e-01
6.345317196452181230e-02 -1.095387920144975935e-01 -8.623095292033358117e-01 -9.553223904876555483e-01 -2.283100888043031185e-01 1.877062427920890841e-01
-1.031585640105100454e-01 1.599061055576240786e-01 -1.026028598011475834e+00 -2.632017421376777189e-01 -3.758966556505857759e-01 8.884967907687659761e-01
5.557790743348520884e-02 -1.214370170939276516e-01 -9.168623304831147180e-01 -9.553223904876555483e-01 -2.283100888043031185e-01 1.877062427920890841e-01
1.456861405213549961e-02 1.589747866217388825e-02 -9.162593178683869910e-01 -9.097478055828364107e-01 -3.214200889030677799e-01 2.627699691493646239e-01
4.909196886058614373e-02 -7.306273924416673005e-02 -8.910338164305751096e-01 -9.553223904876555483e-01 -2.283100888043031185e-01 1.877062427920890841e-01
3.898208655292479535e-02 2.055474596158441900e-02 -6.856770822339732785e-01 -8.375713736285104183e-01 -3.777617864634980616e-01 -3.946773704761357693e-01
-2.043714675142131731e-02 1.359718542324385715e-01 -9.009794479162297476e-01 -9.188934110977613479e-01 -2.563442971420437644e-01 2.998708061213566367e-01
3.383171388852676542e-02 -1.985174450881711447e-02 -8.932960989945641916e-01 -9.097478055828364107e-01 -3.214200889030677799e-01 2.627699691493646239e-01
-2.195988445265957198e-02 4.975055433663785887e-02 -9.801183649460962766e-01 -7.843078112971773042e-01 -3.233739467014218327e-01 5.294247328308129275e-01
-8.472264283311083111e-03 1.178117799672724203e-01 -8.798396101542677039e-01 -9.188934110977613479e-01 -2.563442971420437644e-01 2.998708061213566367e-01
-1.286164045467871331e-01 1.207414507048501229e-01 -1.049516084583382192e+00 -3.623829907686276774e-01 -2.631737566480902846e-01 8.941018632199110305e-01
4.102594603243801472e-03 1.179017016653606531e-01 -8.435583100927103173e-01 -9.080832764333255369e-01 -1.968738361777709334e-01 3.696288079827714790e-01
-6.152350721133632155e-02 1.010124435047100172e-01 -9.944779734770908819e-01 -6.856395278254657777e-01 7.211761399034140041e-01 9.901218671094928758e-02
-2.558157741668666552e-02 1.197953402876792556e-01 -9.305719936338950893e-01 -9.188934110977613479e-01 -2.563442971420437644e-01 2.998708061213566367e-01
-5.681236306479501598e-03 5.302539066963416620e-02 -9.409523989305512703e-01 -9.097478055828364107e-01 -3.214200889030677799e-01 2.627699691493646239e-01
-1.453620266170077037e-02 -3.905080834241713914e-03 -1.001893665901727015e+00 -7.843078112971773042e-01 -3.233739467014218327e-01 5.294247328308129275e-01
7.979019037645225521e-02 -1.207564500839224536e-01 -7.928072325366776196e-01 -9.553223904876555483e-01 -2.283100888043031185e-01 1.877062427920890841e-01
7.165293768327453405e-02 -1.621106244452946432e-01 -8.863382924809454222e-01 -9.520254096765556895e-01 -2.459143310908650515e-01 1.821366549992582962e-01
-1.324884891732199532e-01 -4.446759597146811814e-03 -1.126894825752140283e+00 -1.818680204045854953e-01 -3.317333664878590049e-01 9.256765075947153143e-01
-1.358359223598152865e-01 1.745080487807306249e-02 -1.111998342840743836e+00 -1.704304316193451241e-01 -6.160362999943475026e-01 7.690596498759494359e-01
4.624865126828396622e-02 -2.536227601283521163e-02 -7.280858975540807076e-01 -9.910581791735073587e-01 -1.259732628400928867e-01 -4.398207069606080433e-02
4.274074815579963216e-02 2.544707938092117400e-02 -8.035390062000523637e-01 -9.553223904876555483e-01 -2.283100888043031185e-01 1.877062427920890841e-01
-5.528502604447366880e-02 4.818725615462010614e-02 -1.030442229914733110e+00 -7.843078112971773042e-01 -3.233739467014218327e-01 5.294247328308129275e-01
-8.440161748649943965e-04 1.877244919047242958e-03 -9.780777360189297776e-01 -7.843078112971773042e-01 -3.233739467014218327e-01 5.294247328308129275e-01
-8.977590214673485114e-02 -2.633796120763682094e-02 -1.126348185929263446e+00 -1.818680204045854953e-01 -3.317333664878590049e-01 9.256765075947153143e-01
-2.745768263083593272e-02 1.266302518751667439e-01 -9.304781202506249294e-01 -9.188934110977613479e-01 -2.563442971420437644e-01 2.998708061213566367e-01
-1.365389849534026923e-01 1.301360637858594432e-02 -1.115708456364064238e+00 -1.704304316193451241e-01 -6.160362999943475026e-01 7.690596498759494359e-01
-1.119312822420120562e-01 1.727145350979244209e-01 -1.023208496540594092e+00 -2.632017421376777189e-01 -3.758966556505857759e-01 8.884967907687659761e-01
-7.006598576447350957e-02 9.483100110470413235e-02 -1.008609084394227473e+00 -6.856395278254657777e-01 7.211761399034140041e-01 9.901218671094928758e-02
4.141093978633380440e-02 -3.839714760836433066e-02 -8.879617542571154321e-01 -9.553223904876555483e-01 -2.283100888043031185e-01 1.877062427920890841e-01
5.020965139088354873e-02 -2.291699315372967231e-03 -7.031943752423509553e-01 -5.467467235179646057e-01 2.373565742010582402e-01 8.029507313689351333e-01
-7.113309280829117898e-02 1.352445236304813669e-01 -1.011015583897948433e+00 -8.091588825354787406e-01 -4.097589727912208102e-01 4.211406974290405891e-01
-1.562005322288794462e-01 -1.303748476571608104e-02 -1.134632185890654732e+00 -1.818680204045854953e-01 -3.317333664878590049e-01 9.256765075947153143e-01
-5.490294369837320221e-02 8.592698905615581140e-02 -1.002298038810713443e+00 -1.924380373123875942e-01 -7.494056358753213853e-01 6.335288428427402474e-01
3.179048712114934672e-02 -7.222720082070006875e-02 -9.644287533725767192e-01 -9.097478055828364107e-01 -3.214200889030677799e-01 2.627699691493646239e-01
-6.158722501650776976e-02 1.157441442695125444e-01 -1.011787186886806245e+00 -8.026907758071792909e-01 -4.154152358893825614e-01 4.279225399824569953e-01
2.943210438011142210e-02 -1.145867011147144177e-01 -1.014405161300997671e+00 -8.033166972323804167e-01 -5.067664144167394191e-01 3.128419491801913699e-01
5.082871903028182703e-02 -6.213383722604604031e-02 -8.689017080238999879e-01 -9.553223904876555483e-01 -2.283100888043031185e-01 1.877062427920890841e-01
4.859842207633934680e-02 -3.241070497613942475e-02 -6.966948295277904935e-01 -9.973042202912689724e-01 -1.137578179165520467e-02 7.249057716595248835e-02
1.471260250987322521e-02 1.441818577706212856e-01 -7.845930335247893739e-01 -8.715882022040770671e-01 -4.326782848627036548e-01 2.304853739110877819e-01
3.453337327877505081e-02 3.378457142207975245e-02 -6.888989736008737097e-01 -8.375713736285104183e-01 -3.777617864634980616e-01 -3.946773704761357693e-01
7.534975943132903118e-04 1.488443818060448121e-01 -8.286271432938021597e-01 -8.715882022040770671e-01 -4.326782848627036548e-01 2.304853739110877819e-01
-7.901132012518038983e-02 4.776057943206688666e-02 -1.054768406168609562e+00 -1.924380373123875942e-01 -7.494056358753213853e-01 6.335288428427402474e-01
5.189451599211877125e-02 -7.547783695527905679e-02 -7.117646942419820766e-01 -9.910581791735073587e-01 -1.259732628400928867e-01 -4.398207069606080433e-02
1.012946843205685815e-01 -1.985669285141766494e-01 -7.791601216588832646e-01 -9.511382312566978303e-01 -2.253588294713306517e-01 2.110674371408155781e-01
2.492725512178412851e-03 3.343996718712556604e-02 -9.366098354550379534e-01 -9.097478055828364107e-01 -3.214200889030677799e-01 2.627699691493646239e-01
-3.004043724290481054e-02 1.305896394826953355e-01 -9.350077701345749226e-01 -9.188934110977613479e-01 -2.563442971420437644e-01 2.998708061213566367e-01
5.804237166234699208e-02 -6.435748383586216426e-02 -7.718958344565554075e-01 -9.020892701628988597e-01 -2.255340722185198432e-01 -3.679257138683027506e-01
2.822504809123689909e-02 2.021043275131493774e-02 -6.625192917507773949e-01 -8.375713736285104183e-01 -3.777617864634980616e-01 -3.946773704761357693e-01
-1.048201094738007016e-01 3.604221503945153476e-02 -1.076469708709205664e+00 -1.924380373123875942e-01 -7.494056358753213853e-01 6.335288428427402474e-01
-9.353520050688329812e-02 1.465789603092890747e-01 -1.027692412239712416e+00 -3.623829907686276774e-01 -2.631737566480902846e-01 8.941018632199110305e-01
6.360363432487092794e-02 -1.608960450857119528e-01 -9.271265128394826638e-01 -8.851992125700863800e-01 -4.652120805861582609e-01 2.722902804112423592e-04
-5.636923111833209293e-02 6.511738409898379376e-02 -1.021707443841692875e+00 -7.843078112971773042e-01 -3.233739467014218327e-01 5.294247328308129275e-01
-4.619889126646663929e-02 -1.548108991510763893e-02 -1.055870505234715262e+00 -7.843078112971773042e-01 -3.233739467014218327e-01 5.294247328308129275e-01
7.961763664070363455e-02 -1.448676501061958721e-01 -8.230122730364037853e-01 -9.553223904876555483e-01 -2.283100888043031185e-01 1.877062427920890841e-01
-7.233469753833729476e-02 7.654344366693931201e-02 -1.018692895039263080e+00 -1.924380373123875942e-01 -7.494056358753213853e-01 6.335288428427402474e-01
6.190599222699258442e-02 -1.231666283737028189e-01 -8.867595842813363882e-01 -9.553223904876555483e-01 -2.283100888043031185e-01 1.877062427920890841e-01
-7.335551678821291763e-03 -8.375728725825849763e-02 -1.053308929913346459e+00 -7.582643992220502449e-01 -5.975068833253991407e-01 2.608076403236516683e-01
-2.299040082629646292e-02 -6.383770833201359018e-02 -1.053187880017669942e+00 -7.582643992220502449e-01 -5.975068833253991407e-01 2.608076403236516683e-01
-3.575966422395331079e-02 6.308229159598777169e-02 -9.924187698403743596e-01 -7.843078112971773042e-01 -3.233739467014218327e-01 5.294247328308129275e-01
1.810955597967100345e-02 6.456345845347473411e-02 -8.444718614843433890e-01 -9.097478055828364107e-01 -3.214200889030677799e-01 2.627699691493646239e-01
-4.363958678798703084e-02 1.027066808908810441e-01 -9.790279160797152880e-01 -1.924380373123875942e-01 -7.494056358753213853e-01 6.335288428427402474e-01
7.014333030081111586e-02 -8.649531323564434160e-02 -8.002321226791881958e-01 -9.553223904876555483e-01 -2.283100888043031185e-01 1.877062427920890841e-01
6.525169738892638849e-02 -1.162380599100081985e-01 -7.488284988061809644e-01 -7.816615037588663384e-01 -5.772625397477899600e-01 2.361636164724768838e-01
-1.696079219427207643e-02 -3.142816430084558778e-03 -1.005019942326201621e+00 -7.843078112971773042e-01 -3.233739467014218327e-01 5.294247328308129275e-01
-1.318899661973697290e-01 -2.978328812648530638e-02 -1.135857049214983983e+00 -1.818680204045854953e-01 -3.317333664878590049e-01 9.256765075947153143e-01
-5.511649046773482025e-02 8.025191946838629298e-02 -1.009075983813124910e+00 -1.924380373123875942e-01 -7.494056358753213853e-01 6.335288428427402474e-01
4.511953221226841504e-02 -6.957363635616433013e-03 -7.405620466300666394e-01 -9.973042202912689724e-01 -1.137578179165520467e-02 7.249057716595248835e-02
6.143007489482222444e-02 -4.553598441369120786e-02 -7.947583568521022768e-01 -9.553223904876555483e-01 -2.283100888043031185e-01 1.877062427920890841e-01
4.164276845167656782e-02 3.136155140947486514e-02 -7.867686230967061434e-01 -9.910581791735073587e-01 -1.259732628400928867e-01 -4.398207069606080433e-02
9.172595600355194778e-02 -1.699123157167001519e-01 -7.918207219204403957e-01 -9.627571148150615432e-01 -2.016584782303171841e-01 1.800905217683910209e-01
-1.333706391999848750e-01 3.662142856858077028e-02 -1.096095858083090846e+00 -1.704304316193451241e-01 -6.160362999943475026e-01 7.690596498759494359e-01
-1.739885626808585981e-03 -1.388362023157391385e-02 -9.890316832311021322e-01 -7.843078112971773042e-01 -3.233739467014218327e-01 5.294247328308129275e-01
-1.354917317959446477e-01 1.626149213076613365e-01 -1.034460717729388746e+00 -2.632017421376777189e-01 -3.758966556505857759e-01 8.884967907687659761e-01
1.558427826182524900e-02 -1.277410545323405359e-02 -9.478140075318728375e-01 -9.097478055828364107e-01 -3.214200889030677799e-01 2.627699691493646239e-01
8.002201475070976067e-02 -1.249556880880988846e-01 -7.967349728999617575e-01 -9.553223904876555483e-01 -2.283100888043031185e-01 1.877062427920890841e-01
5.729701335723393074e-02 -9.480985337569973470e-02 -7.514014075756141331e-01 -9.020892701628988597e-01 -2.255340722185198432e-01 -3.679257138683027506e-01
4.658298549323644511e-02 -9.165056366285280476e-02 -9.264118397350783463e-01 -9.553223904876555483e-01 -2.283100888043031185e-01 1.877062427920890841e-01
3.906822483698463994e-02 3.496700986212964313e-03 -6.695329324569486706e-01 -8.375713736285104183e-01 -3.777617864634980616e-01 -3.946773704761357693e-01
4.725712443826415865e-02 -3.273994280874562707e-02 -6.787953887108925111e-01 -8.211620668151914382e-01 4.263770615919221935e-03 -5.706791395205697004e-01
5.915814853387563882e-02 -1.092675789556570021e-01 -8.838389749655251038e-01 -9.553223904876555483e-01 -2.283100888043031185e-01 1.877062427920890841e-01
-4.681974574072045314e-02 2.482383880471874735e-02 -1.032171909230846341e+00 -7.843078112971773042e-01 -3.233739467014218327e-01 5.294247328308129275e-01
-1.595745325826809224e-01 1.274303509786638101e-03 -1.130166181940046366e+00 -1.818680204045854953e-01 -3.317333664878590049e-01 9.256765075947153143e-01
6.177915690756946576e-02 -1.541744713708025905e-01 -9.272332809901449036e-01 -9.520254096765556895e-01 -2.459143310908650515e-01 1.821366549992582962e-01
-1.941170641628258697e-01 2.313215766539440405e-03 -1.136580452939808028e+00 -1.818680204045854953e-01 -3.317333664878590049e-01 9.256765075947153143e-01
4.207351724426517704e-03 7.272581325612338665e-02 -8.826191240505215641e-01 -9.097478055828364107e-01 -3.214200889030677799e-01 2.627699691493646239e-01
1.514073059283396923e-02 4.197743646880339186e-02 -8.823775765375410085e-01 -9.097478055828364107e-01 -3.214200889030677799e-01 2.627699691493646239e-01
-8.801139418218702215e-02 1.522797540479148837e-01 -1.023775595929959481e+00 -3.623829907686276774e-01 -2.631737566480902846e-01 8.941018632199110305e-01
1.051538492731356189e-02 8.155467177630201792e-02 -8.526501583309326060e-01 -9.188934110977613479e-01 -2.563442971420437644e-01 2.998708061213566367e-01
9.263937338466503302e-02 -1.776388378010982094e-01 -7.958186226385348672e-01 -9.511382312566978303e-01 -2.253588294713306517e-01 2.110674371408155781e-01
-1.973897274308440003e-02 2.609697668012178964e-02 -9.912758949821225407e-01 -7.843078112971773042e-01 -3.233739467014218327e-01 5.294247328308129275e-01
7.917354798674329508e-03 2.200135792931263296e-02 -9.318206816982742557e-01 -9.097478055828364107e-01 -3.214200889030677799e-01 2.627699691493646239e-01
-8.603225608120250445e-02 9.794371360229131573e-02 -1.037843957624278390e+00 -3.530564383345529689e-01 -1.617164929505694182e-01 9.215199006306311613e-01
-6.864003164407571356e-02 9.309848391127011069e-02 -9.979875477411020990e-01 -1.924380373123875942e-01 -7.494056358753213853e-01 6.335288428427402474e-01
2.050307960418156980e-02 -8.249450854003407673e-04 -6.400599882901019111e-01 -8.211620668151914382e-01 4.263770615919221935e-03 -5.706791395205697004e-01
-3.026560703396416821e-02 5.818285391491884867e-02 -9.872722753505756010e-01 -7.843078112971773042e-01 -3.233739467014218327e-01 5.294247328308129275e-01
4.577341327327667103e-02 3.698539410092231694e-02 -7.246703044190861975e-01 -9.973042202912689724e-01 -1.137578179165520467e-02 7.249057716595248835e-02
2.854484893394283393e-02 3.649623466360654017e-02 -8.426751748177145895e-01 -9.097478055828364107e-01 -3.214200889030677799e-01 2.627699691493646239e-01
-1.221704880029481771e-01 1.477670196509826284e-01 -1.036796237704223245e+00 -2.632017421376777189e-01 -3.758966556505857759e-01 8.884967907687659761e-01
4.431515797932747414e-02 1.853090799380506526e-02 -7.476285761147209996e-01 -9.973042202912689724e-01 -1.137578179165520467e-02 7.249057716595248835e-02
-2.246111220699804206e-04 1.687105756566255055e-01 -7.950321149718159175e-01 -8.715882022040770671e-01 -4.326782848627036548e-01 2.304853739110877819e-01
2.054709527860085552e-02 -1.001479092470276833e-01 -1.009794449012662687e+00 -7.582643992220502449e-01 -5.975068833253991407e-01 2.608076403236516683e-01
4.555455117044744651e-02 -1.171560911414802064e-01 -9.626687882420633668e-01 -9.553223904876555483e-01 -2.283100888043031185e-01 1.877062427920890841e-01
-2.812334919907314573e-02 2.102498666397263349e-01 -8.225525674833217282e-01 -8.715882022040770671e-01 -4.326782848627036548e-01 2.304853739110877819e-01
8.650171330248240809e-02 -1.773794168937626869e-01 -8.281107000156709974e-01 -9.627571148150615432e-01 -2.016584782303171841e-01 1.800905217683910209e-01
4.627823423826717131e-02 -1.278512577471960787e-01 -9.727157061737506938e-01 -9.520254096765556895e-01 -2.459143310908650515e-01 1.821366549992582962e-01
8.203274763532504565e-02 -1.380388955905632320e-01 -8.024147526713297784e-01 -9.553223904876555483e-01 -2.283100888043031185e-01 1.877062427920890841e-01
-3.907963737971816010e-02 9.776957355918707016e-02 -9.761500127247639824e-01 -7.843078112971773042e-01 -3.233739467014218327e-01 5.294247328308129275e-01
5.191849537847234575e-02 -6.451647080010321222e-02 -7.437005263776791386e-01 -9.910581791735073587e-01 -1.259732628400928867e-01 -4.398207069606080433e-02
6.625014416550667473e-02 -9.800162831142586461e-02 -8.340416305983454626e-01 -9.553223904876555483e-01 -2.283100888043031185e-01 1.877062427920890841e-01
4.046186011407648664e-02 -7.455008074700153475e-02 -9.367654397415090539e-01 -9.553223904876555483e-01 -2.283100888043031185e-01 1.877062427920890841e-01
2.889746612920497323e-02 9.359603458126328213e-02 -7.955894887470575938e-01 -9.080832764333255369e-01 -1.968738361777709334e-01 3.696288079827714790e-01
-2.503422489186915914e-02 5.611300231980981962e-02 -9.807865983778182306e-01 -7.843078112971773042e-01 -3.233739467014218327e-01 5.294247328308129275e-01
-4.017470461459309722e-02 -4.989152914209328549e-02 -1.071198501639743617e+00 -7.582643992220502449e-01 -5.975068833253991407e-01 2.608076403236516683e-01
2.872268620257145341e-02 9.538510144299225391e-02 -7.950659750932626002e-01 -9.080832764333255369e-01 -1.968738361777709334e-01 3.696288079827714790e-01
4.912153500928716915e-02 -2.780384894591234751e-02 -8.358342326931825772e-01 -9.553223904876555483e-01 -2.283100888043031185e-01 1.877062427920890841e-01
-5.708148463759749741e-02 1.173838836869020574e-01 -1.001743572504209423e+00 -8.026907758071792909e-01 -4.154152358893825614e-01 4.279225399824569953e-01
2.051205500328116133e-02 8.441507789293739572e-02 -8.210803097247375559e-01 -9.080832764333255369e-01 -1.968738361777709334e-01 3.696288079827714790e-01
-3.344539760249408411e-02 1.012737602957165667e-01 -9.656628922359242750e-01 -7.843078112971773042e-01 -3.233739467014218327e-01 5.294247328308129275e-01
7.505479511703014826e-03 2.441464440529292346e-02 -9.302947230186723315e-01 -9.097478055828364107e-01 -3.214200889030677799e-01 2.627699691493646239e-01
-1.400068019453870050e-01 2.335444047644407231e-02 -1.108193684745619301e+00 -1.704304316193451241e-01 -6.160362999943475026e-01 7.690596498759494359e-01
-4.535664516279636245e-03 8.240351687731815866e-02 -9.010509543564515500e-01 -9.097478055828364107e-01 -3.214200889030677799e-01 2.627699691493646239e-01
4.377485215923860445e-02 -4.016423196167594883e-02 -8.780800624936079268e-01 -9.553223904876555483e-01 -2.283100888043031185e-01 1.877062427920890841e-01
7.065221886060575607e-02 -1.650225231021041905e-01 -8.955005742716305450e-01 -9.520254096765556895e-01 -2.459143310908650515e-01 1.821366549992582962e-01
5.164802856395542957e-02 -2.960466045188527712e-02 -8.251661142674843186e-01 -9.553223904876555483e-01 -2.283100888043031185e-01 1.877062427920890841e-01
-3.042120164530600149e-02 1.441319543808276815e-01 -9.245979095213758825e-01 -9.188934110977613479e-01 -2.563442971420437644e-01 2.998708061213566367e-01
-8.433223192228242460e-02 3.346777692965902107e-02 -1.073291718411264473e+00 -1.924380373123875942e-01 -7.494056358753213853e-01 6.335288428427402474e-01
7.024512795911747043e-02 -1.533843827875472077e-01 -8.819150353896249017e-01 -9.520254096765556895e-01 -2.459143310908650515e-01 1.821366549992582962e-01
-1.482085216724300658e-02 2.070643453771823794e-01 -7.782287415364845806e-01 -8.715882022040770671e-01 -4.326782848627036548e-01 2.304853739110877819e-01
1.033193314866610868e-01 -1.734830445580219371e-01 -7.194553477197622726e-01 -9.053372568990546432e-01 -4.067307890210200561e-01 1.222068595981154748e-01
-7.225531133274612494e-02 -3.887188313526987460e-02 -1.116445568628091634e+00 -6.439728694589094138e-01 -3.425077285767194613e-01 6.840960453518749596e-01
-8.306224248618984674e-02 1.108306201783902656e-01 -1.033970000227546038e+00 -3.623829907686276774e-01 -2.631737566480902846e-01 8.941018632199110305e-01
4.819302652608915133e-02 -4.694431318884929871e-02 -8.638406855240570170e-01 -9.553223904876555483e-01 -2.283100888043031185e-01 1.877062427920890841e-01
-5.656225115552045851e-02 1.673475498909179557e-02 -1.051545620772895484e+00 -7.843078112971773042e-01 -3.233739467014218327e-01 5.294247328308129275e-01
1.310567240236026366e-02 1.037583865956872159e-01 -8.289731490464437025e-01 -9.080832764333255369e-01 -1.968738361777709334e-01 3.696288079827714790e-01
3.933823595749625507e-02 3.111523503036484409e-02 -8.118889369338047057e-01 -9.097478055828364107e-01 -3.214200889030677799e-01 2.627699691493646239e-01
-5.845375053514434427e-02 1.111568232460059535e-01 -1.010362704742532536e+00 -8.026907758071792909e-01 -4.154152358893825614e-01 4.279225399824569953e-01
5.024062837062071019e-02 9.829439958543927103e-03 -6.993039632804773920e-01 -8.375713736285104183e-01 -3.777617864634980616e-01 -3.946773704761357693e-01
-4.290681927271185192e-02 2.495952948327540694e-02 -1.026292286630855699e+00 -7.843078112971773042e-01 -3.233739467014218327e-01 5.294247328308129275e-01
-2.766475631472513352e-02 4.913807221357951310e-02 -9.889438618213585164e-01 -7.843078112971773042e-01 -3.233739467014218327e-01 5.294247328308129275e-01
-1.074816032550478390e-01 2.991740454182371944e-02 -1.084523233347924220e+00 -1.924380373123875942e-01 -7.494056358753213853e-01 6.335288428427402474e-01
-1.739497283523910170e-02 1.698028794588391233e-01 -8.579118904437065263e-01 -8.715882022040770671e-01 -4.326782848627036548e-01 2.304853739110877819e-01
-4.173156270661178974e-02 1.268061128827720763e-01 -9.638035791866470525e-01 -8.026907758071792909e-01 -4.154152358893825614e-01 4.279225399824569953e-01
4.235448642876688680e-02 -4.715660717010477371e-02 -6.718485936796733116e-01 -8.211620668151914382e-01 4.263770615919221935e-03 -5.706791395205697004e-01
4.322962324166611248e-02 1.911462196823153492e-02 -6.933126639822581039e-01 -8.375713736285104183e-01 -3.777617864634980616e-01 -3.946773704761357693e-01
-3.447902278492485234e-03 -8.256722728021645419e-02 -1.039279681533828770e+00 -7.582643992220502449e-01 -5.975068833253991407e-01 2.608076403236516683e-01
-3.352689576384102615e-02 -5.487633293226706899e-02 -1.063290979432403915e+00 -7.582643992220502449e-01 -5.975068833253991407e-01 2.608076403236516683e-01
4.159843027172276803e-02 3.496918729216236255e-02 -7.977708898337479981e-01 -9.553223904876555483e-01 -2.283100888043031185e-01 1.877062427920890841e-01
-1.119608642479424238e-01 3.596587067053882286e-02 -1.079662306727908749e+00 -4.534330747936620165e-01 -7.311026315621143024e-01 5.097915150393507178e-01
2.082335883909059923e-02 -9.723606929040104485e-02 -1.006517608920803442e+00 -7.843078112971773042e-01 -3.233739467014218327e-01 5.294247328308129275e-01
5.497025511884680478e-03 -1.071788043015923231e-01 -1.063865840211270841e+00 -8.033166972323804167e-01 -5.067664144167394191e-01 3.128419491801913699e-01
-1.861042209747132067e-02 8.164909074676814094e-02 -9.507026233800737192e-01 -9.097478055828364107e-01 -3.214200889030677799e-01 2.627699691493646239e-01
-6.187861804028536167e-02 1.471787021880750224e-01 -9.818179877859058990e-01 -8.026907758071792909e-01 -4.154152358893825614e-01 4.279225399824569953e-01
5.108463239658021793e-02 -5.037610521518345874e-02 -8.532981321128347840e-01 -9.553223904876555483e-01 -2.283100888043031185e-01 1.877062427920890841e-01
8.333208625201854458e-02 -1.445870561991616510e-01 -7.582798685101498348e-01 -7.816615037588663384e-01 -5.772625397477899600e-01 2.361636164724768838e-01
6.109164584992621272e-02 -1.382002090358819546e-01 -9.092590185306451689e-01 -9.520254096765556895e-01 -2.459143310908650515e-01 1.821366549992582962e-01
-1.129550180576245760e-01 1.804726273798691605e-01 -1.020229541613178137e+00 -2.632017421376777189e-01 -3.758966556505857759e-01 8.884967907687659761e-01
-8.346484593138137065e-02 6.912768495968703297e-02 -1.030845893862034179e+00 -1.924380373123875942e-01 -7.494056358753213853e-01 6.335288428427402474e-01
-2.839390974457724898e-02 1.981295893192852597e-01 -8.463284717392941525e-01 -8.715882022040770671e-01 -4.326782848627036548e-01 2.304853739110877819e-01
9.078090045336040248e-02 -2.040761431866988385e-01 -8.351283004447328517e-01 -9.627571148150615432e-01 -2.016584782303171841e-01 1.800905217683910209e-01
-1.826955144160942110e-02 -3.720098969757697910e-02 -1.027761599942699000e+00 -7.843078112971773042e-01 -3.233739467014218327e-01 5.294247328308129275e-01
-1.819306599983627065e-02 2.366226782696297776e-04 -1.004781304833636479e+00 -7.843078112971773042e-01 -3.233739467014218327e-01 5.294247328308129275e-01
4.735041101959800575e-02 -2.698459753689379237e-02 -7.482654585255498203e-01 -9.910581791735073587e-01 -1.259732628400928867e-01 -4.398207069606080433e-02
4.405719710341342299e-02 2.410461667251264511e-02 -7.503028571606024100e-01 -9.973042202912689724e-01 -1.137578179165520467e-02 7.249057716595248835e-02
7.446131970681910128e-02 -1.839421067133489573e-01 -9.229297185173148677e-01 -9.539658965294431914e-01 -2.997695114271347605e-01 9.343889849116410184e-03
-5.595912599892029937e-05 7.931147500767193881e-02 -8.893237475306207118e-01 -9.097478055828364107e-01 -3.214200889030677799e-01 2.627699691493646239e-01
1.947452050443300442e-02 -5.748882806582607426e-03 -6.386167619336718948e-01 -8.211620668151914382e-01 4.263770615919221935e-03 -5.706791395205697004e-01
7.826241366953792800e-02 -1.350618747835740652e-01 -8.179826982486823050e-01 -9.553223904876555483e-01 -2.283100888043031185e-01 1.877062427920890841e-01
1.866876520430301931e-02 -4.089617900238734505e-03 -6.374449468694038945e-01 -8.211620668151914382e-01 4.263770615919221935e-03 -5.706791395205697004e-01
3.346506146426003747e-02 9.227709842366771387e-02 -7.850705767134474877e-01 -9.080832764333255369e-01 -1.968738361777709334e-01 3.696288079827714790e-01
8.467497070453761099e-02 -1.522650569044941282e-01 -7.833079993073059910e-01 -9.020892701628988597e-01 -2.255340722185198432e-01 -3.679257138683027506e-01
4.562677838598272473e-02 -3.689362390850382117e-02 -8.646766755439769803e-01 -9.553223904876555483e-01 -2.283100888043031185e-01 1.877062427920890841e-01
-1.712272850034513363e-02 1.371981549090993957e-01 -8.897747817433588891e-01 -9.188934110977613479e-01 -2.563442971420437644e-01 2.998708061213566367e-01
-3.486137664737867792e-02 -7.599535627460773934e-02 -1.099831522932189998e+00 -6.439728694589094138e-01 -3.425077285767194613e-01 6.840960453518749596e-01
-3.481267501832254613e-02 -3.638434039096754332e-03 -1.031769053369472999e+00 -7.843078112971773042e-01 -3.233739467014218327e-01 5.294247328308129275e-01
-9.708483223448241550e-02 2.901589070505494750e-02 -1.082431561162102707e+00 -1.924380373123875942e-01 -7.494056358753213853e-01 6.335288428427402474e-01
-2.937332291325502748e-02 5.952131283271273193e-02 -9.851328812530291135e-01 -7.843078112971773042e-01 -3.233739467014218327e-01 5.294247328308129275e-01
3.865616003106882304e-02 1.326629377663487638e-02 -8.360831984869351308e-01 -9.097478055828364107e-01 -3.214200889030677799e-01 2.627699691493646239e-01
5.580884650533133456e-02 -1.062050209046949689e-01 -8.971600573259036482e-01 -9.553223904876555483e-01 -2.283100888043031185e-01 1.877062427920890841e-01
5.443339935597973911e-02 -5.635073054039466123e-02 -7.679553120541662281e-01 -9.020892701628988597e-01 -2.255340722185198432e-01 -3.679257138683027506e-01
6.038702589666390674e-02 -1.404891454482468938e-01 -9.160324951075159428e-01 -9.520254096765556895e-01 -2.459143310908650515e-01 1.821366549992582962e-01
-1.087656557004223340e-02 -2.476921062328385839e-02 -1.009216017496720186e+00 -7.843078112971773042e-01 -3.233739467014218327e-01 5.294247328308129275e-01
-2.743510222947900465e-02 1.543382200209273414e-01 -9.067227947698808244e-01 -9.188934110977613479e-01 -2.563442971420437644e-01 2.998708061213566367e-01
2.815976952642721635e-03 -9.392573364542576575e-02 -1.047090453921415865e+00 -7.582643992220502449e-01 -5.975068833253991407e-01 2.608076403236516683e-01
7.055209806711386367e-02 -9.291355552829082265e-02 -8.059583279036651726e-01 -9.553223904876555483e-01 -2.283100888043031185e-01 1.877062427920890841e-01
3.693220204785770816e-02 2.381600388191802350e-02 -6.844483673421102310e-01 -8.375713736285104183e-01 -3.777617864634980616e-01 -3.946773704761357693e-01
7.693595198857113016e-02 -1.326335929738815533e-01 -8.217801068896311012e-01 -9.553223904876555483e-01 -2.283100888043031185e-01 1.877062427920890841e-01
-2.374419320364523633e-02 2.029688412716989798e-01 -8.196609343977298012e-01 -8.715882022040770671e-01 -4.326782848627036548e-01 2.304853739110877819e-01
3.155042592429273263e-02 9.410678092761992630e-02 -7.887998095843686830e-01 -9.080832764333255369e-01 -1.968738361777709334e-01 3.696288079827714790e-01
5.524286093377963475e-02 -5.822466981733974423e-02 -8.416813509519548431e-01 -9.553223904876555483e-01 -2.283100888043031185e-01 1.877062427920890841e-01
-2.726690431163340811e-02 1.082686365924765415e-01 -9.481116077625354466e-01 -9.097478055828364107e-01 -3.214200889030677799e-01 2.627699691493646239e-01
8.307470721836907046e-02 -1.898515761898509902e-01 -8.603971918132111707e-01 -9.627571148150615432e-01 -2.016584782303171841e-01 1.800905217683910209e-01
2.959933804699134072e-02 1.470420890948952045e-04 -6.531415213895960248e-01 -8.211620668151914382e-01 4.263770615919221935e-03 -5.706791395205697004e-01
3.472539173113538269e-02 -9.822221622325529033e-02 -9.860647765132748432e-01 -9.097478055828364107e-01 -3.214200889030677799e-01 2.627699691493646239e-01
6.054891404225907700e-03 6.274564135441060286e-02 -8.884304143415504562e-01 -9.097478055828364107e-01 -3.214200889030677799e-01 2.627699691493646239e-01
4.757528651077986420e-02 -2.128490589050124546e-02 -7.696576629811292536e-01 -9.910581791735073587e-01 -1.259732628400928867e-01 -4.398207069606080433e-02
-1.323550963041230655e-01 2.165117014834244957e-01 -1.008097501005583041e+00 -6.766087816450837567e-01 -6.114160689388135062e-01 4.103302904297504994e-01
1.278974564818974140e-02 -9.759234232410875362e-04 -9.430575553081412821e-01 -9.097478055828364107e-01 -3.214200889030677799e-01 2.627699691493646239e-01
-1.388805710454688210e-02 2.061155104574188546e-01 -7.764825443735605681e-01 -8.715882022040770671e-01 -4.326782848627036548e-01 2.304853739110877819e-01
3.806888839100866506e-02 -1.006546902506114116e-02 -8.666558182798981269e-01 -9.097478055828364107e-01 -3.214200889030677799e-01 2.627699691493646239e-01
-1.394749159362335122e-01 -2.697943018479720054e-02 -1.136342452653484436e+00 -1.818680204045854953e-01 -3.317333664878590049e-01 9.256765075947153143e-01
4.536607202668399563e-02 2.099599525485109155e-02 -7.327835665777229224e-01 -9.973042202912689724e-01 -1.137578179165520467e-02 7.249057716595248835e-02
7.450730990648597035e-03 -7.543140933141288806e-02 -1.013009934115556288e+00 -7.843078112971773042e-01 -3.233739467014218327e-01 5.294247328308129275e-01
-5.230729285575352189e-02 1.090529724243011547e-02 -1.048802828110339869e+00 -7.843078112971773042e-01 -3.233739467014218327e-01 5.294247328308129275e-01
9.531660293728920486e-02 -1.610308969040978588e-01 -7.372980161221746043e-01 -9.053372568990546432e-01 -4.067307890210200561e-01 1.222068595981154748e-01
-1.089857783609416708e-01 5.223077883296906032e-02 -1.058585490923612094e+00 -1.924380373123875942e-01 -7.494056358753213853e-01 6.335288428427402474e-01
-8.324269870798940707e-02 8.395713071560029217e-02 -1.020653049965266623e+00 -6.856395278254657777e-01 7.211761399034140041e-01 9.901218671094928758e-02
7.715942693981384104e-02 -1.597938080062337174e-01 -8.544278785380078345e-01 -9.520254096765556895e-01 -2.459143310908650515e-01 1.821366549992582962e-01
4.106185096605024371e-02 -1.060536855149250002e-01 -9.720301491554306228e-01 -9.553223904876555483e-01 -2.283100888043031185e-01 1.877062427920890841e-01
-1.061160425605723982e-02 5.782038283427412551e-02 -9.521568170934298081e-01 -9.097478055828364107e-01 -3.214200889030677799e-01 2.627699691493646239e-01
4.704173843443034547e-02 -7.407327365222907134e-02 -9.026975000654086090e-01 -9.553223904876555483e-01 -2.283100888043031185e-01 1.877062427920890841e-01
-9.917399073449999908e-03 -3.210189986072462670e-02 -1.012273900482991262e+00 -7.843078112971773042e-01 -3.233739467014218327e-01 5.294247328308129275e-01
-3.297252399199127049e-02 1.082990982562768018e-01 -9.606712672403164843e-01 -7.843078112971773042e-01 -3.233739467014218327e-01 5.294247328308129275e-01
-8.999863344996988923e-02 1.847444286674977953e-01 -9.855894535230287357e-01 -6.766087816450837567e-01 -6.114160689388135062e-01 4.103302904297504994e-01
7.950277828590371354e-02 -1.712003289640652293e-01 -8.575798906694707124e-01 -9.520254096765556895e-01 -2.459143310908650515e-01 1.821366549992582962e-01
-6.469688858693509181e-02 9.188927534374616291e-02 -9.982201764625219242e-01 -1.924380373123875942e-01 -7.494056358753213853e-01 6.335288428427402474e-01
4.582476816364303152e-02 -4.029550697879224347e-02 -8.678067800596995784e-01 -9.553223904876555483e-01 -2.283100888043031185e-01 1.877062427920890841e-01
6.275948488032305483e-02 -8.505670303998680293e-02 -7.707729937221399208e-01 -9.020892701628988597e-01 -2.255340722185198432e-01 -3.679257138683027506e-01
-8.226379342935144501e-02 1.752195261861582698e-01 -9.870278502569811430e-01 -6.766087816450837567e-01 -6.114160689388135062e-01 4.103302904297504994e-01
-4.271514861713312378e-02 -5.456132508846355672e-02 -1.089282954461645359e+00 -7.582643992220502449e-01 -5.975068833253991407e-01 2.608076403236516683e-01
1.170812503440516877e-01 -2.005576589221158557e-01 -7.076139616467669313e-01 -9.053372568990546432e-01 -4.067307890210200561e-01 1.222068595981154748e-01
1.270907353913462712e-02 3.471106991750522869e-02 -8.996845422694906835e-01 -9.097478055828364107e-01 -3.214200889030677799e-01 2.627699691493646239e-01
-1.456142369365483469e-01 2.590804559345569885e-02 -1.107390839501808610e+00 -1.704304316193451241e-01 -6.160362999943475026e-01 7.690596498759494359e-01
7.856980172960714714e-02 -1.596933739835747490e-01 -8.469202694707557155e-01 -9.520254096765556895e-01 -2.459143310908650515e-01 1.821366549992582962e-01
1.693146312874298579e-02 -4.072437903260453344e-04 -9.280227190966995332e-01 -9.097478055828364107e-01 -3.214200889030677799e-01 2.627699691493646239e-01
5.661204722376880771e-02 -1.176853883362362491e-01 -9.070359572951731675e-01 -9.553223904876555483e-01 -2.283100888043031185e-01 1.877062427920890841e-01
-1.111203582138525214e-01 -2.342882740101108474e-02 -1.129499197320794623e+00 -1.818680204045854953e-01 -3.317333664878590049e-01 9.256765075947153143e-01
7.791545352579091338e-03 -8.920994591534266160e-02 -1.021820826066903942e+00 -7.582643992220502449e-01 -5.975068833253991407e-01 2.608076403236516683e-01
-1.241374282176281735e-01 2.140914362383893876e-01 -9.981534207725958341e-01 -6.766087816450837567e-01 -6.114160689388135062e-01 4.103302904297504994e-01
-1.255346153491227468e-01 9.525841623842425110e-02 -1.053449501390958387e+00 -3.530564383345529689e-01 -1.617164929505694182e-01 9.215199006306311613e-01
2.424185493845469261e-02 4.784942957131720076e-02 -8.436855430463243710e-01 -9.097478055828364107e-01 -3.214200889030677799e-01 2.627699691493646239e-01
-1.152597742254520413e-01 1.181869393207804486e-01 -1.044854495723606558e+00 -3.623829907686276774e-01 -2.631737566480902846e-01 8.941018632199110305e-01
1.580278032508182148e-02 -2.635113849983064180e-02 -9.636649413725905111e-01 -9.097478055828364107e-01 -3.214200889030677799e-01 2.627699691493646239e-01
2.039787357514776661e-02 4.221417776984896786e-02 -8.638870019960396274e-01 -9.097478055828364107e-01 -3.214200889030677799e-01 2.627699691493646239e-01
7.597198635290543234e-02 -1.298765166936821924e-01 -8.233326904409536962e-01 -9.553223904876555483e-01 -2.283100888043031185e-01 1.877062427920890841e-01
-6.079586380842450129e-03 1.515485274695347329e-01 -8.493903274755620902e-01 -8.715882022040770671e-01 -4.326782848627036548e-01 2.304853739110877819e-01
4.073576593573677990e-02 -4.831641209758678543e-03 -8.505717615467834891e-01 -9.553223904876555483e-01 -2.283100888043031185e-01 1.877062427920890841e-01
2.875106522161131536e-02 9.733892970242370712e-02 -7.939555957927465490e-01 -9.080832764333255369e-01 -1.968738361777709334e-01 3.696288079827714790e-01
-8.454471078950002647e-03 7.405003429215664679e-02 -9.248364074898463016e-01 -9.097478055828364107e-01 -3.214200889030677799e-01 2.627699691493646239e-01
4.633860933726578063e-02 -1.530159548479107651e-02 -7.589287026127815583e-01 -9.910581791735073587e-01 -1.259732628400928867e-01 -4.398207069606080433e-02
6.568320112774009290e-02 -8.316248337346594799e-02 -8.188779733959115070e-01 -9.553223904876555483e-01 -2.283100888043031185e-01 1.877062427920890841e-01
4.609882353890643047e-02 -4.974455026990193263e-02 -6.772557336682698548e-01 -8.211620668151914382e-01 4.263770615919221935e-03 -5.706791395205697004e-01
8.523879809394140084e-02 -1.615562456966537219e-01 -8.147022315996074182e-01 -9.553223904876555483e-01 -2.283100888043031185e-01 1.877062427920890841e-01
7.880830624478656066e-02 -1.192293741404558821e-01 -7.891744471258400617e-01 -9.020892701628988597e-01 -2.255340722185198432e-01 -3.679257138683027506e-01
2.036950780752721374e-02 3.568610087569543121e-02 -8.719703486486550803e-01 -9.097478055828364107e-01 -3.214200889030677799e-01 2.627699691493646239e-01
8.053891138034274810e-02 -1.455559078478771140e-01 -8.191606259644138577e-01 -9.553223904876555483e-01 -2.283100888043031185e-01 1.877062427920890841e-01
3.348531441933001035e-02 -4.475346515631322547e-02 -9.249551559569892945e-01 -9.097478055828364107e-01 -3.214200889030677799e-01 2.627699691493646239e-01
3.154979680069967818e-02 8.481565021815018479e-02 -7.937500510219931416e-01 -9.080832764333255369e-01 -1.968738361777709334e-01 3.696288079827714790e-01
6.450733137294058228e-02 -7.148582884465659593e-02 -8.106600084289126151e-01 -9.553223904876555483e-01 -2.283100888043031185e-01 1.877062427920890841e-01
7.038964447468337715e-02 -1.738204585072837816e-01 -9.477751275825403443e-01 -8.851992125700863800e-01 -4.652120805861582609e-01 2.722902804112423592e-04
-1.238653542174588257e-01 4.799805512643385078e-03 -1.119479330493661662e+00 -1.704304316193451241e-01 -6.160362999943475026e-01 7.690596498759494359e-01
-1.186149298452670448e-01 1.148973359194410682e-01 -1.047182629349812544e+00 -3.623829907686276774e-01 -2.631737566480902846e-01 8.941018632199110305e-01
2.728109360337839170e-02 9.244926811436336711e-02 -8.001712992990287487e-01 -9.080832764333255369e-01 -1.968738361777709334e-01 3.696288079827714790e-01
-2.642290900684213933e-02 1.777468695035931134e-01 -8.771384929594894242e-01 -8.715882022040770671e-01 -4.326782848627036548e-01 2.304853739110877819e-01
4.473342182316427523e-02 3.750895898031998341e-03 -7.441936178910600885e-01 -9.973042202912689724e-01 -1.137578179165520467e-02 7.249057716595248835e-02
-3.202547083830503682e-02 -5.781107481020865413e-02 -1.065649236280062029e+00 -7.582643992220502449e-01 -5.975068833253991407e-01 2.608076403236516683e-01
1.262615073846724834e-02 -1.025083364917367401e-01 -1.037994049110257722e+00 -8.033166972323804167e-01 -5.067664144167394191e-01 3.128419491801913699e-01
1.677707483214909909e-02 2.936990864570096157e-02 -8.921338365133421044e-01 -9.097478055828364107e-01 -3.214200889030677799e-01 2.627699691493646239e-01
-9.862587587419473223e-02 -3.137711256146503286e-02 -1.129892817145862871e+00 -1.818680204045854953e-01 -3.317333664878590049e-01 9.256765075947153143e-01
-1.865987743473591642e-01 6.052185546313169906e-03 -1.132378423963418035e+00 -1.704304316193451241e-01 -6.160362999943475026e-01 7.690596498759494359e-01
5.044768036355624929e-02 -5.917800795449058848e-02 -7.258487141518003005e-01 -9.910581791735073587e-01 -1.259732628400928867e-01 -4.398207069606080433e-02
-5.961217348604849059e-02 9.832336581198455883e-02 -9.890647349724228654e-01 -1.924380373123875942e-01 -7.494056358753213853e-01 6.335288428427402474e-01
6.371370390304632869e-02 -1.611127636718398259e-01 -9.395639763447802828e-01 -8.851992125700863800e-01 -4.652120805861582609e-01 2.722902804112423592e-04
-1.417666909905549166e-01 2.272980976730489266e-01 -1.007544267799438176e+00 -6.766087816450837567e-01 -6.114160689388135062e-01 4.103302904297504994e-01
