-1.716707284057143734e-01 -1.335694694444571062e-01 -5.424052515171382538e-01 9.702452286470591991e-01 -2.393089277588524022e-01 -3.681621086592774122e-02
2.296394110516614961e-01 -4.383005924683363447e-02 -8.522434971645508339e-01 3.839784261670831089e-01 -4.985792180495874915e-01 7.771610718295867137e-01
-8.119573799821552806e-02 -7.980140153009364357e-02 -6.921609465627104329e-01 6.947408771437741937e-01 -3.705122501753087549e-01 6.164866471348176002e-01
1.821438405809849559e-01 1.070591432231733087e-01 -7.037802600678697562e-01 1.737041015001671018e-01 -4.062556421136188090e-01 8.970971175814084209e-01
-5.271813409131602401e-02 5.935259238136129933e-02 -6.276720154444446198e-01 4.667634069576006572e-01 -5.356057053319560612e-01 7.037460126645065372e-01
-1.612426430043712444e-01 1.610155523284828930e-02 -5.118079040181340300e-01 9.861835109457303128e-01 -3.692370478624561886e-02 1.614890793942764247e-01
1.669695473852919332e-01 -7.966678802228641110e-02 -8.442703399478488357e-01 3.839784261670831089e-01 -4.985792180495874915e-01 7.771610718295867137e-01
1.845676505763759190e-01 -1.318610960607269345e-02 -7.927168541889658693e-01 5.373950445868571624e-01 -6.960897747659652302e-01 4.760940994380815638e-01
-2.485262332479721767e-02 -4.036728715427780750e-02 -7.220485887550780468e-01 4.667634069576006572e-01 -5.356057053319560612e-01 7.037460126645065372e-01
6.205698783117149370e-02 1.686150950563562734e-01 -6.329833415770430571e-01 4.806432643867752375e-01 -6.216862491508853283e-01 6.184563525555606400e-01
-8.941225354540385806e-02 -8.202660361806980716e-02 -6.842388210660648173e-01 6.947408771437741937e-01 -3.705122501753087549e-01 6.164866471348176002e-01
-1.313498818955470548e-01 -1.401674938454943731e-01 -6.883683667744551204e-01 5.657002920858463790e-01 -6.917798521260668521e-01 4.488026467462347124e-01
1.976524257815519825e-01 -2.851191749965539812e-02 -8.230848145356981505e-01 3.756755373850800273e-01 -6.612766852352720548e-01 6.492927199458518039e-01
-1.683807066788174656e-01 -1.147154203620266849e-01 -5.782539810881599518e-01 9.702452286470591991e-01 -2.393089277588524022e-01 -3.681621086592774122e-02
-5.635454954706579228e-02 3.837748641305579328e-02 -6.412238375332390827e-01 4.667634069576006572e-01 -5.356057053319560612e-01 7.037460126645065372e-01
-8.332448645535268927e-02 -8.263130561167829347e-02 -6.914627733852667379e-01 6.947408771437741937e-01 -3.705122501753087549e-01 6.164866471348176002e-01
-1.444681594139962111e-01 -2.015238776731505602e-02 -5.686980467217139790e-01 9.349312108153411405e-01 1.094287300642405453e-01 3.375336784380010835e-01
-6.782377823144729312e-02 6.655482021971713402e-02 -6.121716558713083955e-01 4.667634069576006572e-01 -5.356057053319560612e-01 7.037460126645065372e-01
-1.589517158815982323e-01 -1.268718463243374839e-01 -6.330834284970082715e-01 5.657002920858463790e-01 -6.917798521260668521e-01 4.488026467462347124e-01
3.275068302776732582e-02 2.065540305590926051e-01 -5.720704050995879530e-01 4.806432643867752375e-01 -6.216862491508853283e-01 6.184563525555606400e-01
-1.374634371393021193e-01 -5.670300619105914097e-02 -5.854737128511776634e-01 9.067039466686110938e-01 -4.125373249521355756e-01 -8.775482104648681114e-02
-2.465373599819446586e-04 -5.887198151244725508e-02 -7.524522287124507658e-01 4.667634069576006572e-01 -5.356057053319560612e-01 7.037460126645065372e-01
2.316921921562900000e-01 -9.698538161140135561e-03 -8.236193321539982959e-01 3.756755373850800273e-01 -6.612766852352720548e-01 6.492927199458518039e-01
-1.768682427426146453e-01 -1.550783076151135698e-01 -5.395697203394062003e-01 9.702452286470591991e-01 -2.393089277588524022e-01 -3.681621086592774122e-02
-1.683420457473950860e-01 -1.275117111308688711e-01 -6.226268401583131551e-01 6.947408771437741937e-01 -3.705122501753087549e-01 6.164866471348176002e-01
-3.124474315920279174e-02 -9.980035059948766385e-02 -7.604720020985051843e-01 6.947408771437741937e-01 -3.705122501753087549e-01 6.164866471348176002e-01
8.572431363425059292e-02 3.386083194197399976e-02 -7.321081741445129021e-01 3.646155769040316241e-01 -5.126150600493850629e-01 7.773553121253534703e-01
3.704489138432331963e-02 4.625601567211102411e-02 -6.971753531762369116e-01 4.667634069576006572e-01 -5.356057053319560612e-01 7.037460126645065372e-01
1.296362183514678801e-01 -6.034077021260045477e-03 -7.790129743774806270e-01 3.646155769040316241e-01 -5.126150600493850629e-01 7.773553121253534703e-01
2.140990507703106893e-01 1.096271293791221957e-01 -7.049859162180389660e-01 -4.305178344768121335e-01 -5.903721888648512106e-01 6.827262063318800811e-01
2.071232977117235807e-01 1.229112471009449620e-01 -6.923339768161804741e-01 -1.091589657543353409e-01 -8.278109477552524353e-01 5.502847944219383391e-01
5.451715369824702839e-02 1.344291562227339365e-01 -6.498634188564865743e-01 5.103135057016475740e-01 -3.902787987881066734e-01 7.663305977938027480e-01
-1.725912506383982525e-01 -1.681604679833109683e-01 -6.067252826872598925e-01 9.925964522405114066e-01 4.894676591674628624e-02 1.111597818720500980e-01
-1.442713691564529443e-01 2.449002934554722621e-02 -5.704438048901232516e-01 6.362210722647732020e-01 -4.959348507553811292e-01 5.909918535923317506e-01
-8.216007467388448948e-02 1.091806470602807964e-02 -6.365512462762621393e-01 6.947408771437741937e-01 -3.705122501753087549e-01 6.164866471348176002e-01
-1.461218483380885835e-01 -4.685293128985424521e-02 -5.554611692092652486e-01 9.349312108153411405e-01 1.094287300642405453e-01 3.375336784380010835e-01
4.155937625354964166e-02 -5.653944374316935244e-03 -7.374501911699901102e-01 3.646155769040316241e-01 -5.126150600493850629e-01 7.773553121253534703e-01
-1.159495999680812961e-01 -1.093326053557697490e-03 -5.839080944796842809e-01 -1.437470315676591670e-01 3.232883721726951265e-01 9.353188864410980630e-01
1.038838588802007065e-02 1.738758703162971986e-01 -5.875400099221859129e-01 4.806432643867752375e-01 -6.216862491508853283e-01 6.184563525555606400e-01
1.174750844900894209e-01 -2.684777316053058027e-02 -7.870341136947903715e-01 3.646155769040316241e-01 -5.126150600493850629e-01 7.773553121253534703e-01
-1.471302540807351011e-01 6.809028041824843891e-02 -5.183257612942319126e-01 6.977637432816627960e-01 -6.045769788258031907e-01 3.842036377175858664e-01
1.746283695017303850e-01 3.034849210842201911e-02 -7.467370313210273114e-01 1.164766679429814350e-01 -5.443173991543845958e-01 8.307537269267633029e-01
2.011488111051928929e-01 -5.677605165347745370e-02 -8.464722701697894314e-01 3.839784261670831089e-01 -4.985792180495874915e-01 7.771610718295867137e-01
1.015194641928617025e-01 2.240168586416795005e-02 -7.470733883863721614e-01 3.646155769040316241e-01 -5.126150600493850629e-01 7.773553121253534703e-01
-9.192244325579784769e-02 -3.519428369203207035e-02 -6.532634873314697721e-01 6.947408771437741937e-01 -3.705122501753087549e-01 6.164866471348176002e-01
2.552546235664533703e-02 8.546379398330181121e-02 -6.596948456900737501e-01 4.667634069576006572e-01 -5.356057053319560612e-01 7.037460126645065372e-01
-1.599983786272670128e-01 3.535259799016092237e-03 -5.222796164159994037e-01 9.861835109457303128e-01 -3.692370478624561886e-02 1.614890793942764247e-01
1.625498935545779955e-01 1.120824675108279302e-02 -7.681008314010422389e-01 -1.425634267672242494e-01 -7.226838815835524565e-01 6.763162549042545102e-01
-1.307855999361542398e-01 -1.199659752592673739e-01 -6.604155102561327650e-01 6.947408771437741937e-01 -3.705122501753087549e-01 6.164866471348176002e-01
-9.343767599760814668e-02 -1.233240858599903428e-01 -7.101931392787719233e-01 5.657002920858463790e-01 -6.917798521260668521e-01 4.488026467462347124e-01
1.711083154052426836e-01 8.200983696386193733e-02 -7.129871852176352665e-01 1.737041015001671018e-01 -4.062556421136188090e-01 8.970971175814084209e-01
1.537101961113591098e-01 3.590966965227315039e-02 -7.435692568551558468e-01 -1.425634267672242494e-01 -7.226838815835524565e-01 6.763162549042545102e-01
2.839688466716178833e-02 1.536366923365698467e-01 -6.218804806704718580e-01 4.806432643867752375e-01 -6.216862491508853283e-01 6.184563525555606400e-01
1.647929020300445968e-01 -7.991657882414750225e-02 -8.433551572644324423e-01 3.839784261670831089e-01 -4.985792180495874915e-01 7.771610718295867137e-01
-9.715678597007744444e-02 -9.579679150413033389e-03 -6.319701849125690662e-01 6.947408771437741937e-01 -3.705122501753087549e-01 6.164866471348176002e-01
1.155660830048436949e-01 -6.007085830567765461e-02 -8.080471586358376479e-01 3.646155769040316241e-01 -5.126150600493850629e-01 7.773553121253534703e-01
1.223188941758542314e-01 2.459398345964780921e-02 -7.553836054752715023e-01 3.646155769040316241e-01 -5.126150600493850629e-01 7.773553121253534703e-01
-1.725722508278726974e-01 -1.447224428077229785e-01 -6.172153597340414022e-01 9.925964522405114066e-01 4.894676591674628624e-02 1.111597818720500980e-01
-1.182287582229321898e-01 -2.632951956202538024e-02 -6.182901815186441219e-01 6.947408771437741937e-01 -3.705122501753087549e-01 6.164866471348176002e-01
1.497582089542561223e-01 4.707777504763669893e-03 -7.777433776070549198e-01 -1.425634267672242494e-01 -7.226838815835524565e-01 6.763162549042545102e-01
-1.006016718024951018e-01 2.628180114801574596e-02 -5.947224619181405991e-01 9.067039466686110938e-01 -4.125373249521355756e-01 -8.775482104648681114e-02
1.449558042685276764e-02 1.211277645781280027e-01 -6.299864907390317903e-01 5.103135057016475740e-01 -3.902787987881066734e-01 7.663305977938027480e-01
-1.621478753764706848e-01 5.929504976896545800e-03 -5.086056103388533201e-01 9.861835109457303128e-01 -3.692370478624561886e-02 1.614890793942764247e-01
-1.584215526324362910e-01 3.662794683959969683e-02 -5.243425124961065276e-01 9.861835109457303128e-01 -3.692370478624561886e-02 1.614890793942764247e-01
-6.198770698380924593e-02 2.097316592888794073e-02 -6.507336627701937326e-01 4.667634069576006572e-01 -5.356057053319560612e-01 7.037460126645065372e-01
-7.390711005461704508e-02 -1.063323885702884691e-01 -7.163200480575522278e-01 6.947408771437741937e-01 -3.705122501753087549e-01 6.164866471348176002e-01
1.790630643767594510e-01 5.084885999645707977e-02 -7.339267746791400260e-01 1.164766679429814350e-01 -5.443173991543845958e-01 8.307537269267633029e-01
-1.216145274356646988e-01 -1.445396289643806065e-01 -7.073786108302508868e-01 5.657002920858463790e-01 -6.917798521260668521e-01 4.488026467462347124e-01
1.084680189056407423e-01 3.679110191624532233e-02 -7.408437016358927485e-01 3.646155769040316241e-01 -5.126150600493850629e-01 7.773553121253534703e-01
-4.588096682642021917e-02 -2.123367610089117383e-02 -6.935392513830260786e-01 4.667634069576006572e-01 -5.356057053319560612e-01 7.037460126645065372e-01
1.983377460018498073e-01 5.435813383577980940e-02 -7.343298928011021687e-01 1.164766679429814350e-01 -5.443173991543845958e-01 8.307537269267633029e-01
-1.643924660860875131e-01 -1.070499654346369206e-01 -5.834423528283954052e-01 8.146449615625656060e-01 -5.622605670216632712e-01 1.421852361295066203e-01
-5.747330279891323807e-02 3.288768154425611434e-02 -6.446599887667719964e-01 4.667634069576006572e-01 -5.356057053319560612e-01 7.037460126645065372e-01
2.444366558440121961e-01 1.072963042594062000e-01 -6.878709650071656023e-01 -4.305178344768121335e-01 -5.903721888648512106e-01 6.827262063318800811e-01
1.186445520788876988e-02 2.052995360872026942e-01 -5.570993845594913729e-01 4.806432643867752375e-01 -6.216862491508853283e-01 6.184563525555606400e-01
6.843413722221913797e-03 2.009322298915793004e-01 -5.575873162237247049e-01 4.806432643867752375e-01 -6.216862491508853283e-01 6.184563525555606400e-01
-1.735882655494467575e-01 -1.333611162802266770e-01 -5.942938623180670232e-01 9.702452286470591991e-01 -2.393089277588524022e-01 -3.681621086592774122e-02
1.027021350118334786e-01 -9.611345009513559690e-02 -8.262973710193046717e-01 3.472876542010761569e-01 -4.977579390997945441e-01 7.947504761260852923e-01
1.722416330757466363e-01 4.299410848801228646e-02 -7.381168736347160086e-01 1.164766679429814350e-01 -5.443173991543845958e-01 8.307537269267633029e-01
-1.603992490879816990e-01 -1.464416930105352788e-01 -6.484909946612278375e-01 8.275491576813049921e-01 -2.601262107640205379e-01 4.974904482445017262e-01
5.424745532786955961e-03 7.811772457278305659e-02 -6.519538677222841416e-01 4.667634069576006572e-01 -5.356057053319560612e-01 7.037460126645065372e-01
-1.506867139988216919e-01 -8.597283389635607120e-02 -5.845016966597282870e-01 9.067039466686110938e-01 -4.125373249521355756e-01 -8.775482104648681114e-02
2.333123934919717132e-02 2.058323334616893041e-01 -5.654753996800241378e-01 4.806432643867752375e-01 -6.216862491508853283e-01 6.184563525555606400e-01
-5.714887278803550824e-02 -1.017797786371311269e-01 -7.324693592449630364e-01 6.947408771437741937e-01 -3.705122501753087549e-01 6.164866471348176002e-01
-9.276835376863963589e-02 7.019408358946524484e-02 -5.882545706953736797e-01 6.440433245211424351e-01 -4.948041546071504926e-01 5.834184130821188363e-01
-1.695537299689108546e-01 -1.290956897440508622e-01 -6.231477642887455204e-01 5.657002920858463790e-01 -6.917798521260668521e-01 4.488026467462347124e-01
8.584908996073843668e-02 9.227682375622847655e-02 -6.936451684982344323e-01 3.646155769040316241e-01 -5.126150600493850629e-01 7.773553121253534703e-01
-1.960801508516479830e-02 1.661789054838572477e-01 -5.719649885851466609e-01 4.806432643867752375e-01 -6.216862491508853283e-01 6.184563525555606400e-01
-1.160440727287297656e-02 1.427953857411107808e-01 -6.015710921570208702e-01 5.103135057016475740e-01 -3.902787987881066734e-01 7.663305977938027480e-01
7.669475726350257101e-03 1.234793892073761112e-01 -6.242432218833000590e-01 5.103135057016475740e-01 -3.902787987881066734e-01 7.663305977938027480e-01
-1.119989305347799530e-01 4.436163065014904483e-02 -5.889344951479592583e-01 6.440433245211424351e-01 -4.948041546071504926e-01 5.834184130821188363e-01
1.340670071113653217e-01 7.341559971816741248e-02 -7.128321237307911895e-01 1.164766679429814350e-01 -5.443173991543845958e-01 8.307537269267633029e-01
-6.072312374765880677e-02 -1.271685385242260768e-01 -7.562849713739042690e-01 5.789793538090732827e-01 -6.166732329489550413e-01 5.333826315386654970e-01
9.359474717255410192e-02 2.769363434335422175e-02 -7.398666353505176652e-01 3.646155769040316241e-01 -5.126150600493850629e-01 7.773553121253534703e-01
-1.751007293455018043e-01 -1.399971079031554211e-01 -5.910183688482160136e-01 9.702452286470591991e-01 -2.393089277588524022e-01 -3.681621086592774122e-02
2.394895988500883866e-01 1.237165392661271762e-01 -6.767914813893086690e-01 -4.305178344768121335e-01 -5.903721888648512106e-01 6.827262063318800811e-01
1.981699784385361207e-01 1.191448878745461071e-01 -6.997758841962004039e-01 -1.091589657543353409e-01 -8.278109477552524353e-01 5.502847944219383391e-01
2.204325747297788129e-01 -1.296267975999569610e-02 -8.204289959201375160e-01 3.756755373850800273e-01 -6.612766852352720548e-01 6.492927199458518039e-01
1.749405267835636713e-01 -7.447723575928303155e-03 -7.854239665951689986e-01 -1.425634267672242494e-01 -7.226838815835524565e-01 6.763162549042545102e-01
-1.346522386757491307e-01 -4.613723289502119629e-02 -6.116865303339370508e-01 6.947408771437741937e-01 -3.705122501753087549e-01 6.164866471348176002e-01
-7.888795719010881224e-02 -3.815666913844212998e-02 -6.697329281980627380e-01 6.947408771437741937e-01 -3.705122501753087549e-01 6.164866471348176002e-01
1.518383570975128175e-02 -7.438942689417447907e-02 -7.704054050449247182e-01 3.646155769040316241e-01 -5.126150600493850629e-01 7.773553121253534703e-01
-1.710914896732557144e-01 -1.524402456777457227e-01 -6.270393874518611632e-01 9.925964522405114066e-01 4.894676591674628624e-02 1.111597818720500980e-01
8.658155569246604732e-02 -9.309690560584282792e-02 -8.168567529588164344e-01 3.666810785516086968e-01 -5.276065503465440232e-01 7.662743077147040616e-01
7.029244869379358898e-03 2.254266152813649143e-02 -6.953150262490215283e-01 4.667634069576006572e-01 -5.356057053319560612e-01 7.037460126645065372e-01
-1.670212016663451537e-01 -1.370727264424199121e-01 -6.325769101225077184e-01 8.275491576813049921e-01 -2.601262107640205379e-01 4.974904482445017262e-01
-7.070559474703089209e-02 -9.853685488823769878e-02 -7.152427868127888555e-01 6.947408771437741937e-01 -3.705122501753087549e-01 6.164866471348176002e-01
1.673803871156987477e-01 9.150681120659566459e-02 -7.079645898767225054e-01 1.737041015001671018e-01 -4.062556421136188090e-01 8.970971175814084209e-01
-1.720737778787532757e-01 -1.483656740535973517e-01 -6.200622355422867882e-01 9.925964522405114066e-01 4.894676591674628624e-02 1.111597818720500980e-01
6.734588776874367300e-02 8.044241824176955047e-02 -6.912541317703706500e-01 4.667634069576006572e-01 -5.356057053319560612e-01 7.037460126645065372e-01
-1.318345138707504964e-02 -6.442257039792356754e-02 -7.480961813080989620e-01 4.667634069576006572e-01 -5.356057053319560612e-01 7.037460126645065372e-01
1.363309967575758730e-01 -8.216409402055736833e-02 -8.322558270629706323e-01 3.472876542010761569e-01 -4.977579390997945441e-01 7.947504761260852923e-01
9.884058489992950114e-02 4.255114324585720920e-02 -7.325296189566434801e-01 3.646155769040316241e-01 -5.126150600493850629e-01 7.773553121253534703e-01
-1.245866712996907544e-01 -5.449543518219064631e-02 -6.280531093856089875e-01 6.947408771437741937e-01 -3.705122501753087549e-01 6.164866471348176002e-01
4.874075608085873951e-02 -1.239020835281651606e-01 -8.282806336881233245e-01 2.339559475949298251e-01 -6.445373842279924492e-01 7.278984647033510669e-01
-1.247694970753210897e-01 -9.122148470805786780e-02 -6.499196571410300605e-01 6.947408771437741937e-01 -3.705122501753087549e-01 6.164866471348176002e-01
-6.723620571442094629e-03 -6.508691638337114893e-02 -7.528863187715160166e-01 4.667634069576006572e-01 -5.356057053319560612e-01 7.037460126645065372e-01
-6.573618433693438623e-02 -4.723509304347473653e-02 -6.900103203122430751e-01 6.947408771437741937e-01 -3.705122501753087549e-01 6.164866471348176002e-01
1.854895724436326221e-01 1.152341236843725386e-01 -7.081743597879500696e-01 -1.091589657543353409e-01 -8.278109477552524353e-01 5.502847944219383391e-01
4.047432440532888753e-02 1.470809997557449011e-01 -6.340686799046508781e-01 5.103135057016475740e-01 -3.902787987881066734e-01 7.663305977938027480e-01
2.226816783358566976e-01 1.254781966256706405e-01 -6.853861459922121480e-01 -1.091589657543353409e-01 -8.278109477552524353e-01 5.502847944219383391e-01
-1.199694779179475146e-01 -5.773879088858949182e-02 -6.352056665762064736e-01 6.947408771437741937e-01 -3.705122501753087549e-01 6.164866471348176002e-01
-1.689301748536769510e-01 -1.167682236076219987e-01 -5.958738247193343662e-01 8.146449615625656060e-01 -5.622605670216632712e-01 1.421852361295066203e-01
1.276576593856518782e-01 -5.223208427173330060e-02 -8.085495073939311661e-01 3.646155769040316241e-01 -5.126150600493850629e-01 7.773553121253534703e-01
-3.448537534525715487e-02 -9.064437239863150364e-02 -7.513172186827974386e-01 6.947408771437741937e-01 -3.705122501753087549e-01 6.164866471348176002e-01
-3.700543580766617324e-02 6.347101927193792015e-02 -6.349591041831379457e-01 4.667634069576006572e-01 -5.356057053319560612e-01 7.037460126645065372e-01
-4.325376398650586374e-02 -8.202552273919384851e-02 -7.362558261284685157e-01 6.947408771437741937e-01 -3.705122501753087549e-01 6.164866471348176002e-01
-2.198514367217386384e-02 -6.193589015218657623e-02 -7.403658525999606832e-01 4.667634069576006572e-01 -5.356057053319560612e-01 7.037460126645065372e-01
-1.397029724304936216e-01 -1.549168393666181531e-01 -6.873496181595043497e-01 8.275491576813049921e-01 -2.601262107640205379e-01 4.974904482445017262e-01
5.396136470533151319e-02 -2.248921553067386586e-02 -7.543690589048854811e-01 3.646155769040316241e-01 -5.126150600493850629e-01 7.773553121253534703e-01
-1.098502411006342661e-01 -1.444994754979629370e-01 -7.221451967782047676e-01 5.657002920858463790e-01 -6.917798521260668521e-01 4.488026467462347124e-01
-5.174271998258932193e-02 2.442605049084532395e-02 -6.549007916958488051e-01 4.667634069576006572e-01 -5.356057053319560612e-01 7.037460126645065372e-01
1.150192221050733710e-01 -6.993459264072732218e-02 -8.145168156389115399e-01 3.666810785516086968e-01 -5.276065503465440232e-01 7.662743077147040616e-01
-6.250723606923674902e-02 -4.505533657196375552e-02 -6.923390907460078569e-01 6.947408771437741937e-01 -3.705122501753087549e-01 6.164866471348176002e-01
-6.248130834335380475e-03 -6.890264744967122823e-02 -7.561057594475771859e-01 4.667634069576006572e-01 -5.356057053319560612e-01 7.037460126645065372e-01
-1.401933373394827764e-01 -6.214796850455953786e-02 -5.880828127901691627e-01 9.067039466686110938e-01 -4.125373249521355756e-01 -8.775482104648681114e-02
-2.039741764080412606e-02 6.587847088523358929e-02 -6.441422046294453807e-01 4.667634069576006572e-01 -5.356057053319560612e-01 7.037460126645065372e-01
-5.191699516825257210e-03 7.300632699730627215e-03 -6.988097927118144259e-01 4.667634069576006572e-01 -5.356057053319560612e-01 7.037460126645065372e-01
5.917775773586592819e-02 1.155611829953628183e-01 -6.625761294541266944e-01 5.103135057016475740e-01 -3.902787987881066734e-01 7.663305977938027480e-01
7.536083237400202639e-02 -1.124842080333612881e-01 -8.267264025892691048e-01 2.339559475949298251e-01 -6.445373842279924492e-01 7.278984647033510669e-01
-8.822412497015671984e-02 -1.002347017942648993e-01 -6.965209442075672719e-01 6.947408771437741937e-01 -3.705122501753087549e-01 6.164866471348176002e-01
-1.757439142581032065e-01 -1.434075278337244297e-01 -5.858006443816178299e-01 9.702452286470591991e-01 -2.393089277588524022e-01 -3.681621086592774122e-02
-1.811189820681823326e-01 -1.796374007684772567e-01 -5.255236596422354634e-01 9.925964522405114066e-01 4.894676591674628624e-02 1.111597818720500980e-01
-8.445884977533127391e-02 -1.195303084505995039e-01 -7.156629506960171527e-01 5.657002920858463790e-01 -6.917798521260668521e-01 4.488026467462347124e-01
-1.473091719376302677e-01 -8.890650748724480967e-02 -6.231275749761878702e-01 6.947408771437741937e-01 -3.705122501753087549e-01 6.164866471348176002e-01
1.550321239722751709e-01 -8.460054511290915347e-02 -8.419537557931605631e-01 3.472876542010761569e-01 -4.977579390997945441e-01 7.947504761260852923e-01
4.863446953895267377e-02 8.780671560252871488e-02 -6.732388751636189106e-01 4.667634069576006572e-01 -5.356057053319560612e-01 7.037460126645065372e-01
-1.109030428731010709e-01 -1.245447273567096141e-01 -6.900601297828129477e-01 5.657002920858463790e-01 -6.917798521260668521e-01 4.488026467462347124e-01
3.957026374859229367e-02 -9.480063783086439821e-02 -7.955337739842823774e-01 3.666810785516086968e-01 -5.276065503465440232e-01 7.662743077147040616e-01
5.080915427917403332e-02 5.683089842789726398e-02 -6.982562640335004955e-01 4.667634069576006572e-01 -5.356057053319560612e-01 7.037460126645065372e-01
-7.826202911635282700e-02 -5.913750498518952070e-02 -6.830479197834883331e-01 6.947408771437741937e-01 -3.705122501753087549e-01 6.164866471348176002e-01
-1.480771001611969895e-01 -2.896318163316818212e-02 -5.558452097952907289e-01 9.349312108153411405e-01 1.094287300642405453e-01 3.375336784380010835e-01
-3.490184331188905809e-02 -1.062706287298690877e-01 -7.602393617660684333e-01 6.947408771437741937e-01 -3.705122501753087549e-01 6.164866471348176002e-01
4.168091408145743054e-02 1.584572414550050046e-01 -6.273586524890807370e-01 4.806432643867752375e-01 -6.216862491508853283e-01 6.184563525555606400e-01
1.472624134924205817e-02 -2.038548508113565555e-02 -7.330917753390486791e-01 4.667634069576006572e-01 -5.356057053319560612e-01 7.037460126645065372e-01
-1.417671088985130723e-01 4.472709262998949067e-03 -5.839570860688758636e-01 9.539943205418168759e-01 1.285719008247524289e-02 2.995488758736051249e-01
-2.185879847838347045e-02 1.631064540353344694e-01 -5.733042535725036970e-01 4.806432643867752375e-01 -6.216862491508853283e-01 6.184563525555606400e-01
-1.015669330750818972e-01 -5.259439203737344137e-02 -6.528523380851640745e-01 6.947408771437741937e-01 -3.705122501753087549e-01 6.164866471348176002e-01
4.958814672358993064e-02 -4.411024319924904125e-02 -7.665754732064400390e-01 3.646155769040316241e-01 -5.126150600493850629e-01 7.773553121253534703e-01
-1.305367680492922344e-01 -4.032720846554428001e-02 -5.908886812916008813e-01 9.067039466686110938e-01 -4.125373249521355756e-01 -8.775482104648681114e-02
1.151842414983411111e-01 8.801377481547642545e-02 -7.006197893256814746e-01 1.164766679429814350e-01 -5.443173991543845958e-01 8.307537269267633029e-01
-1.772440781023863210e-01 -1.602562283327349235e-01 -5.686585197406951453e-01 9.925964522405114066e-01 4.894676591674628624e-02 1.111597818720500980e-01
5.236634452418040264e-02 7.934219126886284112e-02 -6.821562261617680756e-01 4.667634069576006572e-01 -5.356057053319560612e-01 7.037460126645065372e-01
1.816371301183976050e-01 -4.439402067483683850e-02 -8.288884148073366598e-01 3.839784261670831089e-01 -4.985792180495874915e-01 7.771610718295867137e-01
5.293632929519077185e-02 9.139512750284511933e-02 -6.733610454177129112e-01 4.667634069576006572e-01 -5.356057053319560612e-01 7.037460126645065372e-01
-1.472445955187536015e-01 1.362994450678038302e-02 -5.669055955650382783e-01 9.539943205418168759e-01 1.285719008247524289e-02 2.995488758736051249e-01
1.621161897290617493e-01 -7.080300397935609946e-02 -8.364078301312021235e-01 3.472876542010761569e-01 -4.977579390997945441e-01 7.947504761260852923e-01
-1.023953331965528485e-01 6.531575449492880991e-02 -5.817645898387026060e-01 6.440433245211424351e-01 -4.948041546071504926e-01 5.834184130821188363e-01
-1.772398049148436044e-02 -1.307784295471976603e-02 -7.060073008619953683e-01 4.667634069576006572e-01 -5.356057053319560612e-01 7.037460126645065372e-01
8.483020806083159393e-02 5.253221971333787987e-02 -7.193762364723711444e-01 3.646155769040316241e-01 -5.126150600493850629e-01 7.773553121253534703e-01
8.993509411161966505e-02 5.690904630765845906e-03 -7.526594521559993867e-01 3.646155769040316241e-01 -5.126150600493850629e-01 7.773553121253534703e-01
5.174979339668144690e-02 -1.111247330847968534e-01 -8.153178974118491240e-01 2.884175523408178954e-01 -7.509063097420379806e-01 5.941001847258812196e-01
-1.439166441087566251e-01 -4.673847131909933394e-02 -5.616064507084810309e-01 9.349312108153411405e-01 1.094287300642405453e-01 3.375336784380010835e-01
-1.460928549634196716e-01 -9.457314109312417449e-02 -6.279039676255120384e-01 6.947408771437741937e-01 -3.705122501753087549e-01 6.164866471348176002e-01
1.477566131490019863e-01 4.642773223544225010e-03 -7.782347629624435381e-01 -1.425634267672242494e-01 -7.226838815835524565e-01 6.763162549042545102e-01
6.326612849932350402e-02 -1.067614389115004447e-01 -8.153937904302506201e-01 2.884175523408178954e-01 -7.509063097420379806e-01 5.941001847258812196e-01
2.414717696849442152e-01 1.424103414122597777e-01 -6.561872258616093800e-01 -1.091589657543353409e-01 -8.278109477552524353e-01 5.502847944219383391e-01
-1.492542169335576707e-01 -1.397439995097972676e-01 -6.635281001311248428e-01 8.275491576813049921e-01 -2.601262107640205379e-01 4.974904482445017262e-01
-1.678372067542328316e-01 -1.164339018822969640e-01 -5.527604238612755516e-01 9.702452286470591991e-01 -2.393089277588524022e-01 -3.681621086592774122e-02
2.038223368840987038e-01 -4.544153708852607942e-02 -8.405216669351516234e-01 3.839784261670831089e-01 -4.985792180495874915e-01 7.771610718295867137e-01
2.182140512721499892e-01 5.433508462943603678e-02 -7.371317723684229772e-01 1.164766679429814350e-01 -5.443173991543845958e-01 8.307537269267633029e-01
-1.096093036251249569e-01 -5.381319612013450021e-02 -6.445216114572726029e-01 6.947408771437741937e-01 -3.705122501753087549e-01 6.164866471348176002e-01
3.646130535964954567e-02 1.735146738253307008e-01 -6.081660799203382206e-01 4.806432643867752375e-01 -6.216862491508853283e-01 6.184563525555606400e-01
4.272077696572164351e-02 7.029697621032084121e-02 -6.826428659572633117e-01 4.667634069576006572e-01 -5.356057053319560612e-01 7.037460126645065372e-01
-1.151097790958098832e-01 3.901880272799074928e-02 -5.900317046112769637e-01 6.440433245211424351e-01 -4.948041546071504926e-01 5.834184130821188363e-01
6.537898438219053032e-02 -1.350715488745282411e-01 -8.435186799046779926e-01 2.339559475949298251e-01 -6.445373842279924492e-01 7.278984647033510669e-01
-8.035836533516579894e-02 -1.248570944657656501e-01 -7.290421242167319793e-01 5.657002920858463790e-01 -6.917798521260668521e-01 4.488026467462347124e-01
1.791885739288096857e-01 1.259979076288069710e-01 -6.932319739711386708e-01 -1.091589657543353409e-01 -8.278109477552524353e-01 5.502847944219383391e-01
-1.577639211581952083e-01 3.040430420300692729e-02 -5.297815506210290515e-01 9.861835109457303128e-01 -3.692370478624561886e-02 1.614890793942764247e-01
1.377535909564331085e-01 4.252932125223549825e-02 -7.398593250232069485e-01 -1.425634267672242494e-01 -7.226838815835524565e-01 6.763162549042545102e-01
4.931560057005977826e-02 -1.127076255261398735e-01 -8.161368501699470812e-01 2.884175523408178954e-01 -7.509063097420379806e-01 5.941001847258812196e-01
2.406962513359505590e-02 1.607983292545095422e-01 -6.113184429221897309e-01 4.806432643867752375e-01 -6.216862491508853283e-01 6.184563525555606400e-01
-1.469893359226815688e-01 3.344251873698712851e-02 -5.600052866886890968e-01 6.362210722647732020e-01 -4.959348507553811292e-01 5.909918535923317506e-01
1.020173330963728975e-01 -4.071717829881317530e-02 -7.889296806032124465e-01 3.646155769040316241e-01 -5.126150600493850629e-01 7.773553121253534703e-01
7.046409847716260388e-02 1.075600039373420386e-01 -6.741667702134264140e-01 5.103135057016475740e-01 -3.902787987881066734e-01 7.663305977938027480e-01
-4.219106669815538002e-02 -3.887319783151751973e-02 -7.094116522669197122e-01 4.667634069576006572e-01 -5.356057053319560612e-01 7.037460126645065372e-01
1.556128106498336494e-01 -7.225517583373544661e-02 -8.344755089291606698e-01 3.472876542010761569e-01 -4.977579390997945441e-01 7.947504761260852923e-01
-3.378576878682752749e-02 -4.383601173745768631e-02 -7.187636014270847307e-01 4.667634069576006572e-01 -5.356057053319560612e-01 7.037460126645065372e-01
4.628872525711007213e-02 1.787848390791111353e-01 -6.105059280034038638e-01 4.806432643867752375e-01 -6.216862491508853283e-01 6.184563525555606400e-01
5.160594726620010286e-02 -3.307757778091371947e-02 -7.602465926285837394e-01 3.646155769040316241e-01 -5.126150600493850629e-01 7.773553121253534703e-01
-1.771043870016816499e-02 1.912899787214167313e-02 -6.815043600642979316e-01 4.667634069576006572e-01 -5.356057053319560612e-01 7.037460126645065372e-01
-1.803233059230015811e-01 -1.754889649889798398e-01 -5.344552877647280598e-01 9.925964522405114066e-01 4.894676591674628624e-02 1.111597818720500980e-01
-1.083409672689598091e-01 -5.165660323157196532e-02 -6.446548195796607539e-01 6.947408771437741937e-01 -3.705122501753087549e-01 6.164866471348176002e-01
-1.516592108676730610e-01 -8.450999956193415430e-02 -5.672645002828045069e-01 8.146449615625656060e-01 -5.622605670216632712e-01 1.421852361295066203e-01
1.989824918070528248e-01 4.115810795929817495e-02 -7.430690670733318681e-01 1.164766679429814350e-01 -5.443173991543845958e-01 8.307537269267633029e-01
1.919752152778903265e-01 -3.513447458725000444e-02 -8.265448155842882727e-01 3.756755373850800273e-01 -6.612766852352720548e-01 6.492927199458518039e-01
2.508209144119260547e-01 1.341897171293676971e-01 -6.605896624546317986e-01 -4.305178344768121335e-01 -5.903721888648512106e-01 6.827262063318800811e-01
-1.394085611854485596e-02 -7.933302977254146071e-02 -7.589418531270561985e-01 4.667634069576006572e-01 -5.356057053319560612e-01 7.037460126645065372e-01
-1.554024081293783055e-01 -8.611618603025863322e-03 -5.399701885144072566e-01 9.539943205418168759e-01 1.285719008247524289e-02 2.995488758736051249e-01
2.852814051078179924e-02 -5.308263538536131532e-02 -7.626140634011920882e-01 3.646155769040316241e-01 -5.126150600493850629e-01 7.773553121253534703e-01
-7.374321298125132741e-03 1.390318588841379099e-01 -6.063046820131251513e-01 5.103135057016475740e-01 -3.902787987881066734e-01 7.663305977938027480e-01
-1.433586441877844966e-02 1.460824203485673600e-01 -5.962637642536458005e-01 4.806432643867752375e-01 -6.216862491508853283e-01 6.184563525555606400e-01
8.433090090840630881e-02 -8.454877306148977922e-02 -8.098940723709610046e-01 3.666810785516086968e-01 -5.276065503465440232e-01 7.662743077147040616e-01
-1.553583814482654424e-01 -8.881078994541513616e-02 -5.630773859804412140e-01 8.146449615625656060e-01 -5.622605670216632712e-01 1.421852361295066203e-01
2.028778635126308461e-01 7.759451746401811734e-02 -7.211381971028589799e-01 1.737041015001671018e-01 -4.062556421136188090e-01 8.970971175814084209e-01
-5.880208058631029855e-02 -1.072429247570733934e-01 -7.338896844541650255e-01 6.947408771437741937e-01 -3.705122501753087549e-01 6.164866471348176002e-01
-1.616726278741135447e-01 4.130752001798625173e-02 -5.034188439271585214e-01 9.861835109457303128e-01 -3.692370478624561886e-02 1.614890793942764247e-01
-1.122790853086488155e-01 -9.152832124742618647e-02 -6.641799600432268802e-01 6.947408771437741937e-01 -3.705122501753087549e-01 6.164866471348176002e-01
3.188689754029400830e-02 1.213105696060370886e-01 -6.414745862210201599e-01 5.103135057016475740e-01 -3.902787987881066734e-01 7.663305977938027480e-01
-4.031178813854249116e-02 -1.406196954351303721e-02 -6.917748106495184013e-01 4.667634069576006572e-01 -5.356057053319560612e-01 7.037460126645065372e-01
-3.649351968444963790e-02 9.722775891183974006e-02 -6.122847811532260431e-01 4.736852780584480116e-01 -4.718957927004645003e-01 7.435970805364228164e-01
4.137667739976134962e-02 2.811737870185909705e-02 -7.138533540966978119e-01 4.667634069576006572e-01 -5.356057053319560612e-01 7.037460126645065372e-01
1.573497950560353853e-01 4.448134781349866174e-02 -7.350544956625307824e-01 1.164766679429814350e-01 -5.443173991543845958e-01 8.307537269267633029e-01
4.695440890842739190e-02 -1.082778514207820980e-01 -8.093915998752519991e-01 2.884175523408178954e-01 -7.509063097420379806e-01 5.941001847258812196e-01
-1.430176964155472075e-01 -8.534078483795756731e-02 -6.258207712585095450e-01 6.947408771437741937e-01 -3.705122501753087549e-01 6.164866471348176002e-01
-1.205538973705655992e-01 -1.381313997922926484e-03 -5.845161768551900838e-01 -1.437470315676591670e-01 3.232883721726951265e-01 9.353188864410980630e-01
-6.432376006145215652e-02 -4.996184354034143710e-02 -6.932408255495655647e-01 6.947408771437741937e-01 -3.705122501753087549e-01 6.164866471348176002e-01
1.581322680451692497e-01 2.756935693599595061e-02 -7.515492274680000140e-01 -1.425634267672242494e-01 -7.226838815835524565e-01 6.763162549042545102e-01
2.081065532751174008e-01 3.308922140233119119e-03 -7.951694507106421561e-01 5.373950445868571624e-01 -6.960897747659652302e-01 4.760940994380815638e-01
-9.126364346823519214e-02 -1.595378030253362736e-02 -6.424422520393832103e-01 6.947408771437741937e-01 -3.705122501753087549e-01 6.164866471348176002e-01
1.612788936720310762e-01 -2.841954285684536799e-02 -8.086166046240123029e-01 3.646155769040316241e-01 -5.126150600493850629e-01 7.773553121253534703e-01
1.273380884239780353e-01 9.462899799314779259e-02 -6.987973354592879049e-01 1.737041015001671018e-01 -4.062556421136188090e-01 8.970971175814084209e-01
-1.609475657031805007e-01 -5.314095616706667954e-03 -5.185064717647608346e-01 9.861835109457303128e-01 -3.692370478624561886e-02 1.614890793942764247e-01
3.402521697130378442e-02 2.201684231157370608e-01 -5.593754356722837606e-01 4.806432643867752375e-01 -6.216862491508853283e-01 6.184563525555606400e-01
-3.643288776563730069e-02 -8.022582304295165778e-02 -7.428608852378678629e-01 6.947408771437741937e-01 -3.705122501753087549e-01 6.164866471348176002e-01
2.678178606900875284e-03 1.716231315577493866e-01 -5.838124025040533072e-01 4.806432643867752375e-01 -6.216862491508853283e-01 6.184563525555606400e-01
1.226844947392431440e-01 7.051014530437814398e-02 -7.131399072142271534e-01 1.164766679429814350e-01 -5.443173991543845958e-01 8.307537269267633029e-01
5.546003540567744083e-02 1.178283937514396501e-01 -6.589457795580971888e-01 5.103135057016475740e-01 -3.902787987881066734e-01 7.663305977938027480e-01
-1.552819028246993638e-01 -1.659491456156583344e-03 -5.406523683285284765e-01 9.539943205418168759e-01 1.285719008247524289e-02 2.995488758736051249e-01
1.895323442882489440e-01 6.843187308334043595e-02 -7.238740805506509446e-01 1.164766679429814350e-01 -5.443173991543845958e-01 8.307537269267633029e-01
-1.565100975839540109e-01 -1.771517442106710152e-02 -5.360517107943856274e-01 9.539943205418168759e-01 1.285719008247524289e-02 2.995488758736051249e-01
-1.162931526487876177e-01 -1.176147167473962363e-01 -6.753344472698592504e-01 6.947408771437741937e-01 -3.705122501753087549e-01 6.164866471348176002e-01
1.418090098069675065e-01 5.186420694000937887e-02 -7.290295900017935704e-01 -1.425634267672242494e-01 -7.226838815835524565e-01 6.763162549042545102e-01
-5.509981232211121766e-02 4.372289651488772688e-02 -6.379877741169768246e-01 4.667634069576006572e-01 -5.356057053319560612e-01 7.037460126645065372e-01
-3.741270808528030650e-02 4.559943508795715611e-02 -6.482906506325166740e-01 4.667634069576006572e-01 -5.356057053319560612e-01 7.037460126645065372e-01
6.909947295520653399e-02 5.224856757375614426e-04 -7.462948174028384285e-01 3.646155769040316241e-01 -5.126150600493850629e-01 7.773553121253534703e-01
-8.085928220984857362e-02 -1.223498977118204628e-01 -7.245461680617433231e-01 5.657002920858463790e-01 -6.917798521260668521e-01 4.488026467462347124e-01
-3.285280711854451224e-02 3.046961070395451388e-02 -6.628300085645425499e-01 4.667634069576006572e-01 -5.356057053319560612e-01 7.037460126645065372e-01
-9.034873787073931239e-02 5.031515241242395103e-02 -6.017679868480014793e-01 9.067039466686110938e-01 -4.125373249521355756e-01 -8.775482104648681114e-02
-3.401555380884327406e-02 4.060246902164928867e-02 -6.543469134912688334e-01 4.667634069576006572e-01 -5.356057053319560612e-01 7.037460126645065372e-01
7.378365491033052337e-02 -1.943805374873356154e-02 -7.616545874273584760e-01 3.646155769040316241e-01 -5.126150600493850629e-01 7.773553121253534703e-01
-9.349911141227457145e-02 -9.748156381162458028e-02 -6.889217203176699611e-01 6.947408771437741937e-01 -3.705122501753087549e-01 6.164866471348176002e-01
1.713865345551870978e-02 -7.235199406162936067e-03 -7.246834259714339810e-01 4.667634069576006572e-01 -5.356057053319560612e-01 7.037460126645065372e-01
1.829534925430501557e-01 -2.134760798414321592e-02 -8.028276601097619203e-01 5.373950445868571624e-01 -6.960897747659652302e-01 4.760940994380815638e-01
1.398869692090872474e-01 4.879044695511707691e-02 -7.327192388500398668e-01 -1.425634267672242494e-01 -7.226838815835524565e-01 6.763162549042545102e-01
-1.256079056623904400e-01 -1.520073824930414375e-01 -7.092747318536269940e-01 8.275491576813049921e-01 -2.601262107640205379e-01 4.974904482445017262e-01
1.838227455490619444e-01 6.521313768155121045e-03 -7.686249061084121648e-01 -1.425634267672242494e-01 -7.226838815835524565e-01 6.763162549042545102e-01
6.680082835547365185e-03 1.697811068584876570e-01 -5.887741911988690902e-01 4.806432643867752375e-01 -6.216862491508853283e-01 6.184563525555606400e-01
-1.712308651414797267e-01 -1.700392112394915611e-01 -6.180455227088826886e-01 9.925964522405114066e-01 4.894676591674628624e-02 1.111597818720500980e-01
-5.535381891328777781e-02 -1.181012896882072394e-01 -7.501461654985429606e-01 5.657002920858463790e-01 -6.917798521260668521e-01 4.488026467462347124e-01
2.054360000009028131e-01 1.374546382761346608e-01 -6.707905962258995380e-01 -1.091589657543353409e-01 -8.278109477552524353e-01 5.502847944219383391e-01
-1.736052211235879217e-01 -1.714591010848441066e-01 -5.962185966460246123e-01 9.925964522405114066e-01 4.894676591674628624e-02 1.111597818720500980e-01
9.881201474154406583e-02 -9.657465779312816856e-02 -8.248863357526818874e-01 3.472876542010761569e-01 -4.977579390997945441e-01 7.947504761260852923e-01
-8.698241900834020879e-03 3.879079645275559235e-02 -6.725175840104063996e-01 4.667634069576006572e-01 -5.356057053319560612e-01 7.037460126645065372e-01
2.213912430512252616e-01 5.944267458167046270e-02 -7.342306943608399861e-01 1.164766679429814350e-01 -5.443173991543845958e-01 8.307537269267633029e-01
-5.825249426757220933e-02 -9.521469016141853592e-02 -7.272799903051283543e-01 6.947408771437741937e-01 -3.705122501753087549e-01 6.164866471348176002e-01
2.132506582542650631e-01 -5.100806218709775380e-02 -8.487511395166291717e-01 3.839784261670831089e-01 -4.985792180495874915e-01 7.771610718295867137e-01
-1.430698769884999055e-01 -1.251767108247198168e-01 -6.504890752151387678e-01 5.657002920858463790e-01 -6.917798521260668521e-01 4.488026467462347124e-01
-5.563823129941925655e-02 -7.640342582906059499e-02 -7.189204117922811665e-01 6.947408771437741937e-01 -3.705122501753087549e-01 6.164866471348176002e-01
-3.006696099967151852e-03 -9.399839819962892140e-02 -7.748040406494232091e-01 3.646155769040316241e-01 -5.126150600493850629e-01 7.773553121253534703e-01
-8.927262527087577448e-02 -9.805903698215415187e-02 -6.940317637996842315e-01 6.947408771437741937e-01 -3.705122501753087549e-01 6.164866471348176002e-01
-6.930269454884320501e-02 -1.267294628738506457e-01 -7.458634664887324739e-01 5.657002920858463790e-01 -6.917798521260668521e-01 4.488026467462347124e-01
-1.422963302350913617e-01 -9.882855284793601314e-03 -5.780431668781095267e-01 9.349312108153411405e-01 1.094287300642405453e-01 3.375336784380010835e-01
-1.251917330579297993e-01 -8.942150125156198004e-02 -6.483620232131473982e-01 6.947408771437741937e-01 -3.705122501753087549e-01 6.164866471348176002e-01
-1.213345615749963496e-01 -4.007180804097446730e-02 -6.230493400429696349e-01 6.947408771437741937e-01 -3.705122501753087549e-01 6.164866471348176002e-01
-1.465538394988064597e-01 -1.518493078897926729e-01 -6.743496206036592167e-01 8.275491576813049921e-01 -2.601262107640205379e-01 4.974904482445017262e-01
-8.742576945530021459e-02 -9.430898790209425731e-02 -6.938592492867681205e-01 6.947408771437741937e-01 -3.705122501753087549e-01 6.164866471348176002e-01
1.564952754692682524e-01 -2.642189279247035213e-02 -8.050555467972795309e-01 3.646155769040316241e-01 -5.126150600493850629e-01 7.773553121253534703e-01
-1.510968671665308127e-01 5.114545664439720807e-02 -5.377859923671394204e-01 6.977637432816627960e-01 -6.045769788258031907e-01 3.842036377175858664e-01
-6.905438425835419558e-02 7.930371682912937259e-02 -6.029177162133372292e-01 4.736852780584480116e-01 -4.718957927004645003e-01 7.435970805364228164e-01
-1.405175965245291370e-01 -9.715292093707114662e-02 -6.357373894774206446e-01 6.947408771437741937e-01 -3.705122501753087549e-01 6.164866471348176002e-01
-5.526633253795586870e-02 -1.111244183436529143e-01 -7.402070469491649485e-01 6.947408771437741937e-01 -3.705122501753087549e-01 6.164866471348176002e-01
1.085833679425962789e-01 2.366929158375881415e-02 -7.495507826085479053e-01 3.646155769040316241e-01 -5.126150600493850629e-01 7.773553121253534703e-01
-1.591832601630563948e-01 -2.772962303372714099e-02 -5.254822874508376929e-01 9.349312108153411405e-01 1.094287300642405453e-01 3.375336784380010835e-01
-1.783314527246351033e-01 -1.618418701523717251e-01 -5.582506526885112619e-01 9.925964522405114066e-01 4.894676591674628624e-02 1.111597818720500980e-01
-1.416245354917935739e-01 -1.539589409644922524e-01 -6.836523363705920842e-01 8.275491576813049921e-01 -2.601262107640205379e-01 4.974904482445017262e-01
-1.527560401573747617e-01 -8.959580997749580500e-02 -5.888507834617339176e-01 9.067039466686110938e-01 -4.125373249521355756e-01 -8.775482104648681114e-02
-1.083724847441917410e-01 -6.405782528113050656e-02 -6.520725118027941303e-01 6.947408771437741937e-01 -3.705122501753087549e-01 6.164866471348176002e-01
1.397298813710946830e-01 3.666796484702986719e-02 -7.457059404723905827e-01 -1.425634267672242494e-01 -7.226838815835524565e-01 6.763162549042545102e-01
9.276060675122930685e-03 1.829354491964819140e-01 -5.775686559069628245e-01 4.806432643867752375e-01 -6.216862491508853283e-01 6.184563525555606400e-01
-1.596866576378173364e-01 3.292444966063270886e-03 -5.242387564656384447e-01 9.861835109457303128e-01 -3.692370478624561886e-02 1.614890793942764247e-01
-1.530707347519094097e-01 5.924122199747863110e-02 -5.214618195122875388e-01 6.977637432816627960e-01 -6.045769788258031907e-01 3.842036377175858664e-01
-6.656063642271489722e-02 6.060644417636815162e-02 -6.175366205779603268e-01 4.667634069576006572e-01 -5.356057053319560612e-01 7.037460126645065372e-01
1.578694349831898103e-01 1.383096530200104285e-02 -7.662849143637183724e-01 -1.425634267672242494e-01 -7.226838815835524565e-01 6.763162549042545102e-01
-1.371683678540315809e-01 -5.671314678434228457e-02 -5.823773147788946503e-01 9.067039466686110938e-01 -4.125373249521355756e-01 -8.775482104648681114e-02
1.278416929763142029e-01 -7.753224913211367864e-02 -8.256452390611801473e-01 3.472876542010761569e-01 -4.977579390997945441e-01 7.947504761260852923e-01
1.241688967132681398e-01 -8.842128006190828546e-03 -7.783002740198343705e-01 3.646155769040316241e-01 -5.126150600493850629e-01 7.773553121253534703e-01
5.532178673529506568e-02 1.640978724387505139e-01 -6.322897859954210720e-01 4.806432643867752375e-01 -6.216862491508853283e-01 6.184563525555606400e-01
1.696247487816487654e-01 9.498641106050285943e-02 -7.068234065797766030e-01 1.737041015001671018e-01 -4.062556421136188090e-01 8.970971175814084209e-01
8.284514857141039856e-02 1.903754500503468741e-02 -7.405327022731159614e-01 3.646155769040316241e-01 -5.126150600493850629e-01 7.773553121253534703e-01
2.173610101899816141e-02 2.137584190899150527e-01 -5.562682326498751273e-01 4.806432643867752375e-01 -6.216862491508853283e-01 6.184563525555606400e-01
-1.206742534736224004e-01 -2.008657705017110814e-02 -5.841384544284805580e-01 9.067039466686110938e-01 -4.125373249521355756e-01 -8.775482104648681114e-02
6.729689905492869384e-02 -1.150770373072178415e-01 -8.264304413068493949e-01 2.339559475949298251e-01 -6.445373842279924492e-01 7.278984647033510669e-01
-5.031446944887701250e-02 8.802008614490278160e-02 -6.093238787363874920e-01 4.736852780584480116e-01 -4.718957927004645003e-01 7.435970805364228164e-01
1.928600985392207867e-01 1.014449704558200022e-01 -7.101044017906257277e-01 6.799415544960760727e-01 2.946409210711879445e-01 6.714657177397678200e-01
2.297585892150488807e-01 -1.021892596741289135e-02 -8.230305576479433061e-01 3.756755373850800273e-01 -6.612766852352720548e-01 6.492927199458518039e-01
1.829280323029436328e-02 -6.273641180135722251e-02 -7.641792521261911997e-01 3.646155769040316241e-01 -5.126150600493850629e-01 7.773553121253534703e-01
-1.591939437912639477e-01 3.268626152213070790e-02 -5.205269120720729115e-01 9.861835109457303128e-01 -3.692370478624561886e-02 1.614890793942764247e-01
-1.423845902735031976e-01 -7.051257025427498659e-02 -5.714011908663253481e-01 9.067039466686110938e-01 -4.125373249521355756e-01 -8.775482104648681114e-02
1.509414110719099200e-01 -1.009259802028710136e-03 -7.836029578475753876e-01 -1.425634267672242494e-01 -7.226838815835524565e-01 6.763162549042545102e-01
-1.384894091740567212e-01 -1.540998602886537172e-01 -6.889411373165591490e-01 8.275491576813049921e-01 -2.601262107640205379e-01 4.974904482445017262e-01
1.738990253696902633e-01 1.135575512532838310e-01 -6.992409821396556868e-01 1.737041015001671018e-01 -4.062556421136188090e-01 8.970971175814084209e-01
2.142115872886835304e-01 9.494777600391966776e-02 -7.176085941306842297e-01 -4.305178344768121335e-01 -5.903721888648512106e-01 6.827262063318800811e-01
