1.607670435837473544e-01 9.484928490962452052e-02 -8.750672505385930222e-01 -9.480028582854138630e-02 -4.100023059753370447e-01 9.071444289096047831e-01
-5.546326026578303481e-02 -9.222992435701843350e-02 -9.617186190325652806e-01 4.789495287146355307e-01 -4.384416584611595669e-01 7.605105266002941677e-01
-1.333922436301861192e-01 -5.583299354314576884e-02 -8.916578129018360999e-01 4.789495287146355307e-01 -4.384416584611595669e-01 7.605105266002941677e-01
2.410985389243173183e-01 -3.964840689770580962e-02 -9.804543798136365895e-01 1.301223128393530493e-01 -6.901828278344904755e-01 7.118397627722993226e-01
-1.687535712936373833e-01 -4.799090086093910773e-02 -8.307971135317854250e-01 8.476471573896495748e-01 -5.150405812196503508e-01 1.273871903535499228e-01
-1.438985427877556844e-01 1.909978561647835554e-03 -8.313142418344237061e-01 -3.261578268915775736e-01 3.516175544058471880e-01 8.774885568433441474e-01
1.329621143742108491e-01 -8.361771606872951679e-02 -1.001041551431870236e+00 1.087001275412807083e-01 -5.546249366195074026e-01 8.249699763944847719e-01
-5.119583976902419235e-04 -9.085838042359978273e-02 -9.886490339992665133e-01 1.057688867283949619e-01 -5.393311249329849622e-01 8.354249698678851699e-01
-5.981523949583819610e-02 3.241529634458138048e-02 -8.827881486534329136e-01 2.192731573856633032e-01 -5.749821017123093458e-01 7.882352854069767378e-01
4.902928661994841036e-02 -3.913193249116791311e-02 -9.615277941072929435e-01 1.057688867283949619e-01 -5.393311249329849622e-01 8.354249698678851699e-01
-7.579025780672894730e-02 -6.264798109789943004e-02 -9.318629347766849147e-01 4.789495287146355307e-01 -4.384416584611595669e-01 7.605105266002941677e-01
-9.221814265607825023e-02 6.298983283136452838e-02 -8.490856726493957174e-01 4.789495287146355307e-01 -4.384416584611595669e-01 7.605105266002941677e-01
-1.558459180527793364e-01 9.562756128955446355e-02 -7.812397693952531919e-01 5.107874587849622339e-01 -6.747640259738606483e-01 5.327191391338849114e-01
1.353035099090519888e-01 -9.329379293045249322e-02 -1.007855258197281723e+00 1.087001275412807083e-01 -5.546249366195074026e-01 8.249699763944847719e-01
-1.241223083958330892e-01 2.365230863107334325e-02 -8.381165533140656487e-01 8.476471573896495748e-01 -5.150405812196503508e-01 1.273871903535499228e-01
6.586742677764338694e-02 9.155806185016377764e-05 -9.383378026137837447e-01 1.057688867283949619e-01 -5.393311249329849622e-01 8.354249698678851699e-01
1.740557746451753263e-01 2.539434203414128993e-04 -9.372607646407643545e-01 -3.829459715825920818e-01 -6.913561833268997425e-01 6.126818184215415686e-01
-1.518725446262034762e-01 9.038118834268760171e-02 -7.916948340580468590e-01 5.107874587849622339e-01 -6.747640259738606483e-01 5.327191391338849114e-01
-1.405891645710226345e-01 -1.201371962306376356e-01 -9.344328330143424344e-01 3.579538917485016736e-01 -7.452726186922445928e-01 5.625279861568722728e-01
2.877324221087524392e-01 -5.445133562397395238e-02 -1.003331488956493045e+00 1.301223128393530493e-01 -6.901828278344904755e-01 7.118397627722993226e-01
5.640786280477310928e-04 3.944542612783772523e-02 -8.944564475712898366e-01 2.192731573856633032e-01 -5.749821017123093458e-01 7.882352854069767378e-01
-2.073744808323894073e-01 -1.013973227328285459e-01 -8.222723401093358087e-01 9.165544035303941905e-01 -3.494958268573292726e-01 1.943725607650294840e-01
1.398587262168654588e-01 -8.054242972281665247e-02 -9.998827602817154103e-01 1.087001275412807083e-01 -5.546249366195074026e-01 8.249699763944847719e-01
-9.365076440136059499e-03 2.449025361693654701e-03 -9.186815380231551087e-01 2.192731573856633032e-01 -5.749821017123093458e-01 7.882352854069767378e-01
6.497184938743917615e-02 -7.341175240687937420e-02 -9.856764629654265475e-01 1.057688867283949619e-01 -5.393311249329849622e-01 8.354249698678851699e-01
-2.008043448646878726e-01 -1.356065405954145209e-01 -8.761174598348646647e-01 9.356573208740800451e-01 -6.351858050266583067e-02 3.471466085469729346e-01
-5.751453097385093860e-02 -1.065690330323094126e-01 -9.693198224032647525e-01 3.579538917485016736e-01 -7.452726186922445928e-01 5.625279861568722728e-01
-1.849680299644465842e-01 1.020022005793395498e-01 -7.452422138347445379e-01 5.107874587849622339e-01 -6.747640259738606483e-01 5.327191391338849114e-01
-1.848890171801784166e-01 -1.691544996001179135e-02 -8.003737062245358524e-01 8.326290122190657117e-01 6.561581132275923212e-03 5.537922658038370027e-01
4.699063223813756962e-02 7.331384968143855874e-02 -8.826660081784193368e-01 2.192731573856633032e-01 -5.749821017123093458e-01 7.882352854069767378e-01
-1.851086698072330894e-01 9.616906044770997392e-03 -7.993015631205068194e-01 8.490364073017183655e-01 -9.211708537955197451e-02 5.202418876420535909e-01
-3.053755356469239554e-02 -3.137055029427862629e-02 -9.374615838482658337e-01 2.192731573856633032e-01 -5.749821017123093458e-01 7.882352854069767378e-01
3.066914221437480256e-02 6.047122990072500287e-02 -8.874937695495598300e-01 2.192731573856633032e-01 -5.749821017123093458e-01 7.882352854069767378e-01
1.480294000954173184e-01 -4.886241134432046940e-02 -9.803434657250306161e-01 1.057688867283949619e-01 -5.393311249329849622e-01 8.354249698678851699e-01
-6.473969985248247128e-03 1.465078086060861429e-01 -8.235930197657793661e-01 2.432563819161612240e-01 -6.633547820090248681e-01 7.076628899715017296e-01
6.559125695617838703e-02 3.347626956808027326e-02 -9.167504370965253724e-01 1.057688867283949619e-01 -5.393311249329849622e-01 8.354249698678851699e-01
7.145591104418709538e-02 1.330110104591407938e-01 -8.547319719059508492e-01 2.629075647865941057e-01 -4.346851439026598318e-01 8.613526792483474637e-01
-4.184379477208879233e-02 5.578801744494051723e-02 -8.707381414417442178e-01 2.192731573856633032e-01 -5.749821017123093458e-01 7.882352854069767378e-01
1.527546585629876441e-01 5.617209790752862586e-02 -8.960888097695057786e-01 -1.498801888424912132e-01 -5.415710434137960272e-01 8.271860334460632291e-01
1.307749082048415834e-01 -1.222173369981539165e-02 -9.545045848329957172e-01 1.057688867283949619e-01 -5.393311249329849622e-01 8.354249698678851699e-01
2.400764974828153986e-01 5.289427647129171101e-02 -8.812227133733007145e-01 -6.468395500948658228e-01 -5.268214157920703133e-01 5.514143562656943498e-01
1.705157514017952292e-01 -6.902748127438609882e-02 -9.962084526143856200e-01 1.057688867283949619e-01 -5.393311249329849622e-01 8.354249698678851699e-01
1.745556495711968192e-01 -2.775451753228997537e-02 -9.685533491428647279e-01 -3.829459715825920818e-01 -6.913561833268997425e-01 6.126818184215415686e-01
2.617436198695416091e-02 5.235190099816204590e-02 -8.921660853071149422e-01 2.192731573856633032e-01 -5.749821017123093458e-01 7.882352854069767378e-01
1.590666195628665236e-01 -5.888277298025363510e-02 -9.882097464396607522e-01 1.057688867283949619e-01 -5.393311249329849622e-01 8.354249698678851699e-01
1.465061716752156379e-02 -2.712880014018971553e-02 -9.469379706488666448e-01 2.192731573856633032e-01 -5.749821017123093458e-01 7.882352854069767378e-01
7.733860141818545142e-02 1.236512801825293412e-01 -8.612509502966610997e-01 2.629075647865941057e-01 -4.346851439026598318e-01 8.613526792483474637e-01
1.330380924701677903e-01 -2.073989570401482978e-04 -9.470349371482678080e-01 1.057688867283949619e-01 -5.393311249329849622e-01 8.354249698678851699e-01
5.433010167349009573e-02 -1.281128127590546728e-01 -1.029210305970154504e+00 4.898115072266163994e-02 -7.700341196659274967e-01 6.361197225555924595e-01
-2.057606890676400291e-01 -1.139025951183738894e-01 -8.523674751314848086e-01 9.165544035303941905e-01 -3.494958268573292726e-01 1.943725607650294840e-01
-1.863651728538735786e-01 4.662810603935820496e-03 -7.981281474185372149e-01 8.490364073017183655e-01 -9.211708537955197451e-02 5.202418876420535909e-01
6.770662813344213715e-02 1.262630286048657402e-01 -8.569929884100355721e-01 2.629075647865941057e-01 -4.346851439026598318e-01 8.613526792483474637e-01
-4.556969195308611248e-02 1.512349568004885958e-01 -8.057228439892483163e-01 2.432563819161612240e-01 -6.633547820090248681e-01 7.076628899715017296e-01
1.576835846638181826e-01 7.633103536675851786e-02 -8.837591826619367597e-01 -9.480028582854138630e-02 -4.100023059753370447e-01 9.071444289096047831e-01
-1.163576712186150802e-01 -1.108247523845431459e-01 -9.375143649192910766e-01 3.579538917485016736e-01 -7.452726186922445928e-01 5.625279861568722728e-01
-6.560273199487109963e-02 -1.209382269548928274e-01 -9.831002801252856083e-01 3.590584336204286076e-01 -6.709247097447800234e-01 6.487966361656992698e-01
1.021304372615976577e-02 3.905108239096787698e-02 -8.974282754969835629e-01 2.192731573856633032e-01 -5.749821017123093458e-01 7.882352854069767378e-01
-1.957729712402693223e-01 -1.371630174732115237e-01 -8.899632144793393485e-01 9.356573208740800451e-01 -6.351858050266583067e-02 3.471466085469729346e-01
-2.281424349373144811e-01 -1.435861641054667626e-01 -8.002006249936948201e-01 9.165544035303941905e-01 -3.494958268573292726e-01 1.943725607650294840e-01
2.013324259869439803e-01 3.126801728737894220e-02 -9.035919393204366878e-01 -1.498801888424912132e-01 -5.415710434137960272e-01 8.271860334460632291e-01
-1.177974961644306373e-01 3.418037203276445141e-02 -8.376363575865127808e-01 8.476471573896495748e-01 -5.150405812196503508e-01 1.273871903535499228e-01
5.524979062051318945e-02 -1.175621436762130795e-01 -1.016509351307560705e+00 4.898115072266163994e-02 -7.700341196659274967e-01 6.361197225555924595e-01
-2.017848318334610203e-01 1.027184115801245828e-01 -7.282105657421831246e-01 5.107874587849622339e-01 -6.747640259738606483e-01 5.327191391338849114e-01
1.928090711581068317e-01 3.331025444066632035e-02 -9.037992270627104308e-01 -1.498801888424912132e-01 -5.415710434137960272e-01 8.271860334460632291e-01
1.129177279121564570e-01 6.612059724600032745e-03 -9.400851150918460020e-01 1.057688867283949619e-01 -5.393311249329849622e-01 8.354249698678851699e-01
-3.624187444241756123e-02 1.640942460363173372e-01 -7.968751002997962463e-01 2.432563819161612240e-01 -6.633547820090248681e-01 7.076628899715017296e-01
-1.773615254625462434e-01 -5.613542258379961014e-02 -8.212630715627605715e-01 6.864617047190443300e-01 -6.497589733391124778e-01 3.264714451824627939e-01
-6.189146483334068138e-02 -1.096711578966241968e-01 -9.706445355385153739e-01 3.579538917485016736e-01 -7.452726186922445928e-01 5.625279861568722728e-01
-1.589150248633181550e-01 3.275665567178675380e-02 -8.359838707488631560e-01 4.142606493842118653e-01 -5.566956826011071335e-01 7.200541863950644661e-01
4.601950452398281821e-02 -6.649343941797433710e-02 -9.788106998497371203e-01 1.057688867283949619e-01 -5.393311249329849622e-01 8.354249698678851699e-01
1.875343198676625023e-01 -1.743462752534922014e-02 -9.487961947600759283e-01 -3.829459715825920818e-01 -6.913561833268997425e-01 6.126818184215415686e-01
2.417517855804745264e-01 -3.699980425167637837e-02 -9.780057696214994323e-01 1.301223128393530493e-01 -6.901828278344904755e-01 7.118397627722993226e-01
-1.358407075769113848e-01 -8.550883228068134612e-02 -9.072242421423009073e-01 4.789495287146355307e-01 -4.384416584611595669e-01 7.605105266002941677e-01
-4.720658242918111813e-02 -1.042138634309809492e-01 -9.738273141248484643e-01 4.789495287146355307e-01 -4.384416584611595669e-01 7.605105266002941677e-01
9.619639286919454135e-02 2.386228350758740763e-02 -9.268317650129253016e-01 1.057688867283949619e-01 -5.393311249329849622e-01 8.354249698678851699e-01
1.499784585914157135e-02 2.342567113745843300e-03 -9.255365299055143824e-01 2.192731573856633032e-01 -5.749821017123093458e-01 7.882352854069767378e-01
1.670890184853577806e-02 6.399030009990971934e-02 -8.810432737950396609e-01 2.192731573856633032e-01 -5.749821017123093458e-01 7.882352854069767378e-01
1.230000669036264288e-01 1.924697945555704434e-02 -9.332047752546276387e-01 1.057688867283949619e-01 -5.393311249329849622e-01 8.354249698678851699e-01
-4.686570964003491935e-02 -3.357924924604353129e-02 -9.333204500528857750e-01 4.789495287146355307e-01 -4.384416584611595669e-01 7.605105266002941677e-01
-1.709319114126859329e-01 2.733702677045653229e-02 -8.193004489999640150e-01 8.490364073017183655e-01 -9.211708537955197451e-02 5.202418876420535909e-01
1.063707993501260274e-01 -5.198271620363533602e-02 -9.770836801167376295e-01 1.057688867283949619e-01 -5.393311249329849622e-01 8.354249698678851699e-01
-2.015126549031881487e-01 -1.373895125074645895e-01 -8.745346022913565998e-01 9.356573208740800451e-01 -6.351858050266583067e-02 3.471466085469729346e-01
1.172981281889186184e-01 6.692889242019642304e-02 -8.974994636446216312e-01 -3.829459715825920818e-01 -6.913561833268997425e-01 6.126818184215415686e-01
-2.299012852419721475e-01 -1.515911246946146929e-01 -8.006178105747465690e-01 9.356573208740800451e-01 -6.351858050266583067e-02 3.471466085469729346e-01
-2.044553312491605712e-01 -1.490776522065329068e-01 -8.687418836700012692e-01 9.356573208740800451e-01 -6.351858050266583067e-02 3.471466085469729346e-01
-9.283813853587701004e-02 -1.042815249437702985e-01 -9.451287676846003016e-01 4.789495287146355307e-01 -4.384416584611595669e-01 7.605105266002941677e-01
-1.684565157373191513e-01 -6.984260792458008016e-02 -8.776519343977585708e-01 4.789495287146355307e-01 -4.384416584611595669e-01 7.605105266002941677e-01
-4.424581687370860578e-02 -8.804938603601768221e-02 -9.663729491798683791e-01 4.789495287146355307e-01 -4.384416584611595669e-01 7.605105266002941677e-01
1.338593289406224962e-01 2.563407510076302215e-02 -9.304562490483764270e-01 1.057688867283949619e-01 -5.393311249329849622e-01 8.354249698678851699e-01
-1.846252353904624388e-01 2.293420257428788883e-02 -7.977324908476970400e-01 8.490364073017183655e-01 -9.211708537955197451e-02 5.202418876420535909e-01
-1.070860755031881051e-01 -2.080505875949360470e-02 -8.880308032868201584e-01 4.789495287146355307e-01 -4.384416584611595669e-01 7.605105266002941677e-01
2.795433629974643230e-02 1.517466844114767344e-01 -8.305167570055960180e-01 2.432563819161612240e-01 -6.633547820090248681e-01 7.076628899715017296e-01
-2.004920653570116673e-01 -8.772368975486734277e-02 -8.301398628763773102e-01 9.165544035303941905e-01 -3.494958268573292726e-01 1.943725607650294840e-01
-1.417502943845684316e-01 7.328688883883699434e-02 -8.145239116010065672e-01 4.142606493842118653e-01 -5.566956826011071335e-01 7.200541863950644661e-01
-1.486720053154746146e-01 5.584359550564313435e-02 -8.240276597260012270e-01 4.142606493842118653e-01 -5.566956826011071335e-01 7.200541863950644661e-01
-1.915712369519401714e-01 2.212708323295735011e-02 -7.851466487994955834e-01 9.075176759748466715e-01 -1.473236010937161999e-01 3.933286467497541516e-01
2.159754008687389260e-01 4.426045212982897964e-02 -8.924323960479830786e-01 -1.498801888424912132e-01 -5.415710434137960272e-01 8.271860334460632291e-01
1.718589631170143184e-01 3.158412065317439676e-02 -9.087253622500486294e-01 -1.498801888424912132e-01 -5.415710434137960272e-01 8.271860334460632291e-01
1.711961915144630253e-01 -6.794327365373446087e-03 -9.470014346759113577e-01 -3.829459715825920818e-01 -6.913561833268997425e-01 6.126818184215415686e-01
6.189074844698105871e-02 -2.362992256231795721e-03 -9.394189368591336908e-01 1.057688867283949619e-01 -5.393311249329849622e-01 8.354249698678851699e-01
-1.610942774104956107e-03 1.260010645718414313e-01 -8.359676380197209600e-01 2.629075647865941057e-01 -4.346851439026598318e-01 8.613526792483474637e-01
-2.181811744534052355e-01 -1.217546597143184250e-01 -8.079178535809640183e-01 9.165544035303941905e-01 -3.494958268573292726e-01 1.943725607650294840e-01
7.416727425389049722e-02 -1.264473654929136950e-02 -9.476108624421344384e-01 1.057688867283949619e-01 -5.393311249329849622e-01 8.354249698678851699e-01
3.141859643913214040e-02 6.417584956327339329e-02 -8.849999014852503176e-01 2.192731573856633032e-01 -5.749821017123093458e-01 7.882352854069767378e-01
-4.964919590473643174e-02 -9.331916974829976286e-02 -9.660081243416468455e-01 4.789495287146355307e-01 -4.384416584611595669e-01 7.605105266002941677e-01
2.294926318212981153e-01 -5.777317262732244163e-02 -9.959061923780596626e-01 1.301223128393530493e-01 -6.901828278344904755e-01 7.118397627722993226e-01
-1.774568070330148628e-01 -1.218559240738722044e-01 -9.073509194498228236e-01 6.482351681932239096e-01 -3.458059904303264487e-01 6.783873404626619141e-01
4.793985110376883935e-02 7.100790651031979595e-02 -8.846121457049626047e-01 2.192731573856633032e-01 -5.749821017123093458e-01 7.882352854069767378e-01
9.599786061350031041e-02 -3.973986685331506313e-02 -9.678667136954612893e-01 1.057688867283949619e-01 -5.393311249329849622e-01 8.354249698678851699e-01
-3.987925048847609788e-02 -6.896139252387321894e-02 -9.581184853686770531e-01 4.789495287146355307e-01 -4.384416584611595669e-01 7.605105266002941677e-01
1.579925847187953203e-01 1.467680346463691443e-02 -9.310258814029191976e-01 -3.829459715825920818e-01 -6.913561833268997425e-01 6.126818184215415686e-01
1.802525037150237153e-01 9.075123197773682371e-02 -8.748831386898729967e-01 -9.480028582854138630e-02 -4.100023059753370447e-01 9.071444289096047831e-01
9.838692364537503232e-02 3.946106749268384756e-02 -9.170388811420713271e-01 1.057688867283949619e-01 -5.393311249329849622e-01 8.354249698678851699e-01
-4.328086045878479921e-02 7.903421922266241906e-02 -8.533813190071691812e-01 2.192731573856633032e-01 -5.749821017123093458e-01 7.882352854069767378e-01
2.257292372552126281e-01 -6.287215696438902546e-02 -9.999500550884582450e-01 1.260914954807796640e-01 -5.276123203187379485e-01 8.400751003424027363e-01
-1.071296221294805034e-01 -1.387395857053354553e-01 -9.783829098407450520e-01 4.355858892110806013e-01 -5.211176679828479763e-01 7.339627437658607922e-01
2.495811978973247192e-01 1.028245497478165321e-01 -8.223697781358029202e-01 -6.468395500948658228e-01 -5.268214157920703133e-01 5.514143562656943498e-01
-2.036082182305306021e-01 -1.289953930203409649e-01 -8.673505720817178410e-01 9.356573208740800451e-01 -6.351858050266583067e-02 3.471466085469729346e-01
-1.733014469068187013e-01 -6.257672009462178497e-02 -8.595071821804101120e-01 8.476471573896495748e-01 -5.150405812196503508e-01 1.273871903535499228e-01
2.273736429362948341e-01 8.050966776428453153e-02 -8.697401127719777136e-01 -6.468395500948658228e-01 -5.268214157920703133e-01 5.514143562656943498e-01
-1.334915211380054145e-01 6.406190501682061667e-02 -8.265714857402026716e-01 4.237500439018919707e-01 -5.565829009377293302e-01 7.145987508223664575e-01
1.834701141250718315e-01 -3.591253901149273758e-02 -9.721871117855591660e-01 -3.829459715825920818e-01 -6.913561833268997425e-01 6.126818184215415686e-01
-7.287859485859725373e-02 -1.297377662688453392e-01 -9.881733157323540073e-01 3.590584336204286076e-01 -6.709247097447800234e-01 6.487966361656992698e-01
-1.147236482962935705e-01 7.335049003844024140e-02 -8.304660060433489699e-01 4.237500439018919707e-01 -5.565829009377293302e-01 7.145987508223664575e-01
2.162038997449178823e-01 -6.263528408311050399e-02 -9.981912365219639538e-01 1.301223128393530493e-01 -6.901828278344904755e-01 7.118397627722993226e-01
-2.834817617770953729e-02 1.481798564675788632e-01 -8.145064881820835989e-01 2.432563819161612240e-01 -6.633547820090248681e-01 7.076628899715017296e-01
1.136993315871481502e-01 6.360672718138020432e-02 -9.033896249284050217e-01 1.057688867283949619e-01 -5.393311249329849622e-01 8.354249698678851699e-01
1.915079216759080494e-01 8.712224625919291754e-02 -8.753470953209563366e-01 -9.480028582854138630e-02 -4.100023059753370447e-01 9.071444289096047831e-01
-6.870213608560707397e-02 -7.679383854824321787e-02 -9.444820707689092210e-01 4.789495287146355307e-01 -4.384416584611595669e-01 7.605105266002941677e-01
1.487435372439658010e-01 -2.812919044299932309e-02 -9.670489889478083301e-01 1.057688867283949619e-01 -5.393311249329849622e-01 8.354249698678851699e-01
2.141761117745738241e-01 6.683684246351966063e-02 -8.827771835025256530e-01 5.278882488491466463e-01 2.247708219206825675e-01 8.190311803222647402e-01
-2.139068101107320929e-01 -1.529085378800004447e-01 -8.439684514712370023e-01 9.356573208740800451e-01 -6.351858050266583067e-02 3.471466085469729346e-01
2.371902194887861859e-01 5.199292955804606792e-02 -8.854696242298146780e-01 -6.468395500948658228e-01 -5.268214157920703133e-01 5.514143562656943498e-01
-1.258391372510749701e-02 -4.633377025592980841e-02 -9.533709641922957223e-01 2.192731573856633032e-01 -5.749821017123093458e-01 7.882352854069767378e-01
-9.038542567600618693e-02 -3.691469805357458500e-02 -9.078357958627887303e-01 4.789495287146355307e-01 -4.384416584611595669e-01 7.605105266002941677e-01
-8.776073023729690642e-03 8.728107422283522265e-02 -8.574567027147481646e-01 2.236885300485579597e-01 -5.118959048180460325e-01 8.294130600341601545e-01
3.507619493915105358e-02 1.854549908331383223e-01 -8.013671025791422320e-01 2.432563819161612240e-01 -6.633547820090248681e-01 7.076628899715017296e-01
-3.639644529814693025e-02 -3.366791559842010478e-02 -9.375075678868795004e-01 2.192731573856633032e-01 -5.749821017123093458e-01 7.882352854069767378e-01
7.392316497069934163e-03 1.291184409374798447e-01 -8.371424736014871915e-01 2.629075647865941057e-01 -4.346851439026598318e-01 8.613526792483474637e-01
-9.082516159824800817e-02 -9.324723978876654773e-02 -9.400351157334311258e-01 4.789495287146355307e-01 -4.384416584611595669e-01 7.605105266002941677e-01
-1.098893030264106174e-01 1.079489945741331919e-02 -8.680477234246808393e-01 4.789495287146355307e-01 -4.384416584611595669e-01 7.605105266002941677e-01
7.984753428799055974e-02 -4.672731012251993971e-02 -9.703329358905701252e-01 1.057688867283949619e-01 -5.393311249329849622e-01 8.354249698678851699e-01
1.307857710347637425e-01 1.085257169755668438e-02 -9.396097198404492756e-01 1.057688867283949619e-01 -5.393311249329849622e-01 8.354249698678851699e-01
1.940933581988039253e-02 1.028350357099677426e-01 -8.554585951423309131e-01 2.236885300485579597e-01 -5.118959048180460325e-01 8.294130600341601545e-01
1.407946043245315582e-01 7.308050067579575926e-02 -8.871857023135393261e-01 -1.498801888424912132e-01 -5.415710434137960272e-01 8.271860334460632291e-01
-6.755489890837884648e-02 4.033480176104684012e-02 -8.748581897425837806e-01 2.192731573856633032e-01 -5.749821017123093458e-01 7.882352854069767378e-01
9.004391145802348451e-02 -7.976566655386319038e-02 -9.929526493101712425e-01 1.057688867283949619e-01 -5.393311249329849622e-01 8.354249698678851699e-01
4.731363879284668228e-02 -1.052615322814273863e-01 -1.004307367222568859e+00 1.087001275412807083e-01 -5.546249366195074026e-01 8.249699763944847719e-01
-1.296264607335763652e-01 1.366803105566883995e-02 -8.418589158015643559e-01 8.476471573896495748e-01 -5.150405812196503508e-01 1.273871903535499228e-01
7.674242718635797267e-02 -7.171698370660886668e-02 -9.860725720263945338e-01 1.057688867283949619e-01 -5.393311249329849622e-01 8.354249698678851699e-01
2.546526656054451943e-01 -6.622995990805491395e-02 -1.006400212384138237e+00 1.260914954807796640e-01 -5.276123203187379485e-01 8.400751003424027363e-01
1.238467625033002201e-01 3.905845662266620166e-02 -9.205221375572874010e-01 1.057688867283949619e-01 -5.393311249329849622e-01 8.354249698678851699e-01
-8.152840645083445081e-02 -1.438309030433529249e-02 -9.004240243113046382e-01 4.789495287146355307e-01 -4.384416584611595669e-01 7.605105266002941677e-01
-1.832288387144666852e-01 2.665064410138191092e-02 -7.993533596695404642e-01 8.490364073017183655e-01 -9.211708537955197451e-02 5.202418876420535909e-01
6.442952141036420444e-02 -1.132011241980983296e-01 -1.011937098767456966e+00 4.898115072266163994e-02 -7.700341196659274967e-01 6.361197225555924595e-01
9.311299008951147427e-02 3.809171309530567928e-02 -9.172551990320133575e-01 1.057688867283949619e-01 -5.393311249329849622e-01 8.354249698678851699e-01
1.842089498065585529e-01 -9.891924400154161745e-02 -1.016529067830974631e+00 8.659386491181410295e-02 -5.223262942460473734e-01 8.483376361442571678e-01
1.964268477008618841e-01 7.207619725365842223e-02 -8.816334142501335291e-01 -9.480028582854138630e-02 -4.100023059753370447e-01 9.071444289096047831e-01
1.280853908388781062e-02 1.295960560932985818e-02 -9.171828524704228602e-01 2.192731573856633032e-01 -5.749821017123093458e-01 7.882352854069767378e-01
1.728129736747396547e-02 -4.574338568435695057e-02 -9.612482803762221195e-01 2.192731573856633032e-01 -5.749821017123093458e-01 7.882352854069767378e-01
-1.583078861485436861e-01 -1.389146239728845413e-02 -8.303383386139179256e-01 -3.261578268915775736e-01 3.516175544058471880e-01 8.774885568433441474e-01
-2.918976047114839323e-02 -6.651912948217053589e-02 -9.634424568404412748e-01 4.789495287146355307e-01 -4.384416584611595669e-01 7.605105266002941677e-01
2.248757608043364942e-01 -5.762438269745755876e-02 -9.949179781392035737e-01 1.301223128393530493e-01 -6.901828278344904755e-01 7.118397627722993226e-01
7.630318052695177211e-02 1.269560864475527406e-02 -9.315221352244610342e-01 1.057688867283949619e-01 -5.393311249329849622e-01 8.354249698678851699e-01
-6.690109964434874656e-02 2.734262094830162623e-02 -8.845172752966234953e-01 2.192731573856633032e-01 -5.749821017123093458e-01 7.882352854069767378e-01
7.945181617878301072e-02 -9.418641533149389733e-02 -1.001096205445272558e+00 1.087001275412807083e-01 -5.546249366195074026e-01 8.249699763944847719e-01
5.604667576470973717e-02 8.475311651938684243e-02 -8.768408104030276373e-01 2.192731573856633032e-01 -5.749821017123093458e-01 7.882352854069767378e-01
-1.116569594551400785e-01 1.176982421647009523e-02 -8.663724463612579862e-01 4.789495287146355307e-01 -4.384416584611595669e-01 7.605105266002941677e-01
5.156769255802031750e-03 4.096057949174918694e-02 -8.946288170550725782e-01 2.192731573856633032e-01 -5.749821017123093458e-01 7.882352854069767378e-01
-1.719028863817414765e-01 -5.544843080646802425e-02 -8.399928778170423493e-01 8.476471573896495748e-01 -5.150405812196503508e-01 1.273871903535499228e-01
9.861389306949495948e-02 1.225568570442103723e-03 -9.417515743150824958e-01 1.057688867283949619e-01 -5.393311249329849622e-01 8.354249698678851699e-01
-1.622233650955211548e-01 -1.045782994256635838e-02 -8.331695886987977584e-01 -3.261578268915775736e-01 3.516175544058471880e-01 8.774885568433441474e-01
1.176378114603359726e-01 -1.004100997150408486e-01 -1.010311853689087824e+00 1.087001275412807083e-01 -5.546249366195074026e-01 8.249699763944847719e-01
2.070003015636493471e-01 -5.109733067362361332e-03 -9.263820169966221485e-01 -1.498801888424912132e-01 -5.415710434137960272e-01 8.271860334460632291e-01
-1.176663789933026921e-01 6.210028532995207767e-02 -8.374834956554896293e-01 4.237500439018919707e-01 -5.565829009377293302e-01 7.145987508223664575e-01
-2.765485438205675037e-02 1.098328731438518169e-01 -8.384467050129380539e-01 2.236885300485579597e-01 -5.118959048180460325e-01 8.294130600341601545e-01
1.292539993477183624e-01 -1.045113541990149858e-01 -1.014362648139683243e+00 8.659386491181410295e-02 -5.223262942460473734e-01 8.483376361442571678e-01
1.867976520971361687e-01 -3.188444139421978824e-02 -9.655619479005042027e-01 -3.829459715825920818e-01 -6.913561833268997425e-01 6.126818184215415686e-01
-1.716413505224817504e-01 -5.109604773863633820e-02 -8.241359947844278944e-01 8.476471573896495748e-01 -5.150405812196503508e-01 1.273871903535499228e-01
1.791031550547957096e-01 -9.652287785907011364e-02 -1.014532438805349823e+00 8.659386491181410295e-02 -5.223262942460473734e-01 8.483376361442571678e-01
1.917347215622942566e-02 1.393315113237350300e-01 -8.355843255186518048e-01 2.629075647865941057e-01 -4.346851439026598318e-01 8.613526792483474637e-01
1.698671450674267280e-01 1.143366474609554817e-01 -8.638660896535244049e-01 -3.325418328689987990e-01 -8.014967230735980941e-01 4.970099921474527283e-01
5.097118410298262514e-02 3.727979101940245843e-02 -9.100585486520622602e-01 2.192731573856633032e-01 -5.749821017123093458e-01 7.882352854069767378e-01
2.092336390392428580e-01 9.959748123653511254e-02 -8.612954921816629028e-01 -3.325418328689987990e-01 -8.014967230735980941e-01 4.970099921474527283e-01
-1.823696189212165586e-01 4.487695591202126022e-02 -7.975283512313030565e-01 8.490364073017183655e-01 -9.211708537955197451e-02 5.202418876420535909e-01
-5.438499545485834391e-02 2.220471615190412751e-02 -8.917469046820748479e-01 2.192731573856633032e-01 -5.749821017123093458e-01 7.882352854069767378e-01
1.921576148513934323e-01 2.821415720795646988e-03 -9.238787640963239678e-01 -1.498801888424912132e-01 -5.415710434137960272e-01 8.271860334460632291e-01
-1.359768315112183656e-01 2.688971352642024592e-03 -8.439924706111124886e-01 8.476471573896495748e-01 -5.150405812196503508e-01 1.273871903535499228e-01
-1.801628396288996736e-01 -9.642360697565073580e-02 -8.856038019724081778e-01 4.789495287146355307e-01 -4.384416584611595669e-01 7.605105266002941677e-01
2.293750229955847930e-01 8.634565815821776402e-02 -8.618166765223499448e-01 -6.468395500948658228e-01 -5.268214157920703133e-01 5.514143562656943498e-01
6.627871274143819214e-02 6.877101817333519662e-02 -8.913454028297124188e-01 2.192731573856633032e-01 -5.749821017123093458e-01 7.882352854069767378e-01
1.808636069692268200e-01 1.531650754843281136e-02 -9.177444343575377195e-01 -1.498801888424912132e-01 -5.415710434137960272e-01 8.271860334460632291e-01
-1.878179171317479745e-01 7.782789378225928034e-02 -7.729435205676364884e-01 9.075176759748466715e-01 -1.473236010937161999e-01 3.933286467497541516e-01
-1.854940302340266911e-01 8.002894416146204282e-02 -7.725701011844143817e-01 5.107874587849622339e-01 -6.747640259738606483e-01 5.327191391338849114e-01
-8.252184826347799818e-02 8.015674956642036830e-02 -8.419648180753521727e-01 2.236885300485579597e-01 -5.118959048180460325e-01 8.294130600341601545e-01
-1.009506203129094393e-01 -1.131480268331201550e-01 -9.503963669576315221e-01 3.579538917485016736e-01 -7.452726186922445928e-01 5.625279861568722728e-01
-1.279295264900122131e-01 -1.598868326056793188e-01 -9.810534257071504838e-01 4.355858892110806013e-01 -5.211176679828479763e-01 7.339627437658607922e-01
-6.554166231355765260e-02 -5.329436510719678943e-02 -9.329247807940949100e-01 4.789495287146355307e-01 -4.384416584611595669e-01 7.605105266002941677e-01
2.277397715042690507e-01 -2.540491408425280331e-02 -9.635042360254101323e-01 3.236181660888737821e-01 -7.458993972457641508e-01 5.821557968153199258e-01
-1.243007503613253462e-01 -1.549207919106564135e-01 -9.796810837485270262e-01 4.355858892110806013e-01 -5.211176679828479763e-01 7.339627437658607922e-01
-9.120062675783528749e-02 -1.299313556641514822e-01 -9.782336893438142722e-01 3.590584336204286076e-01 -6.709247097447800234e-01 6.487966361656992698e-01
-4.582877843597536055e-02 5.064976336807696516e-02 -8.733777139357132846e-01 2.192731573856633032e-01 -5.749821017123093458e-01 7.882352854069767378e-01
1.595968320229647908e-01 2.651764649722653661e-02 -9.166618512908276672e-01 -3.829459715825920818e-01 -6.913561833268997425e-01 6.126818184215415686e-01
-1.275790883392773634e-01 3.190563302474243301e-02 -8.372679159027648366e-01 -3.261578268915775736e-01 3.516175544058471880e-01 8.774885568433441474e-01
-1.255879341242981673e-01 2.188605579381733279e-02 -8.355052892322836211e-01 8.476471573896495748e-01 -5.150405812196503508e-01 1.273871903535499228e-01
-1.722574543932106628e-01 -6.154570769365594329e-02 -8.622855153807541528e-01 8.476471573896495748e-01 -5.150405812196503508e-01 1.273871903535499228e-01
-1.886053420592049834e-01 -1.480958952595547717e-01 -9.100736511942832951e-01 6.482351681932239096e-01 -3.458059904303264487e-01 6.783873404626619141e-01
2.362544714104480303e-01 5.989149517209409884e-02 -8.790210169109810012e-01 -6.468395500948658228e-01 -5.268214157920703133e-01 5.514143562656943498e-01
-1.443215530518307532e-01 -1.002776029024482207e-01 -9.103975675035080872e-01 4.789495287146355307e-01 -4.384416584611595669e-01 7.605105266002941677e-01
-1.072829773595923852e-01 4.938580083612822968e-02 -8.461237815155746578e-01 8.476471573896495748e-01 -5.150405812196503508e-01 1.273871903535499228e-01
-3.673798941348271896e-02 1.590496985235620719e-01 -8.014332615775653368e-01 2.432563819161612240e-01 -6.633547820090248681e-01 7.076628899715017296e-01
-2.675466153043398743e-02 8.544405400121438121e-02 -8.537417372103828228e-01 2.236885300485579597e-01 -5.118959048180460325e-01 8.294130600341601545e-01
9.244064568749849053e-02 -4.947587181158209085e-02 -9.737016935197886358e-01 1.057688867283949619e-01 -5.393311249329849622e-01 8.354249698678851699e-01
-4.869846329589496564e-02 -1.995531851452850280e-02 -9.240826420865230206e-01 2.192731573856633032e-01 -5.749821017123093458e-01 7.882352854069767378e-01
1.854143368544885762e-01 1.968726343449603289e-02 -9.140582755528565695e-01 -1.498801888424912132e-01 -5.415710434137960272e-01 8.271860334460632291e-01
-1.598097914146238696e-01 -6.026250987765439243e-02 -8.775743949889381890e-01 4.789495287146355307e-01 -4.384416584611595669e-01 7.605105266002941677e-01
9.858975121407946574e-02 7.545190425106172716e-02 -8.938297045799894480e-01 1.057688867283949619e-01 -5.393311249329849622e-01 8.354249698678851699e-01
-1.738668856546785879e-01 -1.965246962601346556e-02 -8.169130981113681411e-01 8.326290122190657117e-01 6.561581132275923212e-03 5.537922658038370027e-01
3.601954691779277878e-02 8.830725937929129188e-02 -8.689045166637677786e-01 2.236885300485579597e-01 -5.118959048180460325e-01 8.294130600341601545e-01
-3.516572090251887661e-02 -3.822538627345106743e-02 -9.411744030880342393e-01 2.192731573856633032e-01 -5.749821017123093458e-01 7.882352854069767378e-01
-2.004219598051085183e-01 6.520852979624404411e-02 -7.485891760569036713e-01 9.075176759748466715e-01 -1.473236010937161999e-01 3.933286467497541516e-01
-7.751417479977099068e-02 8.551709466917847835e-02 -8.400070726904571572e-01 2.236885300485579597e-01 -5.118959048180460325e-01 8.294130600341601545e-01
-5.866229868367095479e-02 -5.286077153754053376e-02 -9.370072522077277366e-01 4.789495287146355307e-01 -4.384416584611595669e-01 7.605105266002941677e-01
-1.038733708528057076e-01 -1.399117877324927428e-01 -9.811476718288405507e-01 4.355858892110806013e-01 -5.211176679828479763e-01 7.339627437658607922e-01
-1.782203083007467270e-01 6.283247515877550537e-02 -8.007044752374152807e-01 9.075176759748466715e-01 -1.473236010937161999e-01 3.933286467497541516e-01
2.025569534798006208e-02 7.138762195349768191e-02 -8.766339164349390423e-01 2.192731573856633032e-01 -5.749821017123093458e-01 7.882352854069767378e-01
-1.193877269796198848e-01 -6.594395525115433199e-02 -9.063065561866436859e-01 4.789495287146355307e-01 -4.384416584611595669e-01 7.605105266002941677e-01
1.642681533897653520e-02 1.464591739858454866e-01 -8.311489693432563275e-01 2.629075647865941057e-01 -4.346851439026598318e-01 8.613526792483474637e-01
3.737026008688366235e-02 1.201210529008902260e-02 -9.247066489178513704e-01 2.192731573856633032e-01 -5.749821017123093458e-01 7.882352854069767378e-01
-1.257933186493669642e-01 -1.457170177374881616e-02 -8.726558830798730737e-01 4.789495287146355307e-01 -4.384416584611595669e-01 7.605105266002941677e-01
1.859711620692942602e-01 -8.794037629496227748e-02 -1.009949194115904891e+00 8.659386491181410295e-02 -5.223262942460473734e-01 8.483376361442571678e-01
-1.789987835911731884e-01 -1.426296591833622340e-01 -9.164668304376798469e-01 6.482351681932239096e-01 -3.458059904303264487e-01 6.783873404626619141e-01
-1.727913960475314092e-01 6.353087381858676941e-02 -8.042080553339614468e-01 4.142606493842118653e-01 -5.566956826011071335e-01 7.200541863950644661e-01
-1.210424891256316193e-01 2.154384852620280094e-02 -8.548268672620841224e-01 4.789495287146355307e-01 -4.384416584611595669e-01 7.605105266002941677e-01
7.196232753903185342e-02 -8.000772816319894065e-02 -9.908197017617954572e-01 1.057688867283949619e-01 -5.393311249329849622e-01 8.354249698678851699e-01
2.220454286522216270e-01 -7.105140116006564144e-02 -1.004534137001073857e+00 1.260914954807796640e-01 -5.276123203187379485e-01 8.400751003424027363e-01
-9.553677848287873975e-03 -2.431876185508272115e-02 -9.381549663382957593e-01 2.192731573856633032e-01 -5.749821017123093458e-01 7.882352854069767378e-01
1.097291603335423665e-01 5.238090976720112535e-02 -9.101341110808329748e-01 1.057688867283949619e-01 -5.393311249329849622e-01 8.354249698678851699e-01
1.492122242395323428e-01 -4.676227719965890539e-02 -9.791374187978106880e-01 1.057688867283949619e-01 -5.393311249329849622e-01 8.354249698678851699e-01
-2.044512336487741555e-01 -9.533661769497840666e-02 -8.251591877075772352e-01 9.165544035303941905e-01 -3.494958268573292726e-01 1.943725607650294840e-01
-2.051422435892888141e-01 -9.939631395228849808e-02 -8.292003892706196755e-01 9.165544035303941905e-01 -3.494958268573292726e-01 1.943725607650294840e-01
8.028372096822350423e-02 9.379141979784186289e-02 -8.774576358625911787e-01 2.236885300485579597e-01 -5.118959048180460325e-01 8.294130600341601545e-01
-3.323765339652431927e-02 8.216557273452905485e-02 -8.540167150526500883e-01 2.236885300485579597e-01 -5.118959048180460325e-01 8.294130600341601545e-01
-1.314640958353466282e-01 -1.546337320536198545e-01 -9.752260290484464633e-01 4.355858892110806013e-01 -5.211176679828479763e-01 7.339627437658607922e-01
1.862120943019568431e-01 -6.081717001731663796e-02 -9.928952984809801263e-01 1.057688867283949619e-01 -5.393311249329849622e-01 8.354249698678851699e-01
-1.144370152882498715e-01 3.978504828955717332e-02 -8.373370052373184658e-01 8.476471573896495748e-01 -5.150405812196503508e-01 1.273871903535499228e-01
5.444276865909325469e-02 -1.333110556735777330e-01 -1.034547822009324269e+00 -2.344313652944455748e-02 -6.561294184506317739e-01 7.542841676671314666e-01
2.400966866969862779e-01 1.098246248305601164e-01 -8.241528254250423124e-01 -3.325418328689987990e-01 -8.014967230735980941e-01 4.970099921474527283e-01
6.370374995371191895e-02 -7.960828746964974945e-02 -9.895162557372798595e-01 1.057688867283949619e-01 -5.393311249329849622e-01 8.354249698678851699e-01
-8.158339029731213887e-02 -1.325254252589183057e-01 -9.862386248809229539e-01 3.590584336204286076e-01 -6.709247097447800234e-01 6.487966361656992698e-01
-1.692338903861408395e-01 -7.231382953753520693e-02 -8.785870473986271412e-01 4.789495287146355307e-01 -4.384416584611595669e-01 7.605105266002941677e-01
-6.404019984357230133e-02 3.576673737929485231e-02 -8.791681140546163675e-01 2.192731573856633032e-01 -5.749821017123093458e-01 7.882352854069767378e-01
-5.872015161030921110e-02 2.624166130111516004e-02 -8.875961712082909294e-01 2.192731573856633032e-01 -5.749821017123093458e-01 7.882352854069767378e-01
-1.052355897232531284e-01 -1.154604857934170975e-01 -9.507334006220333755e-01 3.579538917485016736e-01 -7.452726186922445928e-01 5.625279861568722728e-01
-1.336136335298194200e-01 6.920410316916149676e-03 -8.426092488618580623e-01 8.476471573896495748e-01 -5.150405812196503508e-01 1.273871903535499228e-01
-1.157483641517664807e-01 3.777022581753119307e-02 -8.367573095924553117e-01 8.476471573896495748e-01 -5.150405812196503508e-01 1.273871903535499228e-01
-1.709670514227426275e-01 -5.893205607137066981e-02 -8.603047020812161216e-01 8.476471573896495748e-01 -5.150405812196503508e-01 1.273871903535499228e-01
2.930976729479990023e-02 1.238668479640285362e-02 -9.221911230931231218e-01 2.192731573856633032e-01 -5.749821017123093458e-01 7.882352854069767378e-01
8.400963203732450535e-02 -7.203445523420250185e-02 -9.871975880083490029e-01 1.057688867283949619e-01 -5.393311249329849622e-01 8.354249698678851699e-01
-3.226988900242257555e-03 -1.023141488018376316e-01 -9.957008781566776268e-01 1.057688867283949619e-01 -5.393311249329849622e-01 8.354249698678851699e-01
5.594998761063307152e-02 2.439091429397937522e-02 -9.208454184494858641e-01 2.192731573856633032e-01 -5.749821017123093458e-01 7.882352854069767378e-01
-1.057584041195841207e-01 7.135336814293069541e-02 -8.373378155811485035e-01 4.237500439018919707e-01 -5.565829009377293302e-01 7.145987508223664575e-01
-6.849842087568672189e-02 -8.985494064151645921e-02 -9.521402166632519926e-01 4.789495287146355307e-01 -4.384416584611595669e-01 7.605105266002941677e-01
4.265060618559999434e-02 2.036953355191022941e-01 -7.868724948452480161e-01 2.432563819161612240e-01 -6.633547820090248681e-01 7.076628899715017296e-01
5.486651156686283420e-02 1.018198126538590043e-01 -8.656477909177949792e-01 2.236885300485579597e-01 -5.118959048180460325e-01 8.294130600341601545e-01
-1.019509064484151045e-01 -1.328295589578473990e-01 -9.752812967506633290e-01 3.590584336204286076e-01 -6.709247097447800234e-01 6.487966361656992698e-01
1.131720449362435058e-02 1.822801141519879708e-01 -7.961761331541702402e-01 2.432563819161612240e-01 -6.633547820090248681e-01 7.076628899715017296e-01
7.486607435196615014e-03 -3.631327959615304746e-02 -9.516447331293856893e-01 2.192731573856633032e-01 -5.749821017123093458e-01 7.882352854069767378e-01
-3.046457943450754657e-02 -1.135739255467029390e-01 -9.949310415781188466e-01 3.590584336204286076e-01 -6.709247097447800234e-01 6.487966361656992698e-01
1.063005600737357281e-01 -1.475834586237730062e-01 -1.045351222786724543e+00 -2.344313652944455748e-02 -6.561294184506317739e-01 7.542841676671314666e-01
-1.375248739325958813e-01 4.958293363519895858e-02 -8.354570518891647479e-01 4.237500439018919707e-01 -5.565829009377293302e-01 7.145987508223664575e-01
1.918413603659158417e-01 -7.453476497754117983e-03 -9.348413261303459842e-01 -3.829459715825920818e-01 -6.913561833268997425e-01 6.126818184215415686e-01
-1.715210623669117807e-01 -1.320319346361995827e-01 -9.182100310719446545e-01 6.482351681932239096e-01 -3.458059904303264487e-01 6.783873404626619141e-01
1.667649889103239302e-01 1.398549155171954772e-02 -9.263229279383288217e-01 -3.829459715825920818e-01 -6.913561833268997425e-01 6.126818184215415686e-01
-2.244236248238305753e-01 -1.529088605896253283e-01 -8.156227498620045591e-01 9.356573208740800451e-01 -6.351858050266583067e-02 3.471466085469729346e-01
1.684803655268935496e-01 -4.568672810102860499e-02 -9.808825099796498748e-01 1.057688867283949619e-01 -5.393311249329849622e-01 8.354249698678851699e-01
-4.093562598418695742e-02 -3.526286642620164030e-02 -9.374082925774191999e-01 2.192731573856633032e-01 -5.749821017123093458e-01 7.882352854069767378e-01
8.558367256025037340e-02 -9.521630260276585378e-02 -1.002596544571181525e+00 1.087001275412807083e-01 -5.546249366195074026e-01 8.249699763944847719e-01
-1.835528517283204764e-01 4.553652735763619869e-02 -7.948791275975530812e-01 9.075176759748466715e-01 -1.473236010937161999e-01 3.933286467497541516e-01
-1.980433522140677416e-01 2.177794544651099132e-02 -7.703444654002926661e-01 9.075176759748466715e-01 -1.473236010937161999e-01 3.933286467497541516e-01
-1.524142430411427329e-01 -2.489396585991109773e-02 -8.461371670657246158e-01 8.476471573896495748e-01 -5.150405812196503508e-01 1.273871903535499228e-01
1.212907700116973297e-01 -8.105975553674896195e-02 -9.977839961321567364e-01 1.087001275412807083e-01 -5.546249366195074026e-01 8.249699763944847719e-01
1.407553163163063614e-01 3.601064790303344643e-02 -9.177264125337577516e-01 -3.829459715825920818e-01 -6.913561833268997425e-01 6.126818184215415686e-01
1.088543731479738597e-01 7.408777015043634118e-02 -8.946989359401383846e-01 -3.829459715825920818e-01 -6.913561833268997425e-01 6.126818184215415686e-01
2.028955191524558499e-01 9.702979259688349414e-03 -9.174276703220960449e-01 -1.498801888424912132e-01 -5.415710434137960272e-01 8.271860334460632291e-01
7.839445207297017493e-02 -3.428453061287397435e-02 -9.621161966189110126e-01 1.057688867283949619e-01 -5.393311249329849622e-01 8.354249698678851699e-01
1.900077189639759467e-01 5.825761155432896549e-02 -8.885498291462835541e-01 -9.480028582854138630e-02 -4.100023059753370447e-01 9.071444289096047831e-01
-1.729628674399330268e-01 -1.060266230486171385e-01 -8.956743865495364609e-01 4.789495287146355307e-01 -4.384416584611595669e-01 7.605105266002941677e-01
-1.647078980732560038e-01 -5.580866727942899834e-03 -8.308504013630125806e-01 8.326290122190657117e-01 6.561581132275923212e-03 5.537922658038370027e-01
-1.920077313086891377e-02 2.681285422970876298e-02 -8.981731059648153659e-01 2.192731573856633032e-01 -5.749821017123093458e-01 7.882352854069767378e-01
2.386688862098105823e-01 -3.856942939265072673e-02 -9.789640952977993749e-01 1.301223128393530493e-01 -6.901828278344904755e-01 7.118397627722993226e-01
1.481576754287708131e-01 -2.390596225041556264e-02 -9.642483970953829031e-01 1.057688867283949619e-01 -5.393311249329849622e-01 8.354249698678851699e-01
1.964588969663269569e-02 -7.758495087559144632e-02 -9.826320956512730742e-01 1.057688867283949619e-01 -5.393311249329849622e-01 8.354249698678851699e-01
1.092355814414515541e-01 5.826379071928824288e-02 -9.062737690896485176e-01 1.057688867283949619e-01 -5.393311249329849622e-01 8.354249698678851699e-01
-7.153050871134830624e-02 9.308923854164650666e-03 -8.930617625494543521e-01 4.789495287146355307e-01 -4.384416584611595669e-01 7.605105266002941677e-01
2.640096578197375088e-01 -4.586466402055229541e-02 -9.906696025088149726e-01 1.301223128393530493e-01 -6.901828278344904755e-01 7.118397627722993226e-01
5.413707100082618129e-02 7.374853157514038582e-02 -8.843369405854367704e-01 2.192731573856633032e-01 -5.749821017123093458e-01 7.882352854069767378e-01
-1.463715659173345507e-01 -5.417889215999831254e-02 -8.825301716616991143e-01 4.789495287146355307e-01 -4.384416584611595669e-01 7.605105266002941677e-01
-1.573075378374815536e-01 -2.376303964796148971e-02 -8.260108847084891570e-01 -3.261578268915775736e-01 3.516175544058471880e-01 8.774885568433441474e-01
1.773115220109890977e-01 5.842788264743747906e-02 -8.901623859324733212e-01 -1.498801888424912132e-01 -5.415710434137960272e-01 8.271860334460632291e-01
2.679596172783983987e-01 -6.023117423808193455e-02 -1.004629966141760589e+00 1.260914954807796640e-01 -5.276123203187379485e-01 8.400751003424027363e-01
-1.315528792149271708e-01 1.419338873255176700e-02 -8.316474972818347355e-01 -3.261578268915775736e-01 3.516175544058471880e-01 8.774885568433441474e-01
2.425317535400449143e-01 4.913675116160254319e-02 -8.819325028005283729e-01 -6.468395500948658228e-01 -5.268214157920703133e-01 5.514143562656943498e-01
1.754835279766225054e-01 -7.583899309470250316e-02 -1.001414667247202850e+00 1.087001275412807083e-01 -5.546249366195074026e-01 8.249699763944847719e-01
-7.962366394951611581e-02 -1.287642792599438535e-01 -9.834337559690553565e-01 3.590584336204286076e-01 -6.709247097447800234e-01 6.487966361656992698e-01
5.957889849841267738e-02 -6.924640017142051629e-02 -9.823046335131051521e-01 1.057688867283949619e-01 -5.393311249329849622e-01 8.354249698678851699e-01
-6.204506358928293594e-03 1.602146918943042064e-01 -8.108369773664865221e-01 2.432563819161612240e-01 -6.633547820090248681e-01 7.076628899715017296e-01
-1.304725279271663485e-01 8.830105166151000495e-02 -8.094824605549918450e-01 4.237500439018919707e-01 -5.565829009377293302e-01 7.145987508223664575e-01
-1.182390800929155467e-01 8.707332964730828129e-02 -8.176930166611879880e-01 4.237500439018919707e-01 -5.565829009377293302e-01 7.145987508223664575e-01
-1.680419111072019578e-01 2.494235474288796633e-02 -8.244409533453744832e-01 8.490364073017183655e-01 -9.211708537955197451e-02 5.202418876420535909e-01
-8.953781614417850865e-02 -4.449929372880170181e-02 -9.127421906619339609e-01 4.789495287146355307e-01 -4.384416584611595669e-01 7.605105266002941677e-01
-2.087468738902552856e-01 -1.186602762062026334e-01 -8.468409174785861415e-01 9.165544035303941905e-01 -3.494958268573292726e-01 1.943725607650294840e-01
4.228578567702934859e-02 -2.166404628756195792e-03 -9.364166451836010152e-01 2.192731573856633032e-01 -5.749821017123093458e-01 7.882352854069767378e-01
