1.933324410610385291e-01 1.562535898533193648e-02 -7.864669235159816862e-01 -1.425456552907767016e-01 5.489308376204297124e-01 -8.236235011624282176e-01
1.868552758159602867e-01 -6.749467781531900967e-02 -8.292375748530541602e-01 1.074581178914819218e-02 -1.711425140929193414e-02 -9.997957941138237992e-01
1.131340734079339105e-01 -8.321963283939780298e-02 -8.365058022327692688e-01 3.749836606313526333e-01 3.363768148271257252e-01 -8.638506194396506910e-01
-1.505734123682859471e-01 1.283789280269823259e-02 -1.021803551702734403e+00 9.010815610179401247e-01 -2.212407976919972818e-01 -3.729671967212140338e-01
-4.871056063420063642e-02 1.410148584535245164e-01 -8.664827332972311336e-01 5.808733141156171564e-01 3.309097790673937167e-01 -7.436967870482619203e-01
-1.483293979749691627e-01 1.599481585926502691e-01 -1.016695222247170349e+00 9.702871132290722400e-01 -2.333687775325315461e-01 -6.388999588797245055e-02
-5.142502808747747428e-02 -2.357319835968182779e-03 -9.084419887348380573e-01 6.041320650722044050e-01 1.721308337090285967e-01 -7.780716059838120868e-01
7.265637256675272493e-02 -1.477038544334819126e-01 -8.732607225028929943e-01 4.154016141108403115e-01 -4.355292807237350072e-02 -9.085948720141617807e-01
-5.406102947288278504e-02 -1.070702121753878966e-01 -9.386334223527300624e-01 6.970243668950529825e-01 1.890724335311982640e-01 -6.916709093442783285e-01
-1.008162860539543737e-01 -1.982344678153721580e-03 -9.570241542792617961e-01 6.970243668950529825e-01 1.890724335311982640e-01 -6.916709093442783285e-01
2.390704376416178667e-01 -9.715907050381128451e-02 -8.453730383583670793e-01 -3.272568798552666913e-01 1.852403580388347903e-01 -9.266007470000441337e-01
-1.055804468174802030e-01 -9.683385216037480869e-02 -9.874556782533131516e-01 6.929605332585618838e-01 1.727519775117341005e-01 -6.999731806375116827e-01
9.500733360267753225e-02 -1.483549216542558169e-01 -8.630108504620753740e-01 4.154016141108403115e-01 -4.355292807237350072e-02 -9.085948720141617807e-01
-1.316310017015827893e-01 1.231747401696937222e-01 -9.841109550146028839e-01 8.308957426418184244e-01 2.578687238648498248e-01 -4.930679325529239154e-01
-7.131588561116639080e-02 -9.479634098834949230e-02 -9.526666921495940965e-01 6.970243668950529825e-01 1.890724335311982640e-01 -6.916709093442783285e-01
1.113907297395397844e-01 3.637661477943954225e-02 -7.856471359308939695e-01 4.171898953019492207e-01 2.064498097447574065e-01 -8.850599230076470203e-01
-2.763347031599593367e-03 2.247605638828679142e-01 -8.208002190329711789e-01 5.620990761115267631e-01 6.738759485708666064e-02 -8.243200474900176378e-01
1.697591249924035040e-01 -8.332111235055671139e-02 -8.272357330377473339e-01 -2.753080500086834137e-01 4.313925503671317031e-03 -9.613463827607430234e-01
1.567273709175293073e-01 -1.438762048097345647e-01 -8.383677923634432760e-01 1.796116397094030259e-01 4.053492748185040795e-01 -8.963434745035031570e-01
-1.219214616672243123e-01 -1.120306026506737301e-01 -1.007771774476467153e+00 7.125095643007492985e-01 2.027275492037276805e-01 -6.717377922774677712e-01
5.245004487275801985e-02 1.093695202024493746e-01 -7.985942599632461780e-01 6.090930167691291919e-01 2.437211294379437176e-01 -7.547222720899219306e-01
2.015950140954060055e-01 -1.330026965557364604e-01 -8.424713328042725546e-01 -3.278849840130946269e-01 4.879661014964873922e-01 -8.089378969049801915e-01
-1.938395183213392492e-01 -1.416738409891733601e-02 -1.057471023010088329e+00 6.455183030369546771e-01 1.359441343143877150e-02 -7.636238029080452128e-01
-1.425398481969767928e-01 -7.874796141411720407e-02 -1.019597057206284463e+00 7.125095643007492985e-01 2.027275492037276805e-01 -6.717377922774677712e-01
-1.507272126226501807e-01 -4.753026636661109028e-02 -1.019772186330748509e+00 6.970243668950529825e-01 1.890724335311982640e-01 -6.916709093442783285e-01
-1.273712325754540464e-01 6.709595610032804969e-02 -9.927402957998321398e-01 8.537001491572213663e-01 9.702024410304282975e-02 -5.116474641421805414e-01
1.202721165581906310e-01 -1.679298577332364872e-01 -8.565504636768137559e-01 1.796116397094030259e-01 4.053492748185040795e-01 -8.963434745035031570e-01
-1.249326178895577844e-01 3.764328937835348171e-04 -9.806823577583855256e-01 6.970243668950529825e-01 1.890724335311982640e-01 -6.916709093442783285e-01
-7.539939891021378050e-03 2.250110861395989981e-01 -8.240368700752775943e-01 5.620990761115267631e-01 6.738759485708666064e-02 -8.243200474900176378e-01
8.658246751147737064e-02 4.587404189397322612e-02 -8.027770292105130823e-01 7.025301551689034918e-01 6.930615904106359748e-01 1.616075894747402986e-01
3.006529444098581666e-02 -6.887065824205385045e-02 -8.669772423842940778e-01 3.749836606313526333e-01 3.363768148271257252e-01 -8.638506194396506910e-01
1.630246982219313578e-01 8.565154931248801506e-02 -7.577109691497648791e-01 2.743883788546214730e-01 3.768521345186118254e-02 -9.608802434417205163e-01
-4.800803486439887691e-02 1.289792937899454130e-02 -9.024139909234072388e-01 6.041320650722044050e-01 1.721308337090285967e-01 -7.780716059838120868e-01
-1.508224138453450047e-01 5.113359462861698235e-03 -1.017823010541712536e+00 9.010815610179401247e-01 -2.212407976919972818e-01 -3.729671967212140338e-01
1.920171394845065216e-01 6.435380007990523787e-02 -7.602471667219019569e-01 -2.498554557408435572e-01 4.494286067422842978e-01 -8.576632081873538649e-01
-9.105341791812762708e-02 -6.529912180548937128e-02 -9.644937472367872688e-01 6.970243668950529825e-01 1.890724335311982640e-01 -6.916709093442783285e-01
1.569640236763383823e-02 -4.577344795643673026e-02 -8.659305363090303853e-01 6.041320650722044050e-01 1.721308337090285967e-01 -7.780716059838120868e-01
-1.154442636717062515e-01 -1.585945018987703625e-01 -1.006274143298529822e+00 7.609629621348221740e-01 1.305060437289877993e-02 -6.486640517128252625e-01
-1.098216351576444400e-01 8.680878903619758391e-02 -9.597202204927864910e-01 8.537001491572213663e-01 9.702024410304282975e-02 -5.116474641421805414e-01
-7.250530696721135815e-02 -1.065979556078709423e-01 -9.570913623533480186e-01 6.970243668950529825e-01 1.890724335311982640e-01 -6.916709093442783285e-01
-7.847588997015103596e-02 -1.671838823949453080e-03 -9.344259673050604453e-01 6.970243668950529825e-01 1.890724335311982640e-01 -6.916709093442783285e-01
1.424073170462874516e-01 -4.564440913748635947e-02 -8.192337188431852990e-01 -2.753080500086834137e-01 4.313925503671317031e-03 -9.613463827607430234e-01
-7.891257062877249373e-02 -8.564587577491232506e-02 -9.578208395785072771e-01 6.970243668950529825e-01 1.890724335311982640e-01 -6.916709093442783285e-01
-1.236137468163987507e-01 6.828387112869167830e-02 -9.862455544166055521e-01 8.537001491572213663e-01 9.702024410304282975e-02 -5.116474641421805414e-01
9.908596594352424292e-02 -1.239086921023740129e-01 -8.584478677804379121e-01 3.749836606313526333e-01 3.363768148271257252e-01 -8.638506194396506910e-01
1.159683082304719948e-01 1.484359608990863319e-02 -7.974457766200101494e-01 7.025301551689034918e-01 6.930615904106359748e-01 1.616075894747402986e-01
-1.341158538100928332e-01 -8.043657368231138527e-02 -1.011658389202931829e+00 6.929605332585618838e-01 1.727519775117341005e-01 -6.999731806375116827e-01
2.597350082527201051e-02 -2.806718709169724046e-02 -8.540337930176771231e-01 6.041320650722044050e-01 1.721308337090285967e-01 -7.780716059838120868e-01
7.084172371528948964e-02 9.278765943985092801e-03 -8.188460630236797932e-01 3.749836606313526333e-01 3.363768148271257252e-01 -8.638506194396506910e-01
7.607696692527976534e-03 1.193190615536193766e-01 -8.315709569509904808e-01 6.090930167691291919e-01 2.437211294379437176e-01 -7.547222720899219306e-01
-1.251188640438342936e-01 6.989592383041441648e-02 -9.884512079847802557e-01 8.537001491572213663e-01 9.702024410304282975e-02 -5.116474641421805414e-01
-2.878198926200006228e-03 1.816080660935529834e-01 -8.244062227823563127e-01 5.620990761115267631e-01 6.738759485708666064e-02 -8.243200474900176378e-01
-1.290101405064696949e-01 -9.016748295231030719e-02 -1.009005396137578670e+00 6.929605332585618838e-01 1.727519775117341005e-01 -6.999731806375116827e-01
6.947846080483888187e-02 -4.715943959814160313e-02 -8.414144384958524014e-01 3.749836606313526333e-01 3.363768148271257252e-01 -8.638506194396506910e-01
1.974781795066894718e-01 -1.539816226847762481e-01 -8.534575365505266964e-01 -3.278849840130946269e-01 4.879661014964873922e-01 -8.089378969049801915e-01
1.763716424843376485e-01 8.793922544073951020e-02 -7.538099024064212061e-01 2.743883788546214730e-01 3.768521345186118254e-02 -9.608802434417205163e-01
-7.830693802693251826e-02 7.429834942059643232e-02 -9.134887964730442622e-01 6.970243668950529825e-01 1.890724335311982640e-01 -6.916709093442783285e-01
1.176807617183478483e-01 3.696493182887834045e-02 -7.825449779252746652e-01 4.171898953019492207e-01 2.064498097447574065e-01 -8.850599230076470203e-01
-1.282713775741575746e-01 9.823845907390106602e-02 -9.883368745406320155e-01 8.537001491572213663e-01 9.702024410304282975e-02 -5.116474641421805414e-01
-3.230750159692495627e-02 1.653502243261290860e-01 -8.458029615245475918e-01 5.620990761115267631e-01 6.738759485708666064e-02 -8.243200474900176378e-01
-1.376194008587089956e-01 2.057948695828505925e-01 -1.021506910035999471e+00 9.702871132290722400e-01 -2.333687775325315461e-01 -6.388999588797245055e-02
-8.295635731967442028e-02 -6.612015855345636239e-02 -9.565584516399341375e-01 6.970243668950529825e-01 1.890724335311982640e-01 -6.916709093442783285e-01
-2.025328354251851870e-01 -2.916638600614849045e-02 -1.065688399062361569e+00 6.835145786026919357e-01 2.069730207361064611e-01 -6.999785636181693471e-01
-9.567965507825799965e-02 6.534575640159388799e-02 -9.334432220040367323e-01 6.970243668950529825e-01 1.890724335311982640e-01 -6.916709093442783285e-01
8.482572391368080333e-02 6.442009380230646898e-02 -7.916276135830134786e-01 4.171898953019492207e-01 2.064498097447574065e-01 -8.850599230076470203e-01
4.415858163548356217e-03 -3.056205928994353005e-02 -8.713241137379492685e-01 6.041320650722044050e-01 1.721308337090285967e-01 -7.780716059838120868e-01
-1.390297636877473597e-01 1.115786017675850575e-02 -9.929177386180332299e-01 9.010815610179401247e-01 -2.212407976919972818e-01 -3.729671967212140338e-01
-1.212774746051892456e-02 6.455399134821020179e-02 -8.631270758085374251e-01 6.041320650722044050e-01 1.721308337090285967e-01 -7.780716059838120868e-01
-7.652642800826818525e-02 6.701055309969958240e-02 -9.136866687777962515e-01 6.970243668950529825e-01 1.890724335311982640e-01 -6.916709093442783285e-01
-9.618740004500095364e-02 7.252360140005710554e-02 -9.319927894445236838e-01 6.970243668950529825e-01 1.890724335311982640e-01 -6.916709093442783285e-01
-5.147421099620384105e-02 -1.239733694063069047e-01 -9.405894815734648917e-01 6.929605332585618838e-01 1.727519775117341005e-01 -6.999731806375116827e-01
-1.456857031400855818e-01 1.677455708750566488e-01 -1.005027191173218482e+00 9.702871132290722400e-01 -2.333687775325315461e-01 -6.388999588797245055e-02
-6.706598530311871920e-02 6.473893668959818104e-02 -9.057428402554973390e-01 6.041320650722044050e-01 1.721308337090285967e-01 -7.780716059838120868e-01
-8.189380102111250281e-02 -9.156621324283144292e-02 -9.624435044845761622e-01 6.970243668950529825e-01 1.890724335311982640e-01 -6.916709093442783285e-01
8.851910130301095248e-02 8.672603593502909228e-03 -8.114086326938263483e-01 3.749836606313526333e-01 3.363768148271257252e-01 -8.638506194396506910e-01
-1.501703713963964681e-01 1.557297374113316424e-01 -1.029245309021512345e+00 9.702871132290722400e-01 -2.333687775325315461e-01 -6.388999588797245055e-02
1.389776572114661823e-01 -9.494981099571597749e-02 -8.298551596753426240e-01 3.749836606313526333e-01 3.363768148271257252e-01 -8.638506194396506910e-01
9.387118189594430284e-02 -1.779679936822701480e-01 -8.663802516349373706e-01 1.796116397094030259e-01 4.053492748185040795e-01 -8.963434745035031570e-01
-1.517648688197386665e-02 8.562942287329761148e-02 -8.608317981722559686e-01 6.041320650722044050e-01 1.721308337090285967e-01 -7.780716059838120868e-01
1.887902641421143890e-01 5.552542487878423666e-02 -7.639333129002222611e-01 -2.498554557408435572e-01 4.494286067422842978e-01 -8.576632081873538649e-01
-1.579903925834457712e-01 1.979057256317004292e-03 -1.033281469089736282e+00 9.010815610179401247e-01 -2.212407976919972818e-01 -3.729671967212140338e-01
-8.584627113360215889e-02 1.005165148398727004e-01 -9.171172560013285402e-01 8.537001491572213663e-01 9.702024410304282975e-02 -5.116474641421805414e-01
1.844910475042644757e-02 -1.787914458720155086e-01 -8.991424321237784234e-01 4.502264463239262771e-01 6.338974984397777179e-02 -8.906614882463742555e-01
1.357038137857766863e-02 1.404988300077949226e-01 -8.180670631460307263e-01 5.808733141156171564e-01 3.309097790673937167e-01 -7.436967870482619203e-01
2.028286040910515231e-01 9.163015557545889367e-02 -7.491035488779244078e-01 -2.498554557408435572e-01 4.494286067422842978e-01 -8.576632081873538649e-01
1.497605361442631289e-01 6.075462920560265045e-02 -7.624751192185407200e-01 2.743883788546214730e-01 3.768521345186118254e-02 -9.608802434417205163e-01
5.192030305937096052e-02 1.289832138104563819e-01 -7.926879687562502497e-01 6.090930167691291919e-01 2.437211294379437176e-01 -7.547222720899219306e-01
3.202410501980432894e-02 7.773604836346881264e-02 -8.252942045060502885e-01 6.090930167691291919e-01 2.437211294379437176e-01 -7.547222720899219306e-01
1.670095172238356962e-01 -2.297509399427594134e-02 -8.118525201606945352e-01 -1.416157716092086016e-01 6.335608498636243757e-01 -7.606218658121854936e-01
3.535578498732187824e-02 -1.665584019726693288e-01 -8.897255164206910871e-01 4.502264463239262771e-01 6.338974984397777179e-02 -8.906614882463742555e-01
-1.298782437321449601e-01 6.064457734630548935e-02 -9.981466553223209415e-01 8.537001491572213663e-01 9.702024410304282975e-02 -5.116474641421805414e-01
-7.954870933347725492e-02 -1.067572566465319339e-01 -9.641338147998288477e-01 6.929605332585618838e-01 1.727519775117341005e-01 -6.999731806375116827e-01
1.361335576295503447e-01 9.198456933895048093e-02 -7.651416092424666582e-01 2.743883788546214730e-01 3.768521345186118254e-02 -9.608802434417205163e-01
-4.667170934250500225e-02 -7.133874501125522793e-02 -9.214194966618091120e-01 6.970243668950529825e-01 1.890724335311982640e-01 -6.916709093442783285e-01
5.910761063400513105e-02 1.662614660450066964e-02 -8.210786390387628808e-01 3.749836606313526333e-01 3.363768148271257252e-01 -8.638506194396506910e-01
2.384124612825577194e-01 -9.499729448283787681e-02 -8.447084851984402176e-01 -3.272568798552666913e-01 1.852403580388347903e-01 -9.266007470000441337e-01
-9.403391021455910492e-02 1.134912834814159194e-01 -9.258183735346845467e-01 8.308957426418184244e-01 2.578687238648498248e-01 -4.930679325529239154e-01
1.570358563937510887e-01 -1.040987478353878198e-01 -8.255789117715139902e-01 3.749836606313526333e-01 3.363768148271257252e-01 -8.638506194396506910e-01
-1.382715825953702848e-01 2.040593644633544590e-01 -1.025072269890256571e+00 9.702871132290722400e-01 -2.333687775325315461e-01 -6.388999588797245055e-02
4.361264021764822002e-02 -2.067355304060201210e-02 -8.423289738485425504e-01 3.749836606313526333e-01 3.363768148271257252e-01 -8.638506194396506910e-01
1.773803119520899751e-01 6.412269272294940370e-02 -7.561042526708525724e-01 -2.498554557408435572e-01 4.494286067422842978e-01 -8.576632081873538649e-01
-1.016692439961219691e-01 1.217837442183371775e-02 -9.540127956648978280e-01 6.970243668950529825e-01 1.890724335311982640e-01 -6.916709093442783285e-01
-2.796483344057639365e-03 2.138207417129896759e-01 -8.217171374035873166e-01 5.620990761115267631e-01 6.738759485708666064e-02 -8.243200474900176378e-01
-6.212765992035555740e-02 1.381949186425674159e-01 -8.782170593558806804e-01 5.808733141156171564e-01 3.309097790673937167e-01 -7.436967870482619203e-01
-1.070248245031744788e-01 -1.435717002125882213e-01 -9.960948555868963661e-01 7.609629621348221740e-01 1.305060437289877993e-02 -6.486640517128252625e-01
1.071406943810030987e-01 2.460709861932914438e-02 -8.009421697375391780e-01 7.025301551689034918e-01 6.930615904106359748e-01 1.616075894747402986e-01
1.596955528655597811e-01 -2.328113827800855004e-02 -8.240343727221551839e-01 7.025301551689034918e-01 6.930615904106359748e-01 1.616075894747402986e-01
-6.636978253244336934e-02 8.884381878985145309e-02 -8.998696123484677400e-01 6.041320650722044050e-01 1.721308337090285967e-01 -7.780716059838120868e-01
-1.286103046223769086e-01 6.335199279344741474e-02 -9.955176695284471133e-01 8.537001491572213663e-01 9.702024410304282975e-02 -5.116474641421805414e-01
-1.144477483765089787e-01 -9.748299280353461826e-02 -9.963943497906992963e-01 6.929605332585618838e-01 1.727519775117341005e-01 -6.999731806375116827e-01
6.328257426099767602e-02 -2.909913694077474050e-02 -8.370714296686244671e-01 3.749836606313526333e-01 3.363768148271257252e-01 -8.638506194396506910e-01
-7.705445416153572369e-02 -1.534727551552976244e-01 -9.635723904926869476e-01 6.705239079780588307e-01 -1.171888512572325930e-01 -7.325738611026478830e-01
-2.350723588169686684e-01 -7.544196270226980090e-03 -1.092208697204549273e+00 6.455183030369546771e-01 1.359441343143877150e-02 -7.636238029080452128e-01
2.186101490675891948e-02 -1.556908417568322600e-01 -8.961010636891534320e-01 4.154016141108403115e-01 -4.355292807237350072e-02 -9.085948720141617807e-01
-2.122921134868412107e-02 1.124036193547278822e-01 -8.570767614147798419e-01 6.090930167691291919e-01 2.437211294379437176e-01 -7.547222720899219306e-01
1.327491514802125183e-01 1.968345548869920858e-02 -7.793866281535906104e-01 4.270433504620715914e-01 2.066668072354118646e-01 -8.802969996616193393e-01
-1.577840098512991451e-01 -6.318206409659705980e-02 -1.031068757701186334e+00 7.125095643007492985e-01 2.027275492037276805e-01 -6.717377922774677712e-01
-9.708723270153905155e-03 1.987578333132847819e-01 -8.276619362227474186e-01 5.620990761115267631e-01 6.738759485708666064e-02 -8.243200474900176378e-01
1.808804095301786152e-01 9.320067757959292487e-02 -7.523160302646447750e-01 2.743883788546214730e-01 3.768521345186118254e-02 -9.608802434417205163e-01
-7.773958117920587441e-02 -1.113381949483370909e-01 -9.634733776962246532e-01 6.929605332585618838e-01 1.727519775117341005e-01 -6.999731806375116827e-01
5.878280424843437824e-02 3.576548711786858847e-02 -8.144375355225462743e-01 6.041320650722044050e-01 1.721308337090285967e-01 -7.780716059838120868e-01
1.945075570208834037e-01 -1.393637511624649106e-01 -8.434356939391174368e-01 -3.278849840130946269e-01 4.879661014964873922e-01 -8.089378969049801915e-01
2.510423098183763718e-02 1.315660586331192372e-01 -8.130330706551364139e-01 5.808733141156171564e-01 3.309097790673937167e-01 -7.436967870482619203e-01
2.937868159208771243e-02 1.610776361058295636e-01 -8.040887908694586139e-01 5.620990761115267631e-01 6.738759485708666064e-02 -8.243200474900176378e-01
1.724349572483870607e-01 -1.081659870177107963e-01 -8.281135197690855376e-01 -2.753080500086834137e-01 4.313925503671317031e-03 -9.613463827607430234e-01
-2.600191105190508001e-02 1.334664390496782815e-01 -8.521045580369023265e-01 5.808733141156171564e-01 3.309097790673937167e-01 -7.436967870482619203e-01
1.981480280793868065e-01 8.481451532822267825e-02 -7.513114974406825963e-01 -2.498554557408435572e-01 4.494286067422842978e-01 -8.576632081873538649e-01
-1.549509047144089491e-01 -8.232261341570690227e-02 -1.033840229201785421e+00 7.125095643007492985e-01 2.027275492037276805e-01 -6.717377922774677712e-01
1.788626980592245563e-01 -8.107541469386526922e-02 -8.290910075141619817e-01 1.074581178914819218e-02 -1.711425140929193414e-02 -9.997957941138237992e-01
-1.754389237997073803e-01 -4.267536078477241791e-03 -1.042711306875073740e+00 4.510494342155334513e-01 -4.299116089091857551e-02 -8.914629369632246503e-01
-3.353095038624559661e-03 -2.501828819073194723e-02 -8.761298665395192975e-01 6.041320650722044050e-01 1.721308337090285967e-01 -7.780716059838120868e-01
3.600200529513097880e-02 8.709099105811402008e-02 -8.190628944567936998e-01 6.090930167691291919e-01 2.437211294379437176e-01 -7.547222720899219306e-01
-3.204047421085391006e-02 1.208587982929374971e-01 -8.624308522279661160e-01 5.808733141156171564e-01 3.309097790673937167e-01 -7.436967870482619203e-01
5.814572387117240837e-02 2.427212916097945192e-02 -8.185188915669527887e-01 3.749836606313526333e-01 3.363768148271257252e-01 -8.638506194396506910e-01
5.073244126293749434e-02 -9.728250574133877338e-02 -8.690693221425221937e-01 3.749836606313526333e-01 3.363768148271257252e-01 -8.638506194396506910e-01
1.817270874919006962e-01 1.050752957009639249e-01 -7.516085371961463979e-01 2.743883788546214730e-01 3.768521345186118254e-02 -9.608802434417205163e-01
-1.574040899609672750e-01 2.655088975624890837e-02 -1.035072535353212642e+00 4.510494342155334513e-01 -4.299116089091857551e-02 -8.914629369632246503e-01
9.695907409542438293e-02 -6.017023488860758634e-02 -8.345518502699286190e-01 3.749836606313526333e-01 3.363768148271257252e-01 -8.638506194396506910e-01
1.240685127709676011e-01 8.051397976092094372e-03 -8.035298122075968941e-01 7.025301551689034918e-01 6.930615904106359748e-01 1.616075894747402986e-01
1.710897394600431332e-01 6.689170578977761406e-02 -7.561436719828982245e-01 2.743883788546214730e-01 3.768521345186118254e-02 -9.608802434417205163e-01
-1.317957189281332431e-01 1.651199259322276847e-01 -9.756496617691622353e-01 8.250570459304505944e-01 -3.546180583407068654e-01 -4.399169281343756066e-01
1.060982126879417842e-01 2.699943764903505600e-02 -7.903291930000615473e-01 4.171898953019492207e-01 2.064498097447574065e-01 -8.850599230076470203e-01
-1.641669150915771314e-01 -8.226425853518883058e-02 -1.043598002952005332e+00 7.125095643007492985e-01 2.027275492037276805e-01 -6.717377922774677712e-01
2.294624416569952807e-02 1.423150484682412231e-01 -8.100088613609741639e-01 5.620990761115267631e-01 6.738759485708666064e-02 -8.243200474900176378e-01
-3.127098993609141175e-02 1.920584465801779550e-01 -8.429127914810111699e-01 5.620990761115267631e-01 6.738759485708666064e-02 -8.243200474900176378e-01
-1.300975084584381491e-01 -3.260430182436813845e-02 -9.949027076658125690e-01 6.970243668950529825e-01 1.890724335311982640e-01 -6.916709093442783285e-01
-1.718364818837215049e-02 1.677483748247413364e-01 -8.352940461478348677e-01 5.620990761115267631e-01 6.738759485708666064e-02 -8.243200474900176378e-01
1.630450637602244568e-01 -9.700080924689714890e-02 -8.253743624181297811e-01 -2.753080500086834137e-01 4.313925503671317031e-03 -9.613463827607430234e-01
-1.255973177881427316e-01 1.508143361643054514e-01 -9.594880809198834681e-01 8.308957426418184244e-01 2.578687238648498248e-01 -4.930679325529239154e-01
2.342187528606620162e-01 -1.270958826534858421e-01 -8.521315417538660730e-01 -3.278849840130946269e-01 4.879661014964873922e-01 -8.089378969049801915e-01
-1.106257002417238315e-03 1.371726452854878930e-01 -8.310104223156278280e-01 5.808733141156171564e-01 3.309097790673937167e-01 -7.436967870482619203e-01
-5.509454449645559415e-02 1.390413770907458213e-01 -8.723471261802361321e-01 5.808733141156171564e-01 3.309097790673937167e-01 -7.436967870482619203e-01
8.974393506761514649e-02 -1.312630603166752008e-01 -8.653668277905020023e-01 3.749836606313526333e-01 3.363768148271257252e-01 -8.638506194396506910e-01
6.980557805399491972e-03 2.390710564267453930e-01 -8.129860337538900028e-01 5.620990761115267631e-01 6.738759485708666064e-02 -8.243200474900176378e-01
5.073341927527543621e-02 1.339805888504954079e-01 -7.919407337295661931e-01 5.808733141156171564e-01 3.309097790673937167e-01 -7.436967870482619203e-01
1.926783498747649745e-02 4.456316502822604830e-02 -8.431725621904374579e-01 6.041320650722044050e-01 1.721308337090285967e-01 -7.780716059838120868e-01
1.278570580543606783e-01 3.337239805702837958e-02 -7.785461003681265479e-01 4.270433504620715914e-01 2.066668072354118646e-01 -8.802969996616193393e-01
-1.644704858400876935e-01 8.394034252846550859e-03 -1.037772265725850351e+00 4.510494342155334513e-01 -4.299116089091857551e-02 -8.914629369632246503e-01
-1.485734174025613030e-01 -7.438431508005084736e-02 -1.024679910185832377e+00 7.125095643007492985e-01 2.027275492037276805e-01 -6.717377922774677712e-01
-1.109229419740643402e-01 -1.765790311685775174e-02 -9.714940434850912743e-01 6.970243668950529825e-01 1.890724335311982640e-01 -6.916709093442783285e-01
-1.522370547486384118e-01 1.014790084372337309e-01 -1.027709889556009060e+00 8.537001491572213663e-01 9.702024410304282975e-02 -5.116474641421805414e-01
1.016508873269652974e-01 -1.160065858222591173e-01 -8.542574569975261989e-01 3.749836606313526333e-01 3.363768148271257252e-01 -8.638506194396506910e-01
-1.341885778351430136e-01 1.586135242274913648e-01 -9.748926042047155738e-01 8.250570459304505944e-01 -3.546180583407068654e-01 -4.399169281343756066e-01
-1.492981545929426279e-01 -7.698384984097694783e-02 -1.026233164302094103e+00 7.125095643007492985e-01 2.027275492037276805e-01 -6.717377922774677712e-01
-8.679097951524197829e-02 7.320768173112077171e-02 -9.223366441396826376e-01 6.970243668950529825e-01 1.890724335311982640e-01 -6.916709093442783285e-01
-1.478759757479013726e-01 -4.264551359416437343e-02 -1.015563604428505462e+00 6.970243668950529825e-01 1.890724335311982640e-01 -6.916709093442783285e-01
-1.032429644762967308e-01 1.308028827658212767e-01 -9.322832919644870042e-01 8.308957426418184244e-01 2.578687238648498248e-01 -4.930679325529239154e-01
4.198158831838858657e-02 4.802851243024684920e-03 -8.343325907892598092e-01 6.041320650722044050e-01 1.721308337090285967e-01 -7.780716059838120868e-01
2.176411793071976741e-01 -1.130343324336099131e-01 -8.409783375883941314e-01 -3.272568798552666913e-01 1.852403580388347903e-01 -9.266007470000441337e-01
-3.694068641672258041e-02 -1.088236635147973863e-01 -9.218598862516899084e-01 6.970243668950529825e-01 1.890724335311982640e-01 -6.916709093442783285e-01
4.612053864614121257e-02 2.486306509924001568e-02 -8.266810405997877531e-01 6.041320650722044050e-01 1.721308337090285967e-01 -7.780716059838120868e-01
1.094883569530980955e-01 2.320846490465950165e-02 -8.051496729035558797e-01 7.025301551689034918e-01 6.930615904106359748e-01 1.616075894747402986e-01
-1.595324642895755429e-01 -4.112285181211089435e-02 -1.026894084099584381e+00 6.970243668950529825e-01 1.890724335311982640e-01 -6.916709093442783285e-01
-1.135936576281419697e-01 -3.985186672329988494e-02 -9.802522846007339918e-01 6.970243668950529825e-01 1.890724335311982640e-01 -6.916709093442783285e-01
1.227436890910500733e-01 5.351012516909246786e-02 -7.762989388377024014e-01 4.270433504620715914e-01 2.066668072354118646e-01 -8.802969996616193393e-01
3.808330601338786453e-02 1.179079566671998175e-01 -8.074315278971785359e-01 6.090930167691291919e-01 2.437211294379437176e-01 -7.547222720899219306e-01
-1.092179618206264996e-01 -1.465918328161838480e-01 -9.987284389043454835e-01 7.609629621348221740e-01 1.305060437289877993e-02 -6.486640517128252625e-01
-6.050749595600563718e-02 1.300702180052654700e-01 -8.805667170549964506e-01 5.808733141156171564e-01 3.309097790673937167e-01 -7.436967870482619203e-01
-7.429085176297976767e-02 6.468881094329079207e-02 -9.120684517003502245e-01 6.970243668950529825e-01 1.890724335311982640e-01 -6.916709093442783285e-01
6.233385774987160871e-02 -1.089223341177730370e-01 -8.685657938488661189e-01 3.749836606313526333e-01 3.363768148271257252e-01 -8.638506194396506910e-01
7.895842656896320810e-02 -2.417699420517191444e-02 -8.283501496140116549e-01 3.749836606313526333e-01 3.363768148271257252e-01 -8.638506194396506910e-01
-1.495457970511480383e-01 1.511820885853346064e-01 -1.003148959155693687e+00 9.702871132290722400e-01 -2.333687775325315461e-01 -6.388999588797245055e-02
2.187552811663426300e-02 1.015258988843778520e-02 -8.487603897356013061e-01 6.041320650722044050e-01 1.721308337090285967e-01 -7.780716059838120868e-01
1.170287618404833863e-01 -4.324018797224503212e-03 -8.117804493869862359e-01 -2.753080500086834137e-01 4.313925503671317031e-03 -9.613463827607430234e-01
-1.262405734952209979e-01 3.753521436713976728e-02 -9.776661115828423343e-01 9.010815610179401247e-01 -2.212407976919972818e-01 -3.729671967212140338e-01
-5.694218316078467762e-02 9.258922155707835500e-02 -8.917209865289255077e-01 6.041320650722044050e-01 1.721308337090285967e-01 -7.780716059838120868e-01
-1.101343238196949292e-01 1.125942605182635864e-01 -9.534191935993816536e-01 8.308957426418184244e-01 2.578687238648498248e-01 -4.930679325529239154e-01
1.878677854071154063e-01 -1.392559613997740864e-01 -8.406793894462221139e-01 -3.278849840130946269e-01 4.879661014964873922e-01 -8.089378969049801915e-01
2.645725512056266160e-01 -1.053962075296600992e-01 -8.560265936879041249e-01 -3.272568798552666913e-01 1.852403580388347903e-01 -9.266007470000441337e-01
-9.688163203650933253e-02 5.367550679995555102e-02 -9.378446355654830313e-01 6.970243668950529825e-01 1.890724335311982640e-01 -6.916709093442783285e-01
-2.658801623956374982e-02 3.998339869299696175e-02 -8.797904118533692586e-01 6.041320650722044050e-01 1.721308337090285967e-01 -7.780716059838120868e-01
-5.500173077852310577e-02 -1.301946232453367880e-01 -9.456170540434926108e-01 6.929605332585618838e-01 1.727519775117341005e-01 -6.999731806375116827e-01
-1.091484020499965124e-01 -3.357128861230090910e-02 -9.740557891509887822e-01 6.970243668950529825e-01 1.890724335311982640e-01 -6.916709093442783285e-01
-1.817228844802898924e-01 -4.226777142643867863e-02 -1.049241793219075847e+00 6.835145786026919357e-01 2.069730207361064611e-01 -6.999785636181693471e-01
1.898208804573336406e-01 -1.387416304554933396e-03 -7.981181547848621438e-01 -1.416157716092086016e-01 6.335608498636243757e-01 -7.606218658121854936e-01
-8.014291098922349255e-02 5.193032570551426447e-02 -9.214534144645599723e-01 6.970243668950529825e-01 1.890724335311982640e-01 -6.916709093442783285e-01
-1.486863516679373109e-01 4.252099958219519860e-03 -1.012151434060797772e+00 9.010815610179401247e-01 -2.212407976919972818e-01 -3.729671967212140338e-01
1.349112141680709406e-02 1.422535064854090481e-01 -8.173482223251722356e-01 5.808733141156171564e-01 3.309097790673937167e-01 -7.436967870482619203e-01
-6.933953728348067613e-02 1.359408573143442156e-01 -8.848529331783667740e-01 5.808733141156171564e-01 3.309097790673937167e-01 -7.436967870482619203e-01
1.091732589657475397e-02 -8.882273743095188412e-02 -8.830582543932782302e-01 3.749836606313526333e-01 3.363768148271257252e-01 -8.638506194396506910e-01
9.607725851366397118e-02 -1.156283602621927670e-02 -8.160072834073116566e-01 3.749836606313526333e-01 3.363768148271257252e-01 -8.638506194396506910e-01
3.676103973676421444e-02 -1.906178122990880297e-01 -8.916881717290625620e-01 4.114167075092787784e-01 2.474145075209765177e-01 -8.772242325941396190e-01
-1.591382628694170132e-01 1.020511027537794463e-01 -1.039116293536955560e+00 8.537001491572213663e-01 9.702024410304282975e-02 -5.116474641421805414e-01
2.613321323627123549e-01 -1.258203739999088078e-01 -8.623519369796207590e-01 -3.278849840130946269e-01 4.879661014964873922e-01 -8.089378969049801915e-01
2.069280866633569083e-01 4.294211108623621070e-02 -7.758110931301887003e-01 -2.498554557408435572e-01 4.494286067422842978e-01 -8.576632081873538649e-01
-5.665505980497865385e-02 1.035130708991468251e-01 -8.885379389854590748e-01 6.090930167691291919e-01 2.437211294379437176e-01 -7.547222720899219306e-01
3.317358530836382602e-02 1.019689404271733185e-01 -8.165410399522922136e-01 6.090930167691291919e-01 2.437211294379437176e-01 -7.547222720899219306e-01
-1.361093539809145603e-01 1.383613604328268187e-01 -9.837152477879801404e-01 8.308957426418184244e-01 2.578687238648498248e-01 -4.930679325529239154e-01
6.084462078856118367e-02 1.580670111181897187e-03 -8.261832241774874630e-01 3.749836606313526333e-01 3.363768148271257252e-01 -8.638506194396506910e-01
-7.105691618243910324e-02 1.155407197070082437e-01 -8.952714057819270987e-01 5.808733141156171564e-01 3.309097790673937167e-01 -7.436967870482619203e-01
1.616777931277368213e-02 -1.923892921688181296e-02 -8.596943715104615746e-01 6.041320650722044050e-01 1.721308337090285967e-01 -7.780716059838120868e-01
1.240764745453956930e-01 2.275816678070584603e-04 -8.137783315353191993e-01 -2.753080500086834137e-01 4.313925503671317031e-03 -9.613463827607430234e-01
9.438935450333944821e-02 2.919338297419173112e-02 -8.051466254333914385e-01 -2.753080500086834137e-01 4.313925503671317031e-03 -9.613463827607430234e-01
-6.066808772057140364e-02 -1.532116202012790383e-02 -9.202114597940087570e-01 6.970243668950529825e-01 1.890724335311982640e-01 -6.916709093442783285e-01
-1.038513394773705155e-02 5.914684813711309358e-02 -8.629702359621134189e-01 6.041320650722044050e-01 1.721308337090285967e-01 -7.780716059838120868e-01
3.228103677785095632e-02 -1.739187020064718869e-01 -8.918036353941011241e-01 4.502264463239262771e-01 6.338974984397777179e-02 -8.906614882463742555e-01
-8.822831425128618843e-02 9.856337499652345624e-02 -9.214621317703546310e-01 8.537001491572213663e-01 9.702024410304282975e-02 -5.116474641421805414e-01
1.734969853440024301e-01 -1.047456595057673495e-01 -8.284023124986907849e-01 -2.753080500086834137e-01 4.313925503671317031e-03 -9.613463827607430234e-01
6.211945465759701607e-02 -4.195439347164060112e-02 -8.425820596145303654e-01 3.749836606313526333e-01 3.363768148271257252e-01 -8.638506194396506910e-01
-1.806547998191413221e-02 2.194108885371197915e-01 -8.316719873176461331e-01 5.620990761115267631e-01 6.738759485708666064e-02 -8.243200474900176378e-01
-1.195808775926669315e-01 1.341937066846441429e-01 -9.580418420074539032e-01 8.308957426418184244e-01 2.578687238648498248e-01 -4.930679325529239154e-01
-2.448720790717382606e-02 1.020745390303347128e-01 -8.630416550473529735e-01 6.090930167691291919e-01 2.437211294379437176e-01 -7.547222720899219306e-01
-2.378960158098580510e-02 1.919779927204608161e-01 -8.378178530488800124e-01 5.620990761115267631e-01 6.738759485708666064e-02 -8.243200474900176378e-01
-7.771606308937689667e-02 -1.098149185697521596e-02 -9.362051095056922456e-01 6.970243668950529825e-01 1.890724335311982640e-01 -6.916709093442783285e-01
-9.839931532625492694e-02 1.053275522517215929e-01 -9.371501270578537213e-01 8.537001491572213663e-01 9.702024410304282975e-02 -5.116474641421805414e-01
2.175040539542903162e-01 -9.495631458691008997e-02 -8.373158608154323002e-01 -3.272568798552666913e-01 1.852403580388347903e-01 -9.266007470000441337e-01
-1.469583670804998909e-01 -5.823442811384069162e-02 -1.018892795366426185e+00 6.929605332585618838e-01 1.727519775117341005e-01 -6.999731806375116827e-01
-7.275465322512068844e-02 6.289300992104442101e-02 -9.110112562422448823e-01 6.970243668950529825e-01 1.890724335311982640e-01 -6.916709093442783285e-01
-1.351270089227996074e-01 2.092868094491464326e-01 -1.017500469456751988e+00 8.250570459304505944e-01 -3.546180583407068654e-01 -4.399169281343756066e-01
-1.404738475639003004e-01 1.408008589778673714e-01 -9.817776143474498118e-01 1.638019592885338604e-01 8.523558582782931881e-01 -4.966471675061797653e-01
-9.127265125055515627e-02 -8.646078098833066827e-02 -9.704993451560828266e-01 6.970243668950529825e-01 1.890724335311982640e-01 -6.916709093442783285e-01
1.029663806880549287e-02 2.505489538877452849e-01 -8.097865075937341617e-01 5.620990761115267631e-01 6.738759485708666064e-02 -8.243200474900176378e-01
4.717296389602413514e-02 1.285270213256464733e-01 -7.966665910803976125e-01 6.090930167691291919e-01 2.437211294379437176e-01 -7.547222720899219306e-01
1.609507127961439243e-01 2.005840946825053484e-02 -7.779080215664619935e-01 -1.425456552907767016e-01 5.489308376204297124e-01 -8.236235011624282176e-01
-1.635552038460487134e-01 -4.915903172163523654e-02 -1.033083567894249155e+00 6.929605332585618838e-01 1.727519775117341005e-01 -6.999731806375116827e-01
2.037617321482759203e-01 6.439389981065893331e-02 -7.636476024156950704e-01 -2.498554557408435572e-01 4.494286067422842978e-01 -8.576632081873538649e-01
6.519936612228921513e-02 -8.568742745336092870e-02 -8.582744280553147309e-01 3.749836606313526333e-01 3.363768148271257252e-01 -8.638506194396506910e-01
4.343817542053342307e-02 -1.710918674073344525e-01 -8.859625484166333553e-01 4.502264463239262771e-01 6.338974984397777179e-02 -8.906614882463742555e-01
-1.686066664065178355e-01 -2.635755015609038063e-02 -1.038189120911135355e+00 4.510494342155334513e-01 -4.299116089091857551e-02 -8.914629369632246503e-01
-1.609263110566771238e-01 -3.734072706433223809e-02 -1.027264852375280313e+00 6.970243668950529825e-01 1.890724335311982640e-01 -6.916709093442783285e-01
1.758605211970205029e-01 -1.286939982042496072e-02 -8.050828877539665251e-01 -1.416157716092086016e-01 6.335608498636243757e-01 -7.606218658121854936e-01
-2.949648169396243760e-02 -5.830879230884580822e-02 -9.037936191183055801e-01 6.041320650722044050e-01 1.721308337090285967e-01 -7.780716059838120868e-01
6.173534518819653871e-02 -1.505764988968506801e-01 -8.781160221077994876e-01 4.154016141108403115e-01 -4.355292807237350072e-02 -9.085948720141617807e-01
9.450280544803488269e-04 -6.362877429852753508e-02 -8.813342990780304032e-01 6.041320650722044050e-01 1.721308337090285967e-01 -7.780716059838120868e-01
-9.593007838017421351e-02 3.714304182358425799e-02 -9.414049664500258041e-01 6.970243668950529825e-01 1.890724335311982640e-01 -6.916709093442783285e-01
3.400536908554126214e-02 5.524807960159826975e-02 -8.293658378738791859e-01 6.041320650722044050e-01 1.721308337090285967e-01 -7.780716059838120868e-01
3.933010135621940045e-02 7.979271729401206381e-02 -8.187337978415265560e-01 6.090930167691291919e-01 2.437211294379437176e-01 -7.547222720899219306e-01
-1.068222509152105815e-01 5.093228271257509154e-02 -9.486120706762855015e-01 6.970243668950529825e-01 1.890724335311982640e-01 -6.916709093442783285e-01
-1.221376862147887377e-01 5.147777413856151341e-02 -9.760242164375902973e-01 9.010815610179401247e-01 -2.212407976919972818e-01 -3.729671967212140338e-01
3.721775792920228865e-02 -8.738095850195393144e-02 -8.710802421643654148e-01 3.749836606313526333e-01 3.363768148271257252e-01 -8.638506194396506910e-01
-9.389809019156905578e-02 5.147513058020397603e-02 -9.354394876019828109e-01 6.970243668950529825e-01 1.890724335311982640e-01 -6.916709093442783285e-01
-1.126248970673316696e-01 2.481992711077552882e-03 -9.677038089841644153e-01 6.970243668950529825e-01 1.890724335311982640e-01 -6.916709093442783285e-01
-1.328912776563793419e-01 -7.710621768539386613e-03 -9.909132620725711327e-01 6.970243668950529825e-01 1.890724335311982640e-01 -6.916709093442783285e-01
1.558770014519669511e-01 3.201014059503127368e-02 -7.690642849847961759e-01 -1.425456552907767016e-01 5.489308376204297124e-01 -8.236235011624282176e-01
1.915409190565924014e-01 6.033566403105060372e-02 -7.622139982217086551e-01 -2.498554557408435572e-01 4.494286067422842978e-01 -8.576632081873538649e-01
1.227664570548605838e-01 -5.547112290276075969e-02 -8.215194821701494732e-01 3.749836606313526333e-01 3.363768148271257252e-01 -8.638506194396506910e-01
-5.642191992020783448e-02 6.368000700846339346e-02 -8.977125423964871231e-01 6.041320650722044050e-01 1.721308337090285967e-01 -7.780716059838120868e-01
9.335052356077837288e-02 -8.110881703486981509e-02 -8.442715875363752120e-01 3.749836606313526333e-01 3.363768148271257252e-01 -8.638506194396506910e-01
-1.137540145999449137e-01 -1.145808545615435159e-01 -9.999272841524396993e-01 6.929605332585618838e-01 1.727519775117341005e-01 -6.999731806375116827e-01
-1.493337664264881015e-01 6.147826578601530562e-02 -1.030450730156107220e+00 8.537001491572213663e-01 9.702024410304282975e-02 -5.116474641421805414e-01
-2.366872757487046425e-02 -2.852044035098125208e-02 -8.926786691297498022e-01 6.041320650722044050e-01 1.721308337090285967e-01 -7.780716059838120868e-01
5.460692836191723132e-02 5.981887156795567817e-02 -8.123586155572491974e-01 6.041320650722044050e-01 1.721308337090285967e-01 -7.780716059838120868e-01
7.947209990474310426e-02 3.625462918537315088e-02 -8.045955609884060111e-01 3.749836606313526333e-01 3.363768148271257252e-01 -8.638506194396506910e-01
-1.541117457517908740e-01 4.371983146758688828e-04 -1.022996116175041381e+00 9.010815610179401247e-01 -2.212407976919972818e-01 -3.729671967212140338e-01
1.435432780439026279e-01 -1.246985551847463840e-02 -7.987331268938104856e-01 -1.416157716092086016e-01 6.335608498636243757e-01 -7.606218658121854936e-01
-6.908127625850421505e-02 1.864979885431161319e-02 -9.194035975286549700e-01 6.970243668950529825e-01 1.890724335311982640e-01 -6.916709093442783285e-01
-1.887854281060969697e-01 -1.042917149248209600e-02 -1.053132071638761991e+00 6.455183030369546771e-01 1.359441343143877150e-02 -7.636238029080452128e-01
2.053814184163654799e-01 1.042478079345855180e-01 -7.448862744519216816e-01 2.743883788546214730e-01 3.768521345186118254e-02 -9.608802434417205163e-01
6.043995401167265996e-03 7.802827474515538868e-03 -8.615725821344937252e-01 6.041320650722044050e-01 1.721308337090285967e-01 -7.780716059838120868e-01
1.644317192410339468e-01 -1.023326131165845920e-01 -8.257953952824623745e-01 -2.753080500086834137e-01 4.313925503671317031e-03 -9.613463827607430234e-01
-2.185602995371330737e-01 -1.739890232441305973e-02 -1.078425905864706102e+00 6.455183030369546771e-01 1.359441343143877150e-02 -7.636238029080452128e-01
1.938947495578030589e-02 -9.472070570827144376e-02 -8.816772544174570347e-01 3.749836606313526333e-01 3.363768148271257252e-01 -8.638506194396506910e-01
-2.212218070718033613e-01 -6.081359608481534847e-03 -1.080474292081368359e+00 6.455183030369546771e-01 1.359441343143877150e-02 -7.636238029080452128e-01
-2.301328978351316681e-02 -1.110687012314644645e-01 -9.104317009509064196e-01 6.041320650722044050e-01 1.721308337090285967e-01 -7.780716059838120868e-01
1.121000911454830135e-01 -8.144564681986098120e-02 -8.362638607346737363e-01 3.749836606313526333e-01 3.363768148271257252e-01 -8.638506194396506910e-01
1.832204578500954695e-01 -2.232054414360290853e-02 -8.143255330862694263e-01 -1.416157716092086016e-01 6.335608498636243757e-01 -7.606218658121854936e-01
1.687587833705207208e-01 8.567061254810952320e-02 -7.560727996265773632e-01 2.743883788546214730e-01 3.768521345186118254e-02 -9.608802434417205163e-01
2.352608494744623524e-01 -1.147413958527662980e-01 -8.475425189164037532e-01 -3.272568798552666913e-01 1.852403580388347903e-01 -9.266007470000441337e-01
9.209598500570036206e-02 -1.134508433335561089e-01 -8.574098998739360100e-01 3.749836606313526333e-01 3.363768148271257252e-01 -8.638506194396506910e-01
-2.816897341962970938e-02 1.601835037057187383e-01 -8.434032989237965072e-01 5.620990761115267631e-01 6.738759485708666064e-02 -8.243200474900176378e-01
1.178672699315725172e-02 -4.103693412271802038e-03 -8.597477000566903227e-01 6.041320650722044050e-01 1.721308337090285967e-01 -7.780716059838120868e-01
1.285124326093782243e-01 6.724903531795956013e-02 -7.702749716341084074e-01 4.270433504620715914e-01 2.066668072354118646e-01 -8.802969996616193393e-01
1.315422091396601378e-01 -1.233263360540362286e-01 -8.441323696163164358e-01 3.749836606313526333e-01 3.363768148271257252e-01 -8.638506194396506910e-01
1.428716021086763321e-01 1.557202409030462864e-03 -7.871097798908550658e-01 -1.425456552907767016e-01 5.489308376204297124e-01 -8.236235011624282176e-01
1.869161961364398244e-02 1.749710956106503845e-01 -8.102404559412911267e-01 5.620990761115267631e-01 6.738759485708666064e-02 -8.243200474900176378e-01
9.640137015999231118e-02 2.110390493782461629e-02 -8.057591221600567399e-01 -2.753080500086834137e-01 4.313925503671317031e-03 -9.613463827607430234e-01
1.520704246439587848e-01 -1.374085480380448643e-01 -8.374468128283918400e-01 4.154016141108403115e-01 -4.355292807237350072e-02 -9.085948720141617807e-01
-3.344329303276025178e-02 1.035826141674364709e-01 -8.697825971396073719e-01 6.090930167691291919e-01 2.437211294379437176e-01 -7.547222720899219306e-01
8.363518755955136330e-02 3.535558213855075071e-02 -8.031385136262639834e-01 3.749836606313526333e-01 3.363768148271257252e-01 -8.638506194396506910e-01
-1.052437260674793235e-01 -4.347452166604034995e-02 -9.728280001549873823e-01 6.970243668950529825e-01 1.890724335311982640e-01 -6.916709093442783285e-01
-3.081505542682684562e-02 3.275838778966928821e-02 -8.846708586329270485e-01 6.041320650722044050e-01 1.721308337090285967e-01 -7.780716059838120868e-01
-1.420385748887427468e-01 1.349164595446979186e-03 -9.976548108988733121e-01 6.970243668950529825e-01 1.890724335311982640e-01 -6.916709093442783285e-01
-1.200892136626643542e-01 4.285529831405712753e-02 -9.659603708569034497e-01 9.010815610179401247e-01 -2.212407976919972818e-01 -3.729671967212140338e-01
2.539566142897420331e-02 1.932693653151586755e-01 -8.041731376572432977e-01 5.620990761115267631e-01 6.738759485708666064e-02 -8.243200474900176378e-01
-4.402167938104123261e-03 5.069370578015365558e-02 -8.601948420874565571e-01 6.041320650722044050e-01 1.721308337090285967e-01 -7.780716059838120868e-01
-6.312033982203893445e-02 -5.031045256579726177e-02 -9.322472266117637352e-01 6.970243668950529825e-01 1.890724335311982640e-01 -6.916709093442783285e-01
-6.700085706418111575e-02 -1.363602963071465501e-01 -9.571078029994539715e-01 6.705239079780588307e-01 -1.171888512572325930e-01 -7.325738611026478830e-01
-9.533756710490242162e-03 1.139560977126781172e-01 -8.471366923266931970e-01 6.090930167691291919e-01 2.437211294379437176e-01 -7.547222720899219306e-01
-7.954510892499601360e-02 -1.354071259059717591e-01 -9.687420178920140845e-01 6.705239079780588307e-01 -1.171888512572325930e-01 -7.325738611026478830e-01
-7.867682325151875711e-02 2.735218380971909946e-02 -9.266945633603023147e-01 6.970243668950529825e-01 1.890724335311982640e-01 -6.916709093442783285e-01
-6.672067410414689315e-02 9.077331687739993715e-02 -8.997152033407413985e-01 6.041320650722044050e-01 1.721308337090285967e-01 -7.780716059838120868e-01
8.671842296344445256e-02 6.294431391244863228e-02 -7.910796953818653998e-01 4.171898953019492207e-01 2.064498097447574065e-01 -8.850599230076470203e-01
1.826561305622080578e-01 -9.950824563061284878e-02 -8.287347071409801869e-01 1.074581178914819218e-02 -1.711425140929193414e-02 -9.997957941138237992e-01
-1.075818141654513449e-01 -1.507650240039404288e-01 -9.968929971284921088e-01 7.609629621348221740e-01 1.305060437289877993e-02 -6.486640517128252625e-01
6.593313296085072384e-02 -2.103646034116900543e-01 -8.835759426287342899e-01 4.114167075092787784e-01 2.474145075209765177e-01 -8.772242325941396190e-01
1.805055002594207203e-01 -1.527307309814620040e-01 -8.458234778234746676e-01 -3.278849840130946269e-01 4.879661014964873922e-01 -8.089378969049801915e-01
-2.282747256597259661e-02 5.479925235832767971e-02 -8.735928713933905909e-01 6.041320650722044050e-01 1.721308337090285967e-01 -7.780716059838120868e-01
-5.866914555020231320e-02 -3.233249061697048010e-02 -9.228471957632587985e-01 6.970243668950529825e-01 1.890724335311982640e-01 -6.916709093442783285e-01
-1.366250216979002230e-01 1.758633399892796725e-02 -9.909212413489865146e-01 9.010815610179401247e-01 -2.212407976919972818e-01 -3.729671967212140338e-01
1.197627831688897748e-01 -1.761146229884134884e-01 -8.603538838644211317e-01 1.796116397094030259e-01 4.053492748185040795e-01 -8.963434745035031570e-01
8.262597216241929221e-02 -9.366006743882272778e-02 -8.538143035910472634e-01 3.749836606313526333e-01 3.363768148271257252e-01 -8.638506194396506910e-01
3.755184481380905576e-02 2.954876748742734163e-02 -8.322975787277684390e-01 6.041320650722044050e-01 1.721308337090285967e-01 -7.780716059838120868e-01
-2.048616017003672962e-01 -1.462743142464161157e-02 -1.066796571277686789e+00 6.455183030369546771e-01 1.359441343143877150e-02 -7.636238029080452128e-01
