-7.881291375685825495e-02 2.581167520462523957e-02 -8.925075406243205833e-01 6.482480425195842333e-01 5.638257055600094381e-01 -5.117372852541476336e-01
2.445851268481513685e-02 2.821189955218799533e-02 -7.620409810905343084e-01 6.483168765797403532e-01 6.133605111499694784e-01 -4.510810469347363849e-01
-4.812348841851525616e-02 1.284476546860628954e-01 -7.366088820236096346e-01 4.960063332588949825e-01 6.878101054610143983e-01 -5.299952605380299220e-01
-6.495988760426894826e-02 3.534859149854863158e-02 -8.654835361705864871e-01 6.501140494836479267e-01 5.326432667343050653e-01 -5.418882477657002150e-01
1.714866884980001047e-02 2.432276068267151536e-02 -7.779802653674124935e-01 6.794756453161940879e-01 5.818107404677721473e-01 -4.470001227052225468e-01
2.343991406991199900e-02 -1.164043335956421038e-01 -9.368913256839149772e-01 5.005652944262750648e-01 6.831880914340409117e-01 -5.316845095906495011e-01
-5.136243498506237737e-02 2.208899170425042066e-02 -8.630171923783046539e-01 6.154129162917060247e-01 5.583290592347744941e-01 -5.563592401275900823e-01
-5.709796181195831571e-02 9.559301635079608950e-02 -7.857240108548756430e-01 5.475627442560015989e-01 6.409929462380531406e-01 -5.378690212085995848e-01
-4.480456001141188555e-02 1.079168350110592811e-01 -7.595869099264282998e-01 4.686568053646165133e-01 6.850909825304591916e-01 -5.576837315547963358e-01
6.095303358334418914e-02 -1.656766962970212531e-01 -9.505214949256697299e-01 6.387192563905198517e-01 6.455008029745042952e-01 -4.187677457436418949e-01
-6.940977015680530049e-02 -7.279484871009343772e-03 -9.175297456075967029e-01 6.383719489656479729e-01 5.521749085733962392e-01 -5.362687060753794643e-01
-7.472618805674494449e-03 -1.173067124044066961e-01 -9.772165575284321726e-01 6.495765857812310085e-01 6.941696852167196230e-01 -3.101269213256394042e-01
-5.252459259666201336e-02 -4.287518666540077877e-02 -9.339412512612031980e-01 5.910109109418970608e-01 5.775962484919465734e-01 -5.631062749389840194e-01
6.825556645995072003e-02 -9.627258350223957817e-02 -8.404904681898753838e-01 6.223374537073362855e-01 6.298662305433780917e-01 -4.647199429055579034e-01
3.806269115794663760e-02 -1.102171517763910064e-01 -9.027207176546747647e-01 6.847267270266684802e-01 6.018644187302142345e-01 -4.109848303306189443e-01
1.981846548285171386e-02 -5.644651498923915212e-02 -8.635236972625431884e-01 7.366805227479303886e-01 5.078750587775262559e-01 -4.465027794712597697e-01
6.042406811907023723e-02 -1.733922982351254194e-01 -9.635613157673392770e-01 6.454950578560234575e-01 6.508035399203129234e-01 -3.997385179222019969e-01
1.851283471706306749e-02 4.885275757277386666e-02 -7.410843881089578256e-01 6.375012527423465913e-01 6.339396671025594454e-01 -4.378500328032818301e-01
-3.920730317078263694e-02 1.775392950104211004e-03 -8.712610434358367684e-01 5.892180822316731570e-01 5.966542350209632639e-01 -5.448171944815786150e-01
-6.752418962135232905e-02 1.128219867861889915e-02 -8.945750032035418853e-01 6.384471000911738914e-01 5.792594226595588758e-01 -5.067976140879957292e-01
-2.670065980157274727e-02 1.401337740041476779e-02 -8.457673161766313674e-01 5.471538253219034864e-01 5.854393995304719711e-01 -5.982335671901136687e-01
7.461815971729895448e-03 3.577300919907357851e-02 -7.776150591058519357e-01 6.796374952179594642e-01 5.941381082875477615e-01 -4.302241083137396394e-01
1.580689486165204674e-02 -6.489124067740063839e-02 -8.806670058623251585e-01 7.613424577443469454e-01 5.047038776674783733e-01 -4.069786946551481321e-01
-5.015256378523258798e-03 -1.246281023441067337e-01 -9.894312042684600961e-01 6.475010310737476793e-01 7.090806803131695091e-01 -2.791899059153934437e-01
-5.102740250788988241e-02 1.256113114739191849e-01 -7.429683197591474553e-01 4.932018261295800787e-01 6.845041247353742531e-01 -5.368482671320703448e-01
-3.433549197760912830e-02 1.189695232927795027e-01 -7.285859159967891241e-01 7.311326628009543471e-01 5.893036679980336867e-01 -3.437531327415782600e-01
-3.315002212188359471e-02 -4.710933687928482022e-02 -9.178478832543919275e-01 5.950755995957482947e-01 5.816447531815700511e-01 -5.545939161784150251e-01
3.686768486897740865e-02 -1.059352409447398141e-01 -8.984410535432054701e-01 6.847267270266684802e-01 6.018644187302142345e-01 -4.109848303306189443e-01
5.908504153878167686e-02 -1.171281607026503635e-01 -8.810702719408983752e-01 5.863149452146302343e-01 6.661887693256457466e-01 -4.608983712732629412e-01
1.856425844861122991e-03 -5.665540629497507752e-02 -8.898324839464670788e-01 5.894011519258754994e-01 5.857564802203356624e-01 -5.563233124616784320e-01
-3.685157132100171790e-02 1.173204038929115955e-01 -7.369346621363680461e-01 7.429804820965152379e-01 5.861130668098593066e-01 -3.231895359357586650e-01
3.862209753323440908e-02 -8.417898513596334953e-02 -8.660210284065079644e-01 6.905435197877246578e-01 5.588854968936555201e-01 -4.591259616283012157e-01
2.234009018977074768e-02 6.015044319194283624e-03 -7.926852724670252481e-01 6.877666644213989988e-01 5.447561680314573218e-01 -4.798101006672800262e-01
-2.864000435952065993e-02 3.107802441013859940e-02 -8.308420881364056987e-01 5.512606042869965250e-01 5.910179647424306237e-01 -5.889053502158480002e-01
-5.108585284285077632e-02 1.140165642383271921e-01 -7.576331582783053520e-01 4.930365257380684429e-01 6.768537865450858781e-01 -5.466113207094365212e-01
4.855173945896351650e-02 -8.430774543102945162e-02 -8.514208822626634365e-01 6.685432843365426425e-01 5.756897626217741815e-01 -4.707772022740633888e-01
5.742558900935367666e-02 -3.444055928475703993e-02 -7.871295986680416634e-01 6.901105534264436736e-01 4.806769851795911763e-01 -5.410148426504642893e-01
-9.536480648895263867e-03 -1.149208743066530564e-01 -9.761991026415641759e-01 6.495765857812310085e-01 6.941696852167196230e-01 -3.101269213256394042e-01
-5.927982729554794050e-02 1.059077714025612876e-01 -7.753906065201839892e-01 5.422097892912347561e-01 6.495978524465932935e-01 -5.329457519237101870e-01
-2.484966782373714336e-02 9.401161498034868447e-03 -8.486616263590553988e-01 5.451140468023442098e-01 5.939605037754462913e-01 -5.916600340851069229e-01
-6.964141324943856626e-02 1.611985433094363929e-01 -6.686921869276654107e-01 5.127792757852464023e-01 8.578791081163216203e-01 -3.317906241445992693e-02
-4.584870294565394216e-02 1.407715331226832012e-01 -7.060002555820262815e-01 6.930404691008553719e-01 6.998789450881550689e-01 -1.728131083302350546e-01
-4.670765499404264803e-02 1.267127119511847998e-02 -8.677408133446393723e-01 6.127165548748190194e-01 5.771200253394356272e-01 -5.399174934511217216e-01
-4.962421706709477243e-02 3.066936149996683791e-02 -8.525364141697426845e-01 6.179589494938387828e-01 5.495591872024456759e-01 -5.622378824855709389e-01
-1.661709130440638255e-02 -4.649795180676666306e-02 -8.991065860520603970e-01 5.983771238242077128e-01 5.885981944037957936e-01 -5.435963421772264104e-01
-4.528145836007332892e-02 1.073664998946985832e-01 -7.606691198385886477e-01 4.878598033659571342e-01 6.669562617635051982e-01 -5.631715166396296102e-01
2.502833635272103119e-02 -1.583340999539597227e-01 -9.944451872239216117e-01 6.789062419601190612e-01 6.491320149969730391e-01 -3.430946541897118562e-01
1.574018637760690384e-02 1.864010021519470900e-02 -7.873841073147597180e-01 6.857774492573150971e-01 5.597918057129939173e-01 -4.651262456008222745e-01
-6.629027185337758865e-02 4.400157010249128309e-02 -8.585622805010330039e-01 6.496554193395537302e-01 5.361594472207199535e-01 -5.389627846880714612e-01
9.461492368738888548e-03 -1.385365722021408841e-01 -9.882991458881159597e-01 7.026201653424093418e-01 6.623824220839149568e-01 -2.599508225962205432e-01
4.906028118587138151e-03 4.985477912019588287e-02 -7.607151936662488456e-01 6.657716084679331514e-01 6.179509970513415995e-01 -4.181922172892199030e-01
6.048158492531329616e-02 -1.556867412215500734e-01 -9.361367457022757854e-01 6.382818172205361185e-01 6.388509200115642939e-01 -4.294948472403691264e-01
-9.181613285987495765e-03 -5.610426413380260879e-02 -9.012959204735607743e-01 5.987147954099841796e-01 5.918023693173743993e-01 -5.397319236690774069e-01
-8.051315035061684666e-02 6.648973785455407348e-02 -8.525982102625259129e-01 6.424026933240226667e-01 5.858025726704966241e-01 -4.941195457201318364e-01
5.696359905637014137e-02 -9.352798457341847393e-02 -8.513710175067302766e-01 6.253838487741909535e-01 6.166286790787532945e-01 -4.781883664728492911e-01
-3.251595698853351063e-02 5.037740279744108013e-02 -8.146579832360986151e-01 5.497306356778077774e-01 6.192025167350960757e-01 -5.606999834726199561e-01
-1.313108280608599014e-02 -2.838562993277727459e-02 -8.760867091460606826e-01 5.805571116647125773e-01 5.896980012473604926e-01 -5.614353991514914322e-01
-1.759579427589326797e-02 -5.424251002230828095e-02 -9.085716102502933156e-01 5.971199568730853890e-01 5.904380136309564930e-01 -5.429831573478272055e-01
-2.876117111765680995e-02 -6.554987230369077600e-02 -9.330064207180158720e-01 5.831662397217354243e-01 6.006747615755692049e-01 -5.469067266499331170e-01
1.112124629332261055e-02 -5.709170101680892395e-02 -8.799125030606982367e-01 7.816171381465877310e-01 4.921680652035258507e-01 -3.832039208428796861e-01
5.929393156323401609e-02 -4.391707552895909167e-02 -7.932446411876199477e-01 6.889116893091483673e-01 4.878646795501562217e-01 -5.360865030763590777e-01
-4.171822570070488068e-02 6.833946423289750938e-02 -8.030718836474085576e-01 5.423393204747372076e-01 6.499465473935893689e-01 -5.323885301151340954e-01
-2.044295662917523099e-02 -1.297350092476220150e-02 -8.673856260613241886e-01 5.689581727715391501e-01 5.949984633935667677e-01 -5.676825047469454821e-01
-5.651245929966205311e-02 8.462502314610446941e-02 -7.985418250063548440e-01 5.743618282607416692e-01 6.414094589546069924e-01 -5.086279545999574658e-01
-2.764320097022660364e-02 6.313594324725826934e-02 -7.959660598887243754e-01 5.113066054784785042e-01 6.367822776838339971e-01 -5.771255374889107115e-01
-3.412219929135749952e-02 1.467606378571621045e-02 -8.522644516187098951e-01 5.633106726196154268e-01 5.884606632873110588e-01 -5.799958050506005547e-01
7.939272671617654542e-03 -1.255088023278611020e-01 -9.661889679178842227e-01 6.269058163078051749e-01 6.591393505826351751e-01 -4.153605830997283976e-01
-9.043171834703991885e-02 1.704107562758866989e-01 -6.517278690623172777e-01 3.078815563063466709e-01 9.477373084556530713e-01 8.368357931886090395e-02
-2.726416092620594783e-02 -3.666677293214491012e-02 -9.002373197583921627e-01 6.004881014427515540e-01 5.857584557406110282e-01 -5.443354402884809096e-01
9.807966812491327249e-03 1.947987098405667625e-02 -7.952700623593759177e-01 6.984909359637329063e-01 5.521920650855765000e-01 -4.551860450772134414e-01
-1.668534643929693931e-02 8.816454530761057284e-02 -7.425073353216667948e-01 7.258653724076515878e-01 5.721561554175355058e-01 -3.817810825032143529e-01
-4.298405496129650318e-03 -1.210895976678475344e-01 -9.790353923008766612e-01 6.495765857812310085e-01 6.941696852167196230e-01 -3.101269213256394042e-01
4.576879205241547732e-02 -1.232000364889867527e-01 -9.092846739911603082e-01 6.807545403860802979e-01 6.131183444551621120e-01 -4.008230924439081244e-01
-6.666600158690834388e-02 8.128017729588858653e-02 -8.151998175040369166e-01 6.083152621224964252e-01 6.372382384058919991e-01 -4.731595601720351429e-01
-4.054732672922792269e-02 3.835219340993824971e-02 -8.353507678345806209e-01 5.947584150993291408e-01 5.685565779141451559e-01 -5.683360320964090384e-01
7.422236472618713721e-02 -1.112760685691437101e-01 -8.537883339292317020e-01 5.660914841188242619e-01 6.809348725145970560e-01 -4.646161114314442675e-01
6.193478858615435179e-02 -6.611337089175738091e-02 -8.118569492749595495e-01 6.741800740384978896e-01 5.457781765391219730e-01 -4.976016577374686167e-01
-8.834072491083297396e-03 -3.945267456318059252e-02 -8.831470194816073427e-01 5.891813084049045690e-01 5.878654255780538795e-01 -5.543280862776287510e-01
-3.273341908517433951e-02 -3.967978202979451086e-02 -9.095252582731715441e-01 6.010404102261484027e-01 5.861544294638988406e-01 -5.432986380390022463e-01
3.559199291916066016e-02 -1.103608310490171579e-01 -9.072593642520652146e-01 7.060054936545677728e-01 5.888469923608652401e-01 -3.934659610654182016e-01
-2.189419983194280592e-02 3.044225041976047694e-02 -8.252027564521258185e-01 5.398531453958861359e-01 5.943760254526373465e-01 -5.960501000530862292e-01
-5.223185362006388388e-02 -2.918161695295347011e-02 -9.200419886605757380e-01 6.091034786520741484e-01 5.539186044590294067e-01 -5.675976849213745234e-01
-3.703572368076177637e-03 -1.240623296403526449e-01 -9.848380322367434880e-01 6.816390595963834897e-01 6.875043811668876126e-01 -2.504114979566485766e-01
-3.934152106208421706e-02 5.994394395644330603e-02 -8.107497788475992451e-01 5.574947057223230695e-01 6.298594847530953889e-01 -5.408111339073428114e-01
-5.649919070740820962e-03 2.256167299575338736e-02 -8.161349387319061233e-01 7.344020541118415624e-01 5.222368103009572549e-01 -4.335001002110495660e-01
-1.639155611576083305e-02 -6.504526966163992618e-02 -9.190672827569518200e-01 5.924896460407603760e-01 5.990501610219248763e-01 -5.386046081441380196e-01
6.248476883150288347e-02 -7.987467461194343310e-02 -8.270956108130883555e-01 6.464207952929172940e-01 6.018211244868921783e-01 -4.689898608010679704e-01
2.232117449583544480e-02 -9.549453020402751124e-02 -9.101120103939160932e-01 7.709889674453513919e-01 5.325102905786668339e-01 -3.492975844539653596e-01
-9.666295089121437756e-03 7.496691829674551055e-02 -7.488425994532427188e-01 7.325060430557145397e-01 5.711825003038770721e-01 -3.703855399897129086e-01
-4.225747827359308678e-02 -2.258953164114274950e-02 -9.018689054256736615e-01 6.146415502627486926e-01 5.798545276016114913e-01 -5.347751784727081681e-01
6.907640853136945425e-02 -1.257244575065791792e-01 -8.812131281650230630e-01 5.534059929761908636e-01 6.870839861180123576e-01 -4.708050583396690691e-01
1.598531125649155227e-02 -1.078908581018582225e-01 -9.336368135701809123e-01 5.342725443243449002e-01 6.537451120489138345e-01 -5.358826148078925655e-01
-2.975906300254002948e-02 2.092681920177037053e-02 -8.418786477358358722e-01 5.668271297343742132e-01 5.782740958775021145e-01 -5.867760007312403658e-01
4.608487709870140447e-02 -1.706224415607564826e-01 -9.907827464985279331e-01 2.368326934565330166e-01 8.365550473270874088e-01 -4.940505319313993060e-01
-3.087448171478416117e-02 6.803106314359844142e-02 -7.933215709087110268e-01 4.933113642121597642e-01 6.482416302216168491e-01 -5.800230053944054331e-01
-1.794002701043554207e-02 2.359028710147285587e-02 -8.284739156951985706e-01 5.352649079318260172e-01 5.930958475688764553e-01 -6.014389361633398767e-01
3.481412511687018152e-02 1.455555193580319005e-02 -7.654145533646596888e-01 6.440451531614177494e-01 5.948027756025944246e-01 -4.810566482491804852e-01
-1.623547791587415592e-02 1.335460274294500427e-02 -8.369741452335980325e-01 5.304179571431474338e-01 5.908348073809814860e-01 -6.079235323025165005e-01
-3.160829944841421490e-02 9.956072819207714697e-02 -7.568822404458407371e-01 7.942649182714508482e-01 5.386776390826910621e-01 -2.810153745892626787e-01
-4.482380363647647803e-03 3.968642199627621381e-02 -7.923107143796266350e-01 7.195933431260628232e-01 5.614946142229920722e-01 -4.085452468542866145e-01
2.107477846250591785e-02 -1.295989493147469383e-02 -8.150199319751226801e-01 7.111693418508221454e-01 5.100612751346740303e-01 -4.838136653913971963e-01
-5.574767392825413087e-02 -5.171447003329379330e-03 -8.986485581681840085e-01 6.226176578958251273e-01 5.826512464641058209e-01 -5.223646016626138922e-01
1.700822730896289076e-02 -6.418490896244233301e-02 -8.776212603498282361e-01 7.447250726725586079e-01 5.138451393710985471e-01 -4.258494321676957184e-01
2.498137473854490642e-02 -2.869849351400779840e-03 -7.987822723780388934e-01 6.921350734620798084e-01 5.274949512826503373e-01 -4.926440058043495274e-01
-3.072393272650369642e-02 -5.218955401056773330e-02 -9.206720005651194416e-01 5.888353309433383975e-01 5.887317814463314258e-01 -5.537759858894911735e-01
7.658072129708008713e-02 -1.593761452395898170e-01 -9.209049628888524852e-01 5.629731134487470090e-01 6.713095110174545077e-01 -4.820838246107520542e-01
1.465393491104476954e-02 -1.423809914448399272e-01 -9.846288068537623062e-01 6.807297902021330893e-01 6.687870699341430525e-01 -2.988825987244217997e-01
4.041882842115846614e-02 -1.576586490828797704e-02 -7.913448009901519198e-01 6.784393997352659023e-01 5.026131490212706332e-01 -5.358171360807472139e-01
-6.582168645962302445e-02 1.588466975330814213e-01 -6.786193194604621670e-01 5.601501083124077462e-01 8.279087701380778430e-01 2.826525227294658660e-02
2.937668266714459422e-02 -9.454381452468756108e-02 -8.953255957688669442e-01 7.143292715709718133e-01 5.712080146876574727e-01 -4.042958022704043475e-01
5.722634574098748456e-02 -1.338733937408843888e-01 -9.082221784762181116e-01 6.068578708889357243e-01 6.582480723323468341e-01 -4.454581908674452584e-01
5.071166538552628056e-02 -8.727255686607239549e-02 -8.520226522746795483e-01 6.542522818403940787e-01 5.913179109078510187e-01 -4.714839127119948015e-01
1.582150909116485787e-02 5.219525652308860258e-02 -7.401919754957168029e-01 6.473992925587499503e-01 6.267304454388789026e-01 -4.336854905970621288e-01
-1.892526876157744941e-03 -1.202122279512397029e-01 -9.729179238803000729e-01 6.188615170928060127e-01 6.833429885267029436e-01 -3.873664707908838212e-01
-2.964302653374197016e-02 -6.899647183548296425e-03 -8.704395411986262099e-01 5.711793060106346021e-01 6.016327257865852207e-01 -5.583836169228225677e-01
-1.653609078256226481e-02 -1.410978823906480599e-02 -8.646609445105720715e-01 5.689581727715391501e-01 5.949984633935667677e-01 -5.676825047469454821e-01
-7.245013388208740345e-04 -4.295618164591814836e-02 -8.782732080949764430e-01 5.911105480638036980e-01 5.788323937984591883e-01 -5.617307004759977129e-01
5.448330561922346688e-02 -7.832706282409442056e-02 -8.360320660851012775e-01 6.653970662859084451e-01 5.689844323569219764e-01 -4.832219571931491431e-01
-2.774724534948017421e-02 5.560279757322859201e-02 -8.043354274976044493e-01 5.241425688731218280e-01 6.335544892114191029e-01 -5.691074386222187975e-01
6.756160539069339110e-02 -8.776746845951621800e-02 -8.302263338099936663e-01 6.464207952929172940e-01 6.018211244868921783e-01 -4.689898608010679704e-01
1.317049761275746259e-03 -9.399364110500892100e-02 -9.325413019213261157e-01 5.770947340638521439e-01 6.255467655691804296e-01 -5.250265821858055570e-01
9.464147829551678229e-03 -6.401322620464870716e-02 -8.898566196627557545e-01 5.444178707649505178e-01 6.073578689759870919e-01 -5.785547519333890110e-01
3.288153864026384376e-02 -4.496856371732494556e-02 -8.305321426333766022e-01 7.170394144780124490e-01 5.003928571172553408e-01 -4.852437187960904619e-01
-3.755022738189250225e-02 -2.764418778457451015e-02 -9.019951480231264140e-01 6.102948111873331971e-01 5.769868631165416817e-01 -5.427949918972636567e-01
1.527115603747094749e-02 -1.596672507759352294e-02 -8.267167863447317799e-01 7.199455527837229640e-01 5.037840283694521304e-01 -4.773678390788247405e-01
-3.073829247756403038e-02 8.301994191393415046e-02 -7.767942369676230641e-01 4.380656502281039533e-01 6.564386731020682708e-01 -6.141553179336841639e-01
6.279171748395576125e-02 -9.221780212512822872e-02 -8.421085454634495981e-01 6.081913933207498957e-01 6.250803185112225879e-01 -4.892625312656523895e-01
-3.590263293327363575e-02 -2.758511274828382917e-02 -9.000798689982092426e-01 6.102948111873331971e-01 5.769868631165416817e-01 -5.427949918972636567e-01
3.970433875698937964e-02 -4.564030408413697476e-02 -8.213625809052461646e-01 7.035199319123848216e-01 5.038163287649530808e-01 -5.012273059918006535e-01
5.698642664118635376e-02 -4.162072415966722172e-02 -7.941201685257072151e-01 6.889116893091483673e-01 4.878646795501562217e-01 -5.360865030763590777e-01
-3.030675391538813560e-02 -3.246171230615171183e-02 -8.990687224487934337e-01 6.004881014427515540e-01 5.857584557406110282e-01 -5.443354402884809096e-01
-7.519163648633661601e-02 7.145129034065335338e-02 -8.396001742631792331e-01 6.350449997156057957e-01 6.104083267910414001e-01 -4.734126349395075262e-01
-1.066521002477894588e-02 -5.974608330411655677e-02 -9.069348097037255307e-01 5.987147954099841796e-01 5.918023693173743993e-01 -5.397319236690774069e-01
-3.250029761773927384e-02 8.119662129832820596e-02 -7.800735379643078948e-01 4.691436225412942140e-01 6.505307954622064903e-01 -5.972553437049687997e-01
5.234705186765450935e-02 -1.750624167673296983e-01 -9.850853214581632988e-01 7.437929344661121656e-01 6.450216569135984734e-01 -1.752687443634095288e-01
6.949716352828662347e-02 -1.750668163956334566e-01 -9.527101141252752869e-01 6.120651615749207464e-01 6.669566048267787650e-01 -4.249060193315720158e-01
2.290039184747661577e-02 2.378019566547024451e-03 -7.960140279012227760e-01 6.879858113603577463e-01 5.450054355534674766e-01 -4.792124774919841457e-01
4.370983888365535808e-02 -1.663504948884676760e-01 -9.856919694121388797e-01 2.700372972435387542e-01 7.649371925697713293e-01 -5.847657219099640091e-01
5.011659076994422896e-02 -6.629611574059583734e-02 -8.283973661269292688e-01 6.702227597478848109e-01 5.503345220295285944e-01 -4.979290774582857404e-01
2.976311688923377261e-02 -1.270731050660620608e-02 -8.024433675844204750e-01 7.032741503511810155e-01 5.078793160798905637e-01 -4.974576059786874893e-01
4.702419483535215383e-02 -3.587902092154633682e-02 -8.018308902770476809e-01 6.923255605758034115e-01 4.977309388991172923e-01 -5.224454331659935669e-01
-4.481104177061359661e-02 7.368821331970384914e-02 -7.997080589569903752e-01 5.294060716649668930e-01 6.548273660405642405e-01 -5.393795806003827131e-01
7.327704173968167811e-02 -1.082383604563468549e-01 -8.505714954355306778e-01 5.883440686596868030e-01 6.609627313986253805e-01 -4.658106102001484117e-01
2.957435804947488797e-02 -1.038163609481434352e-01 -9.084504716805340552e-01 7.237840378889943693e-01 5.760678775243768257e-01 -3.798453198101333084e-01
1.979294899011972350e-02 1.898112626781739767e-02 -7.809405643379886408e-01 6.642647486241138877e-01 5.862835169506874777e-01 -4.637067839564955052e-01
-1.002000808589477432e-02 -3.184130673197121952e-02 -8.764292387995632483e-01 5.909187374519577762e-01 5.808926948174722993e-01 -5.598023962398509523e-01
-8.833880090291305887e-02 1.697515126904116378e-01 -6.503738787604179672e-01 -1.850936388170828367e-02 9.853280652605230783e-01 -1.696643959664165535e-01
8.773508783384339343e-03 -5.233544029721656082e-02 -8.786857540128645283e-01 7.708186690582004008e-01 4.997363656871840476e-01 -3.950976388705826903e-01
3.045892452814129986e-02 -1.562724092339405069e-01 -9.830306395544814446e-01 5.103667140057348561e-01 7.046176056698171264e-01 -4.929907169664786704e-01
5.500227222160679330e-02 -1.163684208811501392e-01 -8.854724024551660078e-01 6.193261586440237387e-01 6.450239743453078933e-01 -4.476373328253811512e-01
-6.384680876467653532e-02 8.232360402122400334e-02 -8.102809800258140571e-01 5.923184165820603031e-01 6.468801855918836496e-01 -4.803175188001487239e-01
4.131507110010360084e-02 -6.103088684178242795e-02 -8.351345447727624993e-01 6.940641261387580085e-01 5.381810176606454110e-01 -4.781591586877683153e-01
-3.693489181716418102e-02 1.218899618190397022e-01 -7.291100632807453463e-01 7.317097648161220436e-01 5.892059031831506921e-01 -3.426911491808080634e-01
6.392122248465031617e-03 3.131228823064521882e-02 -7.855795596488804877e-01 7.002097452098459129e-01 5.642934028606678698e-01 -4.373548538670751218e-01
-3.137756239730645630e-02 2.978223031526259015e-02 -8.347367815119043355e-01 5.718793803091239969e-01 5.725557181306688559e-01 -5.874809988528366667e-01
-2.293205765531461729e-02 1.680749832533695934e-02 -8.395820113273613217e-01 5.480212851703281096e-01 5.859236649762789018e-01 -5.969640942477423273e-01
5.891945789807025158e-02 -1.817608067062631838e-01 -9.859430030727514005e-01 5.667496962346634248e-01 8.043075682984988095e-01 -1.785612427030920379e-01
1.908131942183969795e-02 3.809457573443468525e-02 -7.558989642563450628e-01 6.474419655812737595e-01 6.252183482156852268e-01 -4.357991719343979886e-01
7.998074117936566918e-02 -1.305986483338057447e-01 -8.757385415063931866e-01 5.390198019290559639e-01 6.997109448000915499e-01 -4.688947076426907001e-01
6.004576226062940253e-02 -1.097613997270658198e-01 -8.694457143993151726e-01 5.904432739257953200e-01 6.552835211998412346e-01 -4.711477975325000234e-01
-4.445853055438062085e-02 -6.475683798919669443e-02 -9.487974423852879591e-01 5.779557503087989767e-01 6.084966027038315461e-01 -5.437821578379421483e-01
5.391057950747160654e-02 -1.270257052791610441e-01 -9.026177905365001530e-01 6.097227313752970890e-01 6.561574545408908055e-01 -4.446297175118484324e-01
-1.731369507188339207e-02 5.710663305609432749e-02 -7.921406814438323174e-01 7.860020472722606399e-01 5.172667216763947584e-01 -3.385792674248824241e-01
2.094822854039761484e-02 -2.637135810005397998e-02 -8.290754115015526171e-01 7.222114943554676092e-01 5.003109795811822025e-01 -4.775976142437898808e-01
1.589464737298634800e-02 -4.035790960771803992e-02 -8.518962546713776396e-01 7.359246946061879235e-01 5.017005477009586212e-01 -4.546552587459507522e-01
6.589508372553309901e-02 -1.009611705367952222e-01 -8.496347798223506942e-01 6.013312063875337898e-01 6.451946160498336358e-01 -4.713010583956086519e-01
1.572302828271272129e-02 -1.455663798254688557e-01 -9.889901887605748732e-01 6.908341821217790502e-01 6.478481142694402228e-01 -3.209999278032055758e-01
-5.280727088702096006e-02 -1.185003452764477397e-02 -9.025931985291528736e-01 6.226176578958251273e-01 5.826512464641058209e-01 -5.223646016626138922e-01
-7.692988529983665891e-02 5.541635967127980789e-02 -8.600976278119573104e-01 6.512293586260439193e-01 5.515607226510229610e-01 -5.212303633636405920e-01
7.799029880004694493e-02 -9.205738934365743920e-02 -8.220392518114982838e-01 6.356723914943787079e-01 6.202041485383793518e-01 -4.596383630938578047e-01
5.440509013856431597e-02 -1.480748097764869042e-01 -9.336777615586219214e-01 6.606081302555937285e-01 6.296748441501122118e-01 -4.087866055593559755e-01
-7.040089868459671607e-02 1.604247072162860444e-01 -6.828047971059537646e-01 1.780359701828262142e-01 9.511450490559996140e-01 -2.522425201612920054e-01
-5.643610956416945934e-02 6.679284653954821460e-02 -8.213644303562955828e-01 5.992427230555675832e-01 6.271444558971493999e-01 -4.975921927667441569e-01
-4.818269511755897405e-02 1.416804383512998700e-01 -7.123197630105133626e-01 7.528847283542392521e-01 6.389696822837009904e-01 -1.577413418645510768e-01
2.824263467178123738e-02 -1.153915079287829021e-01 -9.294472364077261961e-01 7.644315371593606301e-01 5.571327253785705036e-01 -3.244187900051774820e-01
1.545957687907285882e-02 -1.134984219965726182e-01 -9.411506382588552544e-01 5.471028805638711301e-01 6.611195637109422707e-01 -5.134192833906495723e-01
2.357083203841768906e-02 2.637871039081502236e-02 -7.658094927508632965e-01 6.483168765797403532e-01 6.133605111499694784e-01 -4.510810469347363849e-01
-1.611148845436126062e-02 -5.375673914671736525e-02 -9.064091031911961638e-01 5.987147954099841796e-01 5.918023693173743993e-01 -5.397319236690774069e-01
7.242266319583268164e-02 -8.972113090011687997e-02 -8.262958803676537789e-01 6.213692682513964893e-01 6.144222535489429760e-01 -4.861949473375498654e-01
-4.395004844272437108e-04 7.441307182673674581e-02 -7.336331630531848225e-01 6.837439128189558568e-01 6.027459767577353356e-01 -4.113290035791150046e-01
-3.720125388744567607e-02 -1.885501041867347627e-02 -8.920082296749568540e-01 6.146415502627486926e-01 5.798545276016114913e-01 -5.347751784727081681e-01
4.401211582458921384e-02 -1.044470835806975695e-01 -8.845773449056182347e-01 6.716529290093404825e-01 6.018480018626438666e-01 -4.320431987742857083e-01
7.197327646400129841e-02 -7.726885259303173381e-02 -8.109828010582490476e-01 6.627758025982730672e-01 5.749021936160548796e-01 -4.798079858293974875e-01
-9.672413082461885775e-03 1.152079853858698974e-02 -8.332226119708558976e-01 4.815667603571593403e-01 6.027791860758068276e-01 -6.362002107457198630e-01
-6.018099269509196575e-02 -4.421130412475580973e-02 -9.432222781513570631e-01 5.915854320214942730e-01 5.710928816535731922e-01 -5.691042058749522514e-01
6.873194825757228399e-02 -4.402003470983129052e-02 -7.813176160412267368e-01 6.888195034588306953e-01 4.720873747572374990e-01 -5.501465279810003883e-01
-5.029685289462708375e-02 1.401677862765177973e-01 -7.217237137831669092e-01 3.270448394713246776e-01 8.101669742698974774e-01 -4.864885885378349428e-01
5.876383119894169199e-02 -6.673640347968050335e-02 -8.168365023719317275e-01 6.741800740384978896e-01 5.457781765391219730e-01 -4.976016577374686167e-01
3.922746943167682715e-02 -1.186003299015926521e-01 -9.133396883371586172e-01 7.012550223113257486e-01 5.995271888187482245e-01 -3.857571043418787649e-01
2.714507704395249278e-03 -3.646261079970261609e-02 -8.685296112678344560e-01 5.385344163315789467e-01 5.861313841639563815e-01 -6.053351822952719452e-01
3.449228814212194211e-02 4.417181986538387499e-03 -7.778924825316340108e-01 6.574767360504153446e-01 5.714879631622458156e-01 -4.910456694780638287e-01
-5.126961856276042451e-02 1.380664163787668486e-01 -7.275714041882281879e-01 6.096760156744985837e-01 6.174454509664768498e-01 -4.970475540550143845e-01
-9.331604350975222784e-02 1.709607021839602281e-01 -6.477975057321307961e-01 3.012872947002904200e-01 9.490576541139750244e-01 9.227965767090140492e-02
-3.094470972788616187e-02 9.793494697736165877e-02 -7.581231189983991259e-01 7.942649182714508482e-01 5.386776390826910621e-01 -2.810153745892626787e-01
2.473011250050251991e-02 -9.879872677098466838e-02 -9.102525529099443347e-01 7.430273197090524473e-01 5.625506163892736167e-01 -3.625564868624335246e-01
-1.559993535781127247e-02 6.942281373928289867e-02 -7.693173156776098587e-01 7.510853781449789990e-01 5.581579930752513796e-01 -3.526051750939306340e-01
5.721822970474425840e-02 -8.044091623015067749e-02 -8.347979381233910923e-01 6.472010341221786645e-01 5.890648703125948016e-01 -4.838733305264803497e-01
4.736040179649952941e-02 -8.970221833991572080e-02 -8.597202090719411327e-01 6.542522818403940787e-01 5.913179109078510187e-01 -4.714839127119948015e-01
-3.537296014954351836e-02 1.086881992276624437e-01 -7.497860876736900382e-01 7.929846081032257965e-01 5.473062417743801422e-01 -2.676402231096386419e-01
-3.044894743502228607e-02 4.924649338349638278e-02 -8.138803186501477605e-01 5.497306356778077774e-01 6.192025167350960757e-01 -5.606999834726199561e-01
-2.441418829671224405e-03 -3.940252628362645587e-02 -8.764032606196989761e-01 5.813364160832316108e-01 5.859145424640236355e-01 -5.645813672666480931e-01
-5.024752556642523432e-02 6.534393134951557713e-02 -8.158726401471307899e-01 5.664723689312028965e-01 6.384141794745504805e-01 -5.210915377199170084e-01
2.767695824156986631e-02 -7.493947882292602281e-02 -8.723260005308403064e-01 7.306389864710123305e-01 5.334864968397415863e-01 -4.260972062080111145e-01
-1.615523527954502297e-02 -2.659713027118856127e-02 -8.773353275100149729e-01 5.805571116647125773e-01 5.896980012473604926e-01 -5.614353991514914322e-01
-7.744170405816096225e-02 3.673718610428807624e-02 -8.792661517838010754e-01 6.540032770163147768e-01 5.393628452849972277e-01 -5.304407929052907811e-01
5.284618503992102173e-02 1.851099487692632736e-03 -7.568936102963700341e-01 6.468004607857352761e-01 5.721711410342815718e-01 -5.042512759477050244e-01
-5.082325886677962340e-02 1.044756549410319618e-01 -7.690017442187103702e-01 5.078214431025257491e-01 6.627431981895519630e-01 -5.503533730057015294e-01
2.289290993228852277e-03 -1.210959591618496374e-02 -8.430430551019735264e-01 7.457340395942884115e-01 4.976933252718636624e-01 -4.429244813398998115e-01
-3.334287328941583362e-02 2.979046094927612423e-02 -8.366418784949751775e-01 5.718793803091239969e-01 5.725557181306688559e-01 -5.874809988528366667e-01
-9.818199129903596237e-03 -8.586789706197685279e-02 -9.353363098494453798e-01 5.847861495003705556e-01 6.219236860957287893e-01 -5.208033103059462876e-01
1.815906197792551205e-02 -1.028992493323673853e-03 -8.065085444333173204e-01 7.021002030842438124e-01 5.263454049644366028e-01 -4.795996450185162630e-01
1.952242627703208028e-02 1.052774101828281642e-02 -7.916006265835078270e-01 6.877666644213989988e-01 5.447561680314573218e-01 -4.798101006672800262e-01
1.841640600231905789e-02 -1.278359080715308904e-01 -9.567772425359206689e-01 5.545503702942764512e-01 6.708844678833866260e-01 -4.923290744606764191e-01
3.404908826080651346e-02 -9.444578107779365295e-02 -8.868822717963045221e-01 6.981818912430268753e-01 5.831646254114147832e-01 -4.152843199653392658e-01
-4.284155107092812997e-02 2.772733013423830245e-02 -8.481706970655369382e-01 5.893528997255982338e-01 5.660536793296349067e-01 -5.764081815019732602e-01
-6.225823976939490363e-03 8.089322926435736638e-02 -7.340252742051106560e-01 7.044897684208859534e-01 5.912306285776963710e-01 -3.926073229346449533e-01
-8.937908548366886238e-03 7.849243802383257251e-02 -7.424543348038642465e-01 7.237152313385414315e-01 5.785985551567450758e-01 -3.761116535008302009e-01
2.940565433480128721e-02 -3.196404671085589788e-02 -8.223362214053026031e-01 7.146683326592012664e-01 4.986965322840066772e-01 -4.904599300473220236e-01
3.677052811689437289e-02 -1.311312362290092265e-02 -7.935138175659900428e-01 6.867712703348192171e-01 5.076071614105039931e-01 -5.202693455581148818e-01
8.357067530697004712e-03 -1.382824099144381869e-01 -9.904606691064107293e-01 6.792930309710231151e-01 6.785728699977635614e-01 -2.794634827257383991e-01
-3.171794030200579539e-02 1.941954353035587125e-02 -8.452563647365540778e-01 5.668271297343742132e-01 5.782740958775021145e-01 -5.867760007312403658e-01
5.925069668935920714e-02 -8.472864612747761648e-02 -8.372992876404754536e-01 6.472010341221786645e-01 5.890648703125948016e-01 -4.838733305264803497e-01
4.218394053971150082e-02 -1.415987493962667931e-01 -9.450890156525010299e-01 7.044538847798680337e-01 6.131511846569114299e-01 -3.574777601087635315e-01
3.821439671225640433e-02 -1.797028015178019078e-02 -7.963468116320471246e-01 6.867712703348192171e-01 5.076071614105039931e-01 -5.202693455581148818e-01
-1.010709570267378891e-02 6.549238724495936963e-03 -8.383371927409072333e-01 5.111954325717166236e-01 5.930975717647404277e-01 -6.220245172696846625e-01
-3.529501923815985508e-03 -9.167008124812932313e-02 -9.351924868145264913e-01 5.866575549699675207e-01 6.205685538871950069e-01 -5.203148884310494493e-01
1.684762643634625523e-02 -1.210676824131075163e-01 -9.494446732478405426e-01 5.353640635231207145e-01 6.676295774553856477e-01 -5.173548751048502314e-01
1.569562270428439231e-03 -1.287534699083519030e-01 -9.839180938021080403e-01 6.493547433545426850e-01 6.945831239132277402e-01 -3.096654666860641503e-01
-1.800677546609812454e-02 4.348344132821412716e-02 -8.085735498673783939e-01 5.160978156012815399e-01 6.111146305194267159e-01 -6.001516084263125439e-01
1.052247939575566213e-02 -7.486649770330031095e-02 -9.004494188378591168e-01 5.692265579934214781e-01 6.137275372785847560e-01 -5.471011201422690817e-01
1.296862042645503983e-02 -1.250769717020921157e-01 -9.591316313714997044e-01 5.523513122246621609e-01 6.701509596155035275e-01 -4.957879780814711812e-01
-2.959805692975370217e-02 1.029398233269536167e-01 -7.459114664245440895e-01 7.528367709602220570e-01 5.734291289718911333e-01 -3.231343843306132002e-01
7.658346554108608206e-02 -1.114706537496330391e-01 -8.511967336817052310e-01 5.660914841188242619e-01 6.809348725145970560e-01 -4.646161114314442675e-01
-2.350968116354991769e-03 2.952961394445384122e-02 -8.020800149870122020e-01 7.180904416270595947e-01 5.462412890688043143e-01 -4.312384163781162738e-01
3.224585352121113468e-02 -9.183311922800484195e-02 -8.864061689765869723e-01 7.251069024788999728e-01 5.533446069111879195e-01 -4.099142910167416498e-01
6.001715389120887423e-02 -4.173468849918899465e-02 -7.903291679278465764e-01 6.889116893091483673e-01 4.878646795501562217e-01 -5.360865030763590777e-01
5.183656225312922861e-02 -1.768383869238524253e-01 -9.962679978252478863e-01 7.231221325435449598e-01 6.840862584500418953e-01 -9.550064096904466171e-02
-2.598326482849949368e-02 -4.928204775225315110e-02 -9.124173971312007358e-01 6.010404102261484027e-01 5.861544294638988406e-01 -5.432986380390022463e-01
4.409259263073601887e-02 -9.194588993420254111e-03 -7.800092734311747655e-01 6.671812526465592530e-01 5.274650935432968479e-01 -5.259750480871973055e-01
-4.996567311329306454e-03 6.815210072965294241e-02 -7.503826807608626748e-01 7.004439365725423361e-01 5.873517438281684599e-01 -4.054580381997256455e-01
4.873538087459648727e-02 -1.268429717304760396e-01 -9.101484407532955956e-01 6.499099422959876415e-01 6.319076154463104666e-01 -4.222674892124466672e-01
1.106129180713061842e-02 -1.434173910940193530e-01 -9.961437563171740006e-01 7.236023646847745683e-01 6.444554088924667745e-01 -2.471372974114710575e-01
-6.758159546952055563e-02 1.013933459000223719e-01 -7.898178314727198890e-01 5.705510668098257021e-01 6.524008267396215199e-01 -4.988433034847998826e-01
-8.381421993989805405e-03 -1.156654037135392693e-01 -9.755021454915528967e-01 6.308812945330152244e-01 6.815516977394635578e-01 -3.707776631848280768e-01
-8.589420770595543320e-02 1.687081868527898765e-01 -6.491398735877716986e-01 3.078815563063467264e-01 9.477373084556532934e-01 8.368357931886097334e-02
2.148498513253463416e-02 -1.420755338434128157e-01 -9.731701937278585124e-01 5.871231749589307380e-01 6.759921183651321774e-01 -4.453324975053650214e-01
2.300158545595940365e-02 -6.523935047975044921e-02 -8.685150122337004230e-01 7.341344766133698352e-01 5.186524363483674405e-01 -4.382307845388276335e-01
2.995783327774004245e-03 3.828212831997935411e-02 -7.815223722988499100e-01 7.013047706742723264e-01 5.865176705068250174e-01 -4.051772955296897849e-01
-7.134021412990207422e-02 1.703055239388284042e-02 -8.928546956684423330e-01 6.450260918822500189e-01 5.762449738284471934e-01 -5.018795382644756220e-01
-2.608403780831855534e-02 6.930303759280495579e-02 -7.879762469575497530e-01 4.682343079905320615e-01 6.498344158816903304e-01 -5.987251997004384707e-01
-4.318553948424883743e-02 1.153380381831124735e-01 -7.490731701420015876e-01 4.417210004841822801e-01 7.008902142226997034e-01 -5.600316645852370101e-01
-5.495672273533208640e-02 7.578148657318289905e-02 -8.080870787870487737e-01 5.847436113791482093e-01 6.380427898088077976e-01 -5.009753560049290400e-01
3.018268754160844877e-02 -5.990205972765597769e-02 -8.507167852897828952e-01 7.250570581681752280e-01 5.122686399137541535e-01 -4.602967553235888798e-01
5.593346102457994254e-03 -5.566670995456612231e-02 -8.849744730754948163e-01 5.760448277325821431e-01 5.881597895937140663e-01 -5.676622396704029683e-01
6.979563930760494762e-04 -1.027891386211189223e-01 -9.439726615714649771e-01 5.851997757608974338e-01 6.351869137935649556e-01 -5.040623046755248193e-01
2.010712780446213821e-02 -9.014591744532976514e-02 -9.068458603057125700e-01 7.716815034127540995e-01 5.319104267933735253e-01 -3.486817390674810113e-01
-1.314640704231251692e-02 -1.346509671064794432e-02 -8.606761515347961522e-01 5.577946264789155340e-01 5.903070885695429482e-01 -5.834403961466819721e-01
4.202629004008355540e-03 -6.170582064124434905e-03 -8.332540070997479509e-01 7.277825412440638297e-01 5.041391489719616592e-01 -4.649476219254796150e-01
1.212563247186251858e-02 -8.325044237128631508e-02 -9.081819579652088414e-01 5.587118131612169858e-01 6.299694226567149613e-01 -5.394252833819253024e-01
-6.623628084315068276e-02 1.166770457023566937e-01 -7.686990188568776361e-01 5.045426835582215164e-01 6.866990568287717478e-01 -5.233364938721011272e-01
3.352707511203747298e-02 -1.335004698182356564e-01 -9.502376697734766786e-01 7.746098132049646923e-01 5.655231111475693684e-01 -2.831311499014960709e-01
1.068795767819527738e-02 -1.129388719810140856e-01 -9.455918334572235295e-01 5.621473503772228542e-01 6.578914575484342553e-01 -5.011678227387154072e-01
1.747079600822535467e-02 -4.925024373161349805e-02 -8.592116875715429813e-01 7.366805227479303886e-01 5.078750587775262559e-01 -4.465027794712597697e-01
3.748061323289633706e-02 -4.259120205060799164e-02 -8.214189382433274567e-01 7.035199319123848216e-01 5.038163287649530808e-01 -5.012273059918006535e-01
-4.362519224297488341e-02 1.844721246229254208e-02 -8.581766496541297640e-01 5.875697486054587415e-01 5.708835853735596544e-01 -5.734576902219967742e-01
7.064587010953221613e-03 -6.424417032449832726e-03 -8.290253173231447725e-01 7.258825730536205834e-01 5.126648662418543667e-01 -4.585512240287634156e-01
5.406778549385595628e-02 -1.601071119344621083e-02 -7.742692401097840404e-01 6.650148276139847825e-01 5.231549181348021937e-01 -5.329767449757171205e-01
-2.686437361424792031e-02 -8.052002224728757596e-02 -9.481606980550246755e-01 5.842070395401137706e-01 6.284120604497640539e-01 -5.136150477089415078e-01
-4.796265699950311850e-02 1.121624393852080487e-01 -7.571183848140997652e-01 4.835714745677365811e-01 6.798674280089714861e-01 -5.513065475004366167e-01
3.009379411133115273e-02 3.062970249092967362e-02 -7.506564722683330970e-01 6.343337077192081619e-01 6.321465116268336626e-01 -4.449848706295841949e-01
5.845720875399917915e-02 -1.257679824926122118e-02 -7.654382627642057901e-01 6.548664121902139090e-01 5.492209593935566403e-01 -5.191399810724829367e-01
6.900507473408955261e-02 -1.362505114036912102e-01 -8.968052909588402066e-01 5.501035516313279583e-01 6.889130917845793789e-01 -4.720008839508784693e-01
5.241724204243448926e-02 -7.484888380044851797e-02 -8.347815494940105108e-01 6.653970662859084451e-01 5.689844323569219764e-01 -4.832219571931491431e-01
-1.738822572054693483e-02 -3.081461100519948884e-02 -8.830919601457045687e-01 5.907002690630106523e-01 5.867410586707867415e-01 -5.539026288065179715e-01
4.070559697603801791e-02 -1.469311756482774844e-01 -9.577830720200612991e-01 7.318873739288969116e-01 6.012566429127216283e-01 -3.206732312444977029e-01
-6.949047203860200805e-02 3.423361057393823487e-02 -8.720601316804826864e-01 6.479782269607433642e-01 5.425795300505585894e-01 -5.345387459809871622e-01
-4.515153491248685008e-03 -5.340043791776884902e-02 -8.932464949401428544e-01 5.959140346201362570e-01 5.862326522359180281e-01 -5.488330718854251833e-01
-2.425570717531224524e-02 2.823774813561145611e-02 -8.295754289014214411e-01 5.525801622746885355e-01 5.855464469367025471e-01 -5.931193157706821095e-01
5.682975762737582648e-02 -2.245221670068612424e-02 -7.770729736554491396e-01 6.700276937403379929e-01 4.965093751176532511e-01 -5.518526343520355759e-01
1.740193146106597255e-02 -1.443138152803363772e-01 -9.829558068883391675e-01 6.466789957341255723e-01 6.690408223717723146e-01 -3.663204259612145020e-01
7.131591261640227337e-03 1.257453679006399891e-03 -8.204781866275624447e-01 7.123129641642609311e-01 5.239034339384898153e-01 -4.670497114772503844e-01
-2.617313099801435450e-02 -5.924112857531659698e-02 -9.233297778092693919e-01 5.888353309433383975e-01 5.887317814463314258e-01 -5.537759858894911735e-01
3.292844571103707707e-02 -5.872753618280949356e-02 -8.451333026495070344e-01 7.128118914756381708e-01 5.189751255065009339e-01 -4.717669196504083451e-01
1.442176573157299101e-02 -9.372927810218713296e-02 -9.179755135204533678e-01 5.439701716458441583e-01 6.437753546570477159e-01 -5.381911789464626228e-01
1.975568984238449191e-02 -1.482983225297238306e-01 -9.858776224575297453e-01 6.521028646756710234e-01 6.567111000569361146e-01 -3.788038871814708997e-01
-4.688626127889704287e-02 1.303767121623496950e-01 -7.329436093849026612e-01 4.737633239371595861e-01 7.005590640247857381e-01 -5.336340606677298926e-01
3.129506991818782613e-02 2.820556969884582821e-02 -7.523775279954419970e-01 6.331879205664661114e-01 6.302641474944722377e-01 -4.492662480442757844e-01
-7.897829004377443507e-02 8.836867676609500011e-02 -8.217979283755909581e-01 6.207102104118311647e-01 6.400201908844105336e-01 -4.528719354859416235e-01
5.451572318352154028e-02 -6.238165016924392819e-02 -8.180358281852553315e-01 6.908194812766895732e-01 5.302742445159669415e-01 -4.915055135922952734e-01
4.521680762454465680e-02 -8.650379985809475425e-02 -8.588422109008513328e-01 6.685432843365426425e-01 5.756897626217741815e-01 -4.707772022740633888e-01
1.382977689058476067e-02 2.094568516717679532e-02 -7.874208110130587190e-01 6.794756453161940879e-01 5.818107404677721473e-01 -4.470001227052225468e-01
1.448187245158404426e-02 -8.355549417002985924e-02 -9.061525414287616709e-01 5.271761246463243511e-01 6.401668581740092012e-01 -5.588127837643848128e-01
1.438448388468862617e-02 -8.701315888396587983e-02 -9.102366435995989935e-01 5.587118131612169858e-01 6.299694226567149613e-01 -5.394252833819253024e-01
-7.034814594321696368e-02 1.610889342323388596e-01 -6.804835114491596393e-01 2.576312455582467631e-02 9.496856474716568464e-01 -3.121432882499015626e-01
-1.066765941786174988e-03 6.195608085303901807e-02 -7.525991116978669737e-01 6.871205613959994185e-01 5.986981003057740836e-01 -4.116137981131143264e-01
2.298426720905141080e-02 4.629485180215665158e-02 -7.382656538976403171e-01 6.289585888558795190e-01 6.403455316552078003e-01 -4.408726500857476083e-01
4.870525971505355184e-02 -1.374287536328074599e-01 -9.263802287217824949e-01 6.503328869141757895e-01 6.385625587423651162e-01 -4.114668817417481139e-01
8.963722010979125084e-04 -5.194456316258724837e-02 -8.858895426398252226e-01 5.894011519258754994e-01 5.857564802203356624e-01 -5.563233124616784320e-01
-1.075743943348604452e-02 -6.417658397291185757e-02 -9.118992561529507546e-01 5.975866411677484002e-01 5.927425197279966307e-01 -5.399504714363664304e-01
-4.581637606486906045e-02 8.144652130604231478e-04 -8.798834482065520657e-01 6.108256900092604580e-01 5.933914925038598076e-01 -5.241932020245518853e-01
3.886930337476800917e-02 -9.570974150484902465e-02 -8.806035133533438586e-01 7.022651805625433896e-01 5.700601438909304042e-01 -4.264446605557517533e-01
7.348477953621876738e-03 5.816406303716232379e-02 -7.444591460609345512e-01 6.651299420224310310e-01 6.108706560294654420e-01 -4.294638539241315001e-01
3.415133860364608781e-02 -1.192594172798293606e-01 -9.236927529387520819e-01 7.193710890704311245e-01 5.874088859266255458e-01 -3.707506398430928107e-01
-6.470352587033838254e-02 6.523335211826669644e-02 -8.337192018538650551e-01 6.248153180752252789e-01 5.951171587509691552e-01 -5.054120948876561492e-01
3.750461445126192228e-02 -1.591493247540599343e-01 -9.803534678591152574e-01 4.351976672188680451e-01 7.209956018519697585e-01 -5.392293876981958389e-01
-1.109355909350835103e-03 3.333149963904204899e-02 -7.951846558682752475e-01 7.111034642392726202e-01 5.597164098281041111e-01 -4.254990055406047134e-01
-7.264864136386461890e-02 1.039041408781033859e-03 -9.125528896822440172e-01 6.442342743352555967e-01 5.601635278584951028e-01 -5.207485207169114672e-01
-1.642945936112015157e-02 8.082184305356451826e-02 -7.532557329545671587e-01 7.484954969633970112e-01 5.599014069466625720e-01 -3.553377344508532598e-01
7.587975842589491510e-03 -6.123184606286633663e-02 -8.887164749016288612e-01 5.760448277325821431e-01 5.881597895937140663e-01 -5.676622396704029683e-01
5.287366431550492157e-02 -8.247874524721654499e-02 -8.431370686972672335e-01 6.653970662859084451e-01 5.689844323569219764e-01 -4.832219571931491431e-01
7.873741387931433577e-02 -1.105333231075195100e-01 -8.471924026370468708e-01 5.657175588247153053e-01 6.818640995137787986e-01 -4.637078751020607403e-01
5.139832590269087509e-03 -1.339977496041394878e-01 -9.878771152100169761e-01 6.792930309710231151e-01 6.785728699977635614e-01 -2.794634827257383991e-01
3.450196815266684536e-02 1.709493789300271446e-02 -7.626926480742673986e-01 6.440451531614177494e-01 5.948027756025944246e-01 -4.810566482491804852e-01
