1.569492450654412855e-02 1.948899206913725984e-03 -6.282554394820309973e-01 -9.571099376494833777e-01 2.859755391296069371e-01 4.646028704316029767e-02
-7.365509258136298046e-03 -4.420219189862033271e-02 -8.138546120776212200e-01 -9.392727560143592225e-01 3.410738117617276299e-01 3.788594382506533381e-02
3.039066041240013477e-02 7.437062557838387822e-02 -7.559961413716352885e-01 -9.387864925449602715e-01 3.372328158027952938e-01 7.038429768669622610e-02
1.408541093187638295e-02 -7.155721844641309130e-05 -6.478068559612537580e-01 -9.642469645815495705e-01 2.591468200655014376e-01 5.541405007041843439e-02
-1.784322047542917164e-03 -2.498342692602033982e-02 -7.663591303711437819e-01 -9.440703461969880417e-01 3.241798452709219180e-01 -6.032088652880170793e-02
3.701931024256099184e-02 8.599333676118826875e-02 -6.773322564133922308e-01 -8.900450276141055328e-01 4.456315911755761028e-01 -9.608503403616236449e-02
2.606318087830814326e-02 6.082713875725313107e-02 -7.441309425500640673e-01 -9.352919379482481643e-01 3.508482115888025832e-01 4.620090079153835183e-02
-5.988222221671304218e-02 -1.598341829976468731e-01 -8.499659449870947681e-01 -9.088402634442409589e-01 4.107942768204063677e-01 7.250819039392833454e-02
2.021500330821976790e-02 4.195095135588520346e-02 -6.878067792179690665e-01 -9.513400580807861440e-01 2.292297433468126200e-01 2.059267312808150119e-01
1.614344102465354452e-02 3.317545109013478322e-02 -7.271928427371843195e-01 -9.408020973714934510e-01 3.383688645957875218e-01 -1.994805889194653514e-02
3.725297573952163210e-02 7.314477046438802588e-02 -6.499911278089435251e-01 -9.353887335894615074e-01 2.721947046347343302e-01 2.257386981505684620e-01
1.863095333079706900e-02 2.801412977302265503e-02 -6.767684200231589564e-01 -9.574578163032829714e-01 2.521181940556483370e-01 1.403956773760059451e-01
-2.309892536898634774e-02 -1.044660932275566362e-01 -7.212633675071421502e-01 -9.564764838062957963e-01 2.645685771502039318e-01 1.231105353341515052e-01
-1.893024596941767987e-02 -6.386711531108767159e-02 -8.456976690683386533e-01 -9.101807735900250274e-01 3.718666399739274375e-01 1.824449546070410488e-01
-2.875351651781031005e-03 -4.482705430463941598e-02 -6.953001909963653082e-01 -9.530248623544905762e-01 2.784916960740818070e-01 1.191049409218017385e-01
-5.424921692478890112e-02 -1.540997241670986895e-01 -8.068677923753406755e-01 -9.136476939722096846e-01 2.983893537681817643e-01 2.760646389110174570e-01
-2.936591397276174659e-02 -9.307767048832578383e-02 -8.370844981720964029e-01 -9.124304320692739889e-01 3.878385881742380525e-01 1.305830622894553761e-01
1.827252793585758955e-02 3.911888788168915027e-02 -7.997341168541965972e-01 -9.691981100534137195e-01 2.461387831747658683e-01 -8.409690014307372175e-03
-5.955620581437070377e-02 -1.740754814614420554e-01 -7.916465309531449668e-01 -8.708452752763792271e-01 4.877650049849588942e-01 6.094100787507888972e-02
-1.967547960380640077e-03 -3.158060284906864801e-02 -7.159669563657059532e-01 -9.568970855512396456e-01 2.518252866799409739e-01 1.446789295374739936e-01
1.234877502120303519e-02 1.541992500311774143e-02 -8.133211641551113535e-01 -9.610695975039653671e-01 2.760824082797165846e-01 -1.112351527342917909e-02
2.966797264943358756e-02 7.079362915920194010e-02 -6.801491008650154546e-01 -8.838598824673504772e-01 4.475249425920413415e-01 -1.360629777815837160e-01
-4.056182065963214595e-02 -1.112494259708408512e-01 -8.568475138398458091e-01 -9.158677770171069765e-01 3.640287788761957244e-01 1.693200022786708336e-01
2.603590452298562563e-02 6.045674687963248362e-02 -7.418703811577288532e-01 -9.352919379482481643e-01 3.508482115888025832e-01 4.620090079153835183e-02
4.160839435450477963e-02 9.961032420958623734e-02 -7.439432549610823786e-01 -9.181024512170495866e-01 3.836857262747593311e-01 9.936373846759069539e-02
-7.630141296508932691e-02 -1.991957339507441083e-01 -8.237953656774607003e-01 -8.162916886635730451e-01 5.225647323729182281e-01 2.461584438909071026e-01
-2.616997701604455509e-02 -9.075084711960060280e-02 -7.926136944869572876e-01 -9.126647538210691524e-01 4.070327575186523106e-01 -3.697812109193051450e-02
-1.057220649645657963e-02 -4.516942902343178134e-02 -8.410758712665370451e-01 -9.173749208457371296e-01 3.649195643269998457e-01 1.589244039619787385e-01
4.096170477385611963e-02 8.422791817269352499e-02 -6.476301429270444610e-01 -9.358029768036403295e-01 2.648881117650220829e-01 2.326092793742479958e-01
-3.707240226417926393e-04 -2.202708782658415604e-02 -7.735650632353647804e-01 -9.466742569552599740e-01 3.184077304425087518e-01 -4.923787579351215221e-02
9.626511671477301635e-02 1.767799362085057668e-01 -6.106483268781430773e-01 -5.709799623727653817e-01 4.112068869327836773e-01 7.105566681889942116e-01
-7.995063007242076900e-03 -3.817404932730861233e-02 -7.492131850703159790e-01 -9.246048610831369974e-01 3.642292976340471000e-01 -1.115476113883293874e-01
5.543498517911267694e-03 -2.121607575123053528e-03 -7.615714096175926207e-01 -9.499260555460176114e-01 3.087017644639381553e-01 -4.841187469655957448e-02
1.699967685981687224e-02 3.431799959793532112e-02 -6.946675394226888844e-01 -9.545915241444207222e-01 2.199263919426130698e-01 2.009661766535257854e-01
-4.173369731592934534e-02 -1.246229926038135843e-01 -7.968448933184132388e-01 -9.166726910204565648e-01 2.824059038205958272e-01 2.827686033218455575e-01
3.256761787428692073e-02 4.686100874584732401e-02 -6.247730446001030780e-01 -9.265665752462027838e-01 3.558649320561895202e-01 1.217970926137663112e-01
-7.108198454351159767e-02 -1.879746573580722835e-01 -8.239310319644140845e-01 -8.932648663246922638e-01 3.321192350183924669e-01 3.029433813779857654e-01
1.783902871644058030e-02 3.765898885058750062e-02 -7.666299785297937541e-01 -9.562945248087467709e-01 2.923737294348176530e-01 4.287675033091408426e-03
5.382898518341865633e-03 -6.619724658176273473e-03 -8.218746039856176244e-01 -9.465530802437500668e-01 3.211806846540293248e-01 2.966873920877023327e-02
-7.091961660657553068e-02 -1.929235469467756869e-01 -8.029713108340752470e-01 -8.709125462096711789e-01 4.914365580739251116e-01 1.202598453794067896e-03
-2.190937026914798608e-02 -6.746904707681800062e-02 -8.528232257656086501e-01 -9.047011355269776178e-01 3.706058454405312674e-01 2.101598503556439956e-01
-4.193660890941725700e-02 -1.279215982289808318e-01 -7.937705361144336003e-01 -9.208051466836060239e-01 3.054583352106799432e-01 2.425140970980929622e-01
2.669681047035250615e-04 -1.950973782490250316e-02 -7.695466733930856895e-01 -9.466742569552599740e-01 3.184077304425087518e-01 -4.923787579351215221e-02
1.060891136882028199e-02 9.184551391396780437e-03 -6.986539779238801762e-01 -9.613205169909979642e-01 2.097342842404116003e-01 1.785340125195269967e-01
-1.280072678660986070e-02 -8.594710732588578539e-02 -6.693684079481366789e-01 -9.669726990465397076e-01 2.460470949475492275e-01 6.651786501776923988e-02
1.620519025955668296e-02 3.195771215506592461e-02 -7.726541198933070120e-01 -9.622741150787884612e-01 2.719622774400056731e-01 -8.065178174097397193e-03
-5.854404007171686714e-02 -1.569940489311340281e-01 -8.492834980386916310e-01 -9.088402634442409589e-01 4.107942768204063677e-01 7.250819039392833454e-02
-3.628719177254225922e-03 -5.880679409345328928e-02 -6.553684595268431945e-01 -9.484598433222286573e-01 3.092204809437075208e-01 6.932978991830113236e-02
-2.742585624630288280e-02 -9.253817921928256252e-02 -8.222056045189590767e-01 -9.172489554194752648e-01 3.924943848211052133e-01 6.784181355022821103e-02
-5.611729345558367360e-02 -1.531093893682871354e-01 -8.347388213811484103e-01 -8.912003720719693378e-01 4.536061615265485902e-01 -1.829492807979229800e-03
5.568987165153823499e-02 1.241807237572281619e-01 -6.901373111936343063e-01 -9.070821479233176499e-01 4.208984646228611237e-01 6.816113037406673625e-03
8.537508906588814339e-02 1.707021208966443826e-01 -6.221311024339867268e-01 -6.458415545758270371e-01 7.591929012146404476e-01 8.071446666104041545e-02
-1.551119665656106560e-02 -6.294243226292103865e-02 -8.266006690895142395e-01 -9.200294234704554652e-01 3.795979082438102892e-01 9.721773503608047151e-02
3.974696897317925802e-04 -4.657503554929132150e-02 -6.547386506714828469e-01 -9.486877919990240882e-01 3.082933454139514806e-01 7.033268433303616063e-02
6.904440721634584957e-03 1.759182773799346190e-03 -7.099086346123127944e-01 -9.604256892116129762e-01 2.115901330476344377e-01 1.811411358562236562e-01
-1.777061420280656376e-02 -6.811049482243387854e-02 -7.706930981821855653e-01 -9.185941931826732132e-01 3.861537289935147998e-01 -8.408332673887922160e-02
6.033728017337624400e-02 1.338176923067900537e-01 -6.321309395605448911e-01 -9.123082699573495935e-01 3.049074908790880278e-01 2.733588165273749815e-01
-1.689235072830783807e-02 -8.376121150983845132e-02 -7.180530845352222080e-01 -9.552565099865111264e-01 2.744701547566224531e-01 1.102321834867960454e-01
-6.781952924448715614e-02 -1.829120000272846103e-01 -8.190800879491881847e-01 -9.134617094885461031e-01 3.167136830323418195e-01 2.554998009360330835e-01
-1.577090971121238722e-02 -9.325742572644535322e-02 -6.834220638295717132e-01 -9.664361904595758501e-01 2.409653396210224008e-01 8.908869104049277343e-02
4.885749953744127766e-02 1.000100368744380325e-01 -6.344723777526538600e-01 -9.318427243867750676e-01 2.761518199636848747e-01 2.353918208820723890e-01
5.179135295098020314e-02 1.194856906111644579e-01 -6.501073706934770158e-01 -8.736936678361131303e-01 4.805191537086323517e-01 -7.589939197529510517e-02
-7.308312848243947273e-03 -4.099659653592717390e-02 -7.686264304050218765e-01 -9.386508403658847532e-01 3.393866332899873051e-01 -6.124796343149994937e-02
1.644932998437175636e-02 2.543137464872159692e-02 -6.862474231329782626e-01 -9.618242758403929837e-01 2.276652366539239081e-01 1.518637627066333207e-01
4.564856855380367701e-02 1.078271318403699330e-01 -7.385559982304414905e-01 -9.165522929000351482e-01 3.868557093886429987e-01 1.013634771162584963e-01
-1.356832108870800269e-03 -3.247114841409872582e-02 -7.101963248864057165e-01 -9.566513591836109942e-01 2.603942351389868515e-01 1.304339652028256580e-01
-2.803535783989874117e-02 -1.272849370124865265e-01 -7.100739992469646822e-01 -9.513485239035069929e-01 2.728327951191777956e-01 1.431721061313110388e-01
-9.645213247560182127e-03 -4.800858933513198201e-02 -8.256671218297833015e-01 -9.235121023628457548e-01 3.672468718334844229e-01 1.107028993201037009e-01
-4.809202746411376378e-02 -1.527117471618954503e-01 -7.804851673175299265e-01 -9.173847740928975369e-01 3.646846219932564082e-01 1.594060938112436820e-01
-1.265321205209614039e-02 -6.321282919444637383e-02 -7.319856135271070041e-01 -9.567807850713268003e-01 2.637844370306577368e-01 1.224267131745142012e-01
1.376001245885898235e-02 2.433399909717223752e-02 -7.612661966001355029e-01 -9.556709199298201174e-01 2.933624958212926459e-01 -2.513043664550606085e-02
9.238746888426907500e-03 -3.441657506638523111e-03 -6.890239981033506877e-01 -9.632568211210911224e-01 2.281647323887360801e-01 1.416938652788714281e-01
-1.325213772966405031e-02 -8.570094193171867714e-02 -6.766423959912383213e-01 -9.601591171742207553e-01 2.672289929184361035e-01 8.175044373591741631e-02
-1.987860897519049333e-02 -1.029542875968055549e-01 -6.992743801336540610e-01 -9.621796748222803952e-01 2.475740784361552815e-01 1.136545161679879123e-01
-2.791226924126669756e-02 -9.687929480782810077e-02 -7.733897809454227668e-01 -9.439034730498628845e-01 2.780169751002458112e-01 1.781931399367445990e-01
-2.881686698762081500e-02 -1.076807037440148940e-01 -7.565684703516274423e-01 -9.462482891935025675e-01 2.958567007145501138e-01 1.307019045028451343e-01
2.908537710531988382e-02 6.615832750860919931e-02 -7.045007533956134660e-01 -9.101868711536856837e-01 4.140990122745270008e-01 -9.048072320955847722e-03
-7.329608996593402030e-03 -6.758812419057001752e-02 -6.675575717930029018e-01 -9.529606059464417189e-01 2.954415493991431885e-01 6.767846336039619326e-02
-1.067595519738986747e-02 -7.657698371676198434e-02 -6.753984359315269304e-01 -9.566797535646348605e-01 2.823506783257734853e-01 7.100664453757399297e-02
-5.473788467205850661e-02 -1.454254640456296432e-01 -8.592865205901103476e-01 -9.082233141870111881e-01 3.956011819132730367e-01 1.364921845234493281e-01
-2.025757283935212399e-02 -6.563077881394646651e-02 -8.486754763149295666e-01 -9.072047635357476381e-01 3.773780279086727529e-01 1.859175652535543233e-01
-5.063933997761872058e-02 -1.528410902265791016e-01 -7.938966109811519400e-01 -9.210961665354582273e-01 3.405984066296613433e-01 1.886122408408830164e-01
2.047633301263843131e-02 4.525462441553083220e-02 -7.179342860627384582e-01 -9.345114818679022273e-01 3.556082906358023488e-01 -1.519979895066375999e-02
-5.774876202868112207e-02 -1.555790019596149654e-01 -8.473321666367731320e-01 -9.088402634442409589e-01 4.107942768204063677e-01 7.250819039392833454e-02
2.027597674251472790e-02 4.550773358026221488e-02 -6.912353681249516768e-01 -9.493227784417835879e-01 2.065690250411556517e-01 2.368871043875518667e-01
-6.184966590013434018e-02 -1.677655153918261866e-01 -8.167598039115206987e-01 -9.084802813149743805e-01 2.890756765485674729e-01 3.018258300574245268e-01
7.540877204939393230e-02 1.604963527688350600e-01 -6.238967112365370049e-01 -7.450896269249644988e-01 6.347309625307703262e-01 -2.048366496835445916e-01
3.516599992952666037e-02 5.492992274908854722e-02 -6.281508824540408265e-01 -9.312180021003463315e-01 3.456993591167902835e-01 1.154339017380936194e-01
6.339800498441233723e-02 1.413668631085431282e-01 -6.552263130877582498e-01 -8.942759384593179650e-01 4.462391523594959608e-01 -3.378113074165473018e-02
-2.381905421759294723e-03 -4.358441492420612323e-02 -6.942712736251579475e-01 -9.511040229119301914e-01 2.806593050701808867e-01 1.289631423247205866e-01
2.555122639350606434e-02 3.157313255502837424e-02 -6.336364307613073787e-01 -9.259630120649555707e-01 3.626734222266033703e-01 1.051688599255455325e-01
2.306727127517490747e-02 2.517180547072672345e-02 -6.347979693073285690e-01 -9.339955379052359286e-01 3.452944020034103834e-01 9.178295657809343311e-02
1.070606869504782573e-02 -1.368404928539983419e-02 -6.408542636643249635e-01 -9.649040724423155746e-01 2.596708022269261784e-01 3.913062042773435972e-02
1.520701148784388453e-02 2.587404345928004390e-02 -8.127123179377545581e-01 -9.676602269745355756e-01 2.513387701072717362e-01 -2.150599387506978849e-02
-1.050526309434889234e-02 -4.873088969991774821e-02 -7.644582049890327191e-01 -9.340213525942192563e-01 3.493864865929392494e-01 -7.438545478994917914e-02
2.022694036375971560e-02 4.526845925235317009e-02 -7.064665953164781520e-01 -9.298816995197412005e-01 3.669118543719877001e-01 -2.637642924255498983e-02
-4.502049311045097819e-03 -3.697330884414364721e-02 -8.031605294464478906e-01 -9.406695834227774000e-01 3.390099146684164011e-01 -1.459495048747608270e-02
-3.295145965986585185e-02 -1.368794027798891644e-01 -7.213317677737169920e-01 -9.400413255162377579e-01 3.032627434693208057e-01 1.560577288862556034e-01
-3.469924456985688799e-02 -1.359408179737411626e-01 -7.341885063598021510e-01 -9.293934268058869907e-01 3.454326230706118994e-01 1.300160033556147787e-01
4.696419293486426422e-03 4.696922788747071828e-05 -7.190141768698965485e-01 -9.592560222976593831e-01 1.790887678730962718e-01 2.185293959799663455e-01
-4.606246139042683568e-02 -1.331453263166221812e-01 -8.139761390308225542e-01 -8.918589369652158982e-01 4.522189486785497259e-01 -9.255215359042220230e-03
1.953577494976619852e-02 4.320408460335679879e-02 -7.663154006761987436e-01 -9.562945248087467709e-01 2.923737294348176530e-01 4.287675033091408426e-03
4.939240246125641692e-02 9.983090494096337475e-02 -6.321300812510590728e-01 -9.269045350057359967e-01 2.960128461769108155e-01 2.307040916066399328e-01
-3.294409483675705269e-03 -2.501414382830060776e-02 -8.447397581402193989e-01 -9.188011942143134991e-01 3.747684406359987341e-01 1.239071483555877762e-01
3.134703706242765453e-02 8.099175556519255803e-02 -7.741970749027848875e-01 -9.398286321057095494e-01 3.331943169687890394e-01 7.552277414140132206e-02
-4.721702729923279995e-02 -1.335578518885769950e-01 -8.404986156276272879e-01 -9.086542656418861164e-01 4.010137804411460505e-01 1.163416237943463299e-01
-1.088835212500806164e-02 -5.685886029076801101e-02 -7.318834629744304099e-01 -9.567807850713268003e-01 2.637844370306577368e-01 1.224267131745142012e-01
-4.323120647478638501e-02 -1.432349433272998018e-01 -7.733539092492189848e-01 -9.253229016302146892e-01 3.452699678791769644e-01 1.567360105379495827e-01
8.246185395003063912e-02 1.602048674572490172e-01 -6.112091277110364151e-01 -7.208444651890661969e-01 5.498338667280657788e-01 4.219786440154912888e-01
2.288126300027789207e-03 -1.220020258404346837e-02 -7.622205067610134943e-01 -9.456472901225319028e-01 3.189344280559945344e-01 -6.349829355587174873e-02
-2.436968701577550689e-02 -1.051621783822033335e-01 -7.292273411897032265e-01 -9.520152727461128617e-01 2.767713741645531633e-01 1.306312631080685793e-01
-9.444061749912560991e-03 -7.238589604537878919e-02 -6.754664426260946763e-01 -9.566797535646348605e-01 2.823506783257734853e-01 7.100664453757399297e-02
4.588572973221556259e-03 -3.113096556815357283e-02 -6.635044050168009688e-01 -9.543875609734651100e-01 2.885699980878513315e-01 7.662727753677620046e-02
-2.108053264579142286e-02 -1.044543331623544180e-01 -7.056654382871275777e-01 -9.591219284527252587e-01 2.523341720597662152e-01 1.281116387063954698e-01
2.241135335665702874e-02 2.540854063206225352e-02 -6.414884328881992337e-01 -9.340363399105112707e-01 3.408625904849091337e-01 1.067183683088023943e-01
5.383009974219563759e-02 1.206269661890716216e-01 -7.039891799958807317e-01 -9.042297488559020158e-01 4.267138426159010622e-01 1.684808012696458260e-02
-3.359416263065140990e-02 -1.027606732979000209e-01 -8.378829270253639327e-01 -9.129480256854660691e-01 3.868331133464938953e-01 1.299463151292424290e-01
1.097516544384533888e-01 1.884369398887296709e-01 -6.123376703864581438e-01 -6.156221189342799827e-01 7.674809805458463474e-01 1.788361014427828910e-01
-1.353208222837173555e-02 -7.663401156205582043e-02 -7.066396840434912008e-01 -9.554806331151408649e-01 2.738436167013686418e-01 1.098473182822586186e-01
-3.676417519488152548e-03 -3.297641822343489598e-02 -7.821152985501621524e-01 -9.432511899015331158e-01 3.287766172666900522e-01 -4.672396267456958158e-02
1.383384968915867506e-02 2.549951773977899780e-02 -7.460052864045338961e-01 -9.471304251421279741e-01 3.203756125774689933e-01 -1.741908825696139237e-02
3.880753639680997735e-02 9.451456189315590728e-02 -7.502140856399205360e-01 -9.225145324396963886e-01 3.727283002567177705e-01 1.002025529879689431e-01
3.948359408880264092e-03 -3.822506658999071799e-02 -6.395719652981455283e-01 -9.611867576244894629e-01 2.731769581392443635e-01 3.865703699342371708e-02
9.146768809513467977e-03 1.146414136639493410e-02 -7.440113525242136872e-01 -9.461541711207891447e-01 3.215131888264420867e-01 -3.770349959069153878e-02
2.047365673227171529e-02 4.581650938381902349e-02 -7.075406962027579461e-01 -9.298816995197412005e-01 3.669118543719877001e-01 -2.637642924255498983e-02
1.751626980702391048e-02 3.623146279223119631e-02 -7.970875685137934763e-01 -9.691981100534137195e-01 2.461387831747658683e-01 -8.409690014307372175e-03
-2.488428631115658859e-02 -8.729428011465997783e-02 -7.862983003564180118e-01 -9.126647538210691524e-01 4.070327575186523106e-01 -3.697812109193051450e-02
1.120560774898898132e-03 -1.803748656269712689e-02 -8.268684306157403352e-01 -9.339037248742633190e-01 3.505244114681714263e-01 7.040219904852856869e-02
-1.404135637875631587e-02 -6.169386064440893908e-02 -8.154428247416152242e-01 -9.275491370809367808e-01 3.719834474702772842e-01 3.578984644472619353e-02
4.694359526688580975e-02 1.084066084654127238e-01 -6.625031685954126948e-01 -8.799297388503806161e-01 4.673338034340591141e-01 -8.557319004546523611e-02
-1.197096246979978493e-03 -2.277678824596911233e-02 -7.636906463634076658e-01 -9.440703461969880417e-01 3.241798452709219180e-01 -6.032088652880170793e-02
2.078672451535929638e-02 4.594938241679506069e-02 -7.207634496636072807e-01 -9.345114818679022273e-01 3.556082906358023488e-01 -1.519979895066375999e-02
-6.981528704459726009e-02 -1.908236887199095400e-01 -7.958853330258449654e-01 -8.496600819952238037e-01 5.266369660777542316e-01 -2.704165350507240981e-02
-4.198142245391051769e-02 -1.194295937305167032e-01 -8.467725524160876205e-01 -9.115337085998885813e-01 3.827404982507655040e-01 1.503861997820603869e-01
-3.513302397991095727e-02 -1.162161054486445383e-01 -7.798130851749515147e-01 -9.401273229223395811e-01 2.927982454376900634e-01 1.744414061038417341e-01
4.279168297476118599e-02 9.601535945153401308e-02 -6.896999812290333098e-01 -8.972844197601628213e-01 4.389782506128090955e-01 -4.667724868269182426e-02
1.958608741320723434e-02 4.357681812386059172e-02 -7.074055303162615216e-01 -9.298816995197412005e-01 3.669118543719877001e-01 -2.637642924255498983e-02
2.211733599279553947e-03 -6.206838679611101015e-03 -7.248772475920747249e-01 -9.566244965206455175e-01 1.532352231277407939e-01 2.477671064722140604e-01
2.036062100970683145e-02 4.667472011364920403e-02 -7.781497189841347639e-01 -9.601520356287963631e-01 2.791901343961072923e-01 1.268610790440801751e-02
-3.498973044872440846e-02 -1.151356625442725851e-01 -7.808543380912521537e-01 -9.401273229223395811e-01 2.927982454376900634e-01 1.744414061038417341e-01
7.418545692874252417e-02 1.558034550246601146e-01 -6.202756073489250621e-01 -7.852471407370632539e-01 3.119543714676485946e-01 5.348564275452725170e-01
-6.165956433057291630e-02 -1.785852742116386394e-01 -7.817816072898793323e-01 -8.429172110235758630e-01 5.355897175094753715e-01 5.132474898484265524e-02
6.843741343955071429e-03 2.799373233864132628e-05 -7.748853197474648846e-01 -9.541896028927213669e-01 2.963802773916895950e-01 -4.099918175593407488e-02
1.250440785506639479e-02 1.609340024216300569e-02 -8.100523520917375375e-01 -9.610695975039653671e-01 2.760824082797165846e-01 -1.112351527342917909e-02
7.790022426840897442e-03 1.129657890757974383e-02 -7.145149623926049243e-01 -9.529035947593130773e-01 1.573906588966114128e-01 2.592352591505825976e-01
-2.056729443999900236e-02 -9.342683782741670329e-02 -7.256583405592095248e-01 -9.546136749512594832e-01 2.723263589924728167e-01 1.206278814949255790e-01
1.737750842073098462e-02 9.811487276269435093e-03 -6.404363750217096918e-01 -9.573308076432577307e-01 2.840017643348691778e-01 5.348572325199735938e-02
2.398616774499479857e-03 -1.654327128492697613e-02 -8.015767191881986165e-01 -9.467570903330769783e-01 3.219325946085441204e-01 -3.227449869044616507e-03
-1.748761875694345921e-02 -8.758112298421327768e-02 -7.138162821554131510e-01 -9.583170683355327624e-01 2.618873441789722478e-01 1.142077733592344324e-01
3.211888812496090095e-02 7.283044818373209106e-02 -7.056555372538847459e-01 -9.046652167782848197e-01 4.261229851138729763e-01 2.170464033500278927e-04
3.757626026738141237e-03 -1.092598489522257285e-02 -8.252858628590685752e-01 -9.433936510001524889e-01 3.269623857506883668e-01 5.571371067179965025e-02
4.281879909929878908e-02 7.147179917223378531e-02 -6.186464408158630635e-01 -9.232726670013063908e-01 3.321130393102741940e-01 1.930505412797056397e-01
3.737523556160307885e-03 -1.206257176209857111e-02 -8.141089024816222652e-01 -9.451752993627871025e-01 3.259920285315126010e-01 1.930934510478396482e-02
-3.646745700924766860e-03 -5.507500193550000922e-02 -6.712721707573898744e-01 -9.484687916915011119e-01 3.048164664115813327e-01 8.656715885150434442e-02
-9.410912744248533038e-03 -7.513582009749734947e-02 -6.641950345337209738e-01 -9.534954006772513591e-01 2.925664653761522183e-01 7.246643515885858866e-02
-2.974449012093434083e-02 -1.300377780104400027e-01 -7.154002016846097156e-01 -9.379013148353804175e-01 3.160322362814154129e-01 1.430550567475073476e-01
-4.614517639702367391e-02 -1.227066120479540501e-01 -8.624534392096058211e-01 -9.178968597908011562e-01 3.543882309270993680e-01 1.785338527186018376e-01
-8.309939384751026739e-03 -4.395179738253190971e-02 -7.696683082715389812e-01 -9.360857684695328418e-01 3.444775201855631019e-01 -7.126480306300862766e-02
-6.751831944797709317e-02 -1.870904902474943010e-01 -7.835644183939338703e-01 -8.340071246300330143e-01 5.516518050519808591e-01 -1.060198326898184433e-02
-2.728354007178931603e-03 -5.460564242973497268e-02 -6.616874716145992874e-01 -9.485804500284178431e-01 3.085827939017641852e-01 7.051091498247462341e-02
2.128743369957975667e-02 4.763651318485140340e-02 -7.097926429638845569e-01 -9.251752594494500048e-01 3.781836109796832268e-01 -3.206081235730972451e-02
-3.219106362916904218e-02 -1.316368328358890616e-01 -7.279079149977406571e-01 -9.379013148353804175e-01 3.160322362814154129e-01 1.430550567475073476e-01
-3.452894425634421560e-02 -1.341025769834400250e-01 -7.377167302963387741e-01 -9.303045812747271492e-01 3.412866472604199619e-01 1.343756319464079196e-01
-3.673993612588074848e-03 -2.834621177874565093e-02 -7.320577890658273024e-01 -9.620862242701024858e-01 2.145527998801143865e-01 1.683959415582870489e-01
-1.373534290542798627e-03 -2.140942056160094129e-02 -7.540518569816503369e-01 -9.412885602686409392e-01 3.298043156113202867e-01 -7.214540672515393216e-02
-3.711358336103981470e-02 -1.144098583777616307e-01 -7.979756212849955510e-01 -8.949497897736407026e-01 4.442917845660366294e-01 -4.086176637448643567e-02
9.876913316684275343e-03 1.294172329687932020e-02 -7.508878461813039973e-01 -9.519970024217594418e-01 3.042000832982752478e-01 -3.411768897957941776e-02
-2.038894058974572571e-02 -7.538268741950499008e-02 -7.758109727848419013e-01 -9.123336969584119327e-01 4.027323313529730942e-01 -7.385048867269622397e-02
-2.060364381064132624e-02 -9.428055049752542827e-02 -7.240186793603702320e-01 -9.546136749512594832e-01 2.723263589924728167e-01 1.206278814949255790e-01
9.709800820382042882e-03 1.598246729688495779e-02 -7.102201533067727945e-01 -9.572081211924564625e-01 1.781120836519701212e-01 2.280980017018159334e-01
5.945032352694185063e-02 1.328651587663713385e-01 -6.642921319149904802e-01 -8.926403818084959196e-01 4.497927649682694762e-01 -2.965834363179760055e-02
1.350971150637833053e-02 -3.705341209020097688e-03 -6.390811846313013689e-01 -9.635757541386422709e-01 2.641862338266562360e-01 4.156200058508008333e-02
4.084795335615061529e-02 9.657194401436934583e-02 -6.642358207772675049e-01 -8.708610967291789962e-01 4.757494848444930868e-01 -1.235450439064673667e-01
3.146309352599131661e-03 -1.409583895652785634e-02 -7.969999049646464551e-01 -9.539688878511524139e-01 2.994245437634577289e-01 -1.697950541332169869e-02
1.149949087063122377e-01 1.908592687509335362e-01 -6.057918572141296476e-01 -5.992746762090791490e-01 7.705766142658708739e-01 2.169828195988124098e-01
1.008926561544813173e-02 -1.681264858589340489e-03 -6.860293625160722719e-01 -9.636367032931694165e-01 2.277618930915996098e-01 1.397455692378230252e-01
-1.254888625569649044e-02 -5.195617234968254172e-02 -7.572942472896032617e-01 -9.189620188852899441e-01 3.753113957068759943e-01 -1.210378622532184006e-01
-5.835835177197563201e-02 -1.669119936585373165e-01 -8.049473988455148055e-01 -9.141992733852133401e-01 3.512643817430475823e-01 2.021213067952581377e-01
-5.937296701804093552e-02 -1.636831123794535436e-01 -8.132150155672374092e-01 -9.084802813149743805e-01 2.890756765485674729e-01 3.018258300574245268e-01
2.122997350188587928e-02 1.910302556419804856e-02 -6.306633475778893327e-01 -9.339955379052359286e-01 3.452944020034103834e-01 9.178295657809343311e-02
-1.954261446403261250e-03 -5.592043370690619880e-02 -6.443030668411745543e-01 -9.487932966876919672e-01 3.095053699803153591e-01 6.322741584035773688e-02
-2.742039692813766708e-02 -9.197958983010633138e-02 -7.781023084098276366e-01 -9.389051831621378907e-01 2.455837566814044193e-01 2.411341441719134504e-01
-2.737837599446053816e-02 -9.364753906228383273e-02 -7.946739763701115011e-01 -9.126647538210691524e-01 4.070327575186523106e-01 -3.697812109193051450e-02
9.852172216943826111e-02 1.730222267843838924e-01 -6.030376285971100758e-01 -6.747298102999861324e-01 6.713358184423189323e-01 3.066723038830315717e-01
-6.375606936677116754e-02 -1.671702305036875946e-01 -8.301205436240044477e-01 -8.604763183653059144e-01 5.035255662865611992e-01 -7.773358108492514629e-02
6.262473028255052809e-02 1.394077636400872511e-01 -6.606348332434234250e-01 -8.942759384593179650e-01 4.462391523594959608e-01 -3.378113074165473018e-02
5.393485548118182732e-02 1.137455184438197209e-01 -6.315866263280172088e-01 -9.226711815527780525e-01 2.958928206979897224e-01 2.472353724518161211e-01
-5.306038493371354955e-03 -4.435650779181817688e-02 -7.150907920692151087e-01 -9.561259184804677957e-01 2.663504536938529066e-01 1.219863263934154590e-01
-3.985835719152687473e-02 -1.463123563804290539e-01 -7.416730815575323099e-01 -9.098341690754452316e-01 3.850397520358302961e-01 1.547455141029325798e-01
5.428682404152092647e-03 -3.187614113784522502e-02 -6.471836865792184312e-01 -9.616876821188654612e-01 2.702523206522123300e-01 4.604872683297508984e-02
-6.399682449625439251e-02 -1.735815520665922040e-01 -8.174419123741952786e-01 -9.073248393103992004e-01 3.058977063152813480e-01 2.884236974338419968e-01
7.600639803491057722e-02 1.603112955251514427e-01 -6.318030578837202649e-01 -7.851094522195175562e-01 6.189259003729545849e-01 2.310579760789135267e-02
4.872991300908869478e-02 1.022084949701577428e-01 -6.375565918927268427e-01 -9.318427243867750676e-01 2.761518199636848747e-01 2.353918208820723890e-01
-6.088259553915953415e-02 -1.606147756096826806e-01 -8.557497005993227601e-01 -8.994420158573134261e-01 4.174225515408171994e-01 1.294699717142418494e-01
3.765406378124502851e-02 6.808707804332714275e-02 -6.410249293907963608e-01 -9.371196757107426167e-01 3.060553752858547472e-01 1.677403369927087662e-01
6.267755407024536152e-02 1.406362796442356122e-01 -6.413049587869179557e-01 -8.944203313701832858e-01 4.469267098944132988e-01 -1.639471910729043552e-02
-1.702221824547871243e-02 -8.320368447934946288e-02 -7.205538059753762159e-01 -9.553222484967607286e-01 2.739363987776488596e-01 1.109876162093168944e-01
8.678898198883889387e-03 1.138021474377095936e-02 -7.334424114093346381e-01 -9.443620043182815449e-01 3.257899244995080545e-01 -4.518107894421131282e-02
-1.963267058889453520e-02 -9.983281771548262185e-02 -7.040330988104693821e-01 -9.619976267720721230e-01 2.492906351318505409e-01 1.114214760289064937e-01
9.002178710919586657e-03 -1.807708381252066477e-03 -6.932633169644212279e-01 -9.632568211210911224e-01 2.281647323887360801e-01 1.416938652788714281e-01
-1.789064574806031177e-02 -6.478218029530158351e-02 -8.377568392855413437e-01 -9.165810642819194332e-01 3.755659029773321667e-01 1.372202795531521358e-01
8.972948736718698581e-02 1.742462100732694308e-01 -6.210864683543392273e-01 -6.196722102940511734e-01 7.756973041731286544e-01 1.195827917713326305e-01
-4.503326632601754864e-02 -1.281922425097843932e-01 -8.419096165327139003e-01 -9.102930623190670367e-01 3.978582941579327792e-01 1.143473587955361054e-01
5.050248963450141085e-03 -7.525069311726704027e-03 -8.226866117012053836e-01 -9.465530802437500668e-01 3.211806846540293248e-01 2.966873920877023327e-02
1.831425473387042480e-02 3.925670461443464543e-02 -7.695859110200449216e-01 -9.562945248087467709e-01 2.923737294348176530e-01 4.287675033091408426e-03
-5.914755812462559742e-02 -1.590521315657968393e-01 -8.410131177069350983e-01 -8.982816764564668377e-01 4.382489549462144085e-01 3.206061807125168417e-02
3.322330729648612785e-02 7.517788289442614569e-02 -7.110289368628373019e-01 -9.046652167782848197e-01 4.261229851138729763e-01 2.170464033500278927e-04
1.538357962539644609e-02 2.663519891398315881e-02 -8.117614243448454392e-01 -9.676602269745355756e-01 2.513387701072717362e-01 -2.150599387506978849e-02
2.736580789684615531e-02 6.237393524295051228e-02 -7.047200024914793692e-01 -9.101868711536856837e-01 4.140990122745270008e-01 -9.048072320955847722e-03
-4.396973655434011780e-02 -1.475161229924484008e-01 -7.668934838062152481e-01 -9.146440182067699931e-01 3.772324578442414200e-01 1.453340727681109168e-01
1.446446958787892499e-02 2.313248468114304998e-02 -6.945784452679131249e-01 -9.585862617151468257e-01 2.214685488128548818e-01 1.790644038822577222e-01
2.941384675344901195e-02 6.952765247341387289e-02 -7.430200393960351146e-01 -9.332154004160140293e-01 3.564725406682064390e-01 4.512587036205117919e-02
1.393902511833750545e-02 6.882819677074379291e-03 -6.717968172981212405e-01 -9.645984394363866787e-01 2.392757623603779527e-01 1.108916596672059190e-01
6.834175005412309115e-03 -1.961488240678691333e-03 -7.912146981631776876e-01 -9.572975531957041984e-01 2.874932891336898777e-01 -3.047955624038205594e-02
4.997973067920371409e-02 1.147691998351932502e-01 -6.594456228955063448e-01 -8.882513255417906484e-01 4.542531873197278025e-01 -6.829073497276196003e-02
-7.410909420969370720e-02 -1.861126655375739125e-01 -8.463554907551809059e-01 -8.020928798461086640e-01 5.969973317341881192e-01 1.553055061599446264e-02
-2.591397374034922971e-02 -8.769325105855683977e-02 -7.771787471537532355e-01 -9.040670845616000095e-01 4.153628480379280563e-01 -1.006797451432519530e-01
3.069986451665033395e-02 5.641113243853115161e-02 -6.567127180158599531e-01 -9.382456098963863900e-01 2.830859347324264363e-01 1.988907465590759038e-01
1.927315412799438313e-02 4.069067317829799107e-02 -6.908481371513252034e-01 -9.545557824584004480e-01 2.204747910133080524e-01 2.005345972715655567e-01
-3.616859450279904988e-03 -3.057628570901219436e-02 -8.298445900864507285e-01 -9.262354703518379528e-01 3.620414959930200460e-01 1.049466942845066614e-01
-1.426373232035940686e-02 -6.262970640135245848e-02 -7.465570305527648998e-01 -9.576227488076716199e-01 2.612095161774966590e-01 1.213600413000803929e-01
-1.987372914130735788e-02 -1.055445675688105184e-01 -6.935906512707830096e-01 -9.621796748222803952e-01 2.475740784361552815e-01 1.136545161679879123e-01
-4.172978011995409631e-02 -1.242727170364428813e-01 -8.205077196619994240e-01 -9.019686513174252074e-01 4.315660522886885508e-01 1.425813987104745072e-02
-4.340372835544857588e-02 -1.258724478776821198e-01 -8.362647192386657435e-01 -9.095084015127981036e-01 4.109285262040018871e-01 6.270736742554262888e-02
1.030708545243600935e-02 8.519765196036029747e-03 -8.233006406003512412e-01 -9.507809554539450314e-01 3.095225367705040087e-01 1.453870617475844750e-02
3.148214572423436303e-02 7.490725769462310002e-02 -7.439211377263320601e-01 -9.260777854894465255e-01 3.703374681442132554e-01 7.231939512673345172e-02
1.792539799218130503e-02 1.314034856056695358e-02 -6.466172801163821982e-01 -9.578395923759245312e-01 2.793331592924808704e-01 6.720343292425243198e-02
-2.237936606863963340e-02 -7.888303522213567509e-02 -7.724219926522144508e-01 -8.898632995148679781e-01 4.338615797159443566e-01 -1.410937199980837609e-01
-8.497988607786145787e-03 -4.746644026074529205e-02 -7.909948962335134892e-01 -9.392747643029953908e-01 3.412056573049015995e-01 -3.662808439821314821e-02
3.359966729490064530e-02 5.031264602042959805e-02 -6.269589236165632462e-01 -9.312180021003463315e-01 3.456993591167902835e-01 1.154339017380936194e-01
1.864600606652989934e-02 4.250477673897923997e-02 -6.989335951807217340e-01 -9.143958190572374356e-01 3.943923797358437899e-01 -9.129587557465169978e-02
3.337496007458556468e-03 -1.143582722481062582e-02 -8.294078056551057454e-01 -9.433936510001524889e-01 3.269623857506883668e-01 5.571371067179965025e-02
-2.393671776952318881e-03 -2.436041976762749750e-02 -7.542321668342815144e-01 -9.412885602686409392e-01 3.298043156113202867e-01 -7.214540672515393216e-02
-2.429221606845683584e-02 -1.061025757208923226e-01 -7.266703071322829777e-01 -9.520152727461128617e-01 2.767713741645531633e-01 1.306312631080685793e-01
-5.233848753159207022e-03 -5.795828244190069645e-02 -6.785841725559133009e-01 -9.492916450017643282e-01 3.026267741907939790e-01 8.521976456620086737e-02
-1.813763623120526192e-02 -7.120652633563935574e-02 -7.823917801178421616e-01 -9.174054495360505213e-01 3.945025677490056060e-01 -5.229689475483457334e-02
8.402574560966042175e-03 2.546480952600950649e-03 -7.027982097511875637e-01 -9.616511515925911802e-01 2.079058698372336089e-01 1.788916206194874348e-01
-7.554967680105616895e-03 -4.022000240287778444e-02 -8.331102258272522487e-01 -9.339243005277543253e-01 3.375122936251918060e-01 1.177745835722100454e-01
3.436713400729293766e-02 8.058568993846032535e-02 -6.682653929957640404e-01 -9.282548230857738947e-01 1.785995540520747549e-01 3.262593794979676276e-01
6.361261987347871516e-02 1.425933857456772313e-01 -6.389634187541641808e-01 -8.939213656252519291e-01 4.478929019405788470e-01 -1.722035045903495820e-02
-3.211882412646645257e-02 -1.250498210957045053e-01 -7.418088243067638698e-01 -9.474214031346421816e-01 2.922734345066647643e-01 1.302648239704957966e-01
-5.959164693954920738e-03 -3.381067053680546219e-02 -8.393593697964669698e-01 -9.262354703518379528e-01 3.620414959930200460e-01 1.049466942845066614e-01
8.728870319313797744e-04 -2.901895433357321377e-02 -7.013335706740155828e-01 -9.537933368607683926e-01 2.630264186263803761e-01 1.452424650871126099e-01
-6.634022889842618696e-03 -6.863100237607679122e-02 -6.526649099864858528e-01 -9.484598433222286573e-01 3.092204809437075208e-01 6.932978991830113236e-02
3.895014801901859613e-02 6.270548148657106857e-02 -6.219181329850888007e-01 -9.233505366391647762e-01 3.438789926078202885e-01 1.707952719813910503e-01
1.080158952428228181e-01 1.867530890344406280e-01 -6.110785009115916599e-01 -6.128362062328580606e-01 7.681468098043275905e-01 1.854245477749700277e-01
8.046772741623410899e-03 4.242812677317291982e-03 -7.724152910268250460e-01 -9.541896028927213669e-01 2.963802773916895950e-01 -4.099918175593407488e-02
-4.314473822187814278e-02 -1.177942751308047320e-01 -8.567476881757163376e-01 -9.158677770171069765e-01 3.640287788761957244e-01 1.693200022786708336e-01
-5.912680965465955465e-03 -3.816341275266010163e-02 -7.314992045551552691e-01 -9.599802973021226427e-01 2.428333817881407342e-01 1.395341444989841306e-01
1.475545016029975766e-02 1.771904559149884524e-03 -6.447687088782037002e-01 -9.642469645815495705e-01 2.591468200655014376e-01 5.541405007041843439e-02
-1.884883342230496764e-02 -7.063290011653604317e-02 -8.281583943197559083e-01 -9.200294234704554652e-01 3.795979082438102892e-01 9.721773503608047151e-02
-3.250348736699751676e-03 -4.881390201907013365e-02 -6.877960118002626189e-01 -9.490569067275287374e-01 2.978795478741129710e-01 1.027558404719124685e-01
2.852022281568667231e-02 3.405618630541398795e-02 -6.160405956742313061e-01 -9.202196292842922398e-01 3.756518078419042173e-01 1.099161186768748133e-01
-5.660689901330489410e-02 -1.611700247498498717e-01 -8.065205222934840323e-01 -9.174883843918399950e-01 3.181465146882864192e-01 2.387422453143713819e-01
5.159426348156482406e-02 1.167979751656511161e-01 -6.683322043986410499e-01 -8.979728411831593426e-01 4.374363205720075420e-01 -4.789824570763345779e-02
1.426289079264122205e-02 2.208575960039778352e-02 -8.145050534849467283e-01 -9.676602269745355756e-01 2.513387701072717362e-01 -2.150599387506978849e-02
-1.234225527353370426e-02 -5.550254960638672380e-02 -8.238477507054948745e-01 -9.268868818664504072e-01 3.681872983226847085e-01 7.293025145802962961e-02
-3.744904383852116353e-02 -1.156646272406649245e-01 -8.083575658048504087e-01 -9.011625967342863364e-01 4.332266237833825584e-01 -1.485485416857960060e-02
2.770400763593395405e-02 6.503654274184414441e-02 -6.871959227313301222e-01 -8.994370711929239315e-01 4.304453373237513425e-01 -7.569522138244463849e-02
1.355921736567470594e-02 1.926227113422374765e-02 -8.266933978861821242e-01 -9.614762056670349555e-01 2.747885341802963621e-01 -7.400501278018304860e-03
4.898334047157143489e-03 -3.378987357258321500e-02 -6.470270549385009895e-01 -9.616697612492155489e-01 2.702942616254183639e-01 4.617664378500192096e-02
1.876955238617443109e-02 1.913186768645525060e-02 -6.569933546923685252e-01 -9.583254443218494067e-01 2.717299102143040379e-01 8.817708693451176138e-02
-1.874565528750652332e-03 -2.804341144538864336e-02 -8.193390122719187429e-01 -9.407081736367771674e-01 3.329231067707465463e-01 6.504104112845524033e-02
2.816401223500952442e-02 6.527404543580092589e-02 -7.353713433061677129e-01 -9.352919379482481643e-01 3.508482115888025832e-01 4.620090079153835183e-02
-1.798689948939825520e-02 -1.032383633590120975e-01 -6.809221547643052874e-01 -9.688183840838974215e-01 2.330978270156597310e-01 8.400203391373056716e-02
-1.150279485015625464e-02 -5.590539444976242583e-02 -8.058395280842415298e-01 -9.380820694931882864e-01 3.463128136006599078e-01 8.334628448350023949e-03
1.353310196177083882e-02 2.537112749236618975e-02 -7.344085193766179964e-01 -9.446050574313544779e-01 3.269842436347324410e-01 -2.833001746787010972e-02
1.317758291989861233e-02 1.876375356965029328e-02 -8.053543239665215125e-01 -9.655251400280492335e-01 2.594501810170636302e-01 -2.113782259432545052e-02
1.191002234233336059e-02 1.793716361351073776e-02 -7.653182805861855620e-01 -9.562628433562139207e-01 2.913180421579717461e-01 -2.636612845177556744e-02
-3.026451288562358784e-03 -4.929837044203030233e-02 -6.843236577938580645e-01 -9.490569067275287374e-01 2.978795478741129710e-01 1.027558404719124685e-01
-5.126785178061297327e-02 -1.619177794022474415e-01 -7.722044552714553145e-01 -8.857926842668024658e-01 4.562302242512362160e-01 8.500178221119548960e-02
3.812264488889678844e-03 -4.481281953601364693e-03 -7.442773450165645066e-01 -9.435769346471288843e-01 3.261349602176581430e-01 -5.743305777820367775e-02
-2.330695880789224184e-02 -1.187546052260632368e-01 -6.940543454177933169e-01 -9.615306659953921642e-01 2.443034045834768797e-01 1.255970734506981767e-01
-1.276172327660050725e-02 -6.514854585652302132e-02 -7.283586056839426170e-01 -9.551905489113500236e-01 2.735591470912908107e-01 1.130327753933328683e-01
-3.183237100415452908e-02 -1.135721064223945281e-01 -7.649654740907670947e-01 -9.424086732715746262e-01 3.030725545442414237e-01 1.414670252197967049e-01
-1.475816530807456430e-02 -6.420715186730106827e-02 -7.953647075346158557e-01 -9.257911790593780221e-01 3.779331318027600028e-01 -8.788666656815857445e-03
-1.349524363951525030e-02 -5.309060084192843143e-02 -8.397603426503496005e-01 -9.173749208457371296e-01 3.649195643269998457e-01 1.589244039619787385e-01
1.954918647129157833e-02 1.666692880676995739e-02 -6.407022482245733341e-01 -9.446656167414909655e-01 3.155852734944806226e-01 8.951428768544507364e-02
-1.413716009173987195e-02 -8.669730207001460909e-02 -6.837800449976979555e-01 -9.601591171742207553e-01 2.672289929184361035e-01 8.175044373591741631e-02
-8.100246939883849751e-02 -2.029583189876307814e-01 -8.290918256435424460e-01 -6.888774574065192891e-01 6.286555523605205087e-01 3.608878567691329864e-01
3.874231326991050672e-03 -1.208017213509629019e-02 -8.023519335281812381e-01 -9.539688878511524139e-01 2.994245437634577289e-01 -1.697950541332169869e-02
5.992901104361520598e-02 1.338929232983643858e-01 -6.631562838299913665e-01 -8.940552409446272941e-01 4.470803914736052320e-01 -2.800624393331812428e-02
-3.605679557895455356e-02 -1.366057488161179501e-01 -7.419367511023867712e-01 -9.303045812747271492e-01 3.412866472604199619e-01 1.343756319464079196e-01
2.705795549115707840e-02 6.947440581140829075e-02 -7.807705144909693473e-01 -9.493492049016492018e-01 3.086133313945157441e-01 5.910921111117343335e-02
-5.389791770070729432e-02 -1.452617339681377684e-01 -8.537421021516324871e-01 -9.162097945473063332e-01 3.875656624984447629e-01 1.017470865810142233e-01
-2.704160577528513104e-02 -1.253997421392049894e-01 -7.070632062592638878e-01 -9.513485239035069929e-01 2.728327951191777956e-01 1.431721061313110388e-01
2.618533047790408755e-02 4.232966234103418407e-02 -6.563124313776511620e-01 -9.367831511349162810e-01 3.091886091812818815e-01 1.638283604943946425e-01
-3.728813209785569738e-02 -1.461883706995908971e-01 -7.259804502548328209e-01 -9.215552525199788292e-01 3.630530777196397940e-01 1.375804466889656297e-01
2.211106536625498040e-02 2.049868521010244499e-02 -6.270104048029288002e-01 -9.333238313530054509e-01 3.487772842647351434e-01 8.521168822094206396e-02
-4.443461738985594184e-02 -1.501956616442662595e-01 -7.624116640596189098e-01 -9.036473895171679427e-01 4.152835811823918366e-01 1.046945204828590714e-01
3.647283544745275052e-02 5.926567629407754334e-02 -6.302316954739989319e-01 -9.299930526866336811e-01 3.417635518223411384e-01 1.353166530785260835e-01
2.547568732359818677e-02 6.239009295732631660e-02 -7.681939503962431637e-01 -9.479286797712669355e-01 3.134203809283908626e-01 5.655866764524513507e-02
9.180297856745689433e-02 1.759484821385185749e-01 -6.215040545533527805e-01 -6.175096155927340957e-01 7.794941685044458612e-01 1.052174696430032558e-01
-5.522637806844909319e-02 -1.504589406566752274e-01 -8.445793679343938098e-01 -9.069824161621209413e-01 4.093983778445813848e-01 9.887297401690094134e-02
1.955861919723439479e-02 4.410528160287898597e-02 -7.823024339126114501e-01 -9.601520356287963631e-01 2.791901343961072923e-01 1.268610790440801751e-02
-7.637509993442122627e-03 -4.479501115228137070e-02 -7.318247766020127276e-01 -9.599802973021226427e-01 2.428333817881407342e-01 1.395341444989841306e-01
1.124171001575358314e-03 -1.534289775070564465e-02 -8.380944584680195542e-01 -9.358377115927460910e-01 3.377507084564719264e-01 1.006590110124479659e-01
4.640043531391009612e-02 1.034627017811943772e-01 -6.956363582131742662e-01 -9.140068073240492641e-01 4.054696523235684635e-01 -1.363514612693882654e-02
2.065912204780603542e-02 1.855683581869255541e-02 -6.351781984868739572e-01 -9.442650426892046367e-01 3.202388854814094965e-01 7.622719580818607121e-02
3.881985475785530021e-02 6.308568024858197953e-02 -6.234697704698840548e-01 -9.339884161643901006e-01 3.322872611185029856e-01 1.313423563405883288e-01
-5.651842858448463680e-02 -1.735645872596028594e-01 -7.597950757173516090e-01 -8.322857704850622484e-01 5.459943197959209460e-01 9.586761183359113203e-02
1.765042281586726852e-02 3.696924167091637792e-02 -7.492123806617075887e-01 -9.523805532006238694e-01 3.048639346323598898e-01 -5.409551344634784542e-03
-5.144962643111540036e-03 -3.843249621677406053e-02 -7.955226470347405154e-01 -9.435194769995560726e-01 3.311257104811453633e-01 -1.125879126909482171e-02
-1.033973336047278903e-02 -5.630817700743101506e-02 -7.287824550120710621e-01 -9.567807850713268003e-01 2.637844370306577368e-01 1.224267131745142012e-01
3.454528714803927099e-03 -1.243935278368680716e-02 -8.203966925689271106e-01 -9.465530802437500668e-01 3.211806846540293248e-01 2.966873920877023327e-02
-4.715963405646838441e-02 -1.512993442648240539e-01 -7.783504816798483272e-01 -9.173847740928975369e-01 3.646846219932564082e-01 1.594060938112436820e-01
5.039091267629782628e-02 1.161685642714414823e-01 -6.549635599143249776e-01 -8.734340846127182090e-01 4.808225297117185160e-01 -7.695839628245132458e-02
9.750291107887014766e-03 1.685659143487722514e-02 -7.168342363172898191e-01 -9.284620785436922263e-01 3.617883176213354535e-01 -8.406772233771166170e-02
-7.988048293520691456e-03 -4.638172812648552051e-02 -7.313626728558774159e-01 -9.593531672283996947e-01 2.563943737994730521e-01 1.179127881648739801e-01
3.500075786622970642e-02 8.193132000312590424e-02 -6.671992612752072338e-01 -9.282548230857738947e-01 1.785995540520747549e-01 3.262593794979676276e-01
3.808094009267411206e-02 8.565038778915440298e-02 -6.957738830898383409e-01 -8.999889249465533592e-01 4.344634116718151251e-01 -3.551730412114793151e-02
-2.973199687104915870e-04 -1.917722718749496902e-02 -7.243779004166663871e-01 -9.617042311792260989e-01 2.057722932390258219e-01 1.810600316666445553e-01
