1.046538158851309346e-02 -5.253440922258349743e-02 -9.295907784616461722e-01 -3.197694586750322587e-01 6.713817261337101661e-01 -6.685761520667610203e-01
4.506214963621419517e-02 1.368791046624813490e-02 -8.842925168649258261e-01 -3.801037467893833011e-01 6.517509021249193735e-01 -6.563093045630438160e-01
-8.079289417224617964e-02 -1.070068182018326930e-01 -9.206413789715046647e-01 -4.776495605900549779e-01 6.938389049664289709e-01 -5.389234372553435293e-01
-5.415378647858357791e-02 -6.269679634217335817e-02 -8.937084722005604887e-01 -4.828852397452381706e-01 6.464092941359036448e-01 -5.907426425194871600e-01
2.139869447938502409e-02 -6.909020474495501662e-02 -9.525169894341806165e-01 -3.419351128866829348e-01 7.046772199347984822e-01 -6.216996013189450832e-01
-7.066868604403732379e-02 -5.991950650958739050e-02 -8.777427778592788998e-01 -4.676505658474296445e-01 6.362809154002082579e-01 -6.135548426669384936e-01
3.617504816373814935e-02 1.186917828043948658e-01 -7.571806389523498826e-01 -3.193748279277513480e-01 7.235858991365479165e-01 -6.119012713313093377e-01
1.040906016394347808e-02 -8.575564280242418611e-03 -8.871738289386823517e-01 -3.321650366435854873e-01 6.540283942784902438e-01 -6.796419998124495487e-01
-4.083112047044201026e-02 -1.515190129940762742e-01 -1.018024350516893550e+00 -5.533279666968853316e-01 6.983058534661397143e-01 -4.540893043070015622e-01
-9.357621269431419878e-03 -7.748134515434380865e-02 -9.469644870171529671e-01 -2.391169167940909446e-01 7.069819184761848563e-01 -6.655822015728943830e-01
8.194417442481256864e-02 3.441164928010677360e-02 -8.870439601330997181e-01 -4.284098902833262112e-01 6.442281386535881893e-01 -6.335890397366115145e-01
-1.079688738841159956e-02 -6.623920673412495019e-02 -9.340208130940724773e-01 -5.782833998379168783e-01 6.181869442746013021e-01 -5.323844582633219247e-01
2.643795670328048103e-02 -1.130782361763850788e-02 -8.977571458565113405e-01 -3.497456962061661345e-01 6.410898072534729764e-01 -6.831411325787437594e-01
-5.367546084961313108e-03 7.523213560336695915e-02 -7.783370935931860357e-01 -5.442698378533858961e-01 6.680484275187087428e-01 -5.074264893487820949e-01
3.926215165379616512e-02 -7.565638074451021267e-02 -9.723005146544080324e-01 -4.537121665061349396e-01 7.190002287441227269e-01 -5.264826122771848471e-01
1.594400505577467852e-03 -1.463140651774285927e-01 -1.040122019975002088e+00 -4.187714536889138306e-01 7.553919168677818430e-01 -5.039975411706810737e-01
-8.064283089809164140e-02 -1.232387200028300517e-01 -9.436052325128632123e-01 -4.370179447861247679e-01 7.540925023286623174e-01 -4.902650445081803698e-01
-3.227691939259159926e-02 6.407690714576662339e-02 -7.676088872741531066e-01 -4.712205719527191583e-01 7.230068662331687879e-01 -5.051853560310759494e-01
1.075082627727286244e-02 1.067728407077457448e-01 -7.529250638647901894e-01 -5.508646749402564824e-01 6.846114867152482963e-01 -4.773418294686763153e-01
5.916456124752979273e-02 8.443339779261505029e-02 -8.104764670807873550e-01 -3.764996128299162859e-01 7.111259366288541495e-01 -5.937574789361881322e-01
6.500087462567769037e-02 1.527725274433827662e-01 -6.561171320123559969e-01 -3.423404213000307283e-01 9.244718522880018829e-01 1.677940114286207984e-01
-2.744136801379795654e-02 4.646046500377064986e-02 -7.948361897181602798e-01 -4.426159540522815461e-01 7.045352904984016895e-01 -5.547261862042583980e-01
-3.757091169725580021e-02 -1.112986172382187944e-01 -9.639667073848139367e-01 -4.938839335677367437e-01 6.863611168378153105e-01 -5.338418093937623565e-01
3.666882188370798601e-02 -2.469515533630349882e-02 -9.155463785605462146e-01 -3.569709218341375334e-01 6.443998289448805705e-01 -6.762548494618687567e-01
4.101512650990501302e-02 -8.868658378998038605e-02 -9.923888915204350791e-01 -4.781281474880094695e-01 7.345287913738514085e-01 -4.815193965174753288e-01
4.241590275186079423e-02 9.063332313661710826e-02 -7.941957861906560057e-01 -3.161455128573290030e-01 7.173428183971739536e-01 -6.208633469566192664e-01
2.324405591254525769e-02 3.143944779015656055e-02 -8.537994106762649693e-01 -3.514449132217389860e-01 6.799798557491464335e-01 -6.435167975631517212e-01
-2.499102010445755639e-02 3.688098517652239894e-02 -8.090937529948439844e-01 -4.677591435224009997e-01 6.875484909706509606e-01 -5.554083688739038793e-01
6.802752780011470102e-02 -5.311581853897168887e-02 -9.660828238236166543e-01 -4.564654083666305207e-01 7.083877377862328739e-01 -5.383550351940520340e-01
-3.792951981233774056e-02 -1.627349354512303697e-02 -8.553363769624755530e-01 -4.992533531526801016e-01 6.439729048580432602e-01 -5.796938736734235098e-01
5.712468822676110974e-02 -1.137260009544120189e-02 -9.142379208762085874e-01 -3.777000992033650584e-01 6.304192345184276292e-01 -6.781697603188805434e-01
5.407487004671485305e-03 -1.200557417237087393e-01 -1.006739925226946220e+00 -3.664256729174548699e-01 7.403577006379975511e-01 -5.635625088071487543e-01
-1.673824395025086398e-02 -1.373681941432538522e-01 -1.016442970379330957e+00 -2.633607095913534923e-01 7.563858205976109472e-01 -5.987667551245791087e-01
-2.370108696004170554e-02 -7.247291758478983936e-02 -9.296160621680680247e-01 -4.838266781357540292e-01 6.516991783168869512e-01 -5.841232117500689824e-01
-5.654030927736457962e-02 -1.640507119302648253e-01 -1.023015277581277971e+00 -3.070880483241540393e-01 7.833264281946953345e-01 -5.404596538764042668e-01
-6.485758763127286164e-02 -1.390874600322253296e-01 -9.803849715992398739e-01 -3.126525347344354944e-01 8.164898665145243761e-01 -4.853789142548600721e-01
-4.926354923330349828e-02 -4.792353207771787860e-02 -8.815525495188590854e-01 -4.737291925617900246e-01 6.522224421917199866e-01 -5.917656107076708638e-01
7.028802167380915344e-03 -5.310428857333066022e-02 -9.285753378135210845e-01 -3.002287556631159648e-01 6.735927651694850748e-01 -6.753780282066510487e-01
-1.203984286930411159e-02 5.229166812476769566e-02 -8.013403332258124401e-01 -5.059091550033444351e-01 6.896331567380339367e-01 -5.181332222617427430e-01
2.413350695508691135e-02 1.274624622922200801e-01 -7.338566293730804935e-01 -5.195466306166212078e-01 8.150019699011162855e-01 -2.565990796402357055e-01
-2.912842731190524309e-02 -1.348250615504510141e-01 -1.007338900902740919e+00 -6.474462226520313335e-01 6.594107375032600693e-01 -3.820875135869045702e-01
-7.072426650876860801e-03 8.513999341460712356e-02 -7.633880809918395238e-01 -5.369304302312405408e-01 6.876396014453854955e-01 -4.887304897545539095e-01
1.662334251317405115e-02 -5.101541407917382920e-02 -9.310051637749711118e-01 -3.186144101394704498e-01 6.708307590264197540e-01 -6.696797371845103486e-01
-5.842005022475353637e-02 -1.031606466879055745e-01 -9.355650904454484440e-01 -4.857553390341883826e-01 6.640829951096658412e-01 -5.683621435369848873e-01
2.579014202915014611e-02 -3.255770865219766858e-02 -9.174822551106208701e-01 -3.409340493871204081e-01 6.467776070211387340e-01 -6.822336117669005606e-01
9.216175369129961381e-02 2.698089089271838575e-02 -9.011062196735838414e-01 -4.327653228107910532e-01 6.154071011073053432e-01 -6.587778648977018481e-01
8.803535630638870471e-03 -1.090155604420394719e-01 -9.943428116879053924e-01 -3.807697984843373962e-01 7.407833790118726336e-01 -5.534025171084328010e-01
-5.030260285364989564e-02 6.360422249916557191e-03 -8.227288223542343903e-01 -4.549032478997245832e-01 6.257658110009307606e-01 -6.336246403294534257e-01
6.679647884820809345e-02 5.526098698102341333e-02 -8.527401650084119877e-01 -3.993342992593699181e-01 7.127699651051869756e-01 -5.766204074423472159e-01
1.855374137427717989e-03 -1.435942023058009998e-01 -1.036395220814101403e+00 -4.138155174243901557e-01 7.334164313268560775e-01 -5.393116499748203951e-01
5.817294310326658058e-02 8.700696235083606178e-02 -8.067241699369138708e-01 -3.489866551244490966e-01 7.283822005713207481e-01 -5.896335170560854655e-01
-6.485664188276293873e-02 -6.193199091364425674e-02 -8.842859714014608130e-01 -4.714009862423220731e-01 6.349944261017403946e-01 -6.120156770782001487e-01
-3.592825011433518206e-02 -1.399355017135789359e-02 -8.545518309103536936e-01 -5.003096692997602846e-01 6.382527422676537165e-01 -5.850843287877266485e-01
3.119282758265767147e-02 1.346288835427655040e-01 -7.314698516702637932e-01 -8.662964091682676671e-01 4.994634979645054540e-01 8.169801908596731679e-03
-1.409365736956743297e-02 -1.611640584350896091e-02 -8.766123689622780102e-01 -5.479416918618393861e-01 6.104714594959064211e-01 -5.719130173903395065e-01
2.212561075015350223e-02 -1.207509432079286182e-01 -1.021670245823099066e+00 -4.671887458800569326e-01 7.244574422938752090e-01 -5.068491787781015390e-01
-7.565496239441379944e-02 -1.197846924819559872e-01 -9.425268900879196776e-01 -4.053645401881572630e-01 7.551121914401853763e-01 -5.152525282775858306e-01
4.388527962323789805e-02 2.537470048668873449e-02 -8.718720549908128836e-01 -3.813230606950308021e-01 6.644156461399235436e-01 -6.427632321054477238e-01
7.875727466231850771e-02 2.610226634896578926e-02 -8.931885743712623116e-01 -4.274267739498563978e-01 6.223545014561153721e-01 -6.557295383221107832e-01
-8.908224565310866871e-02 -7.892561598571216919e-02 -8.823292695135573904e-01 -4.882105565015192328e-01 6.097349743091178276e-01 -6.243986816327661282e-01
2.701988439583262805e-02 -8.515040309269064633e-02 -9.754565753507239423e-01 -4.195160351413575461e-01 7.282710980816801127e-01 -5.418740665119330391e-01
-7.208879401580149671e-02 -1.129439757685463813e-01 -9.362475673076476879e-01 -4.536566587540450946e-01 7.043351477789210335e-01 -5.459923402130852921e-01
4.948868630739618885e-02 -1.206822006249084166e-02 -9.106317641018811804e-01 -3.777000992033650584e-01 6.304192345184276292e-01 -6.781697603188805434e-01
4.958146569957759889e-03 5.669424224921456451e-02 -8.138984809220869421e-01 -5.635618366806662838e-01 6.435254043793764422e-01 -5.179508761991565846e-01
-5.120514024172026848e-03 -1.313770520494171867e-01 -1.014934233732225133e+00 -3.482901139221297182e-01 7.483775302073347735e-01 -5.644688377801556634e-01
5.085138456947282427e-03 -1.312482224383469719e-03 -8.776887602832179613e-01 -3.205573454276870460e-01 6.619803258270005042e-01 -6.775138644414095968e-01
4.935020910490060982e-03 -5.737677164739785757e-02 -9.319057694424360827e-01 -3.002287556631159648e-01 6.735927651694850748e-01 -6.753780282066510487e-01
3.043036241568276498e-02 8.809318083202546945e-02 -7.920087125640982162e-01 -2.580554235290449250e-01 7.316408508252542076e-01 -6.309588447679795875e-01
-4.953426559167202481e-02 5.979926468089038008e-03 -8.236562174238901690e-01 -4.549032478997245832e-01 6.257658110009307606e-01 -6.336246403294534257e-01
5.744524390669772385e-02 -7.778526167137675418e-02 -9.921496983421128624e-01 -4.779177934203827083e-01 7.401064067908684763e-01 -4.731142455679198666e-01
-6.829635408868472979e-02 -4.129482989623065731e-02 -8.597142972195618293e-01 -4.417143467467035123e-01 6.555663061717497131e-01 -6.124714312443158004e-01
4.786857315995310391e-02 -1.175368527326495389e-02 -9.094547641743335742e-01 -3.792598723793641491e-01 6.190858246207079363e-01 -6.876733897399887052e-01
-6.617646816147629285e-02 -1.073951565162758331e-01 -9.340252130214735660e-01 -4.808344710880835260e-01 6.830935583191695137e-01 -5.497102891490194265e-01
-6.066068670613652264e-02 -4.085623481894470888e-02 -8.649659689120059447e-01 -4.495468423450005302e-01 6.643204815866696755e-01 -5.971481677792326304e-01
9.270550660464416462e-03 -1.567045986277974118e-02 -8.934153678902927442e-01 -3.324528694515747618e-01 6.521836747979626869e-01 -6.812720043568789574e-01
4.200180685405013187e-02 1.326437079662535490e-01 -7.372045947510119657e-01 -2.021848470825004795e-01 8.856554019099915909e-01 -4.180141106205352286e-01
9.033424590856597991e-03 -1.119049770757703649e-01 -9.983357863804948051e-01 -3.770182562458357922e-01 7.389405714544992065e-01 -5.584120936332304108e-01
-2.963967761451317615e-02 -8.616799073507538931e-02 -9.403079435844517997e-01 -4.848695085765152846e-01 6.665886601006624224e-01 -5.661811705434683928e-01
3.826045194016568923e-02 6.028616415276603913e-02 -8.284253634279539202e-01 -3.110567428872317852e-01 7.416001081901676395e-01 -5.943677163479844650e-01
7.338101866151832200e-03 -1.135808779483695879e-01 -9.994088711827217031e-01 -3.770182562458357922e-01 7.389405714544992065e-01 -5.584120936332304108e-01
-3.538636771320779334e-02 2.493600732150402441e-02 -8.147404675223649528e-01 -4.636395837240252504e-01 6.718665486372266127e-01 -5.776103160665625458e-01
3.410210223549261371e-02 -3.459180309646835150e-03 -8.944329846125648187e-01 -3.571799052427826471e-01 6.368055171070345910e-01 -6.833017259401584775e-01
-8.576489372147493018e-03 7.017812526641588333e-02 -7.815557836602351482e-01 -5.441195126663630477e-01 6.686798030700310536e-01 -5.067556382537288240e-01
1.673165354547094270e-03 2.152975457392163755e-02 -8.517481949770127070e-01 -6.063400996950353283e-01 5.927373158685288468e-01 -5.301076851723492966e-01
5.484882548251474033e-02 -6.927777357879606746e-02 -9.768710102762920844e-01 -4.595223285206201380e-01 7.254387510864884758e-01 -5.124235045478136019e-01
-6.626206476778560839e-02 -4.797073921176589484e-02 -8.685396240475539154e-01 -4.560817802604663629e-01 6.582803383042962198e-01 -5.988792916076035588e-01
-3.821867385912158105e-02 1.579177341597077025e-02 -8.221763888676674181e-01 -4.730925735309568503e-01 6.232117927328345575e-01 -6.227282539507764669e-01
2.584462055662194863e-02 1.633970288482188352e-02 -8.708469552461561847e-01 -3.558162351906354881e-01 6.606687760661097419e-01 -6.609928706923176023e-01
-7.017431267756807367e-02 -1.462478864038563031e-01 -9.892272647086567394e-01 -2.484086168404436856e-01 8.383103427484611680e-01 -4.853132270198031173e-01
-9.147197720823214626e-03 -1.206672688133574589e-01 -9.986762455865221266e-01 -3.129350979612514627e-01 7.501916491704834211e-01 -5.824809988135684069e-01
5.773864972600039475e-02 -5.098915984064530255e-02 -9.553076753546360100e-01 -4.316251870377304511e-01 6.992195788392362443e-01 -5.699049732038891092e-01
-5.173623495406557554e-02 -1.057706860908833590e-01 -9.445397000463596759e-01 -4.831386959488597754e-01 6.764360816220089667e-01 -5.558877836008793150e-01
1.308639667963130103e-02 8.589754319332794374e-02 -7.858205801819508896e-01 -6.403084445704821936e-01 6.241254568618438414e-01 -4.477415659827939098e-01
-3.019773554139259727e-02 5.096531418265267538e-02 -7.867243647922367300e-01 -4.573748537126974822e-01 7.104091796688126736e-01 -5.349084413556897122e-01
-4.888760958879913993e-02 3.378291006756443254e-02 -7.940934300640095644e-01 -4.216607359461628790e-01 6.991852606176768292e-01 -5.773579436504980844e-01
4.303482303059086474e-03 -1.076993216609895346e-02 -8.864414436485157367e-01 -3.114298103709338128e-01 6.553094772488989861e-01 -6.881721893829325642e-01
4.800851895204551190e-03 7.429798790607682057e-02 -7.909463720222016381e-01 -5.856777677335982535e-01 6.439483104123214785e-01 -4.922520958814760594e-01
3.508533094379820416e-02 1.394293188457547128e-01 -7.089416641113716056e-01 -4.343834625990791176e-01 8.959575360403759792e-01 -9.258024105009057814e-02
-5.954375909571778952e-02 -1.359304746248019835e-01 -9.791607408993804329e-01 -3.509934241720514270e-01 7.762215864416437405e-01 -5.237209800361218859e-01
2.881503337849125948e-02 9.574779710196262839e-02 -7.823549554327980937e-01 -2.411751268993349295e-01 7.422744068735214196e-01 -6.251905813955065394e-01
-4.120342992832248113e-02 -9.060660134796681697e-02 -9.356306525510882377e-01 -4.867658254444483523e-01 6.636254483390673364e-01 -5.680319493621435178e-01
-3.170760403232652375e-02 -1.017732067065452578e-01 -9.573315416354236662e-01 -5.017497893283924260e-01 6.711364969249075108e-01 -5.457315744981936501e-01
-6.331605193198688863e-02 -7.989915367641807487e-02 -9.047443999615181198e-01 -4.952687257915491803e-01 6.420830453018537831e-01 -5.851822384426177415e-01
-2.274920531731882550e-02 -1.300059831361465579e-01 -1.004189829300881964e+00 -2.406502590651415363e-01 7.651076749440256508e-01 -5.972417421393346748e-01
9.590103893334308433e-03 8.257007651447059726e-02 -7.858021805784024538e-01 -6.055534850751331799e-01 6.421665685232269549e-01 -4.700288022924381526e-01
-8.726396686438493699e-02 -6.092713542192775000e-02 -8.663014442025044337e-01 -4.690415279859111997e-01 6.167794100342633978e-01 -6.321259402859747967e-01
5.577480014389162022e-02 -2.966435244490503789e-02 -9.308518825750125014e-01 -3.939304660308980965e-01 6.423902671546863896e-01 -6.573838548349130173e-01
-1.039085899458788015e-02 -9.593596854132993568e-02 -9.673386616990783393e-01 -2.729728450938480599e-01 7.302933819109912461e-01 -6.262247217879354233e-01
2.663808580073400920e-02 -3.515555235203365880e-02 -9.203746191837754997e-01 -3.393423325554029146e-01 6.569346387061117953e-01 -6.732634416065740313e-01
-7.347132307975320908e-02 -8.392118035998356873e-02 -9.003659647957427126e-01 -4.995643252314350691e-01 6.305286686950063446e-01 -5.940278469144051332e-01
-2.805903853768615050e-02 2.349597661134282534e-02 -8.220113902736099210e-01 -4.967104480566128522e-01 6.366573943881709274e-01 -5.898695558869466726e-01
8.429759167437134160e-02 2.650523190438535065e-04 -9.195680287471231784e-01 -4.029099402930096940e-01 6.027353126332006816e-01 -6.887479385944041965e-01
-2.502687094053871256e-02 -1.163991396214716506e-01 -9.838200546564390692e-01 -5.478532118940966367e-01 6.895920083305555615e-01 -4.736240283853358490e-01
1.780720720759813988e-03 4.033760615725515836e-02 -8.303733115453456604e-01 -5.767431341511758403e-01 6.251690272156710249e-01 -5.258621916621222248e-01
-8.127428597401209487e-02 -4.199338059820915264e-02 -8.511187377540576637e-01 -4.347407461389275474e-01 6.664389722660891691e-01 -6.056893427256974105e-01
-3.403971850709659047e-02 3.875811801841252957e-02 -7.993386642709700007e-01 -4.450599905561882230e-01 6.941700502615369972e-01 -5.657292162563472004e-01
3.491649283594285003e-02 1.291489288248802714e-01 -7.410951017439426636e-01 -2.336550936361273811e-01 8.907435120360114311e-01 -3.898477818118813998e-01
5.512560231863755655e-02 7.123151490946222353e-02 -8.242191696220175778e-01 -3.424031694846131901e-01 7.422753266218531376e-01 -5.760099035739858486e-01
3.649690034100391139e-02 9.719274760489177156e-02 -7.838060640897086540e-01 -2.683413054443492540e-01 7.355251802911824122e-01 -6.220897467006237802e-01
3.761620109416353303e-02 2.787434696924130650e-02 -8.656132121695825354e-01 -3.664004055599445198e-01 6.681331874448029895e-01 -6.475714529226531679e-01
3.475959414035848655e-02 -3.469885103509296603e-02 -9.241019561173121621e-01 -3.557169689163023341e-01 6.544938040667024337e-01 -6.671606241852822139e-01
8.300196112967570330e-03 -2.042458539048109048e-02 -8.974791919926624617e-01 -3.253332810172738232e-01 6.538767207088402866e-01 -6.830838091900504061e-01
4.409019454950892369e-02 5.383055936257598317e-02 -8.397625933970801482e-01 -3.501377847052825065e-01 7.278837711388370657e-01 -5.895665759135114703e-01
-1.514207364498865345e-02 -2.529085878848713262e-02 -8.855806437676826404e-01 -5.347339237107671117e-01 6.156875439890250323e-01 -5.787818924341446847e-01
-5.806863893425858597e-02 -1.319820305557865836e-01 -9.742972541578033274e-01 -3.509934241720514270e-01 7.762215864416437405e-01 -5.237209800361218859e-01
6.207345790510218619e-02 -3.539799333341155096e-02 -9.407762968947562809e-01 -3.894335449241984604e-01 6.692876953604507406e-01 -6.327681209786638616e-01
-1.118365311714625623e-02 -4.125180660182966447e-02 -9.062241638862228443e-01 -5.291251743277394226e-01 6.184419949625291624e-01 -5.809957390200090055e-01
-4.176097290052236538e-02 -1.372481969443498095e-01 -9.957046231228988686e-01 -4.918715117830319561e-01 7.170858116636640300e-01 -4.938120640556879493e-01
7.625404467565620459e-02 -4.998840602124967475e-02 -9.688458869082625657e-01 -4.312330476857764161e-01 7.250018797838269080e-01 -5.370384836243621285e-01
4.426525093362568275e-02 -7.870946442927624631e-02 -9.807815827411688892e-01 -4.537121665061349396e-01 7.190002287441227269e-01 -5.264826122771848471e-01
-5.158020090407023500e-02 -1.337124705715567463e-01 -9.818489672351301545e-01 -3.953418509505477463e-01 7.513402656299704718e-01 -5.283868148715298307e-01
-1.448820122206486219e-02 -1.594656009145565823e-01 -1.048370009075979548e+00 -3.811322855510336782e-01 8.238673402533047696e-01 -4.195006395401448263e-01
7.700834417957265476e-02 7.176860314309986555e-02 -8.386477307876775145e-01 -4.085096220371671749e-01 7.300230512238673475e-01 -5.478925381722639099e-01
4.758379391820467125e-02 9.758310953160045931e-02 -7.884283778693051969e-01 -2.866935984665915926e-01 7.445280165069965150e-01 -6.028970171052716598e-01
4.155216334296114172e-02 3.174272914273569557e-02 -8.637665064514254976e-01 -3.762192430772701157e-01 6.795373190270574959e-01 -6.298318134136169366e-01
-4.496053469597628000e-02 -3.404567934391878464e-02 -8.695260347971206505e-01 -4.647309555993462959e-01 6.611361661397112677e-01 -5.890026389837336174e-01
4.312272742377705123e-03 4.105227251606650279e-02 -8.322737240949192872e-01 -5.694291100411876805e-01 6.257349817526621782e-01 -5.331099523069292578e-01
3.762500019790739059e-02 2.401005518923627485e-02 -8.696051818089245433e-01 -3.664004055599445198e-01 6.681331874448029895e-01 -6.475714529226531679e-01
8.331912497773208415e-02 7.070408549599892234e-02 -8.447761592434038791e-01 -4.133384119342574659e-01 7.278504070279552263e-01 -5.471609838145498061e-01
8.112775196287230761e-02 2.508462117459271667e-02 -8.956995814621834251e-01 -4.274267739498563978e-01 6.223545014561153721e-01 -6.557295383221107832e-01
4.086616006444023647e-02 8.901856334453892017e-02 -7.953650317231304445e-01 -2.851062428620937395e-01 7.290768940384582120e-01 -6.222228803735004865e-01
2.851459832419800736e-02 5.766696300215521515e-02 -8.268330601963171933e-01 -2.953501206788999300e-01 7.254306754785855293e-01 -6.217062339156993467e-01
1.851050124269765923e-02 -9.927180664813033129e-02 -9.880391419560933253e-01 -3.796268715482099543e-01 7.374262649852805218e-01 -5.586465269813978285e-01
-2.166925082072339651e-02 -1.200539144387208768e-01 -9.920378362793164095e-01 -2.118695145507711597e-01 7.643119483504190459e-01 -6.090472513794039644e-01
4.336064902911501706e-02 -3.713507452996169661e-02 -9.311666095017381295e-01 -3.865807415928715907e-01 6.528952074953136009e-01 -6.513702313271283462e-01
2.814201043374206165e-02 6.376642066541561571e-02 -8.193983324139511026e-01 -2.753500856410085462e-01 7.291821327127860908e-01 -6.264788485415305752e-01
7.389023840592212622e-02 -6.850534395825037814e-03 -9.197461874771850621e-01 -3.986418232229486103e-01 6.092088822529898584e-01 -6.855284345390396661e-01
-5.108733415559413987e-02 -1.608171959378087434e-01 -1.021804550929330757e+00 -3.843436256383238048e-01 7.638371249491009429e-01 -5.184909102199183328e-01
9.228591525235735338e-02 -3.187871658984769204e-03 -9.272628626248098360e-01 -4.101170334776083615e-01 5.954267829344526142e-01 -6.908480042786940833e-01
1.076160032746356979e-02 -6.129732770330068026e-02 -9.386812346524033845e-01 -3.160405161479188929e-01 6.851803281524543321e-01 -6.562364741964988868e-01
-1.269874069494120530e-02 -4.638808063677082871e-02 -9.103553491576265033e-01 -5.194542978872875860e-01 6.252314842526442984e-01 -5.824541385428216866e-01
-6.746092253399771192e-03 -9.424796307284721841e-02 -9.670247872404560407e-01 -2.940806959286037525e-01 7.291963753707755291e-01 -6.178909211408363245e-01
2.081184203378948043e-03 8.763459828853155387e-02 -7.699791961898166948e-01 -5.608408142042889954e-01 6.662659322004195195e-01 -4.914746063753205330e-01
4.929610314076651907e-03 -9.212672331825678962e-02 -9.704244623069753217e-01 -3.204200803558184263e-01 7.302710658771117691e-01 -6.033532484767758497e-01
4.796525851068999396e-02 -3.436068490916743129e-02 -9.310896421031561454e-01 -3.755197785633057617e-01 6.614164332414314007e-01 -6.492404775935871619e-01
5.683674493625993918e-02 -2.104427013906650171e-02 -9.230647662186610702e-01 -3.939304660308980965e-01 6.423902671546863896e-01 -6.573838548349130173e-01
6.110587898510353583e-03 9.313691829435974401e-02 -7.670081372341758241e-01 -5.581851662927773683e-01 6.767653095674641683e-01 -4.800187870247983879e-01
-3.325737382597978437e-02 -1.028902406870487590e-01 -9.572803912234697510e-01 -5.017497893283924260e-01 6.711364969249075108e-01 -5.457315744981936501e-01
3.341753569116250044e-02 -1.117704575538282577e-03 -8.918929967664914749e-01 -3.571799052427826471e-01 6.368055171070345910e-01 -6.833017259401584775e-01
-7.802697346010538382e-02 -8.454893377655804676e-02 -8.972010897953619502e-01 -4.995643252314350691e-01 6.305286686950063446e-01 -5.940278469144051332e-01
3.415590245411209702e-02 -2.435174000629101391e-03 -8.935067810247198095e-01 -3.571799052427826471e-01 6.368055171070345910e-01 -6.833017259401584775e-01
-6.524461014248676520e-03 -1.207299001846402348e-01 -1.000190919705586046e+00 -3.405203220532677100e-01 7.492312184986342771e-01 -5.680655697151433259e-01
-6.245353466845288831e-02 1.644976670332028851e-03 -8.189036491636015880e-01 -4.422369880024275557e-01 6.221955398516387792e-01 -6.459869632053487631e-01
-6.623042812372099963e-02 -1.513375663712070163e-01 -9.996906854002014509e-01 -2.701122670124906366e-01 8.227898058681248905e-01 -5.000562953996944282e-01
7.707845218412003041e-02 -5.149094787781668958e-02 -9.715363038465867351e-01 -4.312330476857764161e-01 7.250018797838269080e-01 -5.370384836243621285e-01
-5.155576494149475934e-03 -5.529911563408061032e-02 -9.256253429527400156e-01 -2.458501600131021980e-01 6.820798753589376595e-01 -6.887123800628736081e-01
-1.039291902753216278e-02 -9.766329575802668028e-02 -9.693521454499187673e-01 -2.729728450938480599e-01 7.302933819109912461e-01 -6.262247217879354233e-01
-7.975745061287893567e-02 -1.332510467808583343e-01 -9.603676018045486096e-01 -3.474369124154438326e-01 8.097086350162149282e-01 -4.729265463805146230e-01
-7.706044691741377461e-02 -9.525237356353298546e-02 -9.098402080340247666e-01 -4.998208030300402283e-01 6.537384973178806957e-01 -5.681594335949770036e-01
-5.718404355779812404e-02 -4.980576183570206705e-02 -8.773776785320136495e-01 -4.689286188400081934e-01 6.492473156867536455e-01 -5.988187317597430948e-01
-8.447850971256445907e-02 -4.200844519034565433e-02 -8.488358412252687835e-01 -4.307223801216934489e-01 6.634907771342296590e-01 -6.117664749887161690e-01
-2.209973053250387925e-02 6.030956969508596138e-02 -7.815121212270154105e-01 -4.776064255021732485e-01 6.916965865542330505e-01 -5.417083481618680807e-01
2.719993837937745643e-02 -9.210789836483814982e-03 -8.961793061988511111e-01 -3.497456962061661345e-01 6.410898072534729764e-01 -6.831411325787437594e-01
4.182264619261610167e-02 1.393978420444711985e-01 -7.239143257352042005e-01 -9.581407975852411496e-02 9.245807851316762971e-01 -3.687411475348525980e-01
-6.063116411105804598e-02 2.699213881682120328e-02 -7.937353644863075486e-01 -4.228987191493592812e-01 7.003897055653552917e-01 -5.749877682872098772e-01
1.123392459607247366e-02 -2.992449531398425761e-02 -9.079016088666472806e-01 -3.184216133380506353e-01 6.547127536615695576e-01 -6.855354741748073133e-01
-2.261004490309679194e-03 4.299166004418560061e-02 -8.230733055911226836e-01 -5.509528442485598365e-01 6.482367399778654615e-01 -5.255854757860907167e-01
-2.123398947030292333e-02 2.282171568271282021e-04 -8.522172911376164617e-01 -5.294001747540665326e-01 6.156089731650417063e-01 -5.837474172354399915e-01
6.686376714249391007e-02 8.919482171270588788e-02 -8.091701487208932120e-01 -3.534510508507477389e-01 7.367805130043814099e-01 -5.763912129010145824e-01
6.818209169391227509e-02 -1.000239463265020605e-02 -9.193083252144720330e-01 -3.883143402241859832e-01 6.260083100729001426e-01 -6.762585074480962355e-01
5.425133358483392315e-02 -4.458623479659510475e-02 -9.455673287985963960e-01 -4.024098043844893668e-01 6.743403702353539808e-01 -6.191376376913962920e-01
5.710439680101754741e-03 -1.315841655962446677e-01 -1.022790377884451596e+00 -4.248721097562803140e-01 7.403514472565099203e-01 -5.209255464041273598e-01
-2.240052609887998800e-03 -1.264001441336722320e-01 -1.010117577509686670e+00 -3.659385272203380390e-01 7.421449619573687873e-01 -5.615245762538854102e-01
2.836139328865298556e-02 -1.041439150889746784e-01 -1.003306258348207969e+00 -4.608637084643607551e-01 7.309496168147535666e-01 -5.033063678306103350e-01
-4.920533530773180814e-02 -1.128723012260229724e-01 -9.555704891183584015e-01 -4.787818448306667141e-01 6.919225979630453383e-01 -5.403804802994027767e-01
-5.278357627592297763e-02 -1.164296304257067399e-01 -9.570201259341085676e-01 -4.675727626830152861e-01 6.966131550220213686e-01 -5.441560657083939212e-01
-6.838431270601690037e-02 -1.057460625424449380e-01 -9.300513964094562214e-01 -4.967210321862433053e-01 6.687208015660931482e-01 -5.532456106799535922e-01
5.199956207052786050e-02 -6.534815035931523797e-02 -9.690243839971485196e-01 -4.272723962807005171e-01 7.172980850081823734e-01 -5.503832815594441596e-01
-6.119783774367010265e-02 -1.287584790956946001e-01 -9.672383489487744734e-01 -3.921090177318170000e-01 7.510057176459881134e-01 -5.312635224410047208e-01
-8.461683472137719597e-02 -5.536939797476202879e-02 -8.627905322058591064e-01 -4.498830019791780210e-01 6.355548617048446536e-01 -6.274354965201911494e-01
-3.624507077636524824e-04 3.669091952411346596e-03 -8.692276869624155911e-01 -6.106110163725356754e-01 5.825990910332721207e-01 -5.364070150657092029e-01
3.327286041800787963e-02 9.893677956869983969e-02 -7.803171766199881176e-01 -2.526066304309231847e-01 7.506196992298331816e-01 -6.105407090362197087e-01
2.108432963937340379e-02 -8.941125592886824125e-02 -9.769266129446099178e-01 -3.748500495678612210e-01 7.320042951634044837e-01 -5.689087380250891224e-01
-8.012051234763921392e-02 -7.546402455856689173e-02 -8.860746627746348691e-01 -5.031670846607733116e-01 6.148830798259393715e-01 -6.072410419740628118e-01
9.972163444454845357e-03 8.343866161088693556e-02 -7.851077150125546078e-01 -6.055534850751331799e-01 6.421665685232269549e-01 -4.700288022924381526e-01
2.733220403876274879e-02 -9.976884867811182389e-02 -9.959943254441916416e-01 -4.598410367022418010e-01 7.344132755734950058e-01 -4.991826936363250034e-01
3.652005741346549261e-02 -7.634938607512958830e-02 -9.711665317607298675e-01 -4.103884141298256294e-01 7.240255246929019339e-01 -5.544081431050368325e-01
-7.743416952850591672e-02 -4.299928006155497029e-02 -8.549389568699210518e-01 -4.466998010320424872e-01 6.542477041499114021e-01 -6.102616073230430205e-01
7.583837012619736029e-02 -1.987772420942626739e-02 -9.332248916255303506e-01 -4.020237822525865035e-01 6.547416063941581266e-01 -6.400705487364048984e-01
-3.349956474394460201e-03 -1.029982656261789337e-01 -9.793528008637466531e-01 -3.183588323244950224e-01 7.386352305205459157e-01 -5.941932767331217224e-01
-5.012745135936522156e-02 -1.587359160789857671e-01 -1.019449960008981693e+00 -3.843436256383238048e-01 7.638371249491009429e-01 -5.184909102199183328e-01
-3.246772382379086580e-02 6.308456906828013855e-02 -7.688511170081596680e-01 -4.712205719527191583e-01 7.230068662331687879e-01 -5.051853560310759494e-01
-1.713176385817664904e-02 -1.323928552955388471e-01 -1.009799429610775734e+00 -3.004755189265297943e-01 7.590192265548802997e-01 -5.775848649729873330e-01
5.829280084383008098e-02 9.278544524662692139e-02 -7.997118969555861989e-01 -3.211981508537525842e-01 7.318705694035201326e-01 -6.009968531773666189e-01
9.172647343409821852e-02 3.629922233252672048e-02 -8.917724644991822380e-01 -4.321456787130656396e-01 6.402298440345923769e-01 -6.351030303636296948e-01
-8.943419690037642672e-04 -1.182909508976139612e-01 -1.000346911125724603e+00 -3.316485892454835716e-01 7.454436259292539502e-01 -5.782067223864892913e-01
-3.051298420974788220e-02 -7.085577394254440053e-02 -9.221736815910812624e-01 -4.838521815269549720e-01 6.519338286015328165e-01 -5.838401746681654014e-01
-8.664267907215596198e-02 -7.435565316561404403e-02 -8.797741007543525837e-01 -4.882105565015192328e-01 6.097349743091178276e-01 -6.243986816327661282e-01
-3.883325032740350680e-02 -1.574897491800488492e-01 -1.031032102295330599e+00 -6.316384041602769450e-01 6.868924869801292798e-01 -3.594602032494161326e-01
-2.675262963731376425e-02 2.972035131926815434e-03 -8.443806756766321087e-01 -5.067892501244745107e-01 6.207895387314062985e-01 -5.981513224593929534e-01
-5.791517816326770263e-02 -5.809681997114127076e-03 -8.292185273859179473e-01 -4.411384409841915266e-01 6.318622395362383237e-01 -6.372966233507646461e-01
-6.643520656269479019e-02 -1.467528611468492949e-01 -9.920364234198795206e-01 -2.701122670124906366e-01 8.227898058681248905e-01 -5.000562953996944282e-01
5.369755019098879090e-02 -5.197141710745729198e-02 -9.535742999493829197e-01 -4.161777869722886880e-01 6.901192919427422412e-01 -5.920569335117159548e-01
-1.720076677878177055e-03 -9.674389708943961774e-02 -9.724814582277754305e-01 -3.204200803558184263e-01 7.302710658771117691e-01 -6.033532484767758497e-01
-3.785285561982945635e-02 -1.163558489361767173e-01 -9.702794041864617469e-01 -4.900887368221355511e-01 7.018404686170889306e-01 -5.169458256446495259e-01
-8.107135851905201973e-02 -5.848214497395176625e-02 -8.684857327256865211e-01 -4.498830019791780210e-01 6.355548617048446536e-01 -6.274354965201911494e-01
1.114987633677519581e-02 -1.208180508591346312e-02 -8.908970274399845568e-01 -3.324528694515747618e-01 6.521836747979626869e-01 -6.812720043568789574e-01
9.946235858393651184e-04 3.889817818726337695e-02 -8.312569271649162816e-01 -5.538888497896023999e-01 6.338892566729269484e-01 -5.398069584151311551e-01
-7.442923602166284791e-02 -1.116874560032392188e-01 -9.325014162457408995e-01 -4.747704918167316990e-01 7.056657883339646498e-01 -5.259551076613886433e-01
7.698614385675163485e-02 -1.995985188649312958e-02 -9.340298103091924098e-01 -4.020237822525865035e-01 6.547416063941581266e-01 -6.400705487364048984e-01
-2.101008857112815487e-02 -4.352235935203659090e-02 -9.001383265320506144e-01 -4.981470440105643660e-01 6.341139654094146705e-01 -5.913958077432442950e-01
-1.277024454774647842e-02 -3.052993976827437714e-02 -8.933632509796948229e-01 -5.198524079290046673e-01 6.273983061061371158e-01 -5.797627441165617013e-01
-2.251445441853598337e-02 -1.075907173873685840e-01 -9.740609150950385597e-01 -5.511269574308961250e-01 6.770005189568407689e-01 -4.877800468706477988e-01
-9.185914762937867281e-03 -8.650278510060958881e-02 -9.569716574931651509e-01 -2.706669755396973742e-01 7.180600787590654122e-01 -6.411935056164540514e-01
1.977920892203761244e-02 8.056555337891029012e-02 -7.968807892148757066e-01 -1.838584971201444596e-01 7.365495781212304527e-01 -6.509153339768233293e-01
-1.150234593078353247e-02 -5.653310156429081079e-02 -9.224112650639336719e-01 -5.129800313052752525e-01 6.320458485182741670e-01 -5.808352028354117902e-01
-7.053715749721693740e-02 -1.414057738681744614e-01 -9.806774734229942725e-01 -2.484086168404436856e-01 8.383103427484611680e-01 -4.853132270198031173e-01
8.483618643484923394e-02 -2.226498772640293430e-02 -9.413468517720323669e-01 -4.059157158082623007e-01 6.625831534218142860e-01 -6.294569059605833461e-01
2.765565543585642508e-02 1.335288020214663585e-01 -7.214789929644922495e-01 -5.456866989544502111e-01 8.176624069521031268e-01 -1.834508512967123195e-01
4.173088550661379487e-02 9.524995834512027526e-02 -7.884433557365225775e-01 -2.967807433585111787e-01 7.272475529260928884e-01 -6.188959420892814478e-01
2.942417142548861293e-03 -6.286927998828051312e-02 -9.366787993955728586e-01 -2.977389381719579009e-01 6.874436598220285966e-01 -6.623992295185211487e-01
2.121689016410233369e-03 -3.606136120493306368e-02 -9.097006038863807431e-01 -2.904061780210279720e-01 6.613521634262948812e-01 -6.915761474332225989e-01
4.666359433963071512e-02 1.451026868352661148e-01 -7.056051975101536033e-01 -7.884200519797697482e-02 9.706320139089460453e-01 -2.272827133581117875e-01
-6.601295989218987359e-02 -9.729324651301675397e-02 -9.219485255952196701e-01 -4.941254029017486671e-01 6.699346493489409804e-01 -5.541007596176855676e-01
-4.733456003202830137e-02 -1.180883177487778790e-03 -8.322245976683553259e-01 -4.566893713573819125e-01 6.207732036397702879e-01 -6.372404944226438550e-01
-6.900664904237327306e-03 -7.105481569053935520e-02 -9.410209081633723605e-01 -2.391169167940909446e-01 7.069819184761848563e-01 -6.655822015728943830e-01
9.765352886001154101e-03 -8.949716782722111352e-02 -9.699739788674567320e-01 -3.421292883773821569e-01 7.311536998857606218e-01 -5.902218372593046603e-01
-6.422732955370283325e-02 -1.606715348141733446e-01 -1.014625693516083782e+00 -2.202497664810614264e-01 8.005190348542235990e-01 -5.573682043327375935e-01
-5.726162834209468783e-02 -1.210511342921900130e-01 -9.593611975670673919e-01 -4.436082845099391103e-01 7.301896895944010035e-01 -5.196486381432949830e-01
-5.735412557455202981e-02 -1.452416244434795167e-01 -9.947738208747207711e-01 -3.121841817375859418e-01 7.932438338097532737e-01 -5.227860526024372678e-01
-8.171390908312499424e-02 -1.291215035765826968e-01 -9.518599958937806749e-01 -3.474369124154438326e-01 8.097086350162149282e-01 -4.729265463805146230e-01
7.225830669798024262e-03 6.451078460524761748e-02 -8.065929408437384485e-01 -6.022992569191812917e-01 6.308735919488425159e-01 -4.891156469549581276e-01
4.553205348703590061e-02 1.687765531191565919e-03 -8.958777580482099046e-01 -3.698540041999923700e-01 6.278561801927744490e-01 -6.848391289718853692e-01
-5.863513844632890076e-02 -1.053776708721904654e-01 -9.381078906011212082e-01 -4.696050243762309728e-01 6.879929997790389384e-01 -5.532962618124568355e-01
-4.332341027725119392e-02 -1.555183409235121883e-01 -1.021364348148625867e+00 -5.204460160155097714e-01 7.214723545669854410e-01 -4.567423628361548804e-01
-2.319705516838314538e-02 -6.528944922232251570e-03 -8.576548459904542732e-01 -5.280053845758226894e-01 6.238392775430574577e-01 -5.762246694246034862e-01
2.200348628535653186e-03 9.290872737376802692e-02 -7.628042468514510954e-01 -5.464642330428117756e-01 6.810224106028555102e-01 -4.874272440699298770e-01
8.831103665491217558e-02 4.534490284320328440e-02 -8.798588183850982736e-01 -4.288428154937032333e-01 6.643969230669075632e-01 -6.121033966730288212e-01
-4.451567772393698504e-03 -2.548844729515261157e-02 -8.959952250547691399e-01 -5.690605956197435367e-01 5.966101420812417455e-01 -5.658854803568504899e-01
6.133683263160710081e-02 2.484693236424711377e-02 -8.831910020227697888e-01 -4.142942715537031861e-01 6.513715837132447728e-01 -6.356691879340115037e-01
4.607057218746737209e-03 7.365970333827776299e-04 -8.755010960084983473e-01 -2.859903785998807457e-01 6.666818505495462066e-01 -6.882912272404242415e-01
-7.631122244649550350e-03 -6.598005039842202990e-02 -9.355186008509275286e-01 -2.417082820852061442e-01 6.930428065123959147e-01 -6.791677073542589094e-01
5.566952154858238050e-02 1.029334141172482814e-01 -7.857385641677911980e-01 -2.754063443393779398e-01 7.579034932423087678e-01 -5.913828205390527781e-01
-4.776966324990476048e-03 -2.713512478405261802e-02 -8.974040843101033227e-01 -5.690605956197435367e-01 5.966101420812417455e-01 -5.658854803568504899e-01
6.286033888751937915e-02 4.367774275697610536e-02 -8.639919790935669530e-01 -4.090829184256061235e-01 6.902380433442979468e-01 -5.968438735319514521e-01
2.395668804801560914e-02 -8.733806874384661412e-02 -9.761516587159443370e-01 -3.748500495678612210e-01 7.320042951634044837e-01 -5.689087380250891224e-01
1.677242723479428071e-02 7.618170685271693186e-03 -8.746987321990860043e-01 -3.419708498877447878e-01 6.548365474998936175e-01 -6.739770277134622400e-01
-4.808203351014439346e-03 -8.937477913354290038e-02 -9.621960832638686290e-01 -2.940806959286037525e-01 7.291963753707755291e-01 -6.178909211408363245e-01
-2.666955883967302848e-02 2.352725302585508688e-02 -8.231476698393330738e-01 -4.967104480566128522e-01 6.366573943881709274e-01 -5.898695558869466726e-01
-4.214142066834392769e-03 -9.535641171175132658e-02 -9.695586194267354907e-01 -2.974699226125246398e-01 7.301734227057260496e-01 -6.151084602857481709e-01
-1.486401929863063846e-02 -1.518360257136328051e-01 -1.036019187660932817e+00 -3.338948071338573853e-01 7.571244743153072720e-01 -5.614951363652349592e-01
7.483705295156106371e-03 -2.132746586541594061e-02 -8.979545961569749268e-01 -3.253332810172738232e-01 6.538767207088402866e-01 -6.830838091900504061e-01
2.926310682235902516e-02 5.405748394926847972e-02 -8.313839111970796614e-01 -3.130569127677643171e-01 7.279356660923305133e-01 -6.100041273622920368e-01
-1.592740194256191816e-02 -1.422388248928707910e-01 -1.023095881971341825e+00 -2.908473284275496229e-01 7.598186033144515017e-01 -5.814495004760370511e-01
5.303413592645825347e-02 1.012290653797077167e-01 -7.865658855089925350e-01 -2.751386756668756650e-01 7.530948454069813502e-01 -5.976176561763486550e-01
9.181122380461486862e-03 -1.402154163070851445e-01 -1.037636937755236577e+00 -4.263989321828787760e-01 7.293364970288548355e-01 -5.350254430725516208e-01
2.901320541553218182e-02 -1.080999661100306847e-01 -1.009803688392681975e+00 -4.780280757406736303e-01 7.277981455078947892e-01 -4.917306358149124978e-01
-1.987421339767027686e-02 -3.451349086573615027e-02 -8.913683911461087739e-01 -5.063383587753783610e-01 6.390835554858135259e-01 -5.789591311485359215e-01
-6.732440718740986818e-02 -5.449800926719040872e-02 -8.746141607533598483e-01 -4.586682101288552249e-01 6.439418337620141930e-01 -6.123417246508737755e-01
8.500018233035689513e-03 5.682870946025300046e-02 -8.179729353165857697e-01 -6.203090874813951272e-01 6.145485219729510673e-01 -4.873876795004776774e-01
-2.422340476743943191e-02 -6.271087674625906716e-02 -9.183211657948877615e-01 -4.846869413837462948e-01 6.470996094940439924e-01 -5.885071488475944745e-01
-4.705514544385860226e-02 1.513005712869270811e-02 -8.163615513276405444e-01 -4.510617823966833750e-01 6.433083035029368846e-01 -6.186256502161064930e-01
-1.914514036129057878e-02 2.942224925687638576e-02 -8.231023852260536122e-01 -5.170737689474128596e-01 6.328482566773537821e-01 -5.763139782158259727e-01
-7.599239201307583791e-02 -1.434972210482231836e-01 -9.811221619044713238e-01 -2.934895950465154502e-01 8.353198020859645689e-01 -4.648706119368023471e-01
1.813444576422630974e-02 9.569589156764801707e-02 -7.791802465370735176e-01 -4.533494598018892457e-02 7.480113531638431512e-01 -6.621357551219912985e-01
-6.260087606515774006e-02 -1.920533945139447571e-02 -8.395883707884905789e-01 -4.374461269979462164e-01 6.544474331105375464e-01 -6.167166636872440932e-01
2.660497258163540754e-02 7.145041397901714941e-02 -8.097144725474731963e-01 -2.575901184351285789e-01 7.329775794527576549e-01 -6.295960601085053288e-01
2.028175767589342204e-02 2.389414407079913302e-02 -8.601157922333232397e-01 -3.532317733754163913e-01 6.701112734704924856e-01 -6.528232497742502138e-01
2.614803067498108063e-02 -5.530377586392563188e-02 -9.401650459037061980e-01 -3.358745802634397482e-01 6.859302803889674172e-01 -6.455136844237858718e-01
-2.198045646314056648e-02 1.587905991362784097e-02 -8.351791865739712772e-01 -5.240444574089724306e-01 6.170462728154285648e-01 -5.870530673316710635e-01
1.934597904384142281e-02 -5.971322158775235062e-02 -9.413088899408527110e-01 -3.404921702551895191e-01 6.830021321020602887e-01 -6.461990169746087975e-01
-6.539907460016146368e-02 -4.470651381404125435e-02 -8.656088476261371012e-01 -4.560817802604663629e-01 6.582803383042962198e-01 -5.988792916076035588e-01
-2.577205851075249285e-02 -2.659461813375377931e-02 -8.774828797908037492e-01 -5.041639101673476286e-01 6.393223654744430995e-01 -5.805907893593673652e-01
4.170272043212109453e-02 -3.955678753935244069e-02 -9.326254327204260841e-01 -3.593494415314718027e-01 6.568517936646869337e-01 -6.628828705212582717e-01
3.700687902591608819e-02 6.135207938362133295e-02 -8.264393619582662831e-01 -3.110567428872317852e-01 7.416001081901676395e-01 -5.943677163479844650e-01
6.974692209693897360e-02 2.311839945669016180e-03 -9.091904508868747792e-01 -4.074714399119726549e-01 6.036547869223171103e-01 -6.852502636860751117e-01
2.203543743955594172e-02 -1.018901067254415760e-02 -8.945040863199410497e-01 -3.450582981700321406e-01 6.464931979951278329e-01 -6.804273038393104933e-01
3.111057763760877171e-02 -9.356080431277728759e-02 -9.903736276299537344e-01 -4.576279355895382928e-01 7.332496998101938335e-01 -5.029130643523966882e-01
-5.717302895530658458e-02 3.071940377843119380e-02 -7.917386314350403076e-01 -4.228987191493592812e-01 7.003897055653552917e-01 -5.749877682872098772e-01
-3.608785447007775010e-02 1.759700622814789131e-02 -8.219548233142185412e-01 -4.701208687523995011e-01 6.414668992374525924e-01 -6.062232146216254280e-01
-6.257114391724240277e-02 -6.449374302646097845e-02 -8.888286690301645532e-01 -4.837136916218486848e-01 6.403314979002623364e-01 -5.966545376801968281e-01
-4.402174928163925249e-02 1.851747245686826207e-02 -8.150507370604026525e-01 -4.510617823966833750e-01 6.433083035029368846e-01 -6.186256502161064930e-01
-6.141683617625862818e-02 -7.511931500636419290e-02 -9.011256175951669611e-01 -4.977978748311527868e-01 6.274169688382009724e-01 -5.987864586206607109e-01
-3.195330509122401574e-02 -1.063135294809880310e-01 -9.628283715937698828e-01 -4.976696615593422801e-01 6.890642264952897555e-01 -5.267973042146834040e-01
-7.731491313534779794e-03 -1.209878937978071806e-01 -9.998497678310093173e-01 -3.129350979612514627e-01 7.501916491704834211e-01 -5.824809988135684069e-01
4.864772878475349949e-02 -7.112195479981522905e-02 -9.739956466444815719e-01 -4.394242229402895439e-01 7.277142225252721808e-01 -5.266292458910361018e-01
-2.437475204732644438e-02 -2.310738069996248062e-02 -8.748562494294744862e-01 -5.041639101673476286e-01 6.393223654744430995e-01 -5.805907893593673652e-01
-4.410696517427724339e-02 -2.638909458637406745e-03 -8.360761897765748296e-01 -4.766051930122356950e-01 6.269071935130279272e-01 -6.163074400941372932e-01
-2.528348009208934363e-02 -1.242154045847931182e-01 -9.957146736945812204e-01 -6.721809326752667957e-01 6.404400778844607789e-01 -3.714960301095479034e-01
-4.664396006957316487e-02 -1.581726532608041524e-01 -1.021824212700285894e+00 -4.532934871348665573e-01 7.437963619623267908e-01 -4.912148068337515716e-01
6.995043053224509269e-03 -9.063734470674307542e-02 -9.697516817170248604e-01 -3.479916304127784743e-01 7.281300609377809874e-01 -5.905323357119400818e-01
7.967023382970067624e-02 -1.052149716784806475e-02 -9.265395939545356674e-01 -3.966117058123838079e-01 6.244547757088280138e-01 -6.728710039131042819e-01
5.402606170525340451e-02 1.512791439051928144e-01 -6.748902643803722512e-01 -2.282166621333812095e-01 9.735974319318440040e-01 5.019527907717492507e-03
-6.119212813751905011e-02 -9.907109941508603079e-02 -9.283456866047536948e-01 -4.840776944838992013e-01 6.683332882478514314e-01 -5.648003200450287808e-01
-8.355060420309404559e-03 -8.535801827810561571e-02 -9.560406691082051767e-01 -2.734216784468520012e-01 7.184989793211883358e-01 -6.395309237790749446e-01
3.280049822821530514e-02 4.922283333312155867e-02 -8.390299962985215965e-01 -3.310127964436274661e-01 7.234639867658730905e-01 -6.058303297486830052e-01
-8.894434160797361211e-03 -8.126294193681220246e-02 -9.512267022033730202e-01 -2.706669755396973742e-01 7.180600787590654122e-01 -6.411935056164540514e-01
-2.699557329003402645e-02 -1.091223585085402403e-01 -9.713931520429424094e-01 -5.275380103746583060e-01 6.779182121001653405e-01 -5.119868604884917351e-01
-3.441843345235206381e-02 5.486983651204059564e-02 -7.781897736727739767e-01 -4.577956450857009751e-01 7.139417592446563043e-01 -5.298210185970469999e-01
2.772914328420404001e-02 1.504171017200706117e-02 -8.731456890766894352e-01 -3.539131950142394567e-01 6.596434202340956121e-01 -6.630354504373634494e-01
-3.712327625073496423e-02 -6.334251396313455955e-03 -8.452549669716538094e-01 -5.061156146003191747e-01 6.203064398198431251e-01 -5.992219166350414294e-01
