-2.131723786870834414e-02 5.452999047740837713e-02 -7.789873098163893061e-01 7.941705545732361538e-01 1.695587200330711877e-02 6.074583349114950348e-01
6.333827234939136408e-02 -1.679806282951401275e-01 -8.922954410234628098e-01 8.408445954630139330e-01 1.941238433725102075e-01 5.052685421782416864e-01
3.479026468463098255e-03 -1.305969312884477929e-01 -8.107201586263211857e-01 8.399375078936396344e-01 1.522161732517991195e-01 5.208984732498264103e-01
-4.835381432003563705e-03 -3.392506963008008747e-02 -8.035471620561577266e-01 8.194292349529976871e-01 -3.343924087893303948e-02 5.722041122482304232e-01
-4.291343151029846270e-04 -8.787259396798408062e-02 -8.111553361467288559e-01 8.191704020006417286e-01 2.423182188766745404e-02 5.730381063193892288e-01
-2.727295101491109333e-02 1.346956576748383205e-01 -7.960360956032327406e-01 8.834176476694830527e-01 1.785324723918332301e-01 4.332429065637155574e-01
-3.452230849336269253e-02 -3.918859686459663649e-02 -7.566407340121427127e-01 8.660817541506492523e-01 -2.654995156994996788e-02 4.991968501492848320e-01
4.157623051875352499e-02 -7.845808190838580998e-02 -8.833191795555705994e-01 8.888130799614515354e-01 1.217483953291674942e-01 4.418015811698856599e-01
2.451557219187045292e-02 -1.626707630914855235e-02 -8.620816057796634180e-01 8.874414986059202537e-01 8.659900249422021468e-02 4.527120490102778394e-01
-1.909053397405168634e-02 -3.137850048311528750e-02 -7.817962057392683350e-01 8.429151968431560782e-01 -2.943897438346203613e-02 5.372404654510988253e-01
-3.908658015537467417e-02 1.079026032582178773e-01 -7.597523901090723619e-01 7.152689487533772095e-01 1.170958245365832408e-02 6.987511836326285586e-01
-4.049754578202711258e-02 1.148309018261641640e-01 -7.584199521651640019e-01 7.117016903511539372e-01 7.660276023577776601e-03 7.024400501982732692e-01
-2.556987856860233957e-02 -5.154546460944320341e-02 -7.723660580652305097e-01 8.535362226624645388e-01 -2.016446843556187959e-02 5.206431703343498141e-01
-2.216358329990497644e-02 -7.534731085015326790e-02 -7.781317802187848187e-01 8.450112866006267431e-01 1.908272175621800876e-02 5.344078734898357608e-01
-1.626477935229584185e-02 8.060879600159423508e-02 -7.977690560696433231e-01 8.950051905721121415e-01 1.607491316638278156e-01 4.160834357653551696e-01
-1.902277608176078383e-02 -1.224091661770515815e-01 -7.748819326119429363e-01 8.525911696417201036e-01 1.757958987637975312e-01 4.921220371277762462e-01
-2.920702785756655942e-02 -4.047031209637131505e-02 -7.657490068989692977e-01 8.585417702565181219e-01 -2.373631764838147681e-02 5.121939241628107320e-01
-4.318379486175671911e-02 6.952893407012744609e-02 -7.523934847195390407e-01 7.794604822605716299e-01 7.622240169747553085e-02 6.217969942622638690e-01
6.491891797484880544e-02 -1.737249018012423651e-01 -8.927176534960373777e-01 8.407779045483927405e-01 1.942785795881321609e-01 5.053200458486006852e-01
2.730336952975996948e-02 -1.854124257006358467e-01 -8.310747873815790276e-01 8.568030000825613834e-01 1.907011871359768906e-01 4.790842058286324812e-01
-2.717483663867670957e-02 1.174033423049767322e-01 -7.893171077540233060e-01 9.005051048208542186e-01 1.813465219594940503e-01 3.952265112119593415e-01
-3.857698543055893686e-02 -5.623082291594613119e-02 -7.506315991346270700e-01 8.677270572201721821e-01 -3.178681604884079498e-02 4.960235402614449063e-01
-7.606177607168082555e-02 1.972115133088499506e-01 -7.451906271267867421e-01 6.647670882247721513e-01 5.045943235322580822e-01 5.508804653209086188e-01
1.126329130380156456e-03 -6.091304729577619315e-02 -8.133154025937340270e-01 8.184385278585266654e-01 -1.887130629697390469e-02 5.742841195048087322e-01
-5.963686654029379947e-02 1.638221063046244041e-02 -7.161727434998803599e-01 8.491326708230352294e-01 1.188759307125763914e-01 5.146282351738559191e-01
7.622416263626212787e-03 3.702583546389737776e-04 -8.309163024274323073e-01 9.141798387792646752e-01 1.002011303103552547e-01 3.927275847888013205e-01
6.810834591239819935e-02 -1.976309072191442251e-01 -8.823060281606224242e-01 8.963278113524258961e-01 3.720592079083240300e-01 2.411812604801639726e-01
6.398683728132592563e-02 -2.060879444046986309e-01 -8.781083352493307403e-01 6.865872775871568745e-01 1.022276345657107122e-01 7.198245765369194471e-01
-3.350950457362735641e-02 -1.671115788647359671e-02 -7.574906685717521793e-01 8.662950192736559307e-01 -1.376058015719928453e-02 4.993431545694735352e-01
6.626811903214503696e-02 -2.023520101810192540e-01 -8.806630073193189023e-01 6.536301971993606630e-01 7.447229126293547496e-02 7.531410512932973367e-01
-1.082661862570486085e-02 -2.971369034397292400e-02 -7.944317106151667085e-01 8.316558385758493488e-01 -3.113991473723360867e-02 5.544175970086613336e-01
7.383573773399811080e-02 -2.212802715222502437e-01 -8.812772258330873187e-01 5.697688853085880467e-01 5.244750927731357537e-01 6.326841979967727791e-01
-1.175549310480568203e-02 -4.891468862046037536e-02 -7.939852213037870143e-01 8.327056541706443493e-01 -2.117443085747229906e-02 5.533108863831448510e-01
-6.528299479906229941e-02 1.837230453918993478e-01 -7.478897484436868304e-01 7.913940881778681602e-01 4.551236098201543734e-01 4.081150536079166669e-01
-4.627573371643184386e-02 -6.899240738516020099e-02 -7.377604095273589957e-01 8.652754371211381912e-01 -1.158902115720651833e-02 5.011627604914804524e-01
-1.902842040464937032e-02 4.207663136012027710e-02 -7.817465166753414518e-01 8.027621847640200592e-01 1.624970349080345072e-02 5.960778655925398350e-01
-5.107728054291499342e-02 3.359346313329537176e-02 -7.340181565475343284e-01 8.313642179943251387e-01 1.305297828805952742e-01 5.401810000544527979e-01
-2.659784347040155747e-02 1.158813312009908114e-01 -7.899333970627543389e-01 9.005051048208542186e-01 1.813465219594940503e-01 3.952265112119593415e-01
-8.912176143532045403e-02 1.912788657097008738e-01 -7.269710321059480451e-01 5.045279015761039432e-01 4.067400669035212135e-01 7.615865771575363041e-01
-4.958806454757377219e-02 -5.104910997802741129e-02 -7.303300293223023987e-01 8.779120200785816008e-01 -5.219463756130155591e-02 4.759687015039840152e-01
1.174955215080252142e-02 3.859976821365967981e-02 -8.477102472702497948e-01 8.962676084127547682e-01 5.387388764299776145e-02 4.402294610090409233e-01
1.732785996034254955e-02 5.957733274718199357e-03 -8.526494509376165709e-01 8.924128248764848781e-01 1.069693860930749640e-01 4.383570467493856371e-01
-3.322676692718969094e-02 8.420766319468125927e-02 -7.655863565319780406e-01 7.492311653172141206e-01 3.109667572097804880e-02 6.615781568919225641e-01
-1.166731779085442185e-02 -9.247953700696720514e-02 -7.939337255929390658e-01 8.499008331727314625e-01 5.321345059465716620e-02 5.242488936069455985e-01
6.443515712145145291e-02 -1.726797528467745035e-01 -8.923145715602162076e-01 8.407779045483927405e-01 1.942785795881321609e-01 5.053200458486006852e-01
-2.405719257894166352e-02 -8.159313013161769920e-03 -7.730489288194273279e-01 8.435192349554492264e-01 -1.418568523935979583e-02 5.369116003537858228e-01
-1.335055766555714660e-02 6.473234726415791340e-02 -7.985484940822306088e-01 9.049302297686705465e-01 1.352077970621440861e-01 4.035097655130825967e-01
4.148008738274389096e-02 -4.414507531721654360e-02 -8.913613993620556064e-01 9.026010496778754666e-01 8.873169144600265290e-02 4.212339398167349591e-01
-5.276946059468863581e-02 8.254438711289341368e-02 -7.414597379267326982e-01 8.054679191031520746e-01 7.394795750994784256e-02 5.880077642988608133e-01
5.787332899558941118e-02 -1.727538626247764053e-01 -8.784559261614531822e-01 8.885987116401751207e-01 2.600864957372832631e-01 3.778191953918184076e-01
4.688574030857091401e-02 -9.196168850491777402e-02 -8.901190964335040645e-01 8.735482374431083885e-01 1.352021356054096957e-01 4.675829973253680105e-01
1.226095137668190525e-02 8.469772932285975220e-02 -8.519250903567991973e-01 8.743320414459212486e-01 3.996225974118689656e-02 4.836801619845346734e-01
4.401155460928738578e-02 -1.303357007635975173e-01 -8.717838878121239032e-01 8.808427059704129203e-01 1.835779147455812166e-01 4.363659892296658516e-01
-6.368764260483050776e-02 1.806318677793423422e-01 -7.475355821119096245e-01 7.895820906159208841e-01 4.563938394208851279e-01 4.102009087230973905e-01
-2.165482334342175297e-02 -2.885020630567686553e-02 -7.775646457322680227e-01 8.503216871667118593e-01 -2.905665662516992293e-02 5.254605018835609709e-01
-5.581104898738522418e-02 2.865892462933079810e-02 -7.252974352328218632e-01 8.395040292181180641e-01 1.328057098134952096e-01 5.268734462539166330e-01
5.718112513804230954e-03 6.301015973926582525e-02 -8.379374836606776622e-01 8.879968445507763208e-01 3.395265922365867106e-02 4.585943970432984629e-01
3.680378185121927111e-03 -9.556016755636817517e-02 -8.167572355423807773e-01 8.222970299111195258e-01 2.340117885219587107e-02 5.685771534520875914e-01
4.194363133965037932e-02 -8.062163044790840449e-02 -8.834905793473087909e-01 8.874431772545539054e-01 1.147627655834972393e-01 4.464012934344719907e-01
-4.233086593468186193e-02 9.227943346136188718e-02 -7.554529078206524417e-01 7.574764468597846578e-01 3.239373031814787168e-02 6.520583399426393978e-01
8.195455061382307671e-02 -2.039943554794808878e-01 -9.040550954940028694e-01 6.886890890863613945e-01 4.034616143306105629e-01 6.024334522045859952e-01
-2.161207862042706807e-03 2.332985369735537245e-02 -8.137129608007868109e-01 9.217970743057737337e-01 9.888109574337697327e-02 3.748502136932899131e-01
-2.420891735992601601e-02 -1.139325256641939010e-01 -7.685116370821749587e-01 8.610430202197046912e-01 1.543937430658181564e-01 4.845281100545722475e-01
-5.875702303522158804e-02 1.508127091621035976e-01 -7.412331972651835521e-01 7.710834077643160533e-01 8.215695791334161335e-02 6.314116031060841294e-01
-7.978523292139402465e-03 -9.976660329324409104e-02 -7.989639559098457022e-01 8.463094555710987121e-01 6.467899123124404293e-02 5.287503508313345923e-01
3.772007903979234661e-02 -1.105901124974359717e-01 -8.665396324646779114e-01 8.895605523580749630e-01 1.407243602818674666e-01 4.346017465584506301e-01
-4.685511856190714697e-02 1.262027654963002697e-02 -7.367776824071547992e-01 8.508695638610032086e-01 8.549918518962919267e-02 5.183732965989815700e-01
8.686213462373219493e-03 -2.730272538943232311e-02 -8.265388280732838266e-01 9.095976307663559135e-01 9.500565726074913786e-02 4.044824782270365349e-01
1.958284036807572334e-02 -4.625769844328411068e-02 -8.460628441238070563e-01 8.970286916055854043e-01 8.273821620669984112e-02 4.341588580408156095e-01
8.976290145201128515e-03 -7.615431501531800878e-04 -8.335874287069168220e-01 9.012919563062458117e-01 9.663233957453097600e-02 4.222972891767278192e-01
1.256644889438152460e-02 -2.222270586563758975e-04 -8.414632577646228295e-01 9.022819408662574592e-01 1.108311077328842931e-01 4.166578509344582848e-01
-3.839702025932664742e-02 -5.619464424784841212e-03 -7.493434523214995702e-01 8.570866080806427423e-01 3.242225118845140641e-02 5.141510905139573540e-01
1.139689967480026975e-02 -1.864082324160125717e-02 -8.346194945653994113e-01 9.020234140040798154e-01 9.837497195417252427e-02 4.203285922720941814e-01
-1.300022692020136143e-02 -4.606973042960500059e-03 -7.901758621330073895e-01 8.349256911935420966e-01 -9.824939996784451401e-03 5.502749864740767993e-01
-6.410654818876510008e-02 1.792724406668179671e-01 -7.450465255893777838e-01 8.273595270719393824e-01 4.526838972885807721e-01 3.324958677922458250e-01
5.172902984773969370e-02 -1.765257594133995966e-01 -8.683318383394859064e-01 7.375338881174885453e-01 7.070748977896908205e-02 6.715982539937525031e-01
-6.398396533722135182e-02 1.768043914212892587e-01 -7.411147030545345293e-01 8.552784139094371518e-01 5.165435089820096248e-01 4.100778010463395490e-02
-4.441335153136847375e-02 -7.303746446299108630e-03 -7.388289362585861442e-01 8.695711803351237057e-01 3.811687325732213139e-02 4.923343033992906848e-01
-3.128154293597727037e-02 1.347578344028207975e-01 -7.876552721226809384e-01 8.913427861506026950e-01 1.713122101468691760e-01 4.197143841136205533e-01
-2.278245798707350181e-02 1.644655054075429279e-02 -7.754099984936595469e-01 8.324201070285313087e-01 1.597492873626396234e-02 5.539147651638108849e-01
2.542954060393827834e-02 -1.348529061043950497e-02 -8.644053640411116790e-01 8.874414986059202537e-01 8.659900249422021468e-02 4.527120490102778394e-01
3.607934709141043250e-02 -3.472638324025945945e-03 -8.863969580915315172e-01 8.921807643013486278e-01 5.103478769006210974e-02 4.487860673595958083e-01
6.640037708498837399e-02 -1.660272827482230373e-01 -8.975036774076170509e-01 7.884723165340304929e-01 1.796504577292219462e-01 5.882491981270698833e-01
4.962969569602707250e-03 -6.347412173413731484e-02 -8.187406466158435592e-01 8.056502701118116727e-01 -1.252465733972446017e-02 5.922590440232107234e-01
-1.214808038767026602e-02 -9.707497916774078528e-02 -7.926194796234362627e-01 8.463094555710987121e-01 6.467899123124404293e-02 5.287503508313345923e-01
-4.049337351689530351e-02 -6.908754286381257881e-02 -7.477541711749058351e-01 8.657176731550637605e-01 -1.188040812855984188e-02 5.003916129289948111e-01
-3.100230703869295487e-02 6.084006515868278786e-02 -7.669011823594257260e-01 7.880046434194054594e-01 4.725092077993977430e-02 6.138534291139079446e-01
-2.736581469431830296e-02 1.245483393953729367e-01 -7.917310050624839501e-01 8.942266478089437864e-01 1.853968551066733639e-01 4.074146640278601406e-01
6.570616198748115144e-02 -2.048943771598389085e-01 -8.798817967521884720e-01 6.777768357575446601e-01 8.723625464746384561e-02 7.300742405985661820e-01
-4.150035298849126530e-02 -4.038317171063104255e-03 -7.440935028340590618e-01 8.648995421606031631e-01 3.513585687838450405e-02 5.007137441011585421e-01
4.000625672617017653e-02 -5.570493002868739246e-02 -8.857682922156686622e-01 9.026010496778754666e-01 8.873169144600265290e-02 4.212339398167349591e-01
-3.807529258905521102e-02 6.685550169798587516e-02 -7.585231542616434064e-01 7.826360813327697397e-01 6.773340372471968462e-02 6.187834437151260580e-01
-2.972599769547964879e-05 9.430129065574471836e-02 -8.322283286771487987e-01 8.556181825271765851e-01 1.127258758890883061e-01 5.051835336132095566e-01
-4.533990405115046612e-02 -3.651885400124448011e-02 -7.369870673226289748e-01 8.767520137147926107e-01 -2.827710485232238016e-02 4.801107286743621638e-01
-3.121029355898094493e-02 -1.775297933206804527e-02 -7.614735809066893735e-01 8.603752688189501008e-01 -8.908402309541442118e-03 5.095831994610994231e-01
6.003086894914134997e-02 -1.402980535937949913e-01 -8.967010895092779599e-01 8.203929974967123506e-01 1.685315696650486195e-01 5.463995238692965772e-01
-5.690715525686591836e-02 5.587761635622090495e-02 -7.305363202802376277e-01 8.290419646631843609e-01 1.269621639027644078e-01 5.445824361513460499e-01
3.919936663015186062e-02 2.317113301115503610e-03 -8.931145569820714281e-01 8.835407692425936155e-01 4.282207998450023034e-02 4.663925155402980915e-01
-4.607165327028526353e-02 6.723996354482485172e-02 -7.482956810187946228e-01 7.922116192285972858e-01 9.542825291341031080e-02 6.027389143776086255e-01
5.354532105126717789e-02 -1.543506699088331435e-01 -8.799731734907259018e-01 8.774266948283578893e-01 2.239370710081737825e-01 4.242341139404795514e-01
-5.513543935090663844e-03 -1.289974175924254174e-01 -7.960390067754479215e-01 8.469443105384591997e-01 1.693607481089141331e-01 5.039863806161064552e-01
2.034225525463032036e-02 -3.882036446415424585e-02 -8.491325792119109872e-01 8.953846811900598723e-01 8.805262728307754194e-02 4.365008677181779206e-01
6.615405962082440694e-02 -1.914392651495482600e-01 -8.847762316611329503e-01 9.018092625141534979e-01 3.096122510361444813e-01 3.014636098304570022e-01
-1.113026147551585271e-01 2.226603227845656008e-01 -7.310653701888764067e-01 5.213904912573046335e-01 5.860423167588650895e-01 6.202470141761009526e-01
5.113335640083735249e-03 -5.668683907976015263e-02 -8.186915475726468383e-01 8.088152240206557542e-01 -2.383567433867542912e-02 5.875796065396051704e-01
7.429842870707689846e-03 -2.615378907167588071e-02 -8.237941190101178979e-01 9.209363673397223948e-01 9.102101804956405640e-02 3.789345346947635140e-01
4.627751504332756199e-02 -9.956599981905983610e-02 -8.867793078039413190e-01 8.821594555744872723e-01 1.305774836708220865e-01 4.524867022341324541e-01
1.534360653445973437e-02 3.245981378968579995e-02 -8.538553955616458024e-01 8.795965884558121228e-01 6.506507073154886578e-02 4.712498044005911657e-01
2.759970914217342586e-02 3.027864021307606276e-02 -8.758491093228046864e-01 8.694465133766708931e-01 7.298923438444093748e-02 4.886054973504939114e-01
-2.577377475903124254e-03 7.107879388808621690e-02 -8.226767800795979912e-01 8.893365935120134402e-01 6.707777939019791968e-02 4.523063065584291831e-01
-4.598355215130923296e-02 -3.384216462465253206e-02 -7.356522207179954087e-01 8.836766415050256729e-01 -2.307395169863304604e-02 4.675288076807754822e-01
5.130023965870279118e-02 -5.737679520366283092e-02 -9.090124353855593142e-01 8.946646782008790266e-01 1.170609829461762147e-01 4.311285653391486172e-01
-4.334938728747708692e-02 4.520529806522290833e-02 -7.481729099829260710e-01 7.996126894517681105e-01 1.033895511600411016e-01 5.915489392929679235e-01
-7.853705034156594975e-03 -1.220460492474256115e-01 -7.943203175804119942e-01 8.584591776222748605e-01 1.397776244356661868e-01 4.934673809515780496e-01
7.397361345711984948e-02 -1.933336656490688976e-01 -8.997533173051973643e-01 8.328010840982270624e-01 2.524685247381870945e-01 4.926479456379994071e-01
-5.242816491764484138e-02 2.448406456894352060e-02 -7.298425881621534161e-01 8.460114198095088911e-01 1.169968945461105359e-01 5.201695917856650198e-01
4.010432023232356202e-02 -1.799582073155606143e-01 -8.532005440442386179e-01 8.026051472882711479e-01 1.254494380232506479e-01 5.831701433081284414e-01
-4.252209642577623600e-02 2.026484832646391690e-02 -7.450524533818789763e-01 8.401398084730049565e-01 7.979891404084463180e-02 5.364673667026209625e-01
1.376903721890805621e-02 -8.505885774918189868e-02 -8.308190587399735261e-01 7.986920080491562990e-01 -1.403907927020238704e-04 6.017400240708870029e-01
2.689305001431279568e-02 -9.345044273140805380e-03 -8.679619735261715485e-01 8.863880242481140259e-01 7.779029850747432029e-02 4.563605372155252193e-01
-6.943170814211637593e-03 1.032040071216629162e-01 -8.228089905293498596e-01 8.526618515086102912e-01 1.337704765540243257e-01 5.050477468362942757e-01
-1.680967056198237955e-02 9.299173426414364743e-03 -7.842848235290876824e-01 8.358593513102730022e-01 3.842933496712665556e-03 5.489302111282540197e-01
-8.498586709580975562e-02 1.968581237273097639e-01 -7.325853989145177936e-01 4.715118661021564517e-01 3.986549003853043227e-01 7.866071640429199707e-01
-1.950102266163705744e-02 6.649963331178121440e-02 -7.844792115874871241e-01 9.220469827617570058e-01 1.567048773514557736e-01 3.539391797953507224e-01
-1.022984136143867406e-02 2.989894850290824788e-02 -7.942964911053157495e-01 9.484370522607301623e-01 1.567129042329548361e-01 2.755144706650625719e-01
-1.027326930429333339e-02 -1.153505836483627728e-01 -7.920511227942321764e-01 8.474614104974682594e-01 1.417482586895517926e-01 5.115824360512402080e-01
6.469826190784409847e-02 -1.963985638152459523e-01 -8.797024381365619039e-01 6.483476481102015132e-01 3.388803861286882046e-02 7.605898553287067099e-01
-4.873303031053083877e-04 3.797709354740191195e-02 -8.212947445724315676e-01 9.159166933801736743e-01 8.519610657848909752e-02 3.922221745533972515e-01
2.314016685576004290e-02 6.641226127153716796e-02 -8.710402159701505775e-01 8.810585616589251545e-01 1.421456825304132608e-02 4.727935669791685780e-01
-1.519362611099031070e-02 -1.283771332046393931e-01 -7.793839771410522310e-01 8.525911696417201036e-01 1.757958987637975312e-01 4.921220371277762462e-01
-6.075460210899484570e-02 1.757791157382548319e-01 -7.477859050891874082e-01 7.630621648181477035e-01 4.510865210989001839e-01 4.628791236445358170e-01
5.220651777335945376e-02 -1.277823838352460661e-01 -8.884391406870510988e-01 8.603666266874491209e-01 1.701407508150890591e-01 4.804387500967601254e-01
1.782945051302662481e-02 -1.558397627095977622e-01 -8.259734511789481592e-01 8.396934945559927366e-01 1.698042945541355375e-01 5.158307249004436823e-01
-6.702623873842049329e-02 1.788780586976416731e-01 -7.382672396576326346e-01 5.508426167813806895e-01 4.878518859837178978e-02 8.331821030908322934e-01
-3.784333997048977549e-02 3.028015579541028929e-02 -7.537485879411554013e-01 8.303366754869228039e-01 6.231567218606440250e-02 5.537668844751584274e-01
-5.075539709103911445e-04 4.231649597608636709e-02 -8.221268618832403563e-01 9.154721379477817056e-01 7.869775990529165322e-02 3.946104753135769028e-01
4.193143729909441786e-02 -1.333079390544016918e-01 -8.660083572893417792e-01 8.896049449894612993e-01 2.103781091896085309e-01 4.053937505982335709e-01
4.811205674904448643e-02 -1.423323464330110977e-01 -8.747524995218958210e-01 8.795274948515844349e-01 2.031788364652843126e-01 4.302903045766998669e-01
4.708586138241547397e-02 -1.356558868063721113e-01 -8.757377341469835264e-01 8.833004393514022334e-01 1.936284405581960022e-01 4.269524105197449737e-01
3.192303464118080580e-02 -7.128313969196820032e-02 -8.656515272848753773e-01 8.882271746038667981e-01 1.040681430759122089e-01 4.474620742498334192e-01
-7.255737221286523778e-03 4.393384102226377541e-02 -8.067041771787494264e-01 9.179777388004300986e-01 1.036641861995889063e-01 3.828454094885119230e-01
1.393310437941255170e-02 -1.655034931235263851e-01 -8.153044491818954853e-01 8.576892924515815420e-01 2.158845777615796546e-01 4.666507545248479993e-01
1.968727447510379078e-02 -6.286246153229181621e-02 -8.428983909268529251e-01 8.962346159122118738e-01 8.955225775799628696e-02 4.344466668892001393e-01
-8.687385773796430682e-05 8.658715588861810863e-02 -8.304201257687443549e-01 8.706119379232029054e-01 9.316816340130353036e-02 4.830678491413325504e-01
1.410805578657921971e-02 5.926091394162642800e-02 -8.538604668890160676e-01 8.839132495643083898e-01 1.936855568663718025e-02 4.672496402302288576e-01
5.384158008747628489e-03 -2.907549121356603310e-03 -8.248698450951753580e-01 9.141798387792646752e-01 1.002011303103552547e-01 3.927275847888013205e-01
-3.341529021228137331e-02 -2.497687258748975542e-02 -7.578769724570662003e-01 8.603752688189501008e-01 -8.908402309541442118e-03 5.095831994610994231e-01
6.178667315913050073e-02 -1.413808991218467037e-01 -8.988866779111120975e-01 7.867874484110307653e-01 1.811292520844575704e-01 5.900489005685755073e-01
-3.924557177810283209e-02 2.849082613899894638e-03 -7.484629469757507758e-01 8.570866080806427423e-01 3.242225118845140641e-02 5.141510905139573540e-01
5.684226485074057866e-03 -3.601982885295613307e-02 -8.181866498077892125e-01 7.644288136342614060e-01 -6.264282574123207492e-02 6.416575919202305300e-01
3.201736818936803258e-02 -9.748469805072434990e-02 -8.592385735569887384e-01 8.882399019820522712e-01 1.263462825585211502e-01 4.416633258609508061e-01
-2.183191572842840128e-02 6.178562517403150128e-02 -7.783903014618142047e-01 7.607856163820270190e-01 -2.314067222651471859e-03 6.489991456073792575e-01
-7.796169420787424365e-03 -1.141109664907424270e-01 -7.966680695038167448e-01 8.584591776222748605e-01 1.397776244356661868e-01 4.934673809515780496e-01
1.424689256719203177e-02 1.955084131355959431e-02 -8.494108311723641558e-01 8.836431491032524788e-01 8.747060273665627217e-02 4.599170345831660733e-01
-9.893429608428792616e-04 3.923261662027596741e-02 -8.203941182371670138e-01 9.154721379477817056e-01 7.869775990529165322e-02 3.946104753135769028e-01
2.786520915119787903e-02 -1.926628094214575537e-01 -8.293076587614744977e-01 8.552581159079818418e-01 1.829753829839359525e-01 4.848232300492736346e-01
3.201350915372187800e-02 -6.253801263777865327e-02 -8.678066563625312924e-01 8.929811695382563475e-01 9.640696862042150150e-02 4.396479583160929350e-01
-5.803983900318913924e-02 9.672227626583140836e-02 -7.359095942434322746e-01 8.111712446264121024e-01 6.606799649560028687e-02 5.810647397065964448e-01
1.775238027548298875e-03 -4.857799252810335484e-03 -8.154780849506714224e-01 9.287910416813506265e-01 1.093519820571868667e-01 3.541035793558660050e-01
1.840527574372729028e-02 -1.182702638596870026e-01 -8.348642516411203252e-01 7.955898330947648311e-01 7.217048045351044661e-02 6.015216032923121903e-01
-2.790236257200898531e-02 1.077996166345845663e-01 -7.832840742735808215e-01 9.090682053027141496e-01 1.764677845940434420e-01 3.774309461453479453e-01
4.115304901021403505e-02 -5.478662397762308622e-02 -8.884190253664738801e-01 9.026010496778754666e-01 8.873169144600265290e-02 4.212339398167349591e-01
4.437323715354565129e-02 -6.985174526549312035e-02 -8.913453882351956015e-01 8.878544544793952609e-01 1.314313782258499930e-01 4.409538076474101564e-01
6.355326809852106240e-02 -2.024681698341294078e-01 -8.781621617205322972e-01 7.053012412338280912e-01 6.205404013268214780e-02 7.061865583662954027e-01
-2.627062059637506192e-02 5.565071014091002577e-02 -7.726188416974999473e-01 7.961280558071082147e-01 2.637396846908415457e-02 6.045531676734360316e-01
-9.556129959873484528e-03 9.438849681181393780e-02 -8.157732176777710009e-01 8.687779484237471150e-01 1.585986539846016841e-01 4.691176220170135691e-01
-2.564477618350061855e-02 -6.397265159783531441e-02 -7.726304762491685851e-01 8.478724321624433458e-01 -3.420916046821995907e-03 5.301892455645847990e-01
1.759669096482334091e-02 2.583111778192768646e-02 -8.570734326876359166e-01 8.746861927435382045e-01 8.019407410784698542e-02 4.780093876712036560e-01
2.252604859066813583e-02 -8.425318300923770320e-02 -8.434993204314042980e-01 9.115157822591042347e-01 1.446118665564936345e-01 3.850018009615281400e-01
-6.412530604501241738e-02 5.059719857583014346e-02 -7.179182998850941466e-01 8.351614857642494227e-01 1.453912356724640365e-01 5.304400826537202240e-01
3.207761077236165326e-02 -1.042990559932754496e-01 -8.572287218535841191e-01 8.846145944979841858e-01 1.525302016110403891e-01 4.406717109114930975e-01
-3.944873276013934581e-03 -1.151631283453682791e-01 -8.025981524310548121e-01 8.493055365614019525e-01 1.082369853434586582e-01 5.166864238296849932e-01
4.528791227683095361e-02 -1.531968345508650242e-01 -8.639328970261762608e-01 7.149531081021535117e-01 4.780723467170833185e-02 6.975360360068250110e-01
-1.589050957649517900e-03 -1.025859915073108197e-01 -8.084407831440550973e-01 8.278259490849593227e-01 6.862537075157687516e-02 5.567717274707787434e-01
2.679818791249826207e-02 -1.025404944401183127e-01 -8.463705664222361813e-01 7.570706656489372133e-01 1.051407017389440444e-02 6.532483919170820608e-01
3.360276463759002269e-02 -9.230660757226315238e-02 -8.638544433703101433e-01 8.862861450165349098e-01 1.176010637774986684e-01 4.479585460175196654e-01
-1.024261987591660976e-02 2.667058326410352495e-02 -7.934307728715397356e-01 7.709707019579216114e-01 -3.725006401599749439e-02 6.357803154025090109e-01
5.257746861558364182e-02 -1.610990609431155463e-01 -8.738605194117382569e-01 8.958743482677976600e-01 2.577382577018870191e-01 3.619117884686052222e-01
-7.333634031874911030e-02 1.786075907550380149e-01 -7.334595932032620391e-01 6.374848382536782987e-01 1.752412442745974741e-01 7.502690099569435667e-01
-6.120539095713665306e-02 9.590013792543850002e-02 -7.316538598278296002e-01 7.966869331571926338e-01 8.013541877910237976e-02 5.990561285836952798e-01
-3.982423341656637916e-02 3.103245621113248989e-02 -7.508627591731625861e-01 8.317897882461354753e-01 7.056759588620642454e-02 5.505869255442684684e-01
4.544153001361712907e-02 -1.342361214677613088e-02 -9.044211738086922470e-01 9.063478609966395538e-01 3.283762932269346929e-02 4.212543708583703084e-01
6.735602847986757458e-03 3.754122753323092636e-03 -8.297518505688055157e-01 9.158320859017644588e-01 1.120506031656307300e-01 3.856115308999997771e-01
6.390574582589877810e-03 8.667793745210948531e-02 -8.418168007388716623e-01 8.649994278891629529e-01 8.490746391884103350e-02 4.945368664945936077e-01
1.426512150719126681e-02 -3.815188660954690891e-02 -8.365808612437837244e-01 9.042360736306240820e-01 9.122108121485933419e-02 4.171760269802960441e-01
-1.080944234559991744e-02 4.542317393674336762e-02 -7.984583987962400320e-01 9.219908609196587612e-01 1.100992062883429795e-01 3.712290629184403778e-01
-4.706263249806946769e-02 8.253886887047147750e-03 -7.358497347350252404e-01 8.586368029810176328e-01 6.128202764485386062e-02 5.089080011694376848e-01
4.361804353285794744e-02 -2.004874644434228442e-03 -9.015067519075621316e-01 8.934139798313527336e-01 4.263434997918593566e-02 4.472066332734293548e-01
2.994529205272087463e-02 2.746293826797493315e-02 -8.796021978212205106e-01 8.693484293813413810e-01 7.330760279157964854e-02 4.887323436249607633e-01
-5.870165888790819519e-02 1.462194525586574534e-01 -7.407492893845630810e-01 7.739770235272008803e-01 7.469844086771695868e-02 6.287922629803160968e-01
-1.193357697034573388e-02 2.652946145577042211e-02 -7.912858926609150911e-01 7.945214595801159962e-01 -1.771002433011053395e-02 6.069777634352916396e-01
2.160013482342437383e-02 -9.192523777881080049e-02 -8.404859257984998999e-01 7.607086943945126079e-01 -7.949395649626682034e-03 6.490447514473878243e-01
-1.049099853304472259e-02 4.003823012621970240e-02 -7.975902637021849984e-01 9.228144747134270354e-01 1.163795514913970319e-01 3.672454836400890765e-01
-1.643887495794069467e-02 -1.067972137172288616e-01 -7.838276204140649517e-01 8.562997048657211563e-01 1.178168814753253885e-01 5.028618079416133924e-01
3.799153113859294467e-02 -4.482963901382933797e-02 -8.838938042137870488e-01 8.976768721660614014e-01 9.211339114828426267e-02 4.309191993278087551e-01
-3.114610101552403240e-02 2.690046182288537840e-02 -7.633589566380032387e-01 8.324375440417685068e-01 3.452031081134600971e-02 5.530425692577353169e-01
-1.228676617436912956e-02 -1.397705572703971943e-01 -7.796832625703129516e-01 8.521808161085510092e-01 2.262923271334170705e-01 4.717834665787966064e-01
-2.203813382770839283e-02 -5.056429184928730447e-02 -7.781063017082384681e-01 8.456971413359600787e-01 -2.746122106403927829e-02 5.329561205895444465e-01
-2.533527428443502205e-02 1.086658495681686459e-01 -7.897013950604677701e-01 8.950416194960277849e-01 1.790819154907636879e-01 4.084484874670082366e-01
-6.327863593481714011e-02 4.100676416637390187e-02 -7.166180143358525934e-01 8.378952088189189906e-01 1.461300852159477248e-01 5.259064719444704883e-01
1.819078020954698754e-02 2.662518173004684366e-02 -8.582945453366139787e-01 8.747491132348031995e-01 8.115524412644037344e-02 4.777319491573734922e-01
-8.123358869370400637e-02 1.976279667621712310e-01 -7.351565829690878129e-01 6.699542386848291731e-01 7.339882521495266765e-01 -1.114565555484009068e-01
3.961434610404748757e-02 -9.703277866559480158e-02 -8.744978636112535897e-01 8.840940020493007756e-01 1.305990491956794397e-01 4.486888497496182016e-01
-1.078272788298603180e-01 2.195924713438848208e-01 -7.314138793099508318e-01 5.297448450578710055e-01 5.117766592100567724e-01 6.763542342755055614e-01
6.113288885404997985e-02 -1.100730072771025359e-01 -9.085987239961154094e-01 7.883953380660884136e-01 2.053413119300125378e-01 5.798859685580601830e-01
-1.855981831511938074e-02 6.531710770463962368e-02 -7.864075855471924781e-01 9.220469827617570058e-01 1.567048773514557736e-01 3.539391797953507224e-01
3.947545382724870766e-02 -7.434476163314601704e-02 -8.801864745502896437e-01 8.941589810832353269e-01 1.050386896356956534e-01 4.352546268884531777e-01
2.575104407704582269e-03 3.055345516623652821e-02 -8.268187616637232562e-01 9.156743109982393714e-01 8.608775343530658541e-02 3.925932435566887313e-01
-5.846473008881406669e-02 1.620544445672720268e-01 -7.432330810560822121e-01 7.802844256036598480e-01 1.000546495745804482e-01 6.173696479896583211e-01
1.249702223041830249e-02 -1.690021777022311655e-01 -8.110884594396018388e-01 8.614650399475961562e-01 2.231701365800369818e-01 4.561502768681985343e-01
-4.668330595170430003e-02 1.844868286404594687e-02 -7.380237119358665776e-01 8.491312091054533662e-01 8.689850292871260928e-02 5.209844910473431234e-01
-8.536807225280738931e-03 -2.960522109690271950e-02 -7.978604569384281087e-01 8.316558385758493488e-01 -3.113991473723360867e-02 5.544175970086613336e-01
-2.163127922132098563e-02 -5.737533179278306306e-02 -7.790062459991057287e-01 8.478724321624433458e-01 -3.420916046821995907e-03 5.301892455645847990e-01
-1.649119789221129354e-02 1.116246080601305118e-01 -8.086416034527464936e-01 8.644842890218583653e-01 1.478304221437742594e-01 4.804300993101549011e-01
-5.796895803343941195e-02 4.324116566412934681e-02 -7.256354530608032372e-01 8.343569535656782943e-01 1.415765348993567596e-01 5.327331027845854106e-01
-7.430232613823084531e-02 1.923984718551912387e-01 -7.414077745194949109e-01 7.312641094492243754e-01 6.189893708018673335e-01 2.865396326265197136e-01
1.356161731732264536e-02 -2.989234194877560605e-03 -8.428822926605258337e-01 9.022819408662574592e-01 1.108311077328842931e-01 4.166578509344582848e-01
-3.999050995705132582e-03 -1.191285018576856806e-02 -8.036228385291382947e-01 8.139497815151898186e-01 -3.088400642205925417e-02 5.801137227464084889e-01
-3.060660536671179141e-02 -1.032543136503285969e-01 -7.604246962948268962e-01 8.450172753799961578e-01 1.205706550659094711e-01 5.209688296302812383e-01
1.184862723887040309e-02 -1.194222566772737068e-02 -8.371454140576940484e-01 8.975016824290749096e-01 9.280642869363667224e-02 4.311353578983204704e-01
5.269943227055228635e-02 -5.521119692464125650e-02 -9.125040047039736368e-01 8.946646782008790266e-01 1.170609829461762147e-01 4.311285653391486172e-01
-1.295238053219184039e-02 -5.423103120918749964e-02 -7.924064488417148500e-01 8.318389226157330008e-01 -2.477220715496084719e-02 5.544640155809646975e-01
2.779512454313330660e-02 -1.152359759002576645e-01 -8.471536642207447843e-01 7.724149512551446994e-01 4.562909405271698554e-02 6.334770152526771891e-01
4.493906118737420879e-02 -1.648150962326344338e-01 -8.620681081263716905e-01 7.528886854617290458e-01 8.052538700884902256e-02 6.532030996181700244e-01
-4.859329465269564274e-02 9.537402735945783860e-02 -7.480752428303764079e-01 7.884540197693781227e-01 4.958700416590940130e-02 6.130916633973739760e-01
-3.167295787760604497e-02 1.401920119461695369e-01 -7.894010015462232799e-01 8.897046973683712112e-01 1.976233351147641815e-01 4.115465573890428330e-01
1.562596116845675273e-02 -2.135357849663725369e-02 -8.429968831827215903e-01 8.982891758219954115e-01 9.015626946511072493e-02 4.300562796625281292e-01
-2.353532189872071384e-02 -8.968702313121026948e-02 -7.748378258760578730e-01 8.532558421157757644e-01 5.741749316802188113e-02 5.183220035591760144e-01
-5.985165595242779996e-02 1.647096973552618082e-01 -7.418419782739570367e-01 8.278273652903476165e-01 1.247022367769268225e-01 5.469471687642898372e-01
6.779929143809215741e-02 -1.323578497477108928e-01 -9.094445977250542601e-01 7.757525628649386551e-01 2.177222741083511270e-01 5.922879135737678657e-01
3.638969233182092616e-02 -2.431654569607081748e-02 -8.843357297496088343e-01 8.944449810683665625e-01 7.897672113475968925e-02 4.401486718830488476e-01
-3.994639966516937146e-02 1.134522386980840597e-01 -7.589633304688152560e-01 7.117016903511539372e-01 7.660276023577776601e-03 7.024400501982732692e-01
3.404020018457343255e-02 3.135657121459960173e-02 -8.873535347717447230e-01 8.681429984280433221e-01 6.516826831832674138e-02 4.920171044636122426e-01
-1.006712476900477500e-02 -1.429420717911664418e-01 -7.821713667664216274e-01 8.521808161085510092e-01 2.262923271334170705e-01 4.717834665787966064e-01
2.026994533021553649e-02 1.780842027930684690e-02 -8.606191494219601612e-01 8.746861927435382045e-01 8.019407410784698542e-02 4.780093876712036560e-01
1.347920056948041269e-02 3.052175621618255161e-02 -8.498905512536470974e-01 8.892999029892761920e-01 7.872917015002277308e-02 4.504968371817414385e-01
1.102419720620809694e-02 6.633268834023711702e-02 -8.483648394770133550e-01 8.825531774723081035e-01 2.335998817418200382e-02 4.696319834572966201e-01
-3.939846242592515146e-02 -3.202820045247371794e-02 -7.475976623430209411e-01 8.683396608209243972e-01 -1.213847964190039111e-02 4.958214303127541633e-01
-1.799438184792045287e-02 9.725421054335811610e-02 -8.007735652745038291e-01 8.830531471270397503e-01 1.735386367642035577e-01 4.360062853893881818e-01
6.965674644070347227e-03 3.476421155017543618e-02 -8.373567988608640045e-01 9.074881947704181995e-01 7.208169659322223588e-02 4.138470796907598448e-01
-5.930448019977811736e-02 2.992922419185809618e-02 -7.200012048168183965e-01 8.427287009393895634e-01 1.360320119300657271e-01 5.208681487125772502e-01
-9.317162519379282998e-03 1.022207617875047769e-01 -8.184486127325274474e-01 8.581127029028512432e-01 1.464848423035990110e-01 4.921227286887415175e-01
-2.889670251670108797e-02 2.547259470175839910e-02 -7.666556166899769487e-01 8.324375440417685068e-01 3.452031081134600971e-02 5.530425692577353169e-01
4.916612716872532929e-02 -1.617411316638458219e-01 -8.672605465751728193e-01 7.114720102256780754e-01 5.622529378809223988e-02 7.004614871667644849e-01
1.734253155679706809e-02 6.554723256882286075e-02 -8.602102204188604162e-01 8.810585616589251545e-01 1.421456825304135384e-02 4.727935669791685780e-01
-8.875841680296844838e-02 2.045797018311868443e-01 -7.353578041429487122e-01 6.726727393814738720e-01 7.202152613419176008e-01 1.697096432829230672e-01
6.986697239728468893e-03 -1.685755993889275217e-01 -8.009161038426045875e-01 8.619365796723563733e-01 2.142699360547084264e-01 4.595146647560128805e-01
-2.355011772951390303e-02 -1.193242174888761858e-01 -7.679643238236096847e-01 8.610430202197046912e-01 1.543937430658181564e-01 4.845281100545722475e-01
-2.408788717058201953e-02 -4.622381753328917015e-02 -7.745895101747601874e-01 8.535362226624645388e-01 -2.016446843556187959e-02 5.206431703343498141e-01
-1.657955871816845991e-02 -3.846299003951803713e-02 -7.860913029755219883e-01 8.383412039034029428e-01 -2.928629990608673517e-02 5.443586487561337117e-01
1.191865596682396659e-02 -6.049260501165399512e-02 -8.277411276829741427e-01 7.714508854620252265e-01 -3.780418179292741737e-02 6.351648409340872048e-01
-3.364521436153218234e-03 9.393778030074471930e-02 -8.264762446780816729e-01 8.605104318272573938e-01 1.228482730844148302e-01 4.943987242263516158e-01
-9.487637211317475824e-03 4.735639702742817751e-03 -7.951452560606869779e-01 8.158206455599157358e-01 -2.225580876676620801e-02 5.778765899864253264e-01
-1.304883543186411976e-01 2.384410485041951466e-01 -7.350770244549876820e-01 4.343808698313016969e-01 7.848890012990333842e-01 4.418851836896180441e-01
-2.768514876130364136e-02 1.360917487657553326e-01 -7.957869976768169318e-01 8.810412385745349795e-01 1.847251157818330380e-01 4.354801574474290171e-01
-3.055888817873880260e-03 7.035525700984610054e-02 -8.216286167286780406e-01 8.893365935120134402e-01 6.707777939019791968e-02 4.523063065584291831e-01
-2.214855368013529321e-02 -2.999275095132052441e-02 -7.768308009331402753e-01 8.507081484512216685e-01 -3.069464542179526148e-02 5.247413504776656801e-01
-6.223897604666290412e-02 5.998511728804944293e-02 -7.233271216359313804e-01 8.316459880257596193e-01 1.366774515436067761e-01 5.382232109823982258e-01
-5.951592065851044056e-02 3.133460283310863376e-02 -7.200261430684880004e-01 8.427287009393895634e-01 1.360320119300657271e-01 5.208681487125772502e-01
-2.487358786646230377e-02 1.257713753967559522e-01 -7.973237619867905579e-01 8.857205985830501893e-01 1.514977556042113038e-01 4.388022918041448173e-01
8.747722038146795928e-03 -4.180017098621167937e-02 -8.228362074425462636e-01 9.380152442050840866e-01 1.151679546578755486e-01 3.269002047396082911e-01
-3.599257670263186076e-02 -8.495152673252381881e-02 -7.546841643611016393e-01 8.519622231592069994e-01 6.450274457166840780e-02 5.196150173468274680e-01
3.716485585878497727e-02 -1.809115944435068790e-01 -8.487291331049477972e-01 8.276456125041060652e-01 1.425391373637709680e-01 5.428492741289198120e-01
3.963905247421147665e-02 -7.043220613202802460e-02 -8.814667662876178866e-01 8.941589810832353269e-01 1.050386896356956534e-01 4.352546268884531777e-01
8.405703228496885782e-02 -2.215934135369113656e-01 -8.896403857691285166e-01 5.584930311162318306e-01 2.706610296085352196e-01 7.841097762723349129e-01
1.904346634068763977e-02 3.696821922207257916e-02 -8.613965471489014591e-01 8.797246550614523652e-01 6.694116649930495488e-02 4.707477153473196285e-01
5.113831223172900231e-02 -1.419106979034331362e-01 -8.809953468662119480e-01 8.690607730491788363e-01 1.935385673153614261e-01 4.552759555573752115e-01
7.496725999747099432e-03 -1.325376689992704138e-01 -8.166314926429761867e-01 8.399375078936396344e-01 1.522161732517991195e-01 5.208984732498264103e-01
5.021757865480826200e-02 -6.226346167056057146e-02 -9.054368016621577864e-01 8.890562002832125277e-01 1.321468385213499519e-01 4.383107183343664115e-01
2.186974091271419451e-02 5.621193471429779265e-02 -8.682808460696223030e-01 8.780562680902587180e-01 2.605447352242800177e-02 4.778476268402686022e-01
3.800859620551195681e-03 -1.574728730555034206e-01 -8.004694707098829465e-01 8.577050980979621375e-01 2.316674572780750563e-01 4.589903636625461414e-01
3.567704384021719993e-02 -1.361450728076056549e-01 -8.547929312270402535e-01 7.605541769481096726e-01 7.455031483383889324e-02 6.449803055016168907e-01
-1.592310917537705789e-02 6.856142310686344499e-02 -7.939695911160211672e-01 9.010577548952263260e-01 1.562827233841121155e-01 4.045622729751496283e-01
4.561668424333733401e-02 -8.740401639322775695e-02 -8.890006394993976713e-01 8.821594555744872723e-01 1.305774836708220865e-01 4.524867022341324541e-01
4.247239048862990612e-02 -4.270919594683838388e-02 -8.938061353742025039e-01 9.042658489079447026e-01 9.005258897628840020e-02 4.173653144637943235e-01
-1.094562428588146839e-03 2.426239098873856151e-02 -8.165852410900066305e-01 9.224203046008784268e-01 9.856474757320844715e-02 3.733976060392625307e-01
-1.120242055335821454e-02 -8.045998709975542285e-02 -7.953166831592721753e-01 8.333757801617801553e-01 1.955990646224412335e-02 5.523605879305045763e-01
-2.843498715610595640e-02 -9.091965612035357580e-02 -7.664974847011525316e-01 8.574065720477490604e-01 7.146811873598868381e-02 5.096530959522044268e-01
2.863058782031500590e-02 5.312212387655505103e-03 -8.737129666079849200e-01 8.793417839022302784e-01 7.946846955159184156e-02 4.695133538364709147e-01
-2.742298651522142097e-02 1.039539759992006290e-01 -7.826174039099421664e-01 9.120119566303952485e-01 1.844841223768714789e-01 3.663329080959464856e-01
7.608368743123736060e-03 -1.540477974004701989e-01 -8.090379926415353085e-01 8.561287611314903900e-01 2.194550342722155489e-01 4.678493692376214375e-01
4.757462384706757919e-02 -1.925262386530154218e-02 -9.084388317241288702e-01 9.042459323986661301e-01 4.155870349538576952e-02 4.249849031486289674e-01
-4.462307593730639038e-02 -2.759074546895051022e-02 -7.378311966638502195e-01 8.793849991606222938e-01 -1.448118413011992983e-02 4.758910784596218080e-01
4.084175436853573066e-02 -2.057794859577825597e-01 -8.469398969235087948e-01 8.418608424104733201e-01 1.600654279664353585e-01 5.154118554960200882e-01
-1.619540706059451399e-02 -7.929101525354595448e-02 -7.875754868429496458e-01 8.523269460776565776e-01 1.583923301890635335e-02 5.227694479283463425e-01
-3.486841328609609214e-02 -6.132025072416635164e-02 -7.571991787980170141e-01 8.636827571881765531e-01 -1.397171291408398630e-02 5.038421242552822976e-01
2.501932203891119814e-03 6.284200432071698761e-02 -8.315124103176301240e-01 8.954670087767333531e-01 4.614343468315652147e-02 4.427297365527766981e-01
-2.424827344525307127e-02 -1.115769942309514234e-01 -7.691922829012096674e-01 8.610430202197046912e-01 1.543937430658181564e-01 4.845281100545722475e-01
3.090330260455738387e-02 -3.374906936258297019e-02 -8.714825742170422274e-01 8.921234457718043576e-01 8.741605519891737508e-02 4.432540928155119242e-01
-2.615525980777120077e-02 -5.585097689246451558e-02 -7.715971118717915855e-01 8.528874104042158955e-01 -2.349539334318494210e-02 5.215659418190949914e-01
5.916036128136364231e-02 -9.345906923010617595e-02 -9.113463507504540040e-01 8.221056851876993310e-01 1.836350527221143059e-01 5.389066800419247683e-01
2.100468775355414288e-03 5.677202710450669765e-02 -8.300445623973342624e-01 8.957754602522853826e-01 4.993883777270758523e-02 4.416926955381053066e-01
3.393122743375017597e-02 -1.829683218469627393e-01 -8.431258342331483524e-01 8.433851347710590307e-01 1.879948801360221966e-01 5.033482288533907001e-01
-4.418370299995974526e-02 1.085165144392093439e-01 -7.541050102844393255e-01 7.530155714453903304e-01 3.321800330679509916e-02 6.571636884499035824e-01
-4.622923539621609512e-02 9.235639848801355245e-02 -7.507441208942440269e-01 7.653033333438534758e-01 4.202514351679340759e-02 6.422964232230937709e-01
1.829521076069584519e-04 8.031085196569394402e-02 -8.296956910654020856e-01 8.698096490682760695e-01 9.348046738280844925e-02 4.844507989523951785e-01
1.609704926153364760e-02 -1.922786286881836282e-02 -8.444265098499567079e-01 8.982891758219954115e-01 9.015626946511072493e-02 4.300562796625281292e-01
3.386610042667786286e-02 -4.539435939519055607e-02 -8.752240908089772287e-01 8.981239609300524229e-01 8.361417535945321611e-02 4.317198402694412684e-01
-2.088193249156198444e-02 -8.496099208578324069e-02 -7.796933549234597027e-01 8.596653863630938641e-01 3.572961242064693482e-02 5.096065328127800109e-01
-1.022220394431638535e-01 2.144017583293647555e-01 -7.318342151356269643e-01 5.085907838911324363e-01 4.913043511917861150e-01 7.070752781995857106e-01
-3.507067127940812629e-02 1.258604671979994261e-01 -7.748292375284773215e-01 9.064168887499148841e-01 2.033562637230144909e-01 3.702089326225668220e-01
1.376497696005229456e-02 5.413379969225588090e-02 -8.529838442334979343e-01 8.899170935437377139e-01 2.884944324864367055e-02 4.552090467498528525e-01
8.166768824613005948e-03 -9.709384515737098931e-02 -8.228924622951103718e-01 8.022428281724036658e-01 3.409322485768636474e-02 5.960235705613884383e-01
-8.935087232887602843e-03 5.648339784823289134e-02 -8.060887661821943828e-01 9.061372350550074284e-01 1.004537184131885363e-01 4.108824183435329513e-01
4.810634710803970635e-03 5.920666366864728303e-02 -8.358031088347025461e-01 8.954670087767333531e-01 4.614343468315652147e-02 4.427297365527766981e-01
3.752648012231505226e-03 1.862720229483585260e-02 -8.267525861438456136e-01 9.129779398565677218e-01 9.803970186902122297e-02 3.960549181523827511e-01
4.838375102860038857e-02 -9.859569507794097021e-02 -8.909994808149171996e-01 8.735482374431083885e-01 1.352021356054096957e-01 4.675829973253680105e-01
-4.965463452727380579e-03 3.090306624376768299e-02 -8.088234967335262704e-01 9.197421680062887184e-01 9.737061687699408163e-02 3.802542667217360117e-01
-3.543141837409902878e-02 2.400482062643109413e-02 -7.565984118003656889e-01 8.317897882461354753e-01 7.056759588620642454e-02 5.505869255442684684e-01
4.310544174364471653e-02 -1.297572625309512812e-02 -8.994367899196390459e-01 8.934139798313527336e-01 4.263434997918593566e-02 4.472066332734293548e-01
-4.744159870708780646e-02 5.457896215957317582e-02 -7.441219312505509276e-01 8.177693214030755664e-01 1.146955482941177523e-01 5.640020107884946565e-01
3.847708997974480516e-02 -5.534379129824013727e-02 -8.826479623729608370e-01 8.984288994719792365e-01 9.274950626163334932e-02 4.292121173520047628e-01
-4.380162309806367310e-02 4.700915633606254918e-02 -7.478768847783160423e-01 7.996126894517681105e-01 1.033895511600411016e-01 5.915489392929679235e-01
-5.141518273895212543e-02 6.595420231598979333e-02 -7.407268610739516923e-01 8.025639896075490443e-01 1.114247939457018999e-01 5.860678782183612601e-01
-3.773681515170689005e-02 -4.549662710351461831e-02 -7.514134825422286168e-01 8.677270572201721821e-01 -3.178681604884079498e-02 4.960235402614449063e-01
