-5.917903532174305890e-03 -4.934258408186015937e-02 -8.875754599640660603e-01 1.030626753390141148e-01 6.924070134042805691e-01 -7.141082640192096820e-01
-6.093880389344756565e-02 -8.286022505876119992e-02 -9.317416613812876669e-01 1.179422923579893784e-01 7.237588470266724805e-01 -6.798990712039280071e-01
-6.926811096775020715e-02 -1.261175696120680209e-03 -8.525470410574336189e-01 1.789548138628491991e-01 7.008613640319409921e-01 -6.904842670203282795e-01
-2.761879387826855076e-02 5.906685058497159607e-02 -7.851641180972627199e-01 4.306271268177890021e-02 7.379665419932254222e-01 -6.734619407769436572e-01
6.982729097048372136e-02 -5.058540695963974210e-02 -8.581389487341315458e-01 2.478532284195000546e-01 6.583608745993922984e-01 -7.107247962177443146e-01
7.518618192091014452e-03 -7.275865806413574222e-02 -9.073039303601615480e-01 3.919454003975753054e-01 6.742420192485234498e-01 -6.259205241776772954e-01
-2.931224653799929802e-02 5.781168706930100987e-02 -7.866906682626119141e-01 6.871271392223035623e-02 7.367299588616201822e-01 -6.726867998267821447e-01
2.462025976317355064e-02 -1.586103182616851737e-01 -1.002066486164693293e+00 3.546558588384783883e-01 7.520517692014367928e-01 -5.555514001715142758e-01
8.922766889774061405e-02 -6.901270452988729487e-02 -8.711060345290205786e-01 1.802125244168592544e-01 7.289770912323634278e-01 -6.603906771765525319e-01
4.490390385694448261e-02 -1.538682201557103613e-01 -9.872133428018865509e-01 1.938513442235122175e-01 7.627868701422606534e-01 -6.169099181252569730e-01
-5.429661070420800824e-03 -1.370545708102099691e-01 -9.840691504115259836e-01 9.694015257192779844e-02 7.781806613942279238e-01 -6.205138717638577495e-01
-8.011101179657346971e-02 5.374118350650977649e-02 -8.026746796136342565e-01 1.987144802531694843e-01 7.285950410568929891e-01 -6.554859430109978291e-01
-8.614744808240050455e-02 3.460960320016327751e-02 -8.237982315940998168e-01 2.050944219760228449e-01 6.561742796791617538e-01 -7.262035477480499601e-01
-9.239239957712999662e-02 -4.149951112394417024e-02 -8.973295978917298354e-01 1.470940679838281806e-01 6.505730968525094138e-01 -7.450624006187026582e-01
1.691854447024552024e-02 -5.871725527469703887e-02 -8.879076931169392894e-01 3.399557904745338366e-01 6.591329401377594710e-01 -6.708008853215591261e-01
9.109437163557350392e-02 -7.629928788568651754e-02 -8.790723017501363978e-01 1.765519599416492669e-01 7.600455008400927026e-01 -6.254280470953431648e-01
-3.045260688607698968e-02 -7.803284529362269906e-02 -9.209864373041490859e-01 1.323770008369251350e-01 7.145233330822318152e-01 -6.869736065748658360e-01
-2.682482294390626382e-02 -7.746483723034615354e-02 -9.197096080202790125e-01 1.358125626521207996e-01 7.059374152856041640e-01 -6.951311484358503323e-01
6.282664834794311239e-03 -9.706578571309625036e-02 -9.354856285078536615e-01 3.865272898840727556e-01 7.005169761055675126e-01 -5.998938409108612868e-01
7.872481918260142153e-02 -7.249853934797835520e-02 -8.779838944693926228e-01 1.874498394583661576e-01 7.447870381211558755e-01 -6.404333107621342780e-01
-2.601244456615045553e-02 -4.515050212857123907e-02 -8.871946649913301508e-01 1.360859059537193883e-01 6.936599094700661716e-01 -7.073305848008659691e-01
5.769830107708909944e-02 -1.909797043452624021e-02 -8.343535923521344655e-01 2.618211814240597457e-01 6.365095044393329626e-01 -7.254690342916810808e-01
-7.220061440717288892e-02 -6.789183285995691042e-02 -9.181335138361544912e-01 1.154178336826467421e-01 7.060587629845022084e-01 -6.986842970045908929e-01
5.927059977865229042e-03 8.996498653081948238e-02 -7.395601493930155090e-01 3.535406241196796806e-01 7.142936044126779738e-01 -6.039815177571349336e-01
4.318194029323613875e-02 -1.266225025591880826e-01 -9.535528127301925450e-01 1.952713582244516299e-01 7.687697813801742663e-01 -6.089844988945586346e-01
-4.746052106333906173e-02 5.276923912620162804e-02 -7.950416791313164033e-01 1.472413761197273740e-01 7.330850837808865483e-01 -6.640077086121359828e-01
4.576911422740303353e-02 -2.026601175087694093e-02 -8.397481629731008423e-01 2.775919840687238183e-01 6.333771120121228781e-01 -7.223407259458461960e-01
6.111514122840317961e-03 -1.186061036799233998e-01 -9.607754806932469194e-01 -3.338084773993831023e-02 7.746368784672310603e-01 -6.315246832252142672e-01
-4.315459157857677239e-03 -9.449632591034425044e-02 -9.336844624452308450e-01 9.481229060214692306e-02 7.330292455362303894e-01 -6.735567939968825080e-01
5.756618484357654136e-02 -8.812154905175145769e-02 -9.018100662960081282e-01 2.047007641830024538e-01 7.293754230849247566e-01 -6.527703189810192264e-01
4.513065042142982985e-02 1.916834780882960970e-02 -8.032990409078020200e-01 2.338609789480636525e-01 6.944662077458235716e-01 -6.804599391768685335e-01
5.973907541273477950e-02 4.522458438733396174e-02 -7.689826586815718956e-01 2.020633652204614494e-01 7.545250969542475206e-01 -6.243895214543287997e-01
6.904357218542687968e-02 -1.241559129912107456e-01 -9.444349900929290831e-01 1.026535704411181832e-01 7.822167440475367162e-01 -6.144910168646575688e-01
3.305689462560561925e-02 -7.982204478163413934e-04 -8.271139963593167055e-01 2.756040347194677609e-01 6.536008885894767362e-01 -7.048746657962654538e-01
2.938228631787479644e-02 -1.526723550432408927e-01 -9.917354329469288965e-01 3.075132195856155604e-01 7.541901076680094240e-01 -5.802007422227289934e-01
4.463605750076931472e-02 -4.868228731132621945e-02 -8.658329111709711645e-01 2.865823711437482935e-01 6.578356675320411462e-01 -6.965075585177096240e-01
-7.525160705350333185e-03 -8.821509773906810112e-03 -8.497873670536038038e-01 4.852078131590501636e-02 6.812028230081328406e-01 -7.304850769907926811e-01
3.845231670564900478e-02 -1.080103930879837276e-01 -9.322298076321106075e-01 2.301332452973650633e-01 7.543119737649015555e-01 -6.148594438111860683e-01
6.975623316524826555e-03 9.035823593927824748e-02 -7.384859515988770884e-01 3.476228607944779059e-01 7.164090922272280393e-01 -6.049102075740017126e-01
3.144746883673472243e-02 -3.151504651647624861e-02 -8.555681487898141313e-01 3.016078218455969795e-01 6.422293262728042684e-01 -7.046802212895820761e-01
-2.381643965024211884e-02 5.155066561223641680e-02 -7.929318156670566164e-01 6.180495275677283518e-02 7.226124951159199616e-01 -6.884848071795612867e-01
2.420879228407171041e-02 -7.789700663364036715e-02 -9.040104142994848102e-01 3.178439389386342184e-01 6.957515193018055655e-01 -6.441312396314922140e-01
6.609045996911401544e-02 -1.373790241301684201e-01 -9.615048068203112530e-01 1.192436022330714412e-01 7.708091547334164906e-01 -6.258068474422734395e-01
-6.065591568702298486e-02 -7.639481723310224959e-02 -9.248215376051501790e-01 1.193670648871021367e-01 7.088743686588644399e-01 -6.951608686331062215e-01
-3.310353195182570707e-02 -7.192324774997795045e-02 -9.153025719236050906e-01 1.347833897560782868e-01 7.059236019306862620e-01 -6.953454580876092805e-01
-9.910255395612039414e-03 -2.728717344034444284e-02 -8.672249454336226071e-01 8.684033305766768185e-02 6.816683695847256530e-01 -7.264894978333376052e-01
-1.584881600909280805e-02 -4.818873788503572758e-02 -8.882229822945899578e-01 1.362733289186681962e-01 6.893218150988995596e-01 -7.115230249641841809e-01
3.840475665061564292e-02 -7.964112870776628161e-02 -8.993427486972186413e-01 2.869451431509284500e-01 7.062506365890909299e-01 -6.472036179901941022e-01
1.412213620429997318e-02 4.537887231187746201e-02 -7.873155527997294234e-01 3.098076975985163961e-01 7.212308519054243527e-01 -6.195524584476136409e-01
-5.971667516882916277e-02 -8.290255049541085663e-02 -9.315747141696851807e-01 1.179422923579893784e-01 7.237588470266724805e-01 -6.798990712039280071e-01
-8.953072972208717464e-03 1.315342914590166279e-01 -6.898078949934191018e-01 3.854169188429389936e-01 8.217444060509642156e-01 -4.197498419220226928e-01
1.267930511866224852e-02 -6.069363058129108313e-02 -8.919980992142925169e-01 3.399557904745338366e-01 6.591329401377594710e-01 -6.708008853215591261e-01
-8.913746396374832431e-03 6.748885818400307546e-02 -7.757500146447428024e-01 4.952187368294916348e-01 6.581637852768591479e-01 -5.670792135522506605e-01
4.811915352347744673e-02 -6.790678260429983126e-02 -8.830990566705367861e-01 2.724670264072247550e-01 6.950877133539394848e-01 -6.652930108344716764e-01
-2.964800684528226538e-02 -8.500112240847029765e-02 -9.280791813103179688e-01 1.324801632825591824e-01 7.145828604408075435e-01 -6.868917978116058087e-01
-3.695836628236032206e-02 -1.215048504031385340e-01 -9.735645366194048966e-01 2.263018839634533264e-01 7.995167916709001732e-01 -5.563814852696502555e-01
-7.869717824939895245e-02 1.539960234321553594e-02 -8.390751898548979293e-01 1.968770018203665206e-01 6.640372921220695224e-01 -7.213140237271230548e-01
-3.235271008265185044e-02 9.451700163968995705e-02 -7.465123069950758694e-01 3.309032516616029762e-02 7.462580029424681349e-01 -6.648338314381398995e-01
-5.554867450883346769e-02 -2.803763922224945804e-02 -8.763679036137363987e-01 1.598442279142182898e-01 6.925157591360958653e-01 -7.034712120269486224e-01
-2.433456325671969067e-02 1.298490225249837315e-01 -7.004769659135283710e-01 -4.619525271515968062e-02 8.915499870847161112e-01 -4.505603390843730405e-01
7.189509673919247668e-02 -9.554552669102074625e-02 -9.070431485740232391e-01 1.410274579014755836e-01 7.711498873088856731e-01 -6.208374243079587407e-01
-3.268067104517591998e-02 2.738734965992901602e-02 -8.183374919083314936e-01 1.052105868492363011e-01 6.820699776623079247e-01 -7.236789882168599419e-01
-2.183434737205275714e-02 -6.555196919336486738e-02 -9.066289075658771068e-01 1.399491512643109281e-01 7.009411326633087080e-01 -6.993538186076321272e-01
-1.370638258042129395e-02 7.585767907079757344e-02 -7.669846478640545140e-01 -4.574529894656324813e-02 7.266704100286515144e-01 -6.854615108181355554e-01
1.177028003945997450e-02 -1.213877226561823064e-01 -9.618827033363744894e-01 3.553680465353143969e-01 7.380463825423885238e-01 -5.735861650334401762e-01
8.806733028617905190e-02 -7.878484592860572622e-02 -8.827634166755123912e-01 1.527376419699934262e-01 7.513932164171157613e-01 -6.419341454135212288e-01
1.310369832515118071e-02 -1.574760642942774347e-01 -1.009981900084309769e+00 5.727979000364660234e-01 6.975588292810569468e-01 -4.304814112198755982e-01
6.746015639015924548e-02 -1.341124349752456368e-01 -9.572203468922406699e-01 1.192436022330714412e-01 7.708091547334164906e-01 -6.258068474422734395e-01
-1.498606913136735913e-02 -1.059063200776280411e-01 -9.480570314323618630e-01 1.146103395675231451e-01 7.417068932018583416e-01 -6.608595574258300243e-01
-7.326383911538911220e-02 -3.091953060715273843e-02 -8.833655820028111227e-01 1.807518998453262471e-01 6.828342307410452117e-01 -7.078602715441728588e-01
6.212504901835228660e-02 -1.185162286117629610e-01 -9.384643907587466582e-01 1.088783399710826355e-01 7.851975758057143651e-01 -6.095984531098900261e-01
3.599660105538250721e-02 4.332563830239771763e-02 -7.797451086716420399e-01 2.489935475715411017e-01 7.424574914130296355e-01 -6.218995792830299685e-01
2.895220908998740600e-02 -1.102937189969570020e-01 -9.390527952109869458e-01 2.685482264668896391e-01 7.434201490616794139e-01 -6.125425144678519063e-01
-2.721039303907596407e-02 -5.594366750233017993e-02 -8.981105973606828830e-01 1.415970646278973399e-01 6.960795825136599779e-01 -7.038632580951869055e-01
-8.328821848279499562e-02 1.905871439346806459e-02 -8.369859609668973688e-01 1.979809207026902718e-01 6.542680609152126125e-01 -7.298882513809650252e-01
-3.761090142645496376e-02 6.199159836151908048e-02 -7.829709633661426915e-01 9.751476591454906473e-02 7.498994381904942053e-01 -6.543253800902206763e-01
-4.863074303330693765e-02 -9.172860974056755434e-02 -9.390401312327890659e-01 1.325927478107712110e-01 7.332061581994903099e-01 -6.669541909354295139e-01
-5.853272256978871158e-02 -5.830668198585661766e-02 -9.064742698888388350e-01 1.288978844365406273e-01 6.947290536789239024e-01 -7.076276403322379061e-01
-1.758946351531549476e-02 1.414898964964999284e-01 -6.703857944341893305e-01 3.864326169567623426e-01 9.082530691801777856e-01 -1.604562085951655448e-01
9.691687393805346884e-02 -6.881704064508935292e-02 -8.686106047987602885e-01 2.033861732098551089e-01 7.386301449602047375e-01 -6.426971086780439713e-01
5.966421836922273375e-02 -6.414117850563683110e-02 -8.751021237009463105e-01 2.372841617850441898e-01 6.936512424777990793e-01 -6.801060067187866265e-01
7.613242599713598846e-02 3.019221398808067877e-02 -7.815266203412079005e-01 1.979056268454848500e-01 7.359463533311477734e-01 -6.474691713753489841e-01
-5.966384852498937685e-02 9.116954572522260880e-02 -7.532540978786378405e-01 9.621212379297612582e-02 7.644493751593787190e-01 -6.374640225563169560e-01
1.077214788535800147e-02 -1.438869646866092478e-01 -9.928101295897349132e-01 5.903247980702506226e-01 6.622280081343009384e-01 -4.614874841485887558e-01
-6.050418366042174985e-03 -9.533514400807356626e-02 -9.348415640599664345e-01 9.481229060214692306e-02 7.330292455362303894e-01 -6.735567939968825080e-01
4.973362462243991616e-02 -8.722031126654176611e-03 -8.281191687789858369e-01 2.521904007470831544e-01 6.456349654341000388e-01 -7.208019791731525849e-01
1.658942494590648006e-02 7.378071106530369183e-02 -7.525012512507939233e-01 3.383303994668796499e-01 7.158639034678254687e-01 -6.107957207679090006e-01
1.441409806110914398e-02 -8.365670035839212204e-02 -9.152529876631422256e-01 3.346641971256127390e-01 7.040591461780325577e-01 -6.263390406523678955e-01
5.778853674058595513e-02 -6.648881725949036536e-02 -8.781509308884168918e-01 2.372841617850441898e-01 6.936512424777990793e-01 -6.801060067187866265e-01
5.932463227419729895e-02 7.850810089176265064e-03 -8.097718662369970399e-01 2.226291240001944394e-01 6.750109834183238844e-01 -7.034176891517109897e-01
2.327161708793808875e-02 -1.308034860368327279e-01 -9.673275447129132676e-01 3.108177148154068203e-01 7.504836907800619406e-01 -5.832380114756451350e-01
6.411904624814664805e-03 4.431379445613038703e-02 -7.924446378382411504e-01 3.283609303744043917e-01 7.083933000797381085e-01 -6.247863889408873384e-01
4.441662853693914559e-02 -1.704059782239116319e-02 -8.374341537621818876e-01 2.775059208997723847e-01 6.347668165942890184e-01 -7.211529327516609245e-01
-1.691446309376979512e-02 1.420323285315590323e-01 -6.656288953924132112e-01 3.516551539857238895e-01 9.235222930404494157e-01 -1.531183429004740748e-01
2.758930305617077194e-02 -9.662023458268360898e-02 -9.233100445985408244e-01 3.010830034227529040e-01 7.262606892509868572e-01 -6.179760806848563215e-01
6.626175305540747684e-02 -1.078948839634120693e-01 -9.239551310845739440e-01 1.085317903439016324e-01 7.877118980106038171e-01 -6.064081267737756464e-01
8.815394989827231298e-02 -1.106369884049740286e-02 -8.178869867511548986e-01 2.181006763190232178e-01 6.239168100695322572e-01 -7.504398104457437046e-01
-5.640985430014749252e-02 8.329854306455039548e-02 -7.620378928804638630e-01 1.222871166649956015e-01 7.537438339906815665e-01 -6.456904009033970215e-01
-8.800106441701938120e-02 -1.824402958334499919e-02 -8.748008572353045409e-01 1.841840361446871188e-01 6.897081467865131543e-01 -7.002705999010427895e-01
-5.057729193737575679e-02 -1.367667401678685467e-02 -8.606566485990851945e-01 1.584088066339355283e-01 7.050697774459336875e-01 -6.912186766235082214e-01
-4.047268142262532703e-02 7.331695659662550157e-02 -7.706902551853420658e-01 6.880673633571755821e-02 7.449528663137791051e-01 -6.635592362447468862e-01
-3.047529262094147984e-02 1.485585408764708293e-01 -6.008259727453196808e-01 -9.806869688978624156e-02 9.922987679886827728e-01 7.566826110385753423e-02
2.858040082631272544e-02 -8.358641228011162716e-02 -9.080104161729204426e-01 2.934369770099152785e-01 7.014996954160123144e-01 -6.494558628994926419e-01
-8.976350975492947137e-02 1.768915336399638424e-02 -8.400457272669571429e-01 2.046467909114582095e-01 6.624202347226941789e-01 -7.206379976101541240e-01
-6.276417485784363537e-02 4.023046346555835678e-02 -8.120766912024321993e-01 1.826732052966102138e-01 6.792750957975228765e-01 -7.107853714701284353e-01
2.466823849807376137e-02 -1.062838248730922364e-01 -9.362093042887055239e-01 2.981576501139651669e-01 7.357436797165735065e-01 -6.080980623514882222e-01
5.009545217675119566e-02 -8.719299283701091585e-02 -9.031152705602760733e-01 2.047007641830024538e-01 7.293754230849247566e-01 -6.527703189810192264e-01
9.911295056873823880e-03 -1.251751475808050027e-03 -8.370080714091370222e-01 3.052622896981542211e-01 6.550918668454887017e-01 -6.911364412915389499e-01
-2.779062856777277449e-02 3.265789026414241125e-02 -8.126270221116357328e-01 8.516762081578062304e-02 6.955749464230236434e-01 -7.133876717978712145e-01
1.309470078886972380e-02 -1.377470875438545350e-01 -9.823471746232553814e-01 3.904315446341781737e-01 7.346567323917410075e-01 -5.548357365077160042e-01
3.394664005628196535e-02 6.355773383327814607e-02 -7.562683329689208200e-01 2.639461953747392342e-01 7.296490846009430209e-01 -6.308285181316756196e-01
-7.287832716760198060e-02 4.635124817636207539e-02 -8.085344066101541882e-01 1.935830189094972786e-01 7.079579926832545445e-01 -6.792062244898688927e-01
4.837714221292056804e-02 -4.395679797201251793e-02 -8.599265967367455410e-01 2.873019171502248503e-01 6.479743472307096797e-01 -7.053983652750700495e-01
5.995978495404393621e-02 -5.026170147923867543e-02 -8.613788563178419455e-01 2.632892771722235015e-01 6.719772893845765704e-01 -6.921887597162245109e-01
-6.922560657287984975e-02 5.791439996428462966e-02 -7.947239550940640163e-01 1.875401682092192879e-01 7.452414102502453730e-01 -6.398780553795255788e-01
-2.842764641445405180e-02 4.934836276243170783e-02 -7.957681322324517970e-01 9.683754551683258771e-02 7.276780729882584842e-01 -6.790486815172902535e-01
2.071231499535780909e-02 2.032921225073847787e-02 -8.114830497310284718e-01 2.745070940979397189e-01 6.872383904426125900e-01 -6.725691414209784558e-01
1.723609267474211781e-02 5.504145127277311478e-02 -7.742521306435873329e-01 3.254045703581435189e-01 7.232112031858921597e-01 -6.091612439875393470e-01
1.567064137837807097e-02 9.033004503712387112e-02 -7.336756871572931438e-01 3.315129387659975779e-01 7.283316674055194673e-01 -5.996933830592328096e-01
-2.465777127264521737e-02 1.463827584314885688e-01 -6.474641075924804090e-01 1.317962560255014209e-02 9.765126560211788709e-01 -2.150565741832587696e-01
8.257331432894579604e-02 -6.173971997111436794e-02 -8.650889104883148217e-01 2.145150478054105303e-01 7.026678861562670741e-01 -6.784107428613773694e-01
4.445870473415829832e-02 -7.936408560735172535e-02 -8.965924575728193568e-01 2.623962258121219082e-01 7.118594444798928000e-01 -6.514632391657509958e-01
2.507839147712841513e-02 -1.679221181138863261e-01 -1.019012707794177075e+00 1.719799738232850872e-01 9.535359749620904157e-01 -2.473702347834877135e-01
-8.983074071931576587e-02 2.835690844830763419e-02 -8.304882020083931282e-01 2.050944219760228449e-01 6.561742796791617538e-01 -7.262035477480499601e-01
-2.081857980356045454e-02 1.016642401836000409e-01 -7.379598526407751269e-01 1.964843904566647252e-03 7.605214494107445100e-01 -6.493098369612237963e-01
3.076513461313014688e-02 -1.548908218804201931e-01 -9.938539435635769248e-01 2.753380262853798444e-01 7.599832099972068100e-01 -5.887397487885567271e-01
7.108593289182708885e-02 -4.007392465344176286e-02 -8.478879793900040429e-01 2.578407580767130836e-01 6.392202637318350478e-01 -7.245105919922972815e-01
5.956514840336948197e-02 -1.100563464826298798e-01 -9.282300915892380822e-01 1.395394032401258699e-01 7.790061985338433415e-01 -6.112921540386720975e-01
-1.186645228459559664e-02 -8.273920477629191639e-02 -9.222852166593020762e-01 1.237435319034682624e-01 7.209290630622189333e-01 -6.818715600054648940e-01
-4.291657769885545703e-02 -1.146435377279307888e-01 -9.661238115996989562e-01 2.253303255825709894e-01 8.053992879336869803e-01 -5.482319138546777326e-01
8.122374261086741376e-02 -1.167089956058452588e-01 -9.329205414580988842e-01 9.564080314324373278e-02 7.867111403068787201e-01 -6.098675417590001535e-01
2.771357662666023777e-02 2.534356219749981428e-03 -8.260732389933034270e-01 2.748155120525000994e-01 6.641297570294708574e-01 -6.952755570011780462e-01
-1.108553919897757589e-02 5.339835518397684916e-02 -7.903069753107068163e-01 -3.022052787318979181e-02 7.093334209836675841e-01 -7.042249765314153587e-01
-3.228883713984614934e-02 -1.046103196587027245e-01 -9.500439226859938024e-01 1.610699493328191512e-01 7.521548084646832999e-01 -6.389989166856063774e-01
-6.430138385552376656e-02 5.684265663254748496e-02 -7.945627271735840047e-01 1.636152769787011241e-01 7.482933404038363268e-01 -6.428741073075281420e-01
2.868781965083630134e-03 -1.436488386179512744e-01 -9.917221731109121530e-01 -2.093066503226093111e-02 7.807685291703096997e-01 -6.244697039236878355e-01
5.491617453880107830e-03 -6.869507440342484395e-02 -9.042475484685200682e-01 3.933379101064286565e-01 6.603388690426246210e-01 -6.397170206463280717e-01
5.640385765252783207e-02 -8.347033706589868443e-03 -8.254723415537226217e-01 2.445063756373043184e-01 6.394390998733592291e-01 -7.289267931869820583e-01
4.115263482229417069e-02 -6.929218408140554175e-02 -8.873926474527864539e-01 2.643894774237860457e-01 6.917926107432711413e-01 -6.719532632174549658e-01
2.412880205045023208e-02 -4.956054743519730521e-02 -8.755707687168795550e-01 3.177277745859001246e-01 6.519684198542438081e-01 -6.884665865308583488e-01
8.911198854643959111e-02 -5.723950936741583478e-02 -8.583021108853522430e-01 2.275018601865974599e-01 7.003563002302908291e-01 -6.765677766043670660e-01
-2.291755157833148468e-02 1.424608014682569312e-01 -6.659831994638648611e-01 -2.697897475043397053e-01 9.374167325483609980e-01 -2.201439567190044411e-01
-8.829998794343818513e-02 9.357027015443811560e-03 -8.473234208923247079e-01 2.028458973806610555e-01 6.853609469406963806e-01 -6.993810937710472908e-01
4.727289340507062620e-02 -1.299312655504269998e-01 -9.564597301299663235e-01 1.823669714984738621e-01 7.678388434875756952e-01 -6.141382565336058752e-01
1.682350604915663558e-02 8.803085117495755563e-02 -7.358421774489372069e-01 3.312857860443786384e-01 7.301255374368409434e-01 -5.976340247572273778e-01
5.045558841537427924e-02 5.512885110733890294e-03 -8.149251351898063600e-01 2.381868532803870231e-01 6.620105495998160894e-01 -7.106398913253721972e-01
-5.705183833641434138e-02 2.599901142201709037e-02 -8.240329851598595656e-01 1.586208418215561411e-01 6.688804795993151808e-01 -7.262494974530521175e-01
-5.151921033488563589e-02 -2.373858943614494399e-02 -8.711224837549118583e-01 1.604085241207733603e-01 7.036452562329184035e-01 -6.922083925887534406e-01
-1.876018641197643028e-02 -5.444614082358745222e-03 -8.475712752673199013e-01 8.906156595257889996e-02 6.866093684250026419e-01 -7.215508385838749206e-01
-3.183603524624192133e-02 -3.283394152642995362e-02 -8.761890113238351985e-01 1.357858643974576562e-01 6.972295192336838143e-01 -7.038701560224026599e-01
3.740527528668158297e-02 6.684150475478593811e-03 -8.184234979455836667e-01 2.573655689861450435e-01 6.607550474036836263e-01 -7.050998023194969822e-01
2.025762859845557998e-02 -1.486641062692495852e-01 -9.918487399249131808e-01 3.772783433349982118e-01 7.358433308347692714e-01 -5.623127636079332525e-01
-4.178489626290673303e-02 9.869751566204036652e-02 -7.423634205278407672e-01 5.683575948623018070e-02 7.570300408091319433e-01 -6.509033828120325271e-01
5.153002408188522149e-02 -8.187159670192328820e-02 -8.967195239993639433e-01 2.047007641830024538e-01 7.293754230849247566e-01 -6.527703189810192264e-01
-8.590422424417613889e-02 -1.147504104906790605e-02 -8.674743609060254768e-01 1.932378291174656759e-01 6.984701324301345604e-01 -6.890563224446890622e-01
1.391494800013196162e-03 -7.296018790634357931e-02 -9.099224268384132897e-01 7.160460680487633345e-02 7.162820286209258258e-01 -6.941273915925016968e-01
-1.413946125798075035e-02 -1.119118812867107293e-01 -9.548642800415123588e-01 1.127748923835398959e-01 7.570654168090126257e-01 -6.435322667276884845e-01
4.954718969296553754e-02 1.581447164300810865e-02 -8.052040721813422675e-01 2.338609789480636525e-01 6.944662077458235716e-01 -6.804599391768685335e-01
-2.600628327289157202e-02 -3.930132393456466089e-02 -8.814573492737491911e-01 1.360859059537193883e-01 6.936599094700661716e-01 -7.073305848008659691e-01
4.429364130970447899e-02 -6.694145292137074210e-02 -8.836770398775457558e-01 2.744065577748568407e-01 6.734781784343235600e-01 -6.863877797738968667e-01
-6.302446682203891037e-02 6.037754094522752857e-02 -7.901232055130490428e-01 1.636152769787011241e-01 7.482933404038363268e-01 -6.428741073075281420e-01
-1.510483891991079401e-02 1.718874096292473397e-02 -8.260126894943246034e-01 5.261830212156319575e-02 6.826992690544382292e-01 -7.288024576758639350e-01
-2.876576200992042934e-02 2.529748950547979283e-02 -8.197380313855096023e-01 1.052105868492363011e-01 6.820699776623079247e-01 -7.236789882168599419e-01
-1.241443553627586717e-02 1.204481063621130749e-01 -7.125190293605487835e-01 2.990372341068608386e-01 7.386594865180862168e-01 -6.041182794739414774e-01
-2.046874064180384187e-02 -1.729456642199132116e-02 -8.590989742837931153e-01 1.021194160155984298e-01 6.957391666153326382e-01 -7.109983381907691857e-01
2.897818846055739278e-02 -1.277227308310021903e-01 -9.606606787534620606e-01 2.828948206176412072e-01 7.465121805107383102e-01 -6.022375650993678775e-01
-7.734718543804974811e-02 -8.380805319407752529e-02 -9.360028507922750762e-01 1.322689264406251286e-01 7.436124901101310858e-01 -6.553971281982051700e-01
-3.603900457448767827e-04 -6.885826195635130764e-02 -9.058930593661411734e-01 1.088607154405702576e-01 7.012240953634004681e-01 -7.045808063774855468e-01
-1.323744836596050557e-02 -3.840571588120195862e-02 -8.783030817869125206e-01 1.168286274109881923e-01 6.819493771589351105e-01 -7.220083924787888963e-01
6.717629222901623509e-02 3.812714839654502558e-02 -7.751182335968294090e-01 1.964130665923337626e-01 7.487698394323210049e-01 -6.330605301456501133e-01
6.537388851753574148e-02 4.558787550208679568e-02 -7.667436562695782998e-01 1.969275473265001131e-01 7.565509501876457321e-01 -6.235785442701980985e-01
-8.833574286339646031e-02 4.124166078097365323e-02 -8.181599723161521176e-01 2.037787929720456526e-01 6.738783406686681410e-01 -7.101846136833003253e-01
5.815552573850706758e-02 -1.271859325105504368e-01 -9.503310412151476649e-01 1.155732113138856904e-01 7.829404142434621683e-01 -6.112668325460425267e-01
-5.683773350647278177e-02 -4.445766567767584637e-02 -8.927373282022817991e-01 1.530679343101432610e-01 6.885038549444724154e-01 -7.088953725428220887e-01
-2.190421783721318086e-02 4.135221434075177921e-02 -8.033312436444808302e-01 7.676970590647402837e-02 7.116427167035526136e-01 -6.983344872035324169e-01
-4.142736508097363823e-02 -1.022906243443054836e-01 -9.495817359712912520e-01 1.515721288364219876e-01 7.513456491538973436e-01 -6.422659926054808954e-01
2.298017809095200675e-02 3.719434209588062118e-02 -7.926105674873946683e-01 2.922018462260178029e-01 7.225918500563386360e-01 -6.264815235058925902e-01
4.351293173284231930e-02 5.877454541103191432e-02 -7.582246334404442178e-01 2.256822261710959288e-01 7.333556576619313372e-01 -6.412932341493198241e-01
-9.730139716697210062e-02 -1.449404569429179820e-02 -8.737419537159959448e-01 1.960792154536578902e-01 6.806277478443858442e-01 -7.059028333498577057e-01
4.358983417330845184e-02 2.499132897408997897e-02 -7.977898674266085122e-01 2.336299077362989918e-01 7.121950052836182321e-01 -6.619632472125590583e-01
4.025669845908366046e-02 -1.179991725661122884e-02 -8.343733739300490670e-01 2.692012784381679902e-01 6.422955765531863648e-01 -7.176259917446314862e-01
-1.742923810436435017e-02 1.128345686713107393e-01 -7.247416498277735597e-01 -1.179951442619654733e-01 7.692022992672326032e-01 -6.280166946288934238e-01
-5.010226994277921370e-02 -6.564811750002569335e-02 -9.121526877775492093e-01 1.269777496983823528e-01 6.946392993489853840e-01 -7.080627760880282562e-01
1.366119956027296231e-02 -4.932619602481624205e-02 -8.803514360524300475e-01 3.368905501716412676e-01 6.522659903724028485e-01 -6.790094513396389697e-01
-4.579308507126594874e-02 -8.138795731621285834e-02 -9.273986712541930633e-01 1.259326559908391374e-01 7.179218956763270265e-01 -6.846379465554052191e-01
-8.345738675886656133e-02 -6.911762673352596364e-02 -9.212414667014872105e-01 1.178159670501474909e-01 7.115894149212952380e-01 -6.926470258941470615e-01
1.612161797030141688e-02 -1.492615935210665490e-01 -9.955037617168212005e-01 4.081170099248611627e-01 7.298748990053007812e-01 -5.483822918475693697e-01
-6.153734708596594188e-02 -9.544371835669354653e-02 -9.464076184860981122e-01 1.592680980545350400e-01 7.591662443414541883e-01 -6.311103599170134748e-01
2.139115701764692998e-02 5.734570552079756162e-02 -7.693111410774241543e-01 2.964467837990967247e-01 7.392541013747049305e-01 -6.046674110416808690e-01
-6.599794818317074319e-02 2.231488378265390413e-02 -8.295158718280339905e-01 1.826122551600596611e-01 6.586792658068287842e-01 -7.299276601564941291e-01
-3.301337229880189905e-02 -8.158891182536109898e-02 -9.251785619047753206e-01 1.323770008369251350e-01 7.145233330822318152e-01 -6.869736065748658360e-01
-3.635820364219327638e-02 -1.296035645444707785e-01 -9.861531341137548257e-01 3.236271465353935950e-01 8.203052982996184017e-01 -4.715556039396973653e-01
9.123617594778414552e-03 -5.765181634481063994e-02 -8.908698666665967325e-01 3.610954960756344589e-01 6.569691269188235871e-01 -6.618168998971014627e-01
1.485100543413394279e-02 -1.292982447230760501e-01 -9.701135242596967689e-01 3.364577293557358684e-01 7.468785960005215330e-01 -5.735578080656491551e-01
2.577280933390065695e-03 -1.674257037417044847e-01 -1.032686464498099088e+00 5.650312986932915643e-02 9.747149179282148523e-01 -2.161902520539789874e-01
-3.971422407701112600e-02 8.181058443735070296e-02 -7.612052720527054950e-01 5.535206601523817715e-02 7.415373782288933180e-01 -6.686243081710863123e-01
8.071705185453284526e-02 1.685298153158704820e-02 -7.944430061762974837e-01 2.020991520586292722e-01 6.940175430369517340e-01 -6.910105517965233757e-01
-2.597185670759975112e-02 -7.919481646070115899e-02 -9.213323384448699471e-01 1.347440241003957095e-01 7.169821734389867363e-01 -6.839448888177604990e-01
-1.589614951949346218e-03 2.119813429290163739e-02 -8.206269065824159936e-01 3.535765794602979684e-01 6.603940807146760905e-01 -6.624675543860042426e-01
4.293993703422466224e-02 -3.436758802019193593e-02 -8.533854574549655236e-01 2.881587102156575320e-01 6.403954848954437340e-01 -7.119397310533935874e-01
-4.444643825140034282e-03 4.921137434283548440e-02 -7.930480292746454607e-01 3.893069685491681309e-01 6.782990519060885237e-01 -6.231777277971015661e-01
6.062013045638860870e-02 -9.636271441643795566e-02 -9.108012863523669012e-01 1.514369588257571952e-01 7.619085463913033429e-01 -6.297318591571312574e-01
-2.455250322189065151e-02 1.096510314745787612e-01 -7.285069150926568593e-01 2.294494689616742231e-02 7.648254094105012557e-01 -6.438288767459805495e-01
-2.791679676077749375e-02 6.459002394307523931e-02 -7.791205661713884734e-01 2.614706544676937208e-02 7.397515186678498278e-01 -6.723719369494328690e-01
7.223931086705157045e-02 -2.622262361458410716e-03 -8.153991709854407910e-01 2.206565171793562208e-01 6.540369486208061911e-01 -7.235650428711033477e-01
6.907815264181560444e-02 -1.215155833178285655e-01 -9.410347347765446457e-01 1.158572551983826499e-01 7.808555692882069854e-01 -6.138743163950476367e-01
-6.221019841242573373e-02 7.756012445390818473e-03 -8.418813015045003567e-01 1.804681120322369214e-01 6.671140088569541549e-01 -7.227656326405702547e-01
-2.573769890501302268e-02 1.347516037540707756e-01 -6.904012146798986782e-01 -1.364293291050413248e-01 8.875065266494405192e-01 -4.401354374673711045e-01
-2.768341322835628227e-02 8.985827210222853412e-02 -7.515684190441731527e-01 2.219100599603593404e-02 7.477593586152707639e-01 -6.635989005839015853e-01
-2.449733720054542846e-02 -1.293743741651238732e-01 -9.793781198894251361e-01 2.293527754055517953e-01 7.917603367987737784e-01 -5.661385638569965684e-01
4.776279077310244953e-02 -1.036301129629201845e-01 -9.234281078553112643e-01 1.893150973452781549e-01 7.592764735099707396e-01 -6.226227033215302464e-01
-9.923669920406944650e-03 9.309572676435994010e-02 -7.458955605675317013e-01 4.394469369804241410e-01 7.009999127403556685e-01 -5.616809698721658695e-01
1.425506851063656393e-03 -1.481764490608939999e-01 -9.974158547565515898e-01 -8.363508201218640024e-04 7.839353624983627089e-01 -6.208418864267024606e-01
-9.567359328910155294e-03 -1.232446396426481044e-01 -9.676301836834073633e-01 1.074017489462015251e-01 7.681648167043396702e-01 -6.311795930643554486e-01
-7.580743478672141711e-02 -5.053760024078970958e-02 -9.022051693853790910e-01 1.454279404852462376e-01 6.698639026016195430e-01 -7.281023733772246098e-01
6.825922951345898826e-02 -7.201489957129968145e-02 -8.804960185252604932e-01 2.084471575422807421e-01 7.168821826957445520e-01 -6.653042301428188088e-01
-6.117182432370720652e-02 5.879401080264971997e-03 -8.434712723729257400e-01 1.537726119223324639e-01 6.914508346032929298e-01 -7.058680663898836416e-01
-6.824440211118902588e-02 7.274678432072699541e-02 -7.770647686206556548e-01 1.790586893250478151e-01 7.470025652671420380e-01 -6.402539755921123898e-01
-3.067960020064140064e-02 -7.878771634294232107e-02 -9.218153216556721485e-01 1.323770008369251350e-01 7.145233330822318152e-01 -6.869736065748658360e-01
-3.979460034896629972e-02 6.817622801471974470e-02 -7.763120328498422928e-01 8.446323458066518075e-02 7.351908950865623238e-01 -6.725773634207373730e-01
-3.266005761574763532e-03 -1.470499123427147226e-01 -9.963558667707459460e-01 6.398158150773533559e-02 7.744535574482258600e-01 -6.293870387794433530e-01
2.343209136186432187e-02 -1.056680526830849724e-03 -8.311223084930031701e-01 2.880200458102351035e-01 6.520207532921333815e-01 -7.013653758832333329e-01
-7.877769304079400292e-02 -5.929185291598081109e-02 -9.109360198598673852e-01 1.153863041767751174e-01 6.830259237442846132e-01 -7.212222877183508407e-01
-4.154595088995561430e-03 4.349991358639784811e-02 -7.990442759616825930e-01 3.708936815119130981e-01 6.759541158231350266e-01 -6.368075928538410313e-01
-9.142723273492851799e-03 -6.281787187845344622e-02 -9.013726657337411963e-01 1.328763391168652497e-01 7.005334103109581712e-01 -7.011396576581575557e-01
-2.629770197435350038e-02 4.775560193115277463e-02 -7.972347826482288902e-01 7.508201461870533944e-02 7.290859980195560919e-01 -6.802913336009980272e-01
-6.302409274142542484e-02 4.486142523112707226e-02 -8.073757587394592150e-01 1.798600144443799620e-01 7.110866289083545011e-01 -6.797103658116591118e-01
3.668188365492205949e-02 -5.406973635709907272e-02 -8.742490966176748035e-01 3.038415559352427020e-01 6.544683034237195329e-01 -6.923521854522659558e-01
-8.285213816206521420e-02 -5.082885890321191258e-02 -9.037899720674468229e-01 1.269369627805652379e-01 6.688745970469036628e-01 -7.324573577385836698e-01
-3.745200920991561405e-02 1.075988399832826931e-01 -7.316420280768642925e-01 4.643588120999423557e-02 7.589870681336082781e-01 -6.494477187135239138e-01
-7.903126308841318393e-02 -4.619706036784566872e-02 -8.988557279366671260e-01 1.454279404852462376e-01 6.698639026016195430e-01 -7.281023733772246098e-01
-9.597003424825850670e-02 1.144449247927324361e-03 -8.576381241579235093e-01 2.018377038721916317e-01 6.969472563238267027e-01 -6.881323006503120565e-01
-4.976925555441640697e-02 -9.888698738768432472e-02 -9.476666121936093701e-01 1.781758195916818555e-01 7.664133015346764610e-01 -6.171418220664919296e-01
-3.688717376514891958e-03 -5.083043687696107288e-02 -8.886963737827984211e-01 1.030626753390141148e-01 6.924070134042805691e-01 -7.141082640192096820e-01
2.105867427477184708e-02 -5.678715744815877181e-02 -8.839973593264037754e-01 3.203286448693465349e-01 6.633718109064645763e-01 -6.762598611265094872e-01
-3.010357660858154275e-02 6.303581458548176975e-02 -7.809962868672243319e-01 5.282324922043888510e-02 7.385528185021179581e-01 -6.721230829426801945e-01
-2.333024608876164280e-02 1.175303933128617195e-01 -7.190100666330881962e-01 4.698466288400429680e-02 7.642078045646393258e-01 -6.432564596614404051e-01
-2.674095923702702465e-02 1.106961980532769896e-01 -7.273627034492912147e-01 3.120372387510493215e-02 7.659542918751301999e-01 -6.421373298402717200e-01
-5.263754331089716887e-04 -3.044964302853707394e-02 -8.693275435647345173e-01 8.450853825259386359e-03 6.758112786736421018e-01 -7.370262537298931660e-01
-6.507894478288471507e-02 7.758723677645108785e-02 -7.705469534529703068e-01 1.580171997846451237e-01 7.480429792632875552e-01 -6.445636242816715766e-01
-1.067284000213317326e-02 -1.091758394952818956e-01 -9.510665218636715768e-01 9.350568311683915557e-02 7.563791971451165885e-01 -6.474157839834940864e-01
-8.199826626691102127e-02 -1.530505247701954580e-03 -8.563022782411532363e-01 1.942000615194676705e-01 6.988435138570849858e-01 -6.884069140019709598e-01
5.119867224693296776e-02 -7.913926723505880154e-03 -8.268827523543936797e-01 2.521904007470831544e-01 6.456349654341000388e-01 -7.208019791731525849e-01
-1.825838930784434364e-02 -7.757550251645808914e-02 -9.181418378142074399e-01 1.399884610145360753e-01 7.077694422189957368e-01 -6.924345799018077896e-01
8.372080479350407084e-03 -1.544795103007274573e-01 -1.006206827899211342e+00 -1.543728499687360423e-01 7.910660441954454614e-01 -5.919320374109682259e-01
4.303888124492844663e-02 -1.589176635323796549e-01 -9.944561843976917892e-01 1.886034899274620091e-01 7.795139267107251690e-01 -5.973162995023724164e-01
-4.089224213285231474e-02 8.011371296385325080e-02 -7.632089177068519525e-01 8.717053560355486619e-02 7.362699673894221863e-01 -6.710497990782565703e-01
1.089377473824669311e-02 -1.024013181315424209e-01 -9.388314571898225269e-01 3.505188298183889439e-01 7.214270989921759414e-01 -5.972264987276439951e-01
4.483196239470769312e-02 -5.474100327318560250e-02 -8.714964269192322366e-01 2.820823342396790445e-01 6.615664119046876790e-01 -6.948089229057520244e-01
1.511453075173308479e-02 -5.760333249696625041e-07 -8.335763887915891290e-01 2.927853335533771029e-01 6.547326023601409695e-01 -6.968514675759499566e-01
6.188488003044380348e-02 -5.008959154592268481e-02 -8.604795194695029625e-01 2.632892771722235015e-01 6.719772893845765704e-01 -6.921887597162245109e-01
-2.927086969021391524e-02 -5.385961927597844590e-02 -8.964625469716376305e-01 1.398776165771690450e-01 6.969990894504574097e-01 -7.032968944094120101e-01
-6.609760593544461438e-02 9.013350194946301991e-03 -8.416914273267359636e-01 1.804681120322369214e-01 6.671140088569541549e-01 -7.227656326405702547e-01
-6.002012271993460019e-02 -1.526567400992083229e-03 -8.504908271198823311e-01 1.552651231859778769e-01 7.029770746289277783e-01 -6.940576158131239737e-01
5.953347750949168626e-02 -6.306439856050768955e-02 -8.740495127778997730e-01 2.372841617850441898e-01 6.936512424777990793e-01 -6.801060067187866265e-01
-5.369742325819305134e-02 -1.090586577959019518e-02 -8.585453675856690170e-01 1.584088066339355283e-01 7.050697774459336875e-01 -6.912186766235082214e-01
2.915447605587687813e-02 -4.030037328714072831e-02 -8.646273098483129305e-01 3.012697966869590238e-01 6.470800779595601293e-01 -7.003741016856976920e-01
-2.022964026490967765e-02 6.149214490672698374e-02 -7.820800260562857931e-01 1.994337863186757334e-02 7.258801704446298242e-01 -6.875319918403951513e-01
-2.895588673436190474e-02 -7.869276422500822224e-03 -8.511068358844420256e-01 9.808611006145465105e-02 6.931122918557200974e-01 -7.141249651787305863e-01
5.553150524562002963e-03 7.968886897608652709e-02 -7.518607444337385148e-01 3.615068366882717710e-01 7.085392114021421550e-01 -6.060404218641439744e-01
-2.323637098984998595e-02 1.491526113797925768e-01 -6.259418624001478193e-01 1.004003017424986433e-01 9.949276323566887958e-01 -6.227823305831564453e-03
8.886668463116575989e-02 -3.111216759912698374e-02 -8.340110710543793271e-01 2.465261568414092441e-01 6.200154598739576750e-01 -7.448527931815047687e-01
8.684424078482184950e-02 -1.287999936029838449e-02 -8.197677177498611245e-01 2.292749229243356557e-01 6.146395111024498537e-01 -7.547524634671828325e-01
-2.460087858459922977e-02 2.601097532022689923e-02 -8.185713765600470815e-01 7.805206231403878647e-02 6.871894391652811906e-01 -7.222731825758393898e-01
-2.437131023448321082e-02 1.381334418190158508e-01 -6.817139186261589323e-01 -1.335963172480854610e-01 9.546432432787689271e-01 -2.660982940192249124e-01
-4.144065712801614509e-02 6.705223788191536083e-02 -7.777721414962353030e-01 8.354348694008705001e-02 7.437787761188973112e-01 -6.631844524602236168e-01
8.815141667248772850e-02 -4.402228073989120603e-03 -8.122261795254382966e-01 2.165411283792785246e-01 6.491568004302347150e-01 -7.291813136493620062e-01
-1.241547597593294083e-02 1.344991403234853389e-02 -8.293194832441020958e-01 5.265632977328640885e-02 6.822221548679673342e-01 -7.292463522994915293e-01
-9.579944082274581205e-03 -4.622284168324431591e-02 -8.852075303288078345e-01 1.274843172272740188e-01 6.853331319583536585e-01 -7.169841330889054065e-01
2.263495348231815696e-02 -3.785861590625669987e-02 -8.652602680420017345e-01 3.134040246410957353e-01 6.448429691847978873e-01 -6.971050583891191810e-01
5.099070513501224866e-02 -4.369780807940776973e-02 -8.586526646884858893e-01 2.648453223635243714e-01 6.518319371470785439e-01 -7.106138761220808231e-01
9.205149462889095080e-02 -2.359487983350588847e-02 -8.268231115514288465e-01 2.404388750168500732e-01 6.045899120782901592e-01 -7.593814493347840200e-01
-2.291392032061316530e-02 -1.370986600925393484e-01 -9.898445178446415582e-01 3.048597962067641776e-01 8.006101832639560545e-01 -5.158331504574178439e-01
3.512519993805870988e-02 -2.319653963910735597e-03 -8.276984958877189325e-01 2.617133147969876728e-01 6.506286090565126523e-01 -7.128734487517124352e-01
4.137733653342822587e-02 -3.685843614088122472e-02 -8.562614987533804234e-01 2.876629091956126594e-01 6.476635099523615491e-01 -7.055366953952882936e-01
-1.501753466173568440e-02 6.141278704938429867e-02 -7.820364726072350781e-01 -1.093822787124725839e-02 7.247982015433201974e-01 -6.888743878317766800e-01
-8.398621236147278679e-02 -1.026468936686726445e-02 -8.657095894169917205e-01 1.932378291174656759e-01 6.984701324301345604e-01 -6.890563224446890622e-01
-7.035491779048164140e-03 1.063158499042597335e-02 -8.317428130026426336e-01 -6.204664548526767770e-03 6.811572852374954135e-01 -7.321108214647052970e-01
-6.687587016948999541e-02 -6.410434193485298540e-03 -8.571496525245196896e-01 1.796636171086683775e-01 7.002800887278032294e-01 -6.908898479633420742e-01
4.878896226930042740e-02 8.201497318514218773e-03 -8.129155473152940292e-01 2.370578114010328530e-01 6.765311842587388158e-01 -6.972152829501233606e-01
-6.677735685940751342e-02 -7.503466239920741909e-02 -9.244856722766140456e-01 1.193670648871021367e-01 7.088743686588644399e-01 -6.951608686331062215e-01
1.346070754266497950e-02 -6.605960898250433366e-02 -8.970542424926293279e-01 3.387944849393412228e-01 6.729196498722656017e-01 -6.575693437124895402e-01
-2.188618885717174417e-02 6.130913500515530745e-02 -7.823454686533373170e-01 4.370262748507292017e-02 7.317495995356991800e-01 -6.801710107981997488e-01
1.772469773178625765e-02 -4.967582929218308102e-02 -8.786848557439926877e-01 3.319986469445387334e-01 6.510538538801776687e-01 -6.825729102262730885e-01
-4.802698356275443559e-02 -3.915630680599014452e-02 -8.857064052879632943e-01 1.428938805103460163e-01 6.946995703079020812e-01 -7.049637195818739821e-01
-5.280834037442386220e-02 9.464727397039527160e-03 -8.382699534511524053e-01 1.561836656449912819e-01 6.717152574786434682e-01 -7.241583220926852693e-01
-1.254184072310770767e-02 -1.120944965988572850e-01 -9.547991399566223558e-01 1.127748923835398959e-01 7.570654168090126257e-01 -6.435322667276884845e-01
1.891642611395537299e-02 6.647745217999302680e-02 -7.597853976298246659e-01 3.262140195704998913e-01 7.246999839253511766e-01 -6.069549791658795934e-01
-4.623565135807808520e-04 2.139305148217041444e-02 -8.198309516147535003e-01 3.535765794602979684e-01 6.603940807146760905e-01 -6.624675543860042426e-01
1.975384030131741020e-02 6.164995082320100760e-03 -8.258112168472239167e-01 2.872219023284014461e-01 6.626361582088717839e-01 -6.916768759016317381e-01
-3.971677233407281543e-02 8.272562222689966438e-02 -7.601946999877606803e-01 8.731690927452835649e-02 7.349191609509733158e-01 -6.725099138465254756e-01
5.972405259991844101e-03 -5.670379575148651319e-02 -8.916881160099315862e-01 3.921643144124209446e-01 6.501287381502046658e-01 -6.507993349202643163e-01
6.159680090867648145e-02 -2.150593759024664250e-02 -8.350703644919929003e-01 2.504696676800297062e-01 6.310715597617463368e-01 -7.341754776837292606e-01
2.719808465058905916e-02 2.647248730389030469e-02 -8.025127671880267766e-01 2.726697006655878219e-01 7.062174792288681280e-01 -6.533820523786693091e-01
-5.410521669215499763e-02 4.366471851504333951e-02 -8.063930257577021088e-01 1.581158491339388905e-01 7.147044002770175375e-01 -6.813200411534380274e-01
5.179845235547356902e-02 3.950634589895654636e-02 -7.784663629660470985e-01 2.179449272663737114e-01 7.497312728542776528e-01 -6.248223965121284529e-01
-9.274644425417834237e-02 2.128927939598501337e-02 -8.376427003647773928e-01 2.053465293753017618e-01 6.525439685388065847e-01 -7.293964436416886521e-01
-5.246595852156298034e-02 6.149252108694745061e-02 -7.862043205464093187e-01 1.359333924359542312e-01 7.498922886612967575e-01 -6.474439498730182319e-01
1.684307622433492413e-02 4.275415288751206050e-02 -7.890598161209412265e-01 2.921782117207418206e-01 7.227927053069579388e-01 -6.262608064941619368e-01
-8.923440446676753068e-02 2.274584844405614162e-02 -8.353508595654093316e-01 2.053465293753017618e-01 6.525439685388066957e-01 -7.293964436416886521e-01
2.796082812188061678e-02 -5.090145846673440472e-02 -8.750792621630298918e-01 3.034267129294980214e-01 6.548022418822748714e-01 -6.922183571003781566e-01
-7.234408042527673555e-02 -8.887634955837481199e-02 -9.410245709055247154e-01 1.294196743137450700e-01 7.686090339040508868e-01 -6.264907827746595270e-01
8.000136247983309634e-02 -4.424182479518620759e-02 -8.485882044509546196e-01 2.472772338357460686e-01 6.646541478979389739e-01 -7.050452703965939261e-01
7.454082731169830306e-03 -1.196566804127301500e-02 -8.481659982080277382e-01 3.327874484976531266e-01 6.455687409022385914e-01 -6.873816370054702807e-01
2.424875064934801233e-02 6.283934190381246232e-02 -7.613267273944454017e-01 2.911485838914734114e-01 7.231950563668865239e-01 -6.262758278462339234e-01
8.748173698368966189e-02 -1.868474532774240873e-02 -8.242992351834058651e-01 2.292890330319061476e-01 6.143692739595980612e-01 -7.549681679022300917e-01
3.858373107606424129e-02 -1.849854713953124133e-02 -8.409596869848620093e-01 2.775919840687238183e-01 6.333771120121228781e-01 -7.223407259458461960e-01
5.438311895784074534e-02 -6.053153853751225971e-02 -8.733864132103417166e-01 2.520620261877562496e-01 6.822498071661439178e-01 -6.862943505347265383e-01
-5.011216728970809692e-02 6.232148521328070845e-02 -7.847703988249506990e-01 1.367053811688490050e-01 7.430295194213673016e-01 -6.551479008803521298e-01
-8.221148628034202072e-03 1.356021786440028964e-01 -6.794755631808155893e-01 3.736721486507623702e-01 8.769079058925297598e-01 -3.023270578461356717e-01
-1.938993628843180619e-03 -8.524428022426927543e-02 -9.232281192971427686e-01 8.469383191717395898e-02 7.255358648333725125e-01 -6.829529000419251039e-01
-3.108472001111983740e-02 -7.599445772505682151e-02 -9.190427776602650978e-01 1.332807323366335117e-01 7.050282250725518063e-01 -6.965424956446362170e-01
-5.216544704085390727e-02 -3.471567096878135084e-02 -8.822234961084500782e-01 1.523034439355099856e-01 6.974810406078146841e-01 -7.002312896165256983e-01
