2.362877976575957634e-02 -5.948542012207893442e-02 -7.455447108495321107e-01 6.407259148958269757e-01 -7.686603752554194147e-02 7.639122425095877800e-01
6.160992430186758295e-02 4.223727350574441736e-02 -7.652407439212762785e-01 5.948211602854935887e-01 -1.311928024434676765e-01 7.930802203205224998e-01
-8.167094019001347460e-02 -5.688407774044464127e-02 -6.752080414004388853e-01 5.656890339750143548e-01 -1.635256779166863461e-01 8.082420859509253930e-01
4.613217767486836596e-02 -1.557746194106528759e-01 -7.679808037951425526e-01 6.334369622630220409e-01 3.236640429149370557e-02 7.731170873239281427e-01
7.105273646721242675e-02 -9.309076581162231689e-02 -7.875836424046518403e-01 6.285494524625904189e-01 -2.212408698975781157e-02 7.774548929576862166e-01
-3.820286145396461358e-02 -2.067064431561559459e-02 -6.973136848479066785e-01 5.387595268110868529e-01 -1.756691354448128295e-01 8.239408517134989562e-01
-8.323117909333099806e-03 1.546072969227686722e-01 -7.043260651935220329e-01 6.680014174958308626e-01 2.754229138996716966e-02 7.436501384445181051e-01
-1.742515446545278872e-03 5.560417988753787316e-02 -7.105726744951523788e-01 6.915904919650865956e-01 -5.406781243509378027e-02 7.202633289859847743e-01
3.384806168835238771e-02 3.455706363854896962e-03 -7.482508516557817568e-01 6.415346342996423035e-01 -5.814595327385804063e-02 7.648871558026704154e-01
-1.202531176408162816e-02 -2.034309573414040673e-02 -7.136230330332131722e-01 4.981018781893791214e-01 -1.691677035150576935e-01 8.504568225557685990e-01
3.048013524785442557e-03 -7.104196749665595001e-02 -7.315981382646765674e-01 4.565656801233227147e-01 -1.517546681691256671e-01 8.766517555006699824e-01
3.056092525777088717e-02 -1.050241859519415177e-01 -7.548601098063857373e-01 6.408510188088375470e-01 -3.814611596490680157e-02 7.667169265957720636e-01
-2.717852741204269257e-02 -7.763118902452027792e-02 -7.151290281254256698e-01 5.307189977993461705e-01 -1.261566432607138244e-01 8.381061070867139584e-01
-5.103178213285478049e-02 1.037834360150155233e-01 -6.763355628765349570e-01 4.822243819023773193e-01 -7.292282916737242993e-02 8.730073919991149234e-01
5.546227426811898426e-02 -1.440230454009755745e-01 -7.755641407686575395e-01 5.754791271485646398e-01 8.905294083617898426e-03 8.177679805137948454e-01
4.371069448556745562e-02 3.659018474661601683e-02 -7.524787816335276602e-01 6.134079794836332367e-01 -1.208747889913315415e-01 7.804613610500572563e-01
-7.908233246771605510e-03 -1.344213195574164021e-01 -7.319685254570489352e-01 5.399777778233866288e-01 -2.311861042560517734e-02 8.413617113399601832e-01
1.814533376506942712e-03 -7.226968735973805617e-03 -7.197841651221451587e-01 7.314922365111387048e-01 -6.429187054350521402e-02 6.788119498844649158e-01
-4.213476474902782404e-02 -1.430877906182170256e-01 -7.065086903614388181e-01 6.279235768165132292e-01 7.049088934635230896e-02 7.750761357422358833e-01
6.450860476636631480e-02 -5.872929206378630501e-02 -7.797878632056314263e-01 6.566716330568570514e-01 -7.860609585080732820e-02 7.500689621851674982e-01
-2.755088185975189743e-02 1.974091647189117962e-02 -6.968691122932997306e-01 5.215694899660868744e-01 -1.260103660558175853e-01 8.438522707103387477e-01
1.866102098406141954e-02 3.641111618312959514e-02 -7.315505822219080523e-01 6.731873894012612158e-01 -9.362861695141055929e-02 7.335205660640203851e-01
2.408298410116679542e-02 5.887024108258153560e-03 -7.397105982675898916e-01 6.608473488670199014e-01 -6.305084896267874883e-02 7.478672154470449307e-01
2.581687536210094166e-03 -1.816582041340590939e-02 -7.216768811413166729e-01 7.467455735179262533e-01 -6.191768321491371990e-02 6.622214500729199926e-01
-3.576683786003239524e-02 -6.568623539552928547e-02 -7.078492162443734692e-01 5.273379034454239722e-01 -1.422839582735264952e-01 8.376574543378708659e-01
-6.841366392471226465e-02 7.693447770125640302e-03 -6.709737992222961633e-01 5.841907924247732309e-01 -1.166294006747457673e-01 8.031928167908157778e-01
1.418871088048552151e-02 1.135290826068836301e-01 -7.228770765339280757e-01 6.090495395082042851e-01 -9.464405399553583315e-03 7.930757110486217343e-01
5.539889748929926853e-03 -1.842408905678489806e-01 -7.407488692034843725e-01 5.501507406643243447e-01 -2.440226022997643920e-03 8.350617988169809491e-01
-1.795247926610984979e-02 -8.607618493599335230e-02 -7.220352990089825562e-01 5.039962457858888634e-01 -1.138127556430050952e-01 8.561743052011522304e-01
5.066377623395158791e-02 -1.738423817352210410e-01 -7.707977954101068452e-01 6.373395986754339937e-01 4.616476985259800048e-02 7.691989664480143318e-01
3.035077343655485579e-02 -1.382577758090929032e-01 -7.549313685232990068e-01 6.870341539426052524e-01 3.054957208997297405e-02 7.259826409505174549e-01
1.089860762461296317e-02 -1.352780831844197229e-01 -7.430107480114478413e-01 4.828130950573030766e-01 -4.360734438853575146e-02 8.746370188578616034e-01
1.866324289993689933e-02 -1.818945282840119804e-01 -7.489147563971939592e-01 4.926930948716475855e-01 -2.138179579702563157e-02 8.699404192669127900e-01
-6.388205597718091266e-02 -2.473251892723457926e-02 -6.805724087945286271e-01 5.734919037326464686e-01 -1.861634458495576294e-01 7.977782948805536289e-01
6.304937118894221593e-02 -1.640837098433269581e-01 -7.795749737257666734e-01 5.036159800445844104e-01 4.716203962555716445e-02 8.626393723115646228e-01
4.186457626327736575e-02 -1.564700145935233877e-01 -7.643612889103048591e-01 6.548986768104528844e-01 3.780413212527557881e-02 7.547705417583362442e-01
-3.188151158152539855e-02 1.533073522230487817e-01 -6.817990546838651467e-01 1.997462440886504098e-01 -9.580151632501407444e-02 9.751530687242415674e-01
-4.062928938978025567e-02 5.642041659943389242e-02 -6.848566642753821654e-01 4.958342489121694285e-01 -6.054035870057498242e-02 8.663043706308483083e-01
1.730252832979965391e-02 -2.025416363351482951e-01 -7.484146006038864263e-01 5.305245508205669314e-01 -5.842377349200340679e-03 8.476494367387648055e-01
2.184932853115760520e-02 -1.693604070505684567e-01 -7.502862156792564630e-01 4.661956265230174923e-01 -2.755778358877045836e-02 8.842523431546480683e-01
-6.407657590132756487e-02 2.144545580853217948e-01 -6.767112961406152039e-01 2.316501150759039118e-01 3.441895179445110808e-01 9.098746067027287943e-01
-6.993899111614422515e-02 2.340376738212564811e-01 -6.833906151084357949e-01 2.472021793578121074e-01 4.001542782143162613e-01 8.824781221920051655e-01
6.362762573571519378e-03 -1.265364138022189167e-01 -7.399803290675780465e-01 4.824006560977576186e-01 -6.009711717868986003e-02 8.738866880226885403e-01
-7.056572614630869655e-02 -3.813229606684526152e-02 -6.789321488277020311e-01 5.721136055320699132e-01 -1.891765108094457803e-01 7.980590643073098844e-01
1.016964686277244817e-02 2.144550353978080109e-02 -7.253231168934640705e-01 6.923073434555609973e-01 -7.721403403333097770e-02 7.174597794620987123e-01
5.979603139665116973e-02 -1.512330607636364899e-01 -7.782192245947727738e-01 5.671684356255567439e-01 4.042525530366235936e-02 8.226091200343528254e-01
-2.746216634582265143e-02 -4.107534155242380941e-02 -7.084095291263279304e-01 5.147357081556408476e-01 -1.684549103502173961e-01 8.406367193552818362e-01
4.922180931755732597e-02 -1.648801984120293329e-01 -7.701134966640158508e-01 6.336572480456452716e-01 4.269545106693598685e-02 7.724348454448507484e-01
1.010733613510766266e-02 3.198399133600172278e-02 -7.241262392237480805e-01 6.917687302996423648e-01 -7.968417330930101239e-02 7.177091725090560814e-01
2.911517784929344710e-02 -7.740784644428390371e-02 -7.517668765291557476e-01 6.348195312887227049e-01 -6.882831115891430152e-02 7.695887384034266754e-01
-1.547849569396599241e-02 2.202597027492029375e-02 -7.039000781721247435e-01 5.096350896684174181e-01 -1.302746630801735472e-01 8.504708034600666489e-01
-4.592933740871565917e-02 -2.226329698796668255e-02 -6.925496042739976987e-01 5.523589497035449325e-01 -1.717927747345812939e-01 8.157124697044848549e-01
4.015453857075374638e-02 -7.548059347767339944e-02 -7.607176550772373202e-01 6.391533003237894750e-01 -6.847008963615007493e-02 7.660253948208409769e-01
3.950359764690849346e-02 6.736636147115446227e-02 -7.441608426078721861e-01 5.975420561019114674e-01 -1.126487090492014204e-01 7.938852307097342687e-01
-3.744250695917550331e-02 -8.261710235771907440e-02 -7.092685347678029384e-01 5.573282646480745006e-01 -9.551607171225076631e-02 8.247799012276098019e-01
-6.888010500881346088e-02 1.464242529080262215e-02 -6.696743283818268333e-01 5.818646782727366906e-01 -9.039751770876482129e-02 8.082461165824790239e-01
-1.009312349480750645e-02 -1.913952007663520527e-01 -7.289118470225854907e-01 6.231278246881408744e-01 3.341961391544724658e-02 7.814056843312364720e-01
-4.601190541513456439e-02 4.657010325359769998e-02 -6.822125622708206105e-01 5.249134827201508147e-01 -5.601368173257605110e-02 8.493104868758912795e-01
3.476025150496375032e-02 -1.619450607268061448e-01 -7.573209345579143825e-01 6.945531073352498863e-01 6.963984197363769224e-02 7.160630373792766790e-01
-2.556348884354341447e-03 9.846961315504827728e-02 -7.087875311806632883e-01 6.858266014325431481e-01 5.370719637326731681e-03 7.277451670317465204e-01
-6.862450848878920429e-02 -3.980228446629343469e-02 -6.807171168761846358e-01 5.653925063996579903e-01 -1.840792287934760740e-01 8.040187505487118580e-01
4.731141861374794921e-02 -2.140719988627277637e-01 -7.628313672492320618e-01 1.724611985707206196e-01 -7.196083343597649284e-02 9.823842290258685273e-01
4.008818897518725416e-02 -1.744952146190932585e-01 -7.612739599310228700e-01 6.831525433687254401e-01 7.277740420164288682e-02 7.266402493163396370e-01
-6.626732936011488218e-02 1.185267396558943170e-01 -6.669203495088285027e-01 4.867424258110165103e-01 -3.417341300215794714e-02 8.728768462729383781e-01
4.916802536061117695e-02 -1.664242993514855329e-01 -7.699840272584859147e-01 6.336572480456452716e-01 4.269545106693598685e-02 7.724348454448507484e-01
1.487539556006856056e-02 -2.185045494162896340e-01 -7.463470298569437889e-01 5.623781982467679352e-01 3.320373159489253823e-02 8.262132136106836722e-01
-6.556723956120739938e-02 -7.927861394988526544e-02 -6.894675413748044823e-01 5.739339290632655688e-01 -8.034210585147730233e-02 8.149509133054287924e-01
2.139227541170054397e-02 -1.730693327503192436e-01 -7.501512905308196366e-01 4.642854998073212003e-01 -2.013771043995751103e-02 8.854566320757344400e-01
8.547816168734043846e-03 -3.300069449734619863e-03 -7.261899215225630089e-01 6.923111415735250240e-01 -7.631270563226526249e-02 7.175525445653758716e-01
8.080921215926743090e-03 -8.645305669012509284e-03 -7.263078776995556263e-01 6.923080539921341314e-01 -7.629526551023493863e-02 7.175573780809076929e-01
-2.420760569315712728e-03 1.280422240259467270e-01 -7.089266538269609619e-01 6.627276622630355885e-01 -9.675317347287689176e-03 7.487979927227376153e-01
-1.538707009495941282e-02 7.417412284875821160e-02 -6.965740897634031814e-01 3.523103839672405146e-01 -1.409097893068723406e-01 9.252144749334331175e-01
-3.726400351609775174e-02 6.699489731456230446e-02 -6.860916829409694495e-01 4.770196535693408957e-01 -4.728408013194872889e-02 8.776197729510550882e-01
4.161166099593718859e-02 -1.613574364507569803e-01 -7.638517304353171777e-01 6.631911316461679418e-01 4.606044335719172711e-02 7.470314307066430182e-01
6.967549249188280391e-02 -9.942924481710500861e-02 -7.864436088908050015e-01 6.213842265914838459e-01 8.288931005530344662e-03 7.834621475004960311e-01
-4.048097905089449722e-02 -6.514779249084069745e-02 -7.046500437403740991e-01 5.412608287604834256e-01 -1.270211545023690880e-01 8.312053546256785719e-01
6.536868082131215563e-02 -1.858094281990572971e-01 -7.795353321174933736e-01 4.489094977862368996e-01 2.910776466451434411e-02 8.931030180407767416e-01
4.097035614026581923e-02 -1.986515166244509356e-01 -7.601488358957138036e-01 3.571866689913421600e-01 -3.852859512794545860e-02 9.332380354723741611e-01
-2.936037105131210703e-02 1.045579144203024335e-01 -6.869604563444431378e-01 3.983687264273906847e-01 -9.366911270206668139e-02 9.124299727267983773e-01
-1.976017599614569159e-02 -7.450109299996404699e-02 -7.192058119295366980e-01 5.061985297901809844e-01 -1.359494211686338716e-01 8.516341957214801361e-01
-5.836306417564039728e-02 2.034538208630921052e-01 -6.743761100816483278e-01 2.593032748248433328e-01 2.216387396334868753e-01 9.400202555045242825e-01
2.114731662056743705e-02 -1.530211166997495764e-01 -7.493132157976863938e-01 4.546239605534662664e-01 -4.085660647533975731e-02 8.897459144036568013e-01
-7.884021305764588039e-02 2.541966709359331777e-01 -6.924612006909497408e-01 2.918209648414426538e-01 6.019661365560954325e-01 7.432881641185589139e-01
-2.869640226589211668e-02 -1.136383580254164971e-01 -7.176491289829519671e-01 5.721705120525417687e-01 -4.230017642728114979e-02 8.190431003382867559e-01
1.481443935026276713e-02 -1.481358784020955222e-01 -7.457716068796556019e-01 4.819728020426253812e-01 -3.295579260528177373e-02 8.755661790092956753e-01
-4.229617109764514937e-02 -2.478632343398061866e-03 -6.909597613120669335e-01 5.488293063928398885e-01 -1.541596639001748814e-01 8.215967322662252048e-01
-1.071678272462817452e-02 9.673388872399256433e-02 -7.008115320603863774e-01 7.225904956484779929e-01 1.320780862249487132e-02 6.911501496707342929e-01
4.281048351743599323e-02 -1.757692535763216157e-01 -7.637919786324222082e-01 7.010337785722937642e-01 7.129297793239089409e-02 7.095554612559779040e-01
3.108011891142636526e-02 -1.302780230369239844e-01 -7.557499888750613959e-01 6.521719455076924188e-01 1.129651769989564042e-02 7.579869010613359270e-01
-6.226083397799489494e-02 7.362891590675352260e-03 -6.754354579795620594e-01 5.760177469298006780e-01 -1.179574244347106199e-01 8.088816979278523611e-01
5.205272735747522306e-02 -2.936334659235240521e-02 -7.659572751374190691e-01 6.363430101930809268e-01 -8.573122282248293868e-02 7.666275046016612915e-01
2.866111696217295626e-02 -1.980139914480466556e-01 -7.546947033759372481e-01 4.555842365051506748e-01 -2.374810950004734370e-02 8.898758513091544753e-01
3.591683095373359585e-02 -1.051084876607327606e-01 -7.593182490074917856e-01 6.338286099804771867e-01 -4.605714892719258574e-02 7.721010505127644530e-01
3.646713630783673249e-02 -1.026593394610967186e-01 -7.596239065300710580e-01 6.338286099804771867e-01 -4.605714892719258574e-02 7.721010505127644530e-01
6.229980553094600221e-02 -9.358754636048928488e-02 -7.804204192559692776e-01 6.337795450471118697e-01 -4.377329381453651247e-02 7.722741657135125948e-01
4.044872195550018590e-02 3.833585906838253565e-02 -7.496466123715560537e-01 6.130923375578350987e-01 -1.206779739520734557e-01 7.807397852234072566e-01
-3.758987143769283723e-02 3.418812169643410670e-02 -6.886173864644934417e-01 5.260947916320787288e-01 -1.080071445211276820e-01 8.435394045034245725e-01
9.763072040286672679e-03 -1.985679743783062834e-01 -7.434101791914723423e-01 5.621831515803349388e-01 -1.302579370674683979e-03 8.270117335117954660e-01
7.368762542265837323e-02 -1.297619049800990965e-01 -7.882971021255510413e-01 5.145437578949618729e-01 6.971107651759418655e-02 8.546256999541315125e-01
2.755271654769889111e-02 9.569928056001729411e-02 -7.330494685172634917e-01 5.855388841753000895e-01 -1.894073323044260029e-02 8.104230153095587363e-01
5.940893840511753121e-02 5.959361420606916308e-03 -7.678708670256939595e-01 5.959494516477380488e-01 -7.671237382328952026e-02 7.993493996889946551e-01
-8.271599284898496773e-02 -4.681187842172955527e-02 -6.723025431503214522e-01 5.762949756448637606e-01 -1.951479222206756459e-01 7.936002706019188446e-01
5.821485058790506345e-02 -1.857052601244794376e-01 -7.756215957612471179e-01 5.104436495671560436e-01 2.768263765814225549e-02 8.594655037806057107e-01
6.056804044491691241e-02 -1.883626029247443823e-01 -7.769335839165648627e-01 5.104436495671560436e-01 2.768263765814225549e-02 8.594655037806057107e-01
-5.784496635264631953e-02 7.690239453107183473e-03 -6.785354249216487554e-01 5.775832511309515471e-01 -1.152454062333854445e-01 8.081559777388904742e-01
6.154815556021248080e-02 -1.319405989175068683e-01 -7.800792694937289662e-01 5.454127499456745687e-01 2.183506259653483772e-02 8.378831435457467780e-01
2.710090150035359552e-02 6.971152885732710691e-02 -7.342575358370559968e-01 6.242691568287441761e-01 -9.539574241293741208e-02 7.753629293187889182e-01
6.320679723690586505e-02 3.885074037165731076e-02 -7.669986273594900927e-01 5.948211602854935887e-01 -1.311928024434676765e-01 7.930802203205224998e-01
3.950603501671502010e-02 -1.619798885582429404e-01 -7.619234753633499224e-01 6.733365302988317813e-01 4.936233636451314161e-02 7.376864352241857548e-01
3.033399020276438679e-02 -1.243300599127972195e-01 -7.551943241992351563e-01 6.579759683682516735e-01 -1.430329549988801352e-02 7.529030752943596250e-01
1.616895125396206794e-03 -1.164415322860369861e-01 -7.366002111735430180e-01 4.863734808878629745e-01 -7.784696291381586197e-02 8.702762133105319542e-01
-4.029118138756034723e-02 1.376186631279779395e-02 -6.895802767620924367e-01 5.461099181060371510e-01 -1.194787684811049744e-01 8.291494323874651906e-01
6.974540337260551337e-02 -1.377223811862135772e-01 -7.852742827624659139e-01 5.145437578949618729e-01 6.971107651759418655e-02 8.546256999541315125e-01
-1.040150912403082497e-04 -2.366202515915455384e-02 -7.210257257758050375e-01 4.499770839365983544e-01 -1.748149972553607878e-01 8.757627193860925141e-01
-8.335114683589156526e-02 2.729194250981026651e-02 -6.580617230722579647e-01 5.816038901745302914e-01 -6.108430349112902585e-02 8.111754574695023701e-01
5.134282499931686755e-03 1.089688755581557505e-01 -7.156812178436020577e-01 6.469760598423720532e-01 -1.009793197899662258e-02 7.624434469261223146e-01
1.147755268093441673e-02 -3.945448623406146160e-02 -7.328577760132222174e-01 6.761573733308990919e-01 -8.100422551000358018e-02 7.322905993796338109e-01
-4.256370904479912787e-02 3.547974286703579894e-02 -6.853414143887570642e-01 5.345893570512069148e-01 -7.291861040838398811e-02 8.419602695992770558e-01
3.315864680693608735e-02 -3.979581666543496182e-02 -7.515382004757875656e-01 6.369585052220912980e-01 -7.530835219566352212e-02 7.672108671772142063e-01
-3.665674533155014597e-02 -1.324966258425299970e-01 -7.116451063202601235e-01 6.139771795269002297e-01 4.942040815140651133e-02 7.877751241809688443e-01
-2.611446716275568278e-02 -1.440762526393092047e-01 -7.190930806589201918e-01 6.033584144643975300e-01 4.032395897253484435e-02 7.964499997035529022e-01
-1.090006377837149203e-02 6.832547655707324333e-05 -7.104098884516729662e-01 5.077068327343243759e-01 -1.523516691659593247e-01 8.479520864395742041e-01
7.610615424375111703e-03 1.273120439345567512e-01 -7.175279892714184760e-01 6.127224963422733817e-01 -1.941281956356509519e-02 7.900596717417521786e-01
5.609316090846612479e-02 -1.197675042897744374e-01 -7.762508438066078043e-01 6.166341270818853637e-01 -1.241987614634407384e-02 7.871518913109912807e-01
6.900686455862126145e-02 -3.224064533103510044e-02 -7.802111658080891354e-01 6.414410842627461529e-01 -1.160920758112553575e-01 7.583376328217310558e-01
-8.012286959220228655e-02 -3.347686594418291389e-02 -6.708427120900778418e-01 5.778891911799824976e-01 -2.075172847065002713e-01 7.892912385586114965e-01
3.163551987773113860e-02 -3.946133135397245084e-02 -7.502374780935028298e-01 6.406739810524858525e-01 -7.734026227150470056e-02 7.639079354438816916e-01
-3.097299129949762989e-02 -6.276789676762183079e-02 -7.103556761156342159e-01 5.242969953995275656e-01 -1.474589350103549523e-01 8.386706881134213809e-01
6.322506164223684610e-02 -2.133772042934763968e-01 -7.772509968571994499e-01 5.457086623951945548e-01 7.005862359788757321e-02 8.350412235610987777e-01
-3.182445546073351533e-02 -1.317759895155998506e-01 -7.153513640666824269e-01 5.982752342863657535e-01 2.827907314657873358e-02 8.007915072361622144e-01
-4.989747529027998424e-02 1.158739436270087575e-01 -6.759239467296619397e-01 4.629322364460509154e-01 -6.382311674976526295e-02 8.840929556485581653e-01
9.477900306500672322e-04 1.476471723158714611e-01 -7.123851887914628422e-01 6.643999825113827695e-01 4.195520506569734576e-02 7.461986491590355541e-01
-7.027688866528622458e-02 5.768399109980434925e-02 -6.661450764818944714e-01 5.599463873650754042e-01 -5.511312714818076240e-03 8.285105121294239483e-01
3.140959164635388073e-02 -1.711417417111871786e-01 -7.550558660478083883e-01 4.095709731708888635e-01 -3.836069746341298076e-02 9.114713790492664502e-01
-2.336305437002922369e-02 1.437541348042211120e-01 -6.893139564818686615e-01 7.105863168918834516e-01 5.325192759255065189e-02 7.015919885900246955e-01
3.717511267245043188e-02 -2.182142570357063077e-02 -7.531096397859431413e-01 6.346846618880291890e-01 -7.438146759817741704e-02 7.691831883511358603e-01
7.218371779125920540e-02 -3.203750313174193176e-02 -7.828319756273252050e-01 6.244488451748905211e-01 -1.204326518249789618e-01 7.717250910357579263e-01
4.887092449929139604e-02 6.356566342433739303e-02 -7.518851157919377304e-01 6.017427693085936058e-01 -1.354727814979544698e-01 7.871167416959392593e-01
1.713141390898159297e-02 -1.579359611374598626e-01 -7.473962383904863005e-01 4.776828272032874190e-01 -3.256383492044641337e-02 8.779286492935219899e-01
2.242553898362095038e-02 1.083869709471779325e-01 -7.291169708161532315e-01 5.932000649863016228e-01 -9.523383118886775273e-03 8.049987503556872426e-01
7.274671997971948051e-03 -1.041795120434186456e-01 -7.385071594858343413e-01 4.620051338057259982e-01 -8.772332648855594994e-02 8.825281153181100402e-01
-6.422149524630713091e-02 8.843273391757609792e-02 -6.694633921362739271e-01 5.523200911488699294e-01 -3.957156698886898222e-02 8.326923849773992803e-01
-2.806798077946341327e-02 4.545458696432687351e-02 -6.931486350543206720e-01 5.008452905287467116e-01 -9.469619949065324893e-02 8.603409933027728052e-01
-8.487770848271933982e-03 6.962023349637795622e-03 -7.105525911520873539e-01 4.922938899400892132e-01 -1.549851367001423563e-01 8.565198966338688491e-01
-4.643633891924731083e-02 1.977331885740356010e-01 -6.760770771312502037e-01 3.862158971251102024e-02 -3.520506144969128004e-02 9.986335546417425268e-01
8.035675489744810440e-02 -1.321853425537879156e-01 -7.921331087148505423e-01 4.969392325980027669e-01 9.868550191963246232e-02 8.621557694615156198e-01
4.816319959732263262e-02 -8.418069526194912888e-02 -7.680805307601913379e-01 6.391309202903767694e-01 -6.172709228354043148e-02 7.666168748514444742e-01
-3.118319311496250273e-02 1.506703978531915289e-01 -6.822011563954444302e-01 1.997462440886504098e-01 -9.580151632501407444e-02 9.751530687242415674e-01
-6.520461912620718892e-02 1.135519782722728410e-01 -6.677077122799578435e-01 4.867424258110165103e-01 -3.417341300215794714e-02 8.728768462729383781e-01
2.776386480583497782e-02 -2.136859767856977566e-01 -7.547369025996962799e-01 4.941065489290882295e-01 -4.912548318702860198e-03 8.693874770057381518e-01
2.481796475063272403e-02 -7.084686303245917027e-02 -7.476315456214492894e-01 6.353373337632534090e-01 -6.903000370249885720e-02 7.691432447310665443e-01
4.350163037292026011e-03 1.124364733218942702e-01 -7.149699230073497391e-01 6.469760598423720532e-01 -1.009793197899662258e-02 7.624434469261223146e-01
-7.450691480059951077e-02 6.661967180895232710e-02 -6.632199346887932556e-01 5.633933485903418470e-01 -6.007702101770383968e-03 8.261669578720864937e-01
-4.570186628253256750e-02 -7.104529689445833462e-02 -7.021515589552678183e-01 5.412608287604834256e-01 -1.270211545023690880e-01 8.312053546256785719e-01
-6.785841493920370671e-02 2.180912043495366603e-01 -6.771807489494607868e-01 2.246173879468114642e-01 3.595815879307852070e-01 9.056754996427398563e-01
-8.625421599683527965e-03 -1.925113942050664939e-01 -7.300345201141861251e-01 6.231278246881408744e-01 3.341961391544724658e-02 7.814056843312364720e-01
-1.230581932984993986e-02 9.604845724076022107e-02 -6.991371118253962846e-01 7.225904956484779929e-01 1.320780862249487132e-02 6.911501496707342929e-01
-2.292058821541305066e-02 -3.611623833931217747e-02 -7.101966591830193298e-01 5.147357081556408476e-01 -1.684549103502173961e-01 8.406367193552818362e-01
-6.717373714522759109e-03 -1.372497239752310492e-02 -7.154600436615173864e-01 4.845684809819522099e-01 -1.683335720566428995e-01 8.584038651808915121e-01
-6.730119452081309572e-02 9.826156181233050568e-02 -6.671100787444373958e-01 5.076330151140413527e-01 -2.819592149824554431e-02 8.611119044451145399e-01
4.126995658948364593e-02 -4.618833417697579269e-02 -7.588800004859382886e-01 6.357741708528178437e-01 -7.731340385889304279e-02 7.679933862086076868e-01
-2.697491102588493381e-02 -9.637630745219866180e-02 -7.176839894966270395e-01 5.252131544146848574e-01 -9.730587306486357391e-02 8.453890876376753960e-01
8.111813369694070852e-02 -1.108796529619008320e-01 -7.946414924432201321e-01 5.826598716213939877e-01 6.138557349679083647e-02 8.103945245179108303e-01
5.114036952501082450e-02 -5.968467502333405644e-02 -7.684557808658432076e-01 6.417394433590991598e-01 -7.038311486512752180e-02 7.636862601743176215e-01
-5.026147691272344481e-02 -1.144858421821536888e-02 -6.873159163602819977e-01 5.585667458060421531e-01 -1.592863210603011892e-01 8.140215343605614606e-01
-1.609386861397344229e-02 -3.397127571453227579e-02 -7.138665670336169500e-01 5.039242896931356297e-01 -1.719200010052197025e-01 8.464654886713538495e-01
-7.279309870940683935e-02 -4.428755151831954145e-02 -6.787944642835361808e-01 5.721136055320699132e-01 -1.891765108094457803e-01 7.980590643073098844e-01
-5.175293144690361336e-02 -8.823949626514723116e-03 -6.857491168469346254e-01 5.668359429454319365e-01 -1.659844717420054516e-01 8.069362855428489079e-01
1.391490009919828762e-02 -1.537718154230232892e-01 -7.454885709564712526e-01 4.819728020426253812e-01 -3.295579260528177373e-02 8.755661790092956753e-01
3.767106068431536753e-02 1.013686974744273800e-01 -7.401041072176972602e-01 5.734499239635907353e-01 -1.781192196985402140e-02 8.190469584473724085e-01
-4.304108535634317001e-02 5.479055834939575848e-02 -6.835183153574525550e-01 5.130876222525606600e-01 -4.683764784336664350e-02 8.570573648453846394e-01
1.228617782516823465e-03 -9.903335843497859670e-02 -7.346809813576321568e-01 4.861141472607907188e-01 -1.002433452789730645e-01 8.681268960009216329e-01
-4.628853480847728435e-02 -9.526804294153519426e-02 -7.044001180015088126e-01 5.739041812461311842e-01 -6.015422790992082380e-02 8.167101441838280351e-01
-7.980812349217106250e-02 -1.422415582803109903e-02 -6.663783839187887859e-01 5.883453027808036584e-01 -1.497964065877882556e-01 7.946136427655584589e-01
4.375363076117130129e-02 6.865300348051593671e-02 -7.471778916013998018e-01 5.976634459928467091e-01 -1.127077638391531383e-01 7.937854655348215438e-01
-2.225038906783494488e-02 -2.125147364774620726e-02 -7.076062288186567573e-01 5.101186560143942117e-01 -1.717093294110678126e-01 8.427899281429919176e-01
-2.187190966691444569e-02 -9.453038471073402227e-02 -7.206949711885305421e-01 5.337610254346542016e-01 -1.010034284853064263e-01 8.395817263144548237e-01
-2.361425068285139157e-03 -9.552943189275815705e-02 -7.322698909284066637e-01 4.819694819804164476e-01 -9.899738102827591868e-02 8.705773584174305579e-01
5.912174945918444863e-02 -1.671462411354230071e-01 -7.770593399849156091e-01 5.193603893272110694e-01 4.740125484626320912e-02 8.532396539290043602e-01
-5.517617220704656988e-02 -9.860410094788400748e-02 -6.980933646166384010e-01 5.802468144339020251e-01 -1.782423756842231588e-02 8.142456207400891044e-01
4.108835940514454776e-02 9.556640377887996862e-02 -7.426930921348933179e-01 5.784942479871008070e-01 -3.973434089695433019e-02 8.147181029038960132e-01
-5.420567066007398599e-02 1.168640919085216362e-01 -6.735692973077718193e-01 4.793008817727262838e-01 -6.780010152981881533e-02 8.750278915351401565e-01
5.432471996235067879e-02 -7.445014382837196465e-02 -7.725128815304707075e-01 6.445953608398035106e-01 -5.960335018469323926e-02 7.621969964717548729e-01
-4.315923935259541322e-02 -7.375185763926582483e-02 -7.042267731787562601e-01 5.516908801214792657e-01 -1.325478888283293244e-01 8.234489844294788918e-01
-4.868056180330752186e-02 2.699726678661953580e-02 -6.823207998761795512e-01 5.600489060355745563e-01 -9.399361671615835689e-02 8.231102130729345268e-01
-7.915463493356542091e-02 -4.089555774242731312e-02 -6.734338872521716812e-01 5.762949756448637606e-01 -1.951479222206756459e-01 7.936002706019188446e-01
4.735485140925998343e-02 -7.272280581782628039e-02 -7.664774313710147613e-01 6.371235037874256601e-01 -7.157453330676047387e-02 7.674312523630724137e-01
3.015098816501764201e-02 -1.336659011166938804e-01 -7.548963768610033043e-01 6.733510409449992018e-01 1.941048657782191988e-02 7.390680676832805940e-01
4.599979905833630200e-02 -1.520589121119550191e-01 -7.680278996057652297e-01 6.334369622630220409e-01 3.236640429149370557e-02 7.731170873239281427e-01
-4.547217748169666077e-03 -1.405427764735249149e-02 -7.167496724178804568e-01 4.845684809819522099e-01 -1.683335720566428995e-01 8.584038651808915121e-01
2.311431951464450706e-03 -1.336459605567432152e-01 -7.381300318259764737e-01 5.102735610115995968e-01 -4.378578603417711962e-02 8.588967911652194420e-01
1.005818857677654582e-02 5.682900613656971522e-02 -7.213252269859949939e-01 6.648574422565933784e-01 -7.016151989879663986e-02 7.436678980576686415e-01
-3.834227153829045695e-04 1.109755362848862809e-01 -7.107849839495049560e-01 6.720180279811354129e-01 9.503145265461716146e-03 7.404738079759535241e-01
4.560558309862623727e-02 7.926861056302762776e-02 -7.471162364032837289e-01 5.842703375383681008e-01 -7.399858179190686724e-02 8.081784348555630659e-01
2.360272029726645255e-03 -1.644361509116086528e-01 -7.388384305344554148e-01 5.320218678591988049e-01 -9.462860774724009575e-05 8.467306083785066662e-01
2.390800779704528242e-02 -1.591734855423456441e-01 -7.509865145805727504e-01 4.529028625572593669e-01 -3.400101553323619380e-02 8.909112907748720778e-01
-6.668713068471615601e-02 5.203451736309937931e-02 -6.686872309942256676e-01 5.518283138608437444e-01 -1.512161259004470883e-02 8.338206335022986249e-01
-3.252643210477349639e-02 1.779155593816672265e-01 -6.828626021975541249e-01 6.633871179442648591e-01 3.061229206044050258e-03 7.482701120727393018e-01
-3.670568061632932533e-02 -1.156101113023329380e-01 -7.119663769584256841e-01 5.966720242562777443e-01 -1.512489401167378851e-02 8.023426531420674301e-01
1.813906280440055058e-02 -9.256381278287264050e-03 -7.357601814204364210e-01 6.656515027325787814e-01 -6.621714669582116908e-02 7.433191551368252270e-01
5.458193545735543634e-02 -3.212907182743585804e-02 -7.683659454381757126e-01 6.363430101930809268e-01 -8.573122282248293868e-02 7.666275046016612915e-01
1.762223355162576693e-02 -1.862988756002671026e-02 -7.361791627105092051e-01 6.674682209337392536e-01 -7.588845702250390790e-02 7.407611734792073355e-01
-1.395389768005796290e-02 1.361184964196322789e-01 -6.982967576604883764e-01 6.962094426289754390e-01 2.236842158202104539e-02 7.174901154093903388e-01
-6.021179340782364248e-02 1.012983813688217716e-01 -6.712616376154434406e-01 5.195468264117303336e-01 -4.944678750777756204e-02 8.530100294666294047e-01
-4.528632364711304009e-02 6.575153360874567976e-02 -6.816780737940395518e-01 4.969701845552368380e-01 -3.122917116195178533e-02 8.672054972909657433e-01
-1.697484838151510841e-02 -3.030783238007806260e-02 -7.126219048585238358e-01 5.089687080507686590e-01 -1.646434364427959707e-01 8.448925334392761721e-01
-7.945927951019282620e-03 -2.292922583382177304e-02 -7.165266941757916230e-01 4.981018781893791214e-01 -1.691677035150576935e-01 8.504568225557685990e-01
8.642992036234474137e-03 -1.228882946239839152e-01 -7.409768513991503713e-01 4.651594660936383963e-01 -6.747166714831605294e-02 8.826518256003939022e-01
6.511574073464197754e-02 -9.240891455758818915e-03 -7.738108853830997225e-01 6.051369478945742841e-01 -8.218878809821415776e-02 7.918675883023538198e-01
1.918057731584685982e-02 -1.332471307702499663e-01 -7.471946226406648295e-01 4.393033875021584711e-01 -6.254901298855294889e-02 8.961585544440705542e-01
6.770571405585490421e-02 -1.315332221778764688e-01 -7.843477364052470202e-01 5.599004660427094882e-01 4.325679941640765691e-02 8.274299471432039477e-01
1.094294440002858276e-02 -2.079207989071437390e-01 -7.440437392252373661e-01 5.664691633798171200e-01 7.322647014332476882e-03 8.240504024514965220e-01
-2.694023396463249287e-02 -1.549939431920733801e-01 -7.176758275527689301e-01 6.227291625246882401e-01 6.125343278283183757e-02 7.800361575681088455e-01
-5.616069741494059131e-02 -2.523536955042213550e-02 -6.861642965342806821e-01 5.638356146909245803e-01 -1.784074883784490528e-01 8.063871078437455653e-01
-5.212542094177950724e-02 1.469694291099331029e-01 -6.727657469100902787e-01 4.397958898608642642e-01 -4.835248996126512155e-02 8.967951895366277348e-01
-1.440500456715542712e-03 -2.549134925661460452e-02 -7.206976421608990435e-01 4.711572222807595689e-01 -1.685317942113302436e-01 8.657989987477398008e-01
6.755304820979970981e-02 9.639008989507173372e-03 -7.735411712281237140e-01 5.922809233284027641e-01 -8.296987405497580070e-02 8.014482565085259136e-01
-2.903540889454960666e-02 1.348924141191165105e-01 -6.841831474051188744e-01 3.454046618463499918e-01 -8.606394010651988169e-02 9.344991266920210649e-01
-5.137677287083278893e-02 4.663528252632213184e-02 -6.789026719766804163e-01 5.389135006664467209e-01 -4.398947608249141605e-02 8.412117241179082328e-01
-7.360903930651242766e-02 2.410357466377083535e-01 -6.855659786510799325e-01 2.184072164547111727e-01 3.947870887873340395e-01 8.924356796583865492e-01
5.429235528370777997e-02 -2.186689945761473020e-01 -7.686258846710021242e-01 7.178829733630344156e-01 2.833967855928187229e-01 6.358697181586073777e-01
-4.091680476870490635e-02 -5.566652946571677869e-03 -6.924615669634401893e-01 5.439630345909565179e-01 -1.631113361769530867e-01 8.231032189277155409e-01
6.450970350872335668e-02 -1.050688426555489163e-02 -7.734976309953731644e-01 6.086183307625581129e-01 -1.007944198439168909e-01 7.870350769744164365e-01
-4.753103003274367772e-02 5.506563605832744818e-02 -6.808178402463924694e-01 5.121888179876981084e-01 -4.293359726095775236e-02 8.577991145685559538e-01
2.595373729260249188e-03 9.844969496407177112e-02 -7.134460562229871794e-01 6.619148621734973759e-01 3.682793353439101948e-03 7.495699782321565419e-01
-1.808650851336489340e-02 -6.322266799286435646e-02 -7.183019171686670923e-01 5.095172707786810307e-01 -1.526049489304776574e-01 8.468198629815968381e-01
5.232864491437898280e-02 -2.204747467318181886e-01 -7.652914792037601721e-01 7.593121082791026710e-01 3.070401461002716936e-01 5.737346694278357973e-01
-3.708060447899766410e-02 1.912657908868107826e-01 -6.833238068716677160e-01 6.283675104747644680e-01 2.964548158718706694e-01 7.192140251177823185e-01
-6.547689040472876032e-02 -5.781368057559528595e-02 -6.866620646927039662e-01 5.576893250447079176e-01 -1.346287459172612888e-01 8.190590439668703482e-01
3.698338921692885528e-02 -1.048536863956897776e-02 -7.519725448896640296e-01 6.365934326460631620e-01 -6.271250301097061608e-02 7.686455252442447872e-01
7.508966661530717956e-02 3.776717125495997890e-03 -7.798166316170058732e-01 5.966925401370906101e-01 -1.064289891103656210e-01 7.953809670979637980e-01
7.130717490274389447e-02 -7.201791497723780688e-02 -7.868588841209691598e-01 6.484541126818408330e-01 -5.329611079612310565e-02 7.593857967594691560e-01
-2.330754773693057696e-02 1.050710358331938959e-01 -6.894503901451350947e-01 3.690637536344349434e-01 -1.044885022136939623e-01 9.235118291924582223e-01
-6.610897850945591896e-03 -5.864471390475285012e-02 -7.241460569172972761e-01 4.833248531031329454e-01 -1.588365552936380765e-01 8.609111656119265987e-01
2.537826506837589924e-02 -1.834896138836467072e-02 -7.428907300446361273e-01 6.457687354827654769e-01 -7.353011838847466064e-02 7.599842511281184043e-01
-6.411612637987788160e-03 -4.514908924453230206e-04 -7.130940224274899819e-01 4.886537716949688748e-01 -1.580490259885269089e-01 8.580431205903109593e-01
6.167393444414397130e-02 -1.983383473132309116e-01 -7.772869354362413885e-01 5.166511720732144264e-01 2.425970293734451208e-02 8.558522262685103188e-01
5.204186196547044146e-02 2.061533791177029562e-02 -7.609240289857752693e-01 6.042910894066307881e-01 -7.681113961625758713e-02 7.930525380418368409e-01
8.018976783912137862e-02 -9.275026563908445043e-02 -7.947831933235419699e-01 6.163030750654759915e-01 2.786890931809406571e-02 7.870157835509132838e-01
-5.729246271981612570e-02 9.242139039312645063e-03 -6.787089898647162833e-01 5.775832511309515471e-01 -1.152454062333854445e-01 8.081559777388904742e-01
-6.587396698026401487e-02 2.322845909070939963e-01 -6.842968741070150074e-01 6.790640486316686930e-01 5.712149307581947388e-01 4.610699737945178622e-01
1.613660320081708455e-02 -8.723886761212000518e-02 -7.415328548490282001e-01 6.809393204630560525e-01 -3.059296216430928972e-02 7.317005620561763957e-01
1.607895729688844574e-02 -1.492717658322847418e-01 -7.465022251056466773e-01 4.776828272032874190e-01 -3.256383492044641337e-02 8.779286492935219899e-01
7.789104948292280284e-02 -1.024885392100864656e-02 -7.839524251093400453e-01 6.259091720128442393e-01 -1.294730162553889841e-01 7.690737587851556034e-01
-7.010100757631615442e-03 1.420490163270929362e-01 -7.049781286230933919e-01 6.624799087027847255e-01 3.497002473374935094e-03 7.490715196420506539e-01
-6.719200537997375988e-02 1.116425899362184226e-01 -6.666747051316161965e-01 4.868910076458892733e-01 -3.478754774031168201e-02 8.727697137250960413e-01
6.028061908884177478e-03 -1.158317123725173953e-01 -7.390109422529199668e-01 4.863734808878629745e-01 -7.784696291381586197e-02 8.702762133105319542e-01
-1.313176524444375527e-02 1.376048820909155368e-01 -6.991408451999374662e-01 6.962094426289754390e-01 2.236842158202104539e-02 7.174901154093903388e-01
1.266157261639601697e-02 1.285773414815759019e-01 -7.215844026324094163e-01 6.258320636932517278e-01 1.963970626216715587e-02 7.797105296142802233e-01
-3.782101804148853275e-02 9.602883810525525421e-02 -6.837919120961081232e-01 4.513523633002580748e-01 -7.912266749446754399e-02 8.888310568560437996e-01
4.366114820802304008e-02 1.407180528302864192e-02 -7.551766236040187152e-01 6.039085125882586169e-01 -7.771505846853424271e-02 7.932558717782487445e-01
-5.541924785533920012e-02 -6.159829650080520143e-03 -6.826256949478163305e-01 5.668359429454319365e-01 -1.659844717420054516e-01 8.069362855428489079e-01
-4.959422550045762546e-02 1.024133464050128173e-01 -6.772440725596721167e-01 4.822243819023773193e-01 -7.292282916737242993e-02 8.730073919991149234e-01
-7.105135864544290247e-02 8.680359485959540655e-02 -6.651466340903312568e-01 5.583825236046789930e-01 -2.657172886768420852e-02 8.291579466892009531e-01
5.889141673338685323e-02 -2.517506991741964503e-02 -7.709658480511979439e-01 6.230384865101542546e-01 -8.385308164655345953e-02 7.776835506975268153e-01
7.585438127475914276e-03 -2.594509906804130794e-02 -7.276493542889578281e-01 6.870805630489813520e-01 -8.386669735132393222e-02 7.217247930864481020e-01
5.522491597165054417e-03 -4.325051381869750994e-02 -7.276737251763386594e-01 4.577625671303572896e-01 -1.669514940411990778e-01 8.732586276537075420e-01
2.901922408440170062e-02 -8.213951756570044005e-02 -7.520913650825428176e-01 6.330049192047928486e-01 -5.961117139054891018e-02 7.718492602237693179e-01
-1.364273830833747508e-02 -1.278219147365561026e-01 -7.281463921844140152e-01 5.332365031786833187e-01 -2.137122271498687401e-02 8.456962235445044662e-01
4.203209433381448201e-02 8.139120190931969923e-02 -7.443353260392000514e-01 5.897449162475970619e-01 -6.991323202312922647e-02 8.045576882661644724e-01
-2.991497723885602755e-02 -1.574566583670011510e-01 -7.151078003270090466e-01 6.304149088748304264e-01 7.220830734567461329e-02 7.728926206263142529e-01
7.873677855332815792e-03 -1.767154718044228190e-01 -7.423945854061927418e-01 5.241563667194109044e-01 -1.041854040705060894e-02 8.515583111233739899e-01
5.942871789671249488e-02 -2.320444282482187620e-02 -7.711789522944312303e-01 6.148224067423257999e-01 -9.889165178026890213e-02 7.824409558399558762e-01
7.576988103945429571e-05 4.234195519638041943e-02 -7.134158765770258759e-01 6.991163768812435064e-01 -6.036280403976208159e-02 7.124553484007963844e-01
-1.454526496076059133e-02 1.284492974874769655e-01 -6.974483636950656873e-01 7.060225625328708787e-01 1.449787338078809516e-02 7.080409259795317212e-01
-5.134932896412502945e-02 7.408973223044024170e-02 -6.779169572480718831e-01 5.141596695146044560e-01 -1.597094630002981672e-02 8.575457790222713594e-01
-6.616497985150589234e-02 2.335427882383674936e-01 -6.852541113394696737e-01 6.174170892983462666e-01 5.471792660571745959e-01 5.651468735112046282e-01
-3.380522878853672170e-02 -2.587073500757306257e-02 -7.012800808237000805e-01 5.319492038102553444e-01 -1.722276593779635823e-01 8.290764005270102599e-01
5.690185029215541479e-02 4.249077761616810306e-02 -7.616676880219636070e-01 5.948211602854935887e-01 -1.311928024434676765e-01 7.930802203205224998e-01
-8.925474093224009160e-05 -3.601694722784803959e-02 -7.234779465107817886e-01 4.706253468747989555e-01 -1.654011794816998837e-01 8.666915441522652364e-01
-2.618456537895901687e-02 -6.103162265869439135e-02 -7.130362140264284720e-01 5.092249442876954912e-01 -1.530602426326478915e-01 8.469135246531538375e-01
-4.058856200947395104e-02 1.523158113244399148e-01 -6.781131298817282271e-01 4.305023299811137072e-01 -4.720365561720114150e-02 9.013542914843224452e-01
4.777990860460425843e-02 -1.669504452773001857e-02 -7.611521513033555619e-01 6.224302219211887977e-01 -8.404923084840744407e-02 7.781493080591478373e-01
-2.497090663447120232e-02 -9.795150893390444646e-02 -7.191363635123583231e-01 5.337610254346542016e-01 -1.010034284853064263e-01 8.395817263144548237e-01
-2.675517546225913978e-03 7.877982881562216322e-02 -7.086661469459990537e-01 6.856013953736921351e-01 -1.917352179656876127e-02 7.277246063749409632e-01
1.783295752313318605e-02 -2.090385270398335549e-01 -7.487198311274095852e-01 5.433822887653054767e-01 7.274759775680909694e-03 8.394538499086081629e-01
5.677625344942112406e-02 -1.450250942581166914e-02 -7.679948869356365559e-01 6.148224067423257999e-01 -9.889165178026890213e-02 7.824409558399558762e-01
-3.089562260562649099e-02 -2.262400788763214987e-02 -7.024576276506676598e-01 5.273786543301415275e-01 -1.736453562498862235e-01 8.316964862314732976e-01
-7.651507389812829685e-03 -1.569420658564932161e-03 -7.125963330516194016e-01 4.892650239304640047e-01 -1.616274169198000377e-01 8.570276042568032437e-01
1.082942874092975190e-02 1.977523526974713300e-02 -7.261395250143671820e-01 6.923073434555609973e-01 -7.721403403333097770e-02 7.174597794620987123e-01
-3.860535885924148980e-02 -1.035279015520737950e-01 -7.103648508993128941e-01 5.860667704223442298e-01 -3.541427103940283927e-02 8.094884619396813807e-01
7.005594611987217557e-02 -5.642836693843632234e-02 -7.843627389984122456e-01 6.505309601483946214e-01 -8.763032337143149275e-02 7.544073145948586578e-01
-7.086390260891602122e-02 3.196898331115499703e-02 -6.666164834551365770e-01 5.762315922002536617e-01 -6.199396845073103929e-02 8.149318376564327338e-01
-3.992759597012785627e-02 1.245688542819427397e-01 -6.802110390558701036e-01 4.269563512937775140e-01 -7.268798313398508459e-02 9.013460662796602962e-01
5.703536411263735589e-02 -1.480218235125358162e-01 -7.764736224320101243e-01 5.671684356255567439e-01 4.042525530366235936e-02 8.226091200343528254e-01
-3.091501467193226785e-02 -1.430636097765718984e-01 -7.154325674992471074e-01 6.214080503178550652e-01 5.497406098009718911e-02 7.815560681227665674e-01
2.540117316465513933e-02 1.899743583507978659e-02 -7.396202230455295457e-01 6.543288090731186335e-01 -7.850320693590624732e-02 7.521243621354996023e-01
-2.981809669216502201e-02 4.763278526736572371e-02 -6.918900591847297887e-01 5.008452905287467116e-01 -9.469619949065324893e-02 8.603409933027728052e-01
-1.953046077394295782e-02 7.341614072827731818e-02 -6.947815140748982987e-01 4.259617500214580299e-01 -1.046971139385159816e-01 8.986629523083735638e-01
-5.327160434767804625e-02 -1.193234896891273711e-01 -6.995157942743209789e-01 6.000773027597979814e-01 2.113502660714838485e-02 7.996627672730804992e-01
-3.812583574744254911e-02 7.250642421290294515e-02 -6.853467805753306052e-01 4.759553291065113378e-01 -4.275382360150269817e-02 8.784296416119869999e-01
-1.607202550365931237e-02 -1.056398888139294390e-01 -7.254016611580207385e-01 5.281565268188564977e-01 -7.353638175234147867e-02 8.459569041844960946e-01
-5.892676427395760613e-02 4.689309160349716676e-02 -6.740097881962412441e-01 5.568073816888463590e-01 -3.627724870391126066e-02 8.298490832213323287e-01
2.717901924249426990e-02 -2.044453921417980352e-02 -7.446236065214911770e-01 6.457687354827654769e-01 -7.353011838847466064e-02 7.599842511281184043e-01
2.146889297316805986e-02 4.470445719076294316e-02 -7.328854302231585516e-01 6.554111519334104852e-01 -1.069286973538016855e-01 7.476646812599476721e-01
-5.950795577201705572e-02 -5.602115797527833924e-02 -6.904196612465625105e-01 5.502815260843962886e-01 -1.375782077403339410e-01 8.235669243025640629e-01
-4.450412236568625918e-02 2.053846553652228235e-01 -6.830478058803114427e-01 6.435020634249989380e-01 4.455057749924920540e-01 6.224385100683500482e-01
-1.862511611390553143e-02 -9.121805968456027369e-02 -7.223228625188234941e-01 5.039962457858888634e-01 -1.138127556430050952e-01 8.561743052011522304e-01
-3.225712887947020102e-02 4.612077339927650454e-02 -6.906200241397062456e-01 5.151288127012304541e-01 -9.151872855465807699e-02 8.522127836689374902e-01
7.217770742401108386e-02 -1.558089254988699879e-01 -7.850403537748312788e-01 4.656015582048169676e-01 8.907216746573064226e-02 8.805006178193195421e-01
4.851508843133756771e-02 -2.286737664409163040e-01 -7.629271420282958127e-01 2.597249791944250541e-01 9.629022931674069419e-02 9.608699843998588230e-01
2.883652792747792848e-02 -1.151449415236575208e-01 -7.537289985132596959e-01 6.439010976455387114e-01 -1.192538121022831965e-02 7.650157918199212981e-01
-9.605228538343288727e-03 1.016854986190943444e-01 -7.019942159433516515e-01 7.051626741290075717e-01 8.246568743186952211e-03 7.089976002210378603e-01
2.892521414329845501e-03 -1.950861328527765323e-02 -7.221529400883870409e-01 7.467455735179262533e-01 -6.191768321491371990e-02 6.622214500729199926e-01
9.005492617118228404e-03 -8.642857445473609013e-02 -7.370963430033599106e-01 4.483088866888444990e-01 -1.369571562247835772e-01 8.833243342479754068e-01
1.994356363079504563e-02 1.008754608421103399e-01 -7.273480642471724655e-01 5.984070677549404582e-01 -8.607800178543369846e-03 8.011459835991318057e-01
7.202210133521032287e-02 -9.640095312506713476e-02 -7.883368044036396238e-01 6.213842265914838459e-01 8.288931005530344662e-03 7.834621475004960311e-01
3.416428607416300417e-02 -8.879505547671238952e-02 -7.568261142350126702e-01 6.335209501041362268e-01 -5.945155908226403690e-02 7.714380842957136997e-01
-3.259092803424630536e-02 -2.688184868569790456e-02 -7.022692394356906398e-01 5.319492038102553444e-01 -1.722276593779635823e-01 8.290764005270102599e-01
1.595948027069912095e-02 -6.197348516512150851e-02 -7.392922685004187366e-01 6.659907387190792116e-01 -7.080204613061487351e-02 7.425923553364478513e-01
-2.294438788869405596e-02 -4.483039637307153352e-02 -7.119084544815542648e-01 5.137301704520623735e-01 -1.623026283301311212e-01 8.424601882608021564e-01
4.398760358444812196e-02 2.618358267975845130e-02 -7.541057843855388798e-01 6.075823793864341127e-01 -9.397045017405138145e-02 7.886781388837942330e-01
-7.105913901581477343e-02 2.734453239867847343e-02 -6.668286792291571174e-01 5.767217455548214744e-01 -6.123077794836886273e-02 8.146427560814845092e-01
-9.634239459431932773e-03 1.128526559862136069e-01 -7.020871726396599177e-01 6.963073234794281419e-01 1.826148099612299623e-03 7.177414412252040021e-01
