1.055672932321140983e-02 -4.707763921673947805e-02 -7.459031679332726039e-01 9.496914385963270977e-01 3.124179039280449155e-01 -2.193683573457962457e-02
3.719052608004076721e-02 -1.170683196366060497e-01 -7.994905986013827182e-01 7.681183003337057613e-01 5.733246682658442728e-01 -2.851194511960182254e-01
2.796989541995112405e-02 -7.460759348609097286e-02 -6.978049791842955152e-01 9.041373300212582897e-01 3.978480459313434858e-01 -1.557325297124600161e-01
-1.935421141570845341e-02 3.360371384664973676e-02 -7.040697675679171708e-01 8.120378416940459143e-01 4.884879657094096106e-01 -3.193337611558765832e-01
-5.662909207304885062e-02 1.158061367691835264e-01 -6.572032181137191786e-01 7.823914949390536888e-01 5.560447062856852529e-01 -2.804956920501616713e-01
-1.867888848033454757e-02 -5.275583496014739186e-03 -7.658660943494951523e-01 8.454144812447494939e-01 4.755061054594066361e-01 -2.432453464559986844e-01
7.641074329710266337e-03 -2.977590339070807640e-02 -7.133413987025911673e-01 9.248112107574241181e-01 3.559933608779750625e-01 -1.341378077508026401e-01
2.366258750913460308e-03 -7.119785643240365836e-02 -8.192016745397513455e-01 8.358223964822115715e-01 4.933313569513195218e-01 -2.408839840821772604e-01
4.133721296589607658e-02 -1.260310778364948647e-01 -8.044090937951193787e-01 9.096055437991458215e-01 4.148080911185670350e-01 2.349472775817629949e-02
1.442053660288682669e-02 -6.993125142496298130e-02 -7.744589985346687078e-01 8.456015825573902633e-01 4.721703683629044357e-01 -2.490243096897895581e-01
1.858890851903614860e-02 -1.747967236512735709e-02 -6.325907940438866284e-01 8.859961948701932100e-01 4.157906507450119804e-01 -2.052532032114925131e-01
2.030241338188245453e-02 -6.127025738360802887e-02 -7.097682310467728906e-01 9.155391105933923246e-01 3.753834649196376994e-01 -1.444831866993096237e-01
3.269242299397947735e-03 6.309625958288084431e-03 -6.511716821031772184e-01 8.869361354696135846e-01 4.314577782492213243e-01 -1.648892876643993088e-01
-6.351333400118000516e-02 1.356341223780491434e-01 -6.354238088792294459e-01 7.823085020229774145e-01 5.629529052394204314e-01 -2.666035148775449115e-01
1.202741187702125597e-02 -6.899051663014399427e-02 -7.808976275450579818e-01 8.458416960272084895e-01 4.774561503014732033e-01 -2.378811673947991145e-01
-3.460126025265052030e-02 2.962497259877557368e-02 -7.545030926917317693e-01 8.574630526056929991e-01 4.551559434530414450e-01 -2.399795419520137363e-01
-2.735601374359847293e-02 1.796233315288851135e-02 -7.510011154471932793e-01 8.438631940460168401e-01 4.668241996171267894e-01 -2.645185747471883175e-01
5.671133105649060757e-02 -1.467071945684405854e-01 -7.648522780548667743e-01 8.152634942557631659e-01 5.539787436383010188e-01 -1.686801308121772258e-01
-1.137396441892525589e-02 4.332884600621468574e-02 -6.150400552849257796e-01 8.545537691259840196e-01 5.024618281477662984e-01 -1.314152461740237254e-01
5.381591561470679824e-02 -1.317318427907053224e-01 -7.305861913854765355e-01 7.991659133491599842e-01 5.708521677740605593e-01 -1.883126270021713011e-01
-2.676983383204865549e-02 -1.260173759713441148e-04 -7.858364205108221423e-01 8.638414971728854974e-01 4.576814258384026002e-01 -2.104889075572263513e-01
2.003944097783632444e-02 -4.643631260764707891e-02 -6.783868874136510518e-01 9.183134960682358683e-01 3.502931692713826539e-01 -1.843773806646161473e-01
4.050956314918890099e-03 -5.549136008887390475e-02 -7.825840588407043663e-01 8.482566597711610479e-01 4.701308927464719623e-01 -2.437982420758571800e-01
-3.197885133362732279e-02 8.040041181194912401e-02 -6.246726589413841291e-01 9.020318473415329663e-01 4.253006716494353578e-01 -7.387750047315382040e-02
2.340788944224475240e-02 -8.144465890939162067e-02 -7.508057766554870893e-01 9.180713577303464268e-01 3.850758942352879854e-01 -9.413574132098741221e-02
6.732021783419005374e-03 -3.541689631817238060e-02 -7.403435419265286255e-01 8.171241789795243848e-01 4.727367341875611251e-01 -3.298909763493356184e-01
1.051392800274226873e-02 -2.325112334189223182e-02 -6.809310057832558272e-01 9.148326969836035882e-01 3.644399078249704882e-01 -1.739674972925502883e-01
-3.619998351916271090e-02 8.869599779657744154e-02 -6.349561460485497744e-01 9.143273151994323333e-01 4.045667308820095065e-01 -1.820222359059245343e-02
2.893055786130405149e-02 -9.141303133930774039e-02 -7.401089524229190753e-01 9.019203601939580484e-01 4.201612132436098324e-01 -1.000210915420303298e-01
-5.733433965746273335e-03 8.643195278831262984e-03 -7.018170250345333594e-01 9.239429369154587013e-01 3.669091094524502550e-01 -1.081996059366512053e-01
-6.658678211018888293e-02 1.473391987211123966e-01 -6.017751408370041188e-01 8.393958766160798390e-01 5.208731735662885942e-01 1.552601023408990422e-01
2.984612282912589218e-02 -9.626925989086518309e-02 -7.522527130610580093e-01 9.019203601939580484e-01 4.201612132436098324e-01 -1.000210915420303298e-01
-4.583900914489704576e-02 1.100500383908440405e-01 -6.249417512201096425e-01 9.049279217093135763e-01 4.255330919216600005e-01 -5.200402912755428333e-03
-1.193377650064922531e-02 -5.006791339928612361e-02 -8.257668594451624822e-01 8.353908603821007528e-01 4.842640159069104833e-01 -2.600201401579600446e-01
-3.535352448787497381e-02 6.007512127799840423e-02 -7.051299260757495357e-01 8.227862022416421173e-01 5.031816146396673739e-01 -2.642558004839121177e-01
2.574086580878540836e-02 -9.719679239506952284e-02 -7.916252932762014582e-01 8.076174130741475832e-01 5.304611783246636625e-01 -2.576141540945122155e-01
1.381862770567226541e-02 -5.464681062354615620e-02 -7.396940627680866909e-01 9.301519246530078888e-01 3.539582657291469037e-01 -9.762654959753645778e-02
-6.395671921941337157e-02 1.453363870750482845e-01 -6.132799538847423237e-01 5.867588525265967636e-01 7.468385041227192378e-01 -3.129637323100087354e-01
2.979106476121026401e-02 -8.851950086585856636e-02 -7.244102049817590094e-01 8.987263074935156748e-01 4.197534630976738068e-01 -1.268781085789859320e-01
3.019723355379121815e-02 -1.245989304425949851e-01 -8.637657023340139517e-01 8.356074184248398762e-01 5.457254977753078773e-01 6.280066362123032375e-02
-9.950958360094717264e-03 3.288329032464572255e-02 -6.501084664373769639e-01 8.827229557086989642e-01 4.599887935405050365e-01 -9.597131489174016983e-02
4.454372409002531341e-02 -1.295272113033167916e-01 -7.765231806867526343e-01 8.764635790750844313e-01 4.738218846773878945e-01 -8.546587714206094200e-02
1.722548858160610893e-03 -9.791370914140012580e-03 -7.011858258286374213e-01 9.182417177248034523e-01 3.701356287195778916e-01 -1.408252966698998743e-01
6.217214679421162460e-02 -1.674625103190008624e-01 -8.145971325593738266e-01 8.752280307620043942e-01 4.801936574492560172e-01 -5.822323860771293214e-02
-9.430524009928980406e-03 -6.478520950739916073e-02 -8.483566812101887011e-01 8.148631482875041687e-01 5.475938195850885704e-01 -1.901027572529936649e-01
3.623807521786776009e-02 -1.151396959718075652e-01 -7.962206811036830478e-01 9.265892188195752333e-01 3.714929065555693799e-01 5.852725814716183000e-02
-4.624312080111966233e-02 1.109697176339937141e-01 -6.305519773696700581e-01 9.059701467187580848e-01 4.232431117197265058e-01 9.130259371733704526e-03
5.594834579368303251e-02 -1.613025475177976564e-01 -8.436963278537971123e-01 7.406069454449284439e-01 6.122018165179891058e-01 -2.769662221477694475e-01
-2.862259022566647840e-02 7.068897201815149689e-02 -6.625546321345346934e-01 9.302414407697331411e-01 3.664441949563483902e-01 1.922274323412438701e-02
-6.357539665503905701e-02 1.252004029373302296e-01 -6.578397047330380998e-01 7.907854741469328985e-01 5.553040817786010219e-01 -2.574795344065914926e-01
5.395923364080747880e-02 -1.625852853384692764e-01 -8.532207187563756179e-01 8.033799074017914377e-01 5.620954367100445825e-01 -1.965437468169194124e-01
3.356524264907500416e-02 -6.405029831243441718e-02 -6.478788951258528384e-01 9.129268328814875710e-01 3.483904198073518033e-01 -2.125763702565120483e-01
-4.728376373166481850e-02 1.131275563691016006e-01 -6.211199619811800243e-01 8.998947996164379237e-01 4.360377407522861848e-01 -7.774204971143033015e-03
3.363604608042906896e-02 -1.267440594113175834e-01 -8.330916516072274236e-01 8.195008989012115830e-01 5.441125858333328846e-01 -1.798882170623472554e-01
4.996888390250112805e-02 -1.435098452638391697e-01 -8.052983101531493437e-01 8.854207710749503191e-01 4.631855866968809243e-01 -3.858977099318836729e-02
-3.448335202342954486e-02 1.506643861434370756e-02 -7.843982346665052674e-01 8.678008008667226214e-01 4.548490711077392556e-01 -2.000852131655455057e-01
1.794683185437638898e-02 -1.067473659076895454e-01 -8.531182329599068526e-01 8.323070229032514256e-01 5.501468172828610781e-01 -6.784909033631005004e-02
4.347875321470882209e-02 -1.451198423847999408e-01 -8.458974814450203050e-01 8.184815307856533328e-01 5.536295607742387492e-01 -1.535652734171929490e-01
-1.388233469206681149e-02 3.836480438788449077e-02 -6.613561442355277986e-01 8.928806776457243188e-01 4.386662402075625078e-01 -1.016662440983904653e-01
-2.474349497180497806e-02 -1.783754353625487208e-03 -7.812018147764888676e-01 8.557847705922875248e-01 4.653888949631332927e-01 -2.259327396976798519e-01
-7.236648393349538744e-02 1.531677285541036548e-01 -5.909363662002624640e-01 8.184716331516400656e-01 5.409810748903571831e-01 1.935036494140640884e-01
-7.116772316949285769e-03 3.179877828906628456e-02 -6.316927197426761564e-01 8.613475698563284322e-01 4.919919376681478052e-01 -1.265871129781349635e-01
4.305017342931419244e-02 -1.297152269022706084e-01 -8.017835670441778584e-01 9.021886786142397918e-01 4.312956029128704460e-01 -6.300086373680429362e-03
-3.963287233282206806e-02 6.766458689550972072e-02 -7.039845683363957773e-01 8.283904881203415504e-01 5.097699397980043345e-01 -2.321719355780998140e-01
4.785850154813842822e-02 -1.123377447394866696e-01 -6.977621844724561928e-01 8.331552250557504591e-01 5.205086714662708891e-01 -1.868772160824324069e-01
-4.005228704548269986e-02 2.124680986716397102e-02 -7.947218868969522232e-01 8.715154153754058886e-01 4.486069375162901607e-01 -1.980219593259524014e-01
3.872586854229758541e-02 -1.206646376054720804e-01 -7.981417262560498438e-01 9.130068653331141482e-01 4.066640841444066345e-01 3.229220527607069846e-02
-6.180678092037085632e-03 3.676389542714988967e-02 -6.067541334016246513e-01 8.489855624637310250e-01 5.103963317057166327e-01 -1.368177594813282383e-01
2.041886430078755990e-02 -1.106752956877612437e-01 -8.578867474767375434e-01 8.231713417150028356e-01 5.661656995713078011e-01 -4.295745346332548176e-02
-9.032676331175602466e-03 -4.457322190041941579e-02 -8.065782146512803230e-01 8.446228701158392527e-01 4.679313748092411851e-01 -2.601008184270389711e-01
2.245703752365355715e-02 -2.986917260913371161e-02 -6.394176120799475171e-01 8.952168474915757068e-01 3.926913916484498501e-01 -2.106662452611929581e-01
2.400608916729332284e-02 -4.805235963602363242e-02 -6.627526463225905662e-01 9.157613585826215319e-01 3.492441031481193781e-01 -1.985187410376596795e-01
1.882494069132270229e-02 -3.329741209914450356e-02 -6.602628117269391250e-01 9.105383157891874246e-01 3.527710606706449536e-01 -2.155749387871840617e-01
5.722825175755388849e-02 -1.500851653891235871e-01 -7.734833792753347259e-01 8.365212750567351252e-01 5.286875665352747111e-01 -1.439500377508249052e-01
-6.563324896501891714e-02 1.455869095005342118e-01 -6.006892771043020884e-01 8.084300094042465856e-01 5.748305660750804291e-01 1.265335536545644513e-01
6.801173000978585903e-02 -1.677811930882485980e-01 -7.787559981613990656e-01 8.190769842307835669e-01 5.449205995154392523e-01 -1.793723337840565091e-01
-8.591529359083010381e-03 2.723532614796977600e-02 -6.621743443066800960e-01 8.993945369044434868e-01 4.221132310378652441e-01 -1.136216844146196725e-01
1.771077366063839031e-02 -8.215481730173138097e-02 -7.875440694984504608e-01 8.346053996387776674e-01 4.966020253038953003e-01 -2.383699967652508633e-01
4.100623182491685420e-02 -1.109260839433805768e-01 -7.271310449192395220e-01 8.630219289488758605e-01 4.788671514646846150e-01 -1.608707599331224425e-01
1.601093699404081486e-02 -8.462027389677584041e-03 -6.248580956421263544e-01 8.758690716727404180e-01 4.414584901009196427e-01 -1.948532032196241270e-01
7.259881027901664285e-02 -1.872134110626522407e-01 -8.322877523944416378e-01 8.199049299408520675e-01 5.719953440146792190e-01 -2.402565887162128738e-02
2.693335526989724948e-02 -9.570519526182569292e-02 -7.850618562773000741e-01 7.856710971941204269e-01 5.485896135274225260e-01 -2.859551764938348950e-01
-2.473554580894019375e-02 -2.650936315500062798e-02 -8.255066024523189938e-01 8.525617640242365569e-01 4.405299458565249959e-01 -2.811970933838564002e-01
8.268674822057757098e-03 -5.746418685032261831e-02 -7.717100523939429690e-01 8.456015825573902633e-01 4.721703683629044357e-01 -2.490243096897895581e-01
6.198719619828295781e-04 -1.367595810122251669e-02 -7.209462500464978163e-01 9.393500884162533371e-01 3.332618157502075240e-01 -8.098131608742879795e-02
2.582751660879343755e-02 -1.086519594952887191e-01 -8.165150717875974129e-01 8.209651980400107796e-01 5.231708732587524446e-01 -2.287102555216978250e-01
2.765138600279676544e-03 -7.884139970177798939e-02 -8.349419777056938941e-01 8.357370842147487933e-01 5.140622334573750063e-01 -1.930894771888030659e-01
6.377491775146539033e-02 -1.705362205715718338e-01 -8.152121401295481240e-01 8.903342626907593260e-01 4.524828400265566430e-01 -5.063773455046815392e-02
6.275703371271079689e-02 -1.748438184220494906e-01 -8.586472532795444979e-01 6.653741867050546599e-01 7.321039741191607275e-01 -1.459484934677928170e-01
-1.121413055711983908e-02 2.759841392129375182e-02 -6.821976751081105794e-01 9.126661066620689322e-01 3.943039676197329091e-01 -1.075404987418117492e-01
3.412839856184950171e-02 -7.433556488834049125e-02 -6.650784390538618807e-01 8.944362763665293370e-01 4.091962719255011205e-01 -1.803944526914546820e-01
-8.988942293172775752e-03 -2.778171188074526204e-02 -7.752466439908428653e-01 8.516746227128424440e-01 4.633145903523955833e-01 -2.449284127934716893e-01
5.822513627108517886e-02 -1.630623076991309095e-01 -8.420135082124433623e-01 7.069002664746342202e-01 6.339123738421074128e-01 -3.137628332800996289e-01
-2.818800635294706203e-02 -1.699058172295212291e-02 -8.213128057402186988e-01 8.644023983217836715e-01 4.220336383106442768e-01 -2.733058760982443047e-01
-1.179570979607907390e-02 3.289350487727935035e-02 -6.666820080114924663e-01 9.041949873586641040e-01 4.154831825494793018e-01 -9.902095664061040525e-02
7.090940729655267893e-02 -1.846885542863616614e-01 -8.290299616524376969e-01 8.119387245897209393e-01 5.832164415243377142e-01 -2.478083629149713946e-02
3.619167786921351909e-02 -1.125809814146404297e-01 -7.701556480189416520e-01 8.929269273407172136e-01 4.449007914066073210e-01 -6.888242327067402304e-02
4.196187990193961381e-02 -9.835774311591641283e-02 -6.864369304338161504e-01 8.684594614216682995e-01 4.693768251162819816e-01 -1.595730550905924972e-01
-6.121544439500928997e-02 1.124514015333004657e-01 -6.784380474770016489e-01 7.989061322208741434e-01 5.504389772849220819e-01 -2.424168397315094037e-01
1.281048390157054490e-02 -9.452044178498532345e-02 -8.335736076503510450e-01 8.326975780887685419e-01 5.208563786409726726e-01 -1.879451416613667492e-01
2.378022646379552435e-02 -5.901039611946665847e-02 -6.844798960099430785e-01 9.165582504203882985e-01 3.592613373507729801e-01 -1.756481285731532338e-01
3.335575746970448341e-02 -6.856447851374820879e-02 -6.570819808673703522e-01 9.071359150278864858e-01 3.711287231340047454e-01 -1.984134635841087735e-01
1.626329795429733854e-02 -4.831321636628295446e-02 -7.031241218754263889e-01 9.237656114442660549e-01 3.524267083035582671e-01 -1.498416176745303030e-01
-2.602120742978904569e-02 6.516579718334575277e-02 -6.487161755400280283e-01 9.094575267536166852e-01 4.156815407166136178e-01 -9.791002944391197227e-03
-3.510770245304268428e-02 3.202499566944807391e-02 -7.521251623827891475e-01 8.644955931046779396e-01 4.330221060696620716e-01 -2.552238726247716416e-01
6.098511972048335783e-02 -1.562015835771561334e-01 -7.750672271438387995e-01 8.175142151686949354e-01 5.495802186920424326e-01 -1.721397432887596113e-01
1.488117902507873729e-02 -4.980778485618458234e-02 -7.161404467542543673e-01 9.228656567209153616e-01 3.593593912978932936e-01 -1.384911821419741451e-01
-3.997246170346201166e-02 1.551347931277974324e-02 -8.069227497858408871e-01 8.780964426672218659e-01 4.291477900874062779e-01 -2.116100461657384746e-01
4.452784263227648615e-02 -1.177402169492285933e-01 -7.303889995889992770e-01 8.275269580222068821e-01 5.325614386393676680e-01 -1.777004440649482542e-01
1.077886759469042117e-02 -8.532018540432838305e-02 -8.189584684470134768e-01 8.351074764111879878e-01 5.008438925301534894e-01 -2.274882374044457090e-01
4.117520211032838634e-02 -8.802076499825454980e-02 -6.617552584720743925e-01 8.826250875419482389e-01 4.398793444865674584e-01 -1.657682633547095108e-01
5.917683426605137298e-02 -1.610430003461833792e-01 -8.366297295830592562e-01 5.596240339136040465e-01 6.920630577281005058e-01 -4.559272582268988350e-01
2.835803209154158858e-02 -5.532199973187403030e-02 -6.558761641640908913e-01 9.118007271756100041e-01 3.497156845719650575e-01 -2.152170390243092202e-01
-7.315672986360079177e-02 1.554536481396949776e-01 -6.053282846873819789e-01 5.465340282971359320e-01 7.920921887061386224e-01 -2.718281083773795848e-01
-5.991574981104542952e-02 1.041011566032607333e-01 -6.937356640889867920e-01 8.380452120425737617e-01 5.074354517476494797e-01 -2.004731525221687127e-01
-3.650389918600239342e-02 2.336895331420455260e-02 -7.745507364502051129e-01 8.645605537945749708e-01 4.566088818933154991e-01 -2.098651419329906620e-01
-7.096913494858196614e-02 1.494616875299815684e-01 -5.857432418035084520e-01 7.590548314822417320e-01 6.135703548047788392e-01 2.176400296549409197e-01
-1.652568198637746968e-02 4.386903637427632535e-02 -6.611904966425919961e-01 8.972677022238402245e-01 4.367361107142415100e-01 -6.459287998028874489e-02
1.408196071157649838e-02 -1.418215956635817537e-02 -6.457269376030956298e-01 8.896761260661919524e-01 4.143042557639439183e-01 -1.919072024800994591e-01
-7.036129820645369015e-02 1.522834726567804109e-01 -5.968817255839715674e-01 8.651143450616605168e-01 4.575436930190904805e-01 2.055016762632037308e-01
-6.663762580117603418e-02 1.343498544777591008e-01 -6.471173250526143228e-01 7.740757907526008008e-01 5.744378123521681756e-01 -2.661350595295389199e-01
3.787775937976781485e-03 -8.575283388790927441e-02 -8.530104811714488422e-01 8.318441889540540979e-01 5.424765862754127310e-01 -1.172791483868579898e-01
-2.796265222712584694e-02 5.356927144954519437e-02 -6.948485358771419040e-01 8.147028505362211570e-01 5.041603632400118995e-01 -2.864988542138609540e-01
6.420362328161982601e-02 -1.712112200564049613e-01 -8.142480354837039469e-01 8.667961793801265413e-01 4.917625711988430903e-01 -8.266775054347519358e-02
-4.815666729424998571e-02 8.271164179828013885e-02 -7.004172139919139228e-01 8.267752856181665999e-01 5.246620807977980805e-01 -2.029096549302771557e-01
-1.155777309841999126e-02 3.690092230207536045e-02 -6.454862742158297140e-01 8.813573522447605280e-01 4.630692148886078607e-01 -9.368094719073687127e-02
6.551513204981781677e-03 -7.539300659807855742e-02 -8.130856696649011450e-01 8.400154366498038261e-01 4.874257568745515856e-01 -2.383069401534712584e-01
-4.446283334472932169e-02 1.076918949494707761e-01 -6.110077607597220739e-01 8.993691803309449284e-01 4.365672715222219669e-01 -2.332584203168412695e-02
6.312177662150918189e-02 -1.692192169362081444e-01 -8.148103933153972855e-01 8.752280307620043942e-01 4.801936574492560172e-01 -5.822323860771293214e-02
4.179238959683948679e-03 -5.685843469639652314e-02 -7.847739327027334344e-01 8.482566597711610479e-01 4.701308927464719623e-01 -2.437982420758571800e-01
1.658038612523723282e-02 -7.157351147013454873e-02 -7.705576775297654502e-01 8.340150669320892662e-01 4.814083113360030364e-01 -2.695642890052035723e-01
-2.757483532559065753e-02 7.350818043248136258e-03 -7.729651948902132030e-01 8.549860704215080931e-01 4.688554829413028591e-01 -2.217506606553087956e-01
-4.126435257776629034e-02 1.003071824649409000e-01 -6.257801599219905420e-01 9.089272891647669494e-01 4.162635676346915226e-01 -2.399635954946331348e-02
7.039731531772763784e-02 -1.806544272871316581e-01 -8.101936975077463909e-01 8.295354186766529248e-01 5.459582554905886287e-01 -1.174758376119267311e-01
1.437894209135580359e-02 -5.552247832381929094e-02 -7.375304332576575472e-01 9.301519246530078888e-01 3.539582657291469037e-01 -9.762654959753645778e-02
-9.606378186035867753e-03 3.441057635803390635e-02 -6.395261318774962955e-01 8.714575357841607417e-01 4.788878276161013803e-01 -1.059632572457529787e-01
-4.466958799132803026e-02 9.123717611472458022e-02 -6.714704661970493094e-01 7.842713754925283443e-01 5.487299603924981062e-01 -2.895062005393068683e-01
5.546828309116062783e-02 -1.340830091902864563e-01 -7.306813306114928741e-01 8.024061053285316270e-01 5.699360055945769110e-01 -1.769672050364025084e-01
-4.532890520743168561e-02 1.096793261696067806e-01 -6.064346835241417599e-01 8.980629902320974578e-01 4.395932436984735792e-01 -1.551275829883397642e-02
-8.730753250210854591e-03 3.357920446288944344e-02 -6.362373371633474051e-01 8.659774215098113848e-01 4.878906120820665770e-01 -1.097536153272643533e-01
-5.312738003396486747e-02 1.030443044379078243e-01 -6.724542792170561389e-01 7.919678215209663419e-01 5.443807064705574739e-01 -2.764717274839357808e-01
-3.771548017664625579e-02 2.002419240386777224e-02 -7.872483726618538791e-01 8.709601790176063618e-01 4.492118566600827867e-01 -1.990906185675770657e-01
4.895877062052306911e-02 -1.381733902138237158e-01 -7.804194582681809322e-01 8.573119617118954983e-01 5.032056706639851384e-01 -1.086289708931755804e-01
-2.214976099802759557e-02 5.811701742241060648e-02 -6.382854368951602630e-01 8.936411153580455791e-01 4.456053493055730508e-01 -5.330506178484953339e-02
-5.346665420696485038e-02 7.327249275653249794e-02 -7.477230118372448775e-01 8.831483972542292227e-01 4.193690413842408038e-01 -2.101868586656863991e-01
-4.198737202014086317e-02 6.375630172922680527e-02 -7.208261718896268322e-01 8.509817317280672366e-01 4.786549322366951964e-01 -2.161470520515723082e-01
-8.655833839515885558e-03 3.997198665896033176e-02 -6.101663136554811295e-01 8.548688251741334287e-01 5.023507680841509115e-01 -1.297805746275639827e-01
2.885764908522428160e-02 -7.336072632604934141e-02 -6.898251793652012687e-01 8.941204514735846542e-01 4.176405762261284904e-01 -1.616321977397474630e-01
3.303278918132224184e-02 -6.276879348289615690e-02 -6.480653083776009016e-01 9.129268328814875710e-01 3.483904198073518033e-01 -2.125763702565120483e-01
2.182381452733111321e-02 -1.125972676893002566e-01 -8.553164993108557379e-01 8.293780097035611254e-01 5.586751223181156689e-01 -3.771567710950732722e-03
-1.585655414223380646e-02 -3.409556913352837504e-02 -8.101903424317987712e-01 8.506977073885405582e-01 4.513265592819106775e-01 -2.694768033256918494e-01
-3.901905026471950283e-02 2.741687269961154763e-02 -7.762423957012219988e-01 8.711921144081155033e-01 4.492899703268839473e-01 -1.978959887334376389e-01
1.789132291375214109e-02 -6.930507209083104636e-02 -7.601469262069373567e-01 9.377220643459933669e-01 3.461539236219230986e-01 -2.923681240896186181e-02
3.123537657646172777e-02 -6.647172538294925104e-02 -6.629529298414115202e-01 9.087880406409832856e-01 3.690482744237154611e-01 -1.946989171330979207e-01
-4.976113532432649422e-02 1.187645056521608039e-01 -6.085304734710319519e-01 9.018237289858465067e-01 4.315650572628926818e-01 -2.157691330423908843e-02
8.258944241304527409e-03 -2.089223844149341869e-02 -6.881661279548679788e-01 9.215288643667557400e-01 3.554294974095145720e-01 -1.563791050944394745e-01
-6.944148057502552707e-02 1.541042376880076281e-01 -6.024897898264591767e-01 8.805055557162273505e-01 1.557581227093808030e-01 4.477157285185626168e-01
2.957371657334465637e-02 -9.792937012626506954e-02 -7.645663535084560314e-01 9.013941757909718078e-01 4.260470525977441136e-01 -7.728162021392884218e-02
1.153567596235765581e-02 2.004079584399824730e-03 -6.204355090164584974e-01 8.672025203041627828e-01 4.650370628740088663e-01 -1.780458337946256853e-01
-8.940758523284422776e-03 3.579553388827426408e-02 -6.285520572808764861e-01 8.602217712558166696e-01 4.944264270166485731e-01 -1.247437875208873836e-01
-4.885294116490285915e-02 1.100768372295885394e-01 -6.479852360687786694e-01 7.601006285951691366e-01 5.711305984650549838e-01 -3.099304339786221885e-01
-5.309453146967482717e-02 1.084031275713051717e-01 -6.620001445757155434e-01 7.869264914089212359e-01 5.455295276122481551e-01 -2.883474148002764803e-01
-1.432683636599551072e-02 -3.530490742993496606e-02 -8.073866839960879283e-01 8.506977073885405582e-01 4.513265592819106775e-01 -2.694768033256918494e-01
1.971441705643773787e-02 -1.080036567393887620e-01 -8.439611070435345530e-01 8.432613585688468749e-01 5.260799773772621979e-01 -1.102276668870491722e-01
-2.513007354636256213e-02 6.268461237705789946e-02 -6.574210493270573608e-01 9.047184838972379683e-01 4.253065335936866975e-01 -2.447074533408260394e-02
-1.100894357626362209e-02 3.501831921635069345e-02 -6.496064255201389193e-01 8.827229557086989642e-01 4.599887935405050365e-01 -9.597131489174016983e-02
-8.294506004135707503e-03 2.531062473885963698e-02 -6.669736108429874522e-01 8.993945369044434868e-01 4.221132310378652441e-01 -1.136216844146196725e-01
-1.949355704626209648e-02 -3.091641659509025350e-02 -8.163059967026774499e-01 8.494833263466888829e-01 4.521715452387440881e-01 -2.718804368382755077e-01
4.630829064770219244e-02 -1.332627520782915798e-01 -7.795310961035326613e-01 8.729631892493223688e-01 4.812105436282329562e-01 -7.982282202899385060e-02
2.458758638545394462e-02 -5.019282371063080173e-02 -6.638358275498046357e-01 9.157613585826215319e-01 3.492441031481193781e-01 -1.985187410376596795e-01
5.931140607703808826e-02 -1.410284288358256977e-01 -7.355561098695909683e-01 7.966112139527221636e-01 5.756596053642870636e-01 -1.844629842450892510e-01
6.029968394381424353e-03 -1.278968214077177978e-02 -6.823385727168481685e-01 9.168841481395511028e-01 3.670043449325131601e-01 -1.569435238901776830e-01
-6.664541806549267866e-02 1.332175181639295436e-01 -6.495840748272827536e-01 7.740757907526008008e-01 5.744378123521681756e-01 -2.661350595295389199e-01
3.571731997374223005e-02 -7.991918434271309823e-02 -6.698657664943830081e-01 8.944362763665293370e-01 4.091962719255011205e-01 -1.803944526914546820e-01
2.281291728486120260e-02 -9.298772666772556206e-02 -7.925107503201297421e-01 8.210759301688531631e-01 5.201046947588350289e-01 -2.352135697343414877e-01
-5.840823935661126898e-02 9.279098871174137897e-02 -7.193247400216825627e-01 8.496539504624669448e-01 5.019567854381600247e-01 -1.616401868846762402e-01
3.883112407529688836e-02 -1.169315549261291109e-01 -7.659572734088995194e-01 8.822012770129782355e-01 4.618268591532818657e-01 -9.185237613303928739e-02
2.368570855467841407e-02 -5.469017076330286858e-02 -6.763164298840455002e-01 9.115535401805965332e-01 3.659217507708630301e-01 -1.875404374981782807e-01
8.168604900038586511e-03 -1.211696891169068875e-02 -6.692852467381085191e-01 9.058021494284524966e-01 3.877955678536856299e-01 -1.706958219870460536e-01
1.006193358288472693e-02 -4.289249997799842590e-02 -7.332082907881039002e-01 9.306724112972836194e-01 3.499825765333582361e-01 -1.065882684593948554e-01
1.425252780317743696e-02 -4.891599015219001700e-02 -7.181187432322317932e-01 9.267423911622090227e-01 3.532234783054376548e-01 -1.279910731135555368e-01
-1.864426668659167549e-02 2.341228484869098403e-02 -7.175001127355858932e-01 8.226717040777645762e-01 4.731774664182782364e-01 -3.151417975828759155e-01
-3.354192398373544528e-04 -1.113374680358471952e-02 -7.215631589399290613e-01 9.369627334392472973e-01 3.392290472919116118e-01 -8.381222834095437835e-02
-2.658938041366912253e-02 -1.773993831360267531e-02 -8.173882130677762037e-01 8.620739732559237201e-01 4.299514506793256641e-01 -2.682726499169991174e-01
-2.364238339807942652e-02 5.235366148462398256e-02 -6.855782019474823130e-01 7.961442205614425172e-01 5.124873973717087861e-01 -3.217313282877274916e-01
-4.214126841639233984e-02 7.525282070140336399e-02 -6.959328860629456770e-01 8.131106457162355916e-01 5.296178613179918226e-01 -2.415698631780942573e-01
6.457698670588264689e-02 -1.492639766253352762e-01 -7.390702135054296740e-01 7.861957032599417028e-01 5.866514144692309696e-01 -1.942586782536535328e-01
1.261897041723721025e-02 -4.365289903085783907e-02 -7.154219889495148088e-01 9.267423911622090227e-01 3.532234783054376548e-01 -1.279910731135555368e-01
3.779637556484507360e-02 -1.093062953021704392e-01 -7.406334575643657159e-01 8.719377909241763369e-01 4.749395960465941369e-01 -1.189826410253434219e-01
3.780448897388342944e-02 -1.324881474901644096e-01 -8.321804694520060774e-01 8.000273205060746129e-01 5.633454449079441373e-01 -2.063933045070533712e-01
-2.361695615029621442e-02 3.392330744129060105e-02 -7.147619582277279227e-01 8.253608827074063736e-01 4.719179315345351511e-01 -3.099562536756061970e-01
2.810525386296920669e-02 -9.157390833833263522e-02 -7.482267677958875929e-01 9.019203601939580484e-01 4.201612132436098324e-01 -1.000210915420303298e-01
4.549260652786383391e-02 -1.491551016901977444e-01 -8.695976742058941777e-01 8.842019677860470939e-01 4.662791859000792183e-01 2.775970028011329888e-02
-4.158985946538329426e-02 5.222422172860340106e-02 -7.404964622307815825e-01 8.781609225485328407e-01 4.146370683391085166e-01 -2.385571119624383951e-01
1.106511123382336072e-02 -4.577091514140412681e-02 -7.339003499886987969e-01 9.306724112972836194e-01 3.499825765333582361e-01 -1.065882684593948554e-01
4.215320730163692881e-02 -1.112366364569600946e-01 -7.222366406315542386e-01 8.425608712935779288e-01 5.075222200762935509e-01 -1.803118806230959159e-01
3.338453524301373404e-02 -1.257393988832637699e-01 -8.312214620251981989e-01 8.043772422933257449e-01 5.545499994884914852e-01 -2.131936916231300660e-01
6.858655249268028053e-02 -1.745626702907056016e-01 -7.976835079287434294e-01 8.341250648773915755e-01 5.308772043573325439e-01 -1.496822301979447711e-01
6.447461990015355970e-02 -1.703084188029223844e-01 -8.071753230953271352e-01 8.635594539942472725e-01 4.927514955373612504e-01 -1.070562144989789521e-01
9.244743471010011954e-03 -9.009859583014476203e-02 -8.372118674576674024e-01 8.357123642250023909e-01 5.285014403818898421e-01 -1.492349550062751218e-01
-4.195036905535777516e-02 8.493490030810817160e-02 -6.757787073248584520e-01 7.794324497866473855e-01 5.474450760500807478e-01 -3.046127786684377226e-01
3.341470062650374329e-02 -1.166044816774573917e-01 -8.089029604889595992e-01 7.924106966536965668e-01 5.581025127971611655e-01 -2.461846320108102837e-01
-7.212173318640467679e-02 1.532729114187444952e-01 -5.922505479005406581e-01 8.239673695299153389e-01 5.258085747705633084e-01 2.111944995678174120e-01
2.506659263611659208e-02 -8.774503378376757867e-02 -7.642484189136317108e-01 9.169613800783282809e-01 3.933381433979539210e-01 -6.683511347411894010e-02
-1.821874861053516745e-02 -1.853597866295799215e-02 -7.901512990410586301e-01 8.581341491279098621e-01 4.522504235352926005e-01 -2.430541843142528524e-01
1.295972533943017023e-03 2.409249195149415837e-02 -6.076728106413598063e-01 8.475958672945314021e-01 5.113185927242610562e-01 -1.418962384269317756e-01
-1.915059916052560401e-02 -1.857326199889977603e-02 -7.934895936682455631e-01 8.540844376235671165e-01 4.555493212973280026e-01 -2.510270688088820368e-01
-1.186314368832551772e-02 -3.750558608641595126e-02 -8.031343210595492943e-01 8.493754065060945546e-01 4.597862772113759933e-01 -2.591486023707444408e-01
-1.125628351803944745e-03 -7.064128295950053427e-02 -8.304759543959846502e-01 8.311054395696140240e-01 5.018022938984995074e-01 -2.397044141354157665e-01
1.445022105721406082e-02 -4.901092887379189522e-02 -7.169493168820078033e-01 9.267423911622090227e-01 3.532234783054376548e-01 -1.279910731135555368e-01
2.406459958740677155e-02 -8.328470477771580949e-02 -7.519413270135724137e-01 9.176415893486333797e-01 3.860063105215569834e-01 -9.451476993174015573e-02
2.665313172679498622e-03 -7.569240088040227188e-02 -8.276135324431752593e-01 8.326628096491666131e-01 5.075762830777484913e-01 -2.214474255531847513e-01
1.245519069761397883e-03 1.922764747660585943e-02 -6.244244881262147606e-01 8.598620543282295969e-01 4.869096141092695840e-01 -1.534805369237378370e-01
6.659503201696810593e-02 -1.772208506956126639e-01 -8.303371184758384649e-01 8.838927300284123989e-01 4.676233438807501641e-01 -7.877186090599031312e-03
-3.610107848048372398e-02 3.634784349169171980e-02 -7.481507154164439566e-01 8.646820022033180342e-01 4.332985018322005888e-01 -2.541209227427599915e-01
-6.286377577978294329e-02 1.172701261989332333e-01 -6.729007367541429696e-01 8.035935536161826764e-01 5.477594675875643304e-01 -2.328024189193562410e-01
-7.394870309185910817e-03 1.412420916548615124e-02 -6.973875786030606649e-01 9.214808961265841258e-01 3.745372972035447279e-01 -1.029309043835294479e-01
3.305570523317288845e-02 -7.386306395661587643e-02 -6.693293672600905131e-01 9.013416404792592429e-01 3.952041667913538392e-01 -1.771917427221414987e-01
2.731940756388550728e-03 -9.779093151104575887e-03 -6.945718849383870630e-01 9.182417177248034523e-01 3.701356287195778916e-01 -1.408252966698998743e-01
-5.338868006420854212e-02 6.263549087792326386e-02 -7.674169984229999297e-01 8.888501468293334984e-01 4.001484708529927659e-01 -2.232187665844519997e-01
-3.350476260255090544e-02 3.157559976953245445e-02 -7.474534821678741059e-01 8.646820022033180342e-01 4.332985018322005888e-01 -2.541209227427599915e-01
2.727343081774311062e-02 -6.446791803695853251e-02 -6.781009074154771277e-01 9.046724666312957464e-01 3.907696993418218190e-01 -1.699022371705253276e-01
-3.253586441812091729e-04 5.793402103357883463e-03 -6.733402466466340552e-01 9.053028301718021309e-01 3.994484205822221301e-01 -1.444567235447823950e-01
-4.618717203762094659e-02 9.511478173946670556e-02 -6.683953688190131803e-01 7.875966311432665012e-01 5.407676282304448856e-01 -2.954012844755363187e-01
1.395477569864156386e-02 -7.692549517854009589e-02 -7.900329736053990359e-01 8.424891771394303897e-01 4.820190178463066299e-01 -2.405611207934644780e-01
-1.625460343471514047e-03 1.773028491504071227e-02 -6.465236620746510621e-01 8.800881906234769847e-01 4.506907985934898719e-01 -1.494074321720885168e-01
-2.140018943584772945e-02 -1.042372940545125207e-02 -7.860323009826475360e-01 8.596707210314848968e-01 4.541969163319177216e-01 -2.338191878263712886e-01
2.646151659553552631e-03 -8.327718488475388536e-02 -8.496567042768962130e-01 8.318441889540540979e-01 5.424765862754127310e-01 -1.172791483868579898e-01
7.940179122821229216e-03 5.606153571236767962e-03 -6.287482116679622424e-01 8.690053660163834515e-01 4.637689359463401106e-01 -1.724762241177921762e-01
-3.533220082491931452e-02 1.165973810412991411e-02 -7.956799386536066443e-01 8.727784414375137079e-01 4.405703231776664230e-01 -2.101322976056541336e-01
-5.238593888004283716e-02 8.234536341583528762e-02 -7.200019197990951136e-01 8.507003897808729231e-01 4.927562039052975074e-01 -1.830305175087257041e-01
-2.365247384337221606e-02 4.071978800606999849e-02 -7.042733523141562202e-01 8.235744701853567884e-01 4.775209898098650152e-01 -3.061025912172517516e-01
-4.012697470653320275e-02 8.501938623577438847e-02 -6.709815359942301605e-01 7.749827539534239751e-01 5.466634390398226184e-01 -3.171132534157490857e-01
-2.051935195430500472e-02 2.168013721573999047e-02 -7.249862315349101527e-01 8.222592327335197515e-01 4.728738617616081719e-01 -3.166702781240243181e-01
-8.845012998644865773e-03 2.526033709048755224e-02 -6.716727270167254238e-01 9.037028298515742408e-01 4.131015294269570481e-01 -1.125536392275517938e-01
9.090965085611435806e-04 -2.279068454105942845e-02 -7.363668812582496725e-01 8.276130503001818406e-01 4.662645596951890958e-01 -3.124963989313803703e-01
1.325316819356589342e-02 -8.432989961959713385e-03 -6.372967847255048834e-01 8.859961948701932100e-01 4.157906507450119804e-01 -2.052532032114925131e-01
5.284833294944182164e-02 -1.486284417311101169e-01 -8.017732675970627998e-01 8.770428910127220368e-01 4.759577116617450532e-01 -6.526885960212658322e-02
-2.193450504456762821e-03 -4.039773681735245314e-02 -7.755764412448642453e-01 8.495852492846251991e-01 4.659290028706421505e-01 -2.472146202835715512e-01
2.228424763538363468e-02 -5.809629674765369456e-02 -6.906134340942543526e-01 9.115020619693193771e-01 3.774045005855836687e-01 -1.634926113419980509e-01
2.209251184227160186e-02 -5.024531924644120434e-02 -6.754320397953265109e-01 9.116572921939954943e-01 3.586836557456462571e-01 -2.005667387441167626e-01
-2.765796838836495977e-02 -4.049015393475846082e-03 -7.971167207256747433e-01 8.714010936694583931e-01 4.366892008061789565e-01 -2.235233228344030987e-01
2.821735610834124816e-02 -1.215964294943909230e-01 -8.648189103820190793e-01 8.187683989932723616e-01 5.735629063220145651e-01 2.537521037228316484e-02
-3.099686970326910943e-02 1.867442503932442363e-02 -7.625362674535847152e-01 8.541234317252635044e-01 4.669977132772100692e-01 -2.288805347156369630e-01
-1.635088638904235933e-02 -2.380852655768679604e-02 -7.933671896153253744e-01 8.581341491279098621e-01 4.522504235352926005e-01 -2.430541843142528524e-01
4.168160368837421637e-02 -1.179104321238810815e-01 -7.465515029110643130e-01 8.665075526832881625e-01 4.868925881227315622e-01 -1.100012216930652820e-01
-7.856471366625041378e-03 1.351680847455082740e-02 -7.039434378917056589e-01 9.324743103161304836e-01 3.519872029977703654e-01 -8.121988381094503995e-02
-1.140759730327272313e-02 -4.625944769231414566e-02 -8.171922832997935426e-01 8.436879089295818979e-01 4.644206158491321901e-01 -2.692660466905222316e-01
5.408244419956433069e-02 -1.430007573510051200e-01 -7.657011033811197409e-01 8.336288069353043895e-01 5.322139390913562806e-01 -1.476866117306616377e-01
-5.342877341253474827e-02 1.197352403394166404e-01 -6.408196802128842684e-01 7.540200144481734590e-01 5.851891672422122603e-01 -2.983411744193928405e-01
3.318199208600714802e-03 -8.453573979045883244e-03 -6.878275025180825564e-01 9.135933599948166117e-01 3.743589573135117643e-01 -1.587530902140873168e-01
-5.006204090225360726e-02 1.122143649538131366e-01 -6.470097140267860869e-01 7.595377855598643979e-01 5.716949469179408716e-01 -3.102696246417147585e-01
1.451800334241377423e-02 -7.365883059320327275e-02 -7.815200668281471197e-01 8.418743024761348170e-01 4.825315570619421179e-01 -2.416835850232681437e-01
-1.162212160933510409e-02 -9.483858655601759904e-03 -7.504073433310962660e-01 8.406276357059851989e-01 4.714253561655833979e-01 -2.666520422789191436e-01
1.576857101457398297e-02 -1.037754695300849156e-01 -8.560341855718250903e-01 8.169092624764118238e-01 5.757143902172048300e-01 -3.481663075423759718e-02
-2.316926094190587329e-02 -1.364890387314945854e-03 -7.743506702146519816e-01 8.560368274651859455e-01 4.659429298853457468e-01 -2.238261292012157233e-01
3.788243958996601740e-02 -1.125161495247986587e-01 -7.528154395697307377e-01 8.719377909241763369e-01 4.749395960465941369e-01 -1.189826410253434219e-01
4.833719011604743071e-02 -1.300645590531000206e-01 -7.514636211353568074e-01 8.355741889910403009e-01 5.296104821906481019e-01 -1.460428425009409059e-01
-2.578711583030909860e-02 -4.189361744267101895e-03 -7.903207954185919037e-01 8.681695484647589112e-01 4.396755544815058592e-01 -2.301456971352645875e-01
3.244174673012029109e-02 -7.677696527715724417e-02 -6.789791687263478925e-01 8.944362763665293370e-01 4.091962719255011205e-01 -1.803944526914546820e-01
-6.541266525823660229e-03 -3.998548878297398385e-02 -7.897359947574430494e-01 8.510830711515060543e-01 4.633332075746641188e-01 -2.469411767160228643e-01
-1.906407944846595648e-02 4.788127534711140998e-02 -6.704102357659373901e-01 9.070550339773900683e-01 4.171187130267621779e-01 -5.712394050810643692e-02
2.419187277204270028e-02 -7.629725868202870409e-02 -7.254705519059572172e-01 9.168408257589288901e-01 3.807785958018089500e-01 -1.200439969381552063e-01
-3.529507346992817596e-02 7.983692410365135494e-02 -6.683225241545789341e-01 7.663052844728912572e-01 5.539814515450905974e-01 -3.253932426048765647e-01
-2.449942290340573203e-02 4.490355925672185472e-02 -6.998330189877016716e-01 8.139595997052575527e-01 4.927406300193491462e-01 -3.076953713915632771e-01
4.374163226338805693e-02 -1.422693860118363351e-01 -8.359876932424621376e-01 7.966111136339724119e-01 5.669136485050628727e-01 -2.098086003325903837e-01
-1.586040526731848175e-03 -2.690241289846110120e-02 -7.496813682388021594e-01 8.353539122867240652e-01 4.695107304786527713e-01 -2.859082286200697598e-01
8.174422427252119733e-03 4.629113598047699708e-03 -6.301951479139031864e-01 8.690053660163834515e-01 4.637689359463401106e-01 -1.724762241177921762e-01
5.018608221657201024e-02 -1.325156193768555479e-01 -7.497978091547963242e-01 8.331513658239372289e-01 5.331659857669666103e-01 -1.469450007548630810e-01
2.721570711363534290e-02 -1.017817798617740993e-01 -7.965794655130913338e-01 8.153415201938056800e-01 5.207666413438619690e-01 -2.530223521973654632e-01
7.006539451624825207e-03 -8.330685788400545022e-02 -8.287431012885567716e-01 8.326628096491666131e-01 5.075762830777484913e-01 -2.214474255531847513e-01
3.702322796155473744e-02 -1.040624212640491320e-01 -7.280674306326302414e-01 8.630219289488758605e-01 4.788671514646846150e-01 -1.608707599331224425e-01
-3.136269685757259867e-02 8.064963898614550472e-03 -7.868751720823321527e-01 8.638414971728854974e-01 4.576814258384026002e-01 -2.104889075572263513e-01
3.806462944947580640e-02 -1.102225460999034928e-01 -7.423249907363189681e-01 8.719377909241763369e-01 4.749395960465941369e-01 -1.189826410253434219e-01
-5.427086147393540144e-02 1.067031538227712351e-01 -6.685254633561239501e-01 7.919678215209663419e-01 5.443807064705574739e-01 -2.764717274839357808e-01
-3.960139761819889137e-02 3.389832645552177254e-02 -7.652253867100970997e-01 8.685208360347861367e-01 4.441220430028181010e-01 -2.200617374566493922e-01
1.200882950687467803e-02 -4.685834596439270028e-02 -7.292308800111072520e-01 9.306724112972836194e-01 3.499825765333582361e-01 -1.065882684593948554e-01
7.150958530523435219e-02 -1.815364177770689980e-01 -8.065348305222692638e-01 8.228268387231468806e-01 5.539237592173632541e-01 -1.269821343787287393e-01
-4.551701785556977464e-02 6.971465076375205072e-02 -7.215278745990425513e-01 8.509817317280672366e-01 4.786549322366951964e-01 -2.161470520515723082e-01
6.207956621868774422e-02 -1.669047480711604858e-01 -8.114694019375762180e-01 8.768993934901535559e-01 4.768038048429086850e-01 -6.087351956250321855e-02
2.791760902328464453e-02 -5.228500013968132715e-02 -6.528071305944381786e-01 9.118007271756100041e-01 3.497156845719650575e-01 -2.152170390243092202e-01
3.699517429643293942e-02 -1.165829077144871218e-01 -7.889978146087359701e-01 8.970237549622943618e-01 4.399323107699251723e-01 -4.251993619444388584e-02
2.040470464291907482e-02 -1.759171937463702845e-02 -6.251004719515250718e-01 8.849608561792304817e-01 4.143921245682236632e-01 -2.124228098071332393e-01
-4.234301879328550983e-02 4.306757285178602207e-02 -7.589183208423174731e-01 8.761785293939320374e-01 4.201728176719496943e-01 -2.361482329358005894e-01
-4.389748013282961103e-02 8.165448673916643474e-02 -6.878225756454312556e-01 7.966941656334814992e-01 5.440983353313775250e-01 -2.631262205391066145e-01
4.025912269788937264e-02 -1.003581352297707313e-01 -7.001010291666975860e-01 8.450613528289596665e-01 4.996081830601774576e-01 -1.904283943486289044e-01
3.579413012075048639e-02 -1.136698957657857056e-01 -7.841962335195096223e-01 8.970237549622943618e-01 4.399323107699251723e-01 -4.251993619444388584e-02
-3.295870009908317966e-02 8.099084028326868079e-02 -6.501428923149294992e-01 9.246145548791333546e-01 3.808425650112941541e-01 6.845844088246754756e-03
-6.201785888678884411e-03 2.976247957643459244e-02 -6.333810528425354303e-01 8.613475698563284322e-01 4.919919376681478052e-01 -1.265871129781349635e-01
3.464803354857848294e-02 -1.025118177585248036e-01 -7.378067383555176884e-01 8.829512451641909898e-01 4.525604865849515157e-01 -1.248443216369757164e-01
-7.365918557134902567e-02 1.538101320061285027e-01 -5.883872830634583329e-01 7.655714494714129792e-01 6.008511240206428905e-01 2.299527832346675016e-01
1.158197566542293680e-02 -6.888813120650566502e-02 -7.822759794930654875e-01 8.458416960272084895e-01 4.774561503014732033e-01 -2.378811673947991145e-01
5.753803510267411353e-02 -1.587888161419457322e-01 -8.167048473799783936e-01 8.979011650043439152e-01 4.401514462126050464e-01 -6.340526854653663787e-03
-2.544475976277824070e-02 -2.207222248382152349e-02 -8.207055405927122793e-01 8.525617640242365569e-01 4.405299458565249959e-01 -2.811970933838564002e-01
1.609257529372526765e-02 -4.353353524067741370e-02 -6.933447969504865638e-01 9.206030251685313193e-01 3.548837422459563684e-01 -1.629343411931754859e-01
4.254166691147447804e-02 -1.188801786448826781e-01 -7.449734785023158778e-01 8.434891409346972901e-01 5.168610669613902253e-01 -1.462214299778920312e-01
4.716961479638562271e-02 -1.429810753575327109e-01 -8.271793363278219235e-01 7.502289619513619057e-01 5.983744016397116727e-01 -2.812553645918581813e-01
2.638803996582983827e-02 -1.096692575553781662e-01 -8.168309290756633478e-01 8.131393538282184474e-01 5.406696278581631931e-01 -2.155939349043537734e-01
1.608575747964642588e-02 -3.383075435264549374e-02 -6.736491087065610284e-01 9.140257213515463608e-01 3.607155142780211765e-01 -1.855836697205016650e-01
3.674972991880839229e-02 -1.347598267687025175e-01 -8.638577053538921691e-01 8.456500612807175132e-01 5.256165814853503981e-01 9.275334561929869659e-02
-2.367340272058697861e-02 -2.286465981741030856e-02 -8.163143894007534040e-01 8.605664960768203420e-01 4.350786019063060395e-01 -2.648243115601701114e-01
1.639559256218517044e-02 -4.185616719651628209e-02 -6.879749619941475380e-01 9.205152051443358241e-01 3.552116208357218308e-01 -1.627158920368289297e-01
2.637701268470918001e-02 -5.271370021659536192e-02 -6.601441826607963304e-01 9.128892301664766062e-01 3.527615125950084307e-01 -2.054082974899985592e-01
-2.131153644223676702e-02 4.068665299439898353e-02 -6.981817451549178211e-01 8.125341211600163316e-01 4.945188413269736016e-01 -3.086088422637102147e-01
-4.419086926384239999e-02 1.016184213753780347e-01 -6.522337632419165088e-01 7.524923191093656483e-01 5.677829776527401062e-01 -3.337331268681560381e-01
2.829409866253282738e-02 -1.114427880117339481e-01 -8.141808602974327513e-01 8.044542963206806618e-01 5.467707912090696842e-01 -2.321529388394786564e-01
-1.447608955699154765e-01 1.884441509552592653e-01 -5.458223228578316100e-01 3.096897786632816230e-01 8.939499574404056181e-01 3.239532598752243864e-01
3.706460960529635307e-02 -7.552785731471990671e-02 -6.531501756434293648e-01 9.071359150278864858e-01 3.711287231340047454e-01 -1.984134635841087735e-01
8.394271692436413787e-03 -6.666798635494075587e-02 -7.891489386854542154e-01 8.455474646668873495e-01 4.776966610674070468e-01 -2.384436725947030322e-01
-4.744434797676682497e-02 1.134372641312068886e-01 -6.223451520839138329e-01 8.999914332121027316e-01 4.358500944488015727e-01 -7.079217032701602338e-03
2.555015995671577195e-03 -8.507355063209912430e-03 -6.924959686230711675e-01 9.177067123119555525e-01 3.687522658809183063e-01 -1.477706215229210307e-01
8.094770478050383397e-03 -7.311932512219554425e-02 -8.029989343484293940e-01 8.399920689292064147e-01 4.873976588137935440e-01 -2.384467368593339298e-01
-7.410885700461930514e-02 1.566545704442202647e-01 -5.934377250708062768e-01 7.636552930406097506e-01 5.829499577042633884e-01 2.774886308007201707e-01
