-2.385033954588795108e-02 -3.633086428635812909e-02 -7.480644159084148814e-01 -8.377649556440978085e-01 4.706232941436936934e-01 -2.768819136454767627e-01
6.845024512850268229e-03 -3.628082898246077354e-02 -8.296217117880075875e-01 -7.611929168354053532e-01 4.897332376585596392e-01 -4.251431515290733376e-01
3.698726295922611512e-02 6.458523876676955378e-02 -7.625030867168607340e-01 -7.479570527247918488e-01 5.591180948379359528e-01 -3.576970831640085002e-01
3.992109375669374710e-02 -1.255195362527376617e-02 -8.672805913618677476e-01 -8.032639132304641993e-01 4.674002777081438520e-01 -3.691938056089664744e-01
-6.232830729848046203e-02 -1.715461074727656354e-01 -8.877855405448725756e-01 -8.320460767424777693e-01 5.309331247571951184e-01 -1.606528655611585976e-01
2.769907542167783596e-03 4.017789078162949112e-03 -7.727732680011736299e-01 -9.038931784647070700e-01 3.829046679729362079e-01 -1.906859647942259761e-01
5.505307908161995167e-02 1.144893839352462001e-01 -7.215272069639051544e-01 -7.113131341697657151e-01 5.857294557256188527e-01 -3.885288018319302261e-01
1.358017693308369127e-02 -3.352810685042292849e-02 -8.388419995744802460e-01 -7.700046414920189708e-01 4.851485031811151316e-01 -4.143956828224334976e-01
4.141527048824217294e-02 1.049778617824444482e-01 -7.121052207283761204e-01 -6.679020818566399065e-01 6.059567010236808215e-01 -4.321148985351746519e-01
6.325733074853265303e-02 9.907860206724974916e-02 -7.631173462755711512e-01 -7.665102293717399595e-01 5.650473696966135106e-01 -3.052597881598904661e-01
3.871768037006032004e-02 3.106362530358957458e-02 -8.148723287189789666e-01 -8.097319914598721802e-01 4.597917814411265902e-01 -3.645896593783548578e-01
-8.102594841079928389e-02 -1.957213993500124538e-01 -9.198031941211123330e-01 -5.667891614949722712e-01 8.131179211616200719e-01 -1.326246308105401561e-01
4.284219767344304118e-03 2.442016666673583677e-02 -7.408828419404364096e-01 -8.805227010078410244e-01 4.120746021116827307e-01 -2.342526313712492980e-01
-3.886662758154549313e-02 -9.064191103382805703e-02 -7.924497680554074552e-01 -8.532490966641581576e-01 4.509040134193399996e-01 -2.620144074743401275e-01
1.423762163908505636e-02 6.951342800635945673e-02 -6.822445633524398811e-01 -8.259458507566079799e-01 5.070154806810989179e-01 -2.464726231605799400e-01
-4.711550969608141459e-02 -1.405830359834072119e-01 -8.674801768336874996e-01 -8.542519818357707795e-01 4.992110588817282313e-01 -1.450581615071747099e-01
-1.790366120775839162e-02 -7.856637278927318391e-03 -7.210322054664380920e-01 -8.431570734921544075e-01 4.274576998490093316e-01 -3.261381061144802973e-01
4.698252493202315777e-02 1.229779249583967393e-01 -6.946291804708784046e-01 -6.021604334722955310e-01 6.483855170179065874e-01 -4.658315507582961312e-01
5.209289634805266966e-02 1.214102459490035103e-03 -8.764859240718303468e-01 -8.126685014187172706e-01 4.393160454222017064e-01 -3.828463386744797026e-01
-6.145853352510796674e-02 -1.403493012301316456e-01 -8.138631174272130675e-01 -7.885275111465627207e-01 5.606462369316469463e-01 -2.527848120029981827e-01
-4.042812770799481675e-02 -7.539033142251690134e-02 -7.623143556288898282e-01 -8.517398837540158807e-01 4.446152896599517845e-01 -2.772298948946393393e-01
-2.246428242429229089e-02 -4.261013656063682847e-02 -7.633463343875218632e-01 -8.487277204735658165e-01 4.602358677043776880e-01 -2.604691969852542255e-01
-2.025346904032884060e-02 -4.637785619946935278e-02 -7.769980930738068503e-01 -8.571084461147365774e-01 4.431060296994829839e-01 -2.627206844592611668e-01
-1.565815883003148293e-02 1.339767943560305624e-02 -6.983584513532835603e-01 -8.287404221582079789e-01 4.552238508555058738e-01 -3.255158341668175637e-01
3.153596635640341234e-02 7.741724860818241516e-02 -7.339429233587819734e-01 -7.006730633208946291e-01 5.745648086568764246e-01 -4.230041831821532150e-01
4.972154239819027988e-02 8.240945193267773528e-02 -7.598268629110139782e-01 -7.618345494140413843e-01 5.602826448052159458e-01 -3.251022566042519046e-01
-3.715513976996281248e-02 -7.589773524132309435e-02 -7.731953637725552664e-01 -8.495857910049597894e-01 4.519411352994124331e-01 -2.719433653295392772e-01
-2.003772137128725928e-02 -5.440473857865277436e-03 -7.123482905007655352e-01 -8.431570734921544075e-01 4.274576998490093316e-01 -3.261381061144802973e-01
-3.666049424936011075e-02 -1.580212795582129071e-01 -9.308210086191144317e-01 -7.815718568748020179e-01 5.749896209183074092e-01 -2.419346365808234256e-01
-4.965084504365389895e-02 -1.632547345851352583e-01 -9.080986060538706051e-01 -7.023831576399970356e-01 5.978961587718072401e-01 -3.862357870389342973e-01
1.583944940865552459e-02 5.205614023915403760e-02 -7.314842109562148531e-01 -8.769538791719920789e-01 4.446274641934322980e-01 -1.823686154197400322e-01
-4.862213990967992339e-02 -8.438835040360558037e-02 -7.517789500575335904e-01 -8.589899360990886912e-01 4.188148320869812258e-01 -2.945002989887067213e-01
-5.522307202986764113e-02 -1.593745813007244050e-01 -8.890219675693954438e-01 -8.840931674212926250e-01 4.663938934443647710e-01 -2.925760545213485983e-02
8.628908556082880502e-03 3.005281659252580923e-02 -7.474169348792236711e-01 -8.837179099187481013e-01 4.197023553997581424e-01 -2.071052596162987758e-01
2.767684379211732271e-02 -1.833541438139022969e-02 -8.485648816194660826e-01 -7.967209320494448299e-01 4.617411019643055115e-01 -3.899114145431664680e-01
1.144585570307579334e-02 -8.158127960655539579e-02 -9.197856525333568678e-01 -8.195538931568352448e-01 5.493533755807291641e-01 -1.629180313824498405e-01
-2.780534193335707296e-02 -9.037934850551071486e-02 -8.280124606588957770e-01 -8.482277327455374216e-01 4.648070703415132510e-01 -2.538978155910458501e-01
1.019897085195663050e-01 1.797163601409188238e-01 -6.329849333987425108e-01 -5.541311093826792877e-01 8.317297144972470857e-01 3.412324188362995947e-02
1.148127874058283912e-02 -2.120212504392271491e-02 -8.209856392576779793e-01 -7.681011339673627925e-01 4.740661212965217031e-01 -4.304439111393294493e-01
-3.488906072097724877e-03 -9.933075123282375518e-02 -9.054932842883648414e-01 -8.092424240302518168e-01 5.516530368570722320e-01 -2.020040249005245758e-01
-5.085799007698420249e-02 -9.132822362736058019e-02 -7.552620482585236106e-01 -8.575960715462528361e-01 4.240108991656644788e-01 -2.911077729246661638e-01
-6.538593286426820639e-02 -1.637752008585804386e-01 -8.576892503182352856e-01 -7.359578098943889701e-01 6.207960993326837595e-01 -2.701449705413360158e-01
6.432450576140047449e-02 1.148574054577542747e-01 -7.388971702461442081e-01 -7.375426807194184198e-01 5.747375572818093081e-01 -3.545525833595815635e-01
-6.650402841544136856e-02 -1.700873040356393751e-01 -8.690906409085195072e-01 -7.377245307161158783e-01 6.185521177058285192e-01 -2.704732786456393034e-01
-4.928366209892710847e-02 -7.201204030768079689e-02 -7.328575517920801197e-01 -8.365015726226828763e-01 4.443750218096639837e-01 -3.206180889959880931e-01
-1.143757855075069364e-02 -1.107359075604038776e-02 -7.448249104267479215e-01 -8.626940267214128211e-01 4.350348053803724802e-01 -2.578831796896718931e-01
-3.947956837696393190e-02 -4.735056094842224339e-02 -7.220250388482981618e-01 -8.212225039761594791e-01 4.800679414315454641e-01 -3.084288744148395711e-01
-3.172630447688518096e-02 -9.417480615924475607e-02 -8.219062335094408089e-01 -8.458734642644172297e-01 4.651696975384679855e-01 -2.609889556002009670e-01
5.269314269066730644e-02 8.772491229520021361e-02 -7.574901727318051892e-01 -7.483224443283419403e-01 5.777229598137297861e-01 -3.259596616431536531e-01
3.373721854101692508e-02 1.017790933860491104e-01 -6.879148798243015506e-01 -8.687276206362326558e-01 4.755184899887854866e-01 -1.385441692114648127e-01
1.567974922616814995e-02 5.863629253871225494e-02 -7.140046103926025456e-01 -8.607968972705424271e-01 4.773311728430928991e-01 -1.765889381633073962e-01
3.261670941857356797e-03 -7.409253038600407786e-03 -7.909828172340799268e-01 -7.321833503221348849e-01 5.023382880196624045e-01 -4.599606351640636581e-01
-5.677544294968893401e-02 -1.624150243055332288e-01 -8.906042605757185093e-01 -8.813404993090447892e-01 4.718270783732362306e-01 -2.486226842948783752e-02
-4.519912329558618824e-02 -1.095850700645604608e-01 -8.052466269635638607e-01 -8.482524105028131922e-01 4.705913052865935975e-01 -2.429231801718950146e-01
-7.876099307635213431e-03 -9.229504141738735512e-02 -8.767026750400364055e-01 -7.749935395015407069e-01 5.556882862361102182e-01 -3.009909338681959201e-01
-4.143220138561794913e-02 -9.367820391170601779e-02 -7.892506306304081232e-01 -8.574646508256441590e-01 4.439364728457263487e-01 -2.601437692157002601e-01
-9.635813533167463321e-03 2.645520008908263526e-02 -6.938495148144623315e-01 -8.087813958829470629e-01 5.152639768687576893e-01 -2.835060631009924670e-01
5.326819041656168097e-02 1.291870128136042295e-01 -6.956125889260731388e-01 -6.935734356233828057e-01 6.096677510205211759e-01 -3.837461697048675791e-01
2.174409594742502880e-02 8.044925470649497146e-02 -6.865013410419223971e-01 -8.602600311094100727e-01 4.799690662713087530e-01 -1.719952740579943906e-01
2.007316567370668117e-02 -2.492019037441642326e-02 -8.412164244126517643e-01 -7.834496963749157938e-01 4.690006661934545407e-01 -4.077314659921995599e-01
-4.301060578566893305e-02 -1.162602786658774034e-01 -8.255641994633511338e-01 -8.409910958113039348e-01 4.835082114193862135e-01 -2.428040079078773450e-01
-5.248675414819991419e-02 -1.515595480496234604e-01 -8.742937201359997079e-01 -8.440118402459287905e-01 5.152795363635234160e-01 -1.487649586753316822e-01
-8.209083894253855693e-04 -1.326323149617168176e-03 -7.672598234358397606e-01 -8.933072377478794568e-01 3.994178786121159730e-01 -2.060765324636713025e-01
5.425437508101964984e-03 -3.262284903942210684e-02 -8.229356038417754426e-01 -7.627351887212281412e-01 4.841069768011493912e-01 -4.288070275763262162e-01
-2.775601702774039420e-02 -1.180193401486509114e-01 -8.762027380920098807e-01 -7.333983229455990349e-01 5.850861755631817651e-01 -3.461229074554769691e-01
-6.569694682496571465e-03 -2.345855151226515847e-02 -7.847517901140019791e-01 -8.780543864799791320e-01 4.182870178965015784e-01 -2.325004624565712996e-01
8.296541571461335876e-03 -5.484234152376842031e-02 -8.549010823450368113e-01 -7.817789195863141805e-01 5.075738900455392111e-01 -3.622022460373408581e-01
8.402188978084382254e-02 1.672712002504648243e-01 -6.659215855739821777e-01 -4.441402916315424498e-01 8.810516683628281109e-01 -1.627493748821348951e-01
1.177282241589550429e-03 -3.044136689015876363e-02 -8.130306682082736325e-01 -7.577375113142832408e-01 4.866021221907451122e-01 -4.348013783633852825e-01
-3.489619475404068250e-02 -6.436213231075117724e-02 -7.615002483525199484e-01 -8.421345119195530193e-01 4.567143758233824791e-01 -2.867428163882650982e-01
-1.862873165921907076e-02 9.243509247472818727e-03 -6.966032272274478299e-01 -8.288319657618152814e-01 4.550917054887723689e-01 -3.254675285289236331e-01
-3.253034478579103217e-02 -1.296376966883730497e-01 -8.858361051985815804e-01 -7.284844742947620411e-01 5.914029180497418769e-01 -3.457643116831674024e-01
2.284350499971141493e-02 -4.560589922936335305e-02 -8.746123619238005409e-01 -8.050715492975210053e-01 5.086917083538817774e-01 -3.051107116502117522e-01
-2.470573311445863063e-02 -1.382729340190811795e-03 -6.957106727931615664e-01 -8.308907309951586440e-01 4.367913647443202318e-01 -3.447229276261231101e-01
-1.733230276193136604e-02 -1.168623909145976997e-01 -8.993014338362458338e-01 -7.914573005689490293e-01 5.599214825216871638e-01 -2.451188992852822435e-01
7.708959461787953183e-04 -8.829636092924528223e-02 -8.930407394866241022e-01 -7.954413044268197064e-01 5.530487613943122494e-01 -2.478108123790740691e-01
5.773788774250380312e-02 5.780631253380257017e-02 -8.234782837523241250e-01 -8.149172123439232251e-01 4.823894359777908258e-01 -3.212637064510061591e-01
3.720332310983368723e-02 -3.666802605682016603e-02 -9.002258012567019296e-01 -8.005892585938370054e-01 5.449705238429531917e-01 -2.491264080070751674e-01
7.114492876144422676e-03 2.166814122492743619e-02 -7.573032243053210433e-01 -8.905784117230570729e-01 4.026086415481459069e-01 -2.116042871106200984e-01
5.373600338007289423e-02 5.547019877597243742e-02 -8.168255223956315536e-01 -8.151971465828761199e-01 4.826359316887100515e-01 -3.201814636204092235e-01
4.130872772659280323e-02 -2.590667468159513556e-02 -8.912963220747467386e-01 -7.971661913061000027e-01 5.321556440907970753e-01 -2.851954310658485481e-01
-6.483458930447502655e-02 -1.610024715752271796e-01 -8.528195171441902422e-01 -7.359578098943889701e-01 6.207960993326837595e-01 -2.701449705413360158e-01
-5.129940657186801700e-02 -1.446156048385152382e-01 -8.590352335284838770e-01 -8.311483201989904313e-01 5.224020124238839546e-01 -1.904956882605822188e-01
2.178393907043449720e-02 -9.821749714455986838e-03 -8.274128877949651351e-01 -7.853713805894407818e-01 4.608523294280819083e-01 -4.132879444306919448e-01
-2.221796429851681867e-02 -5.788321170996466730e-02 -7.900871025370244105e-01 -8.535001418624942326e-01 4.469795999139810627e-01 -2.678558289480363341e-01
6.643192307992111523e-02 7.563808434602488362e-02 -8.174306532206538911e-01 -8.017670562338554685e-01 5.262116824073522769e-01 -2.833211125845044864e-01
-6.755475398988175506e-02 -1.575118238302956886e-01 -8.368693317532148734e-01 -6.993621639393643452e-01 6.656910717188987414e-01 -2.602843842488317128e-01
-2.070712826115280250e-02 -3.421324428469160739e-02 -7.542283077319135165e-01 -8.513731492109568588e-01 4.593593306482331995e-01 -2.532839634659587169e-01
-5.629927046011722058e-02 -1.450458264902339534e-01 -8.414991206826493153e-01 -7.952159440008099711e-01 5.515539316013486904e-01 -2.518330060615475152e-01
5.349379280872969961e-02 8.749800659337482467e-02 -7.597304287296678948e-01 -7.483224443283419403e-01 5.777229598137297861e-01 -3.259596616431536531e-01
-1.234785390923725037e-02 -1.167393044439663519e-01 -9.174418893054143709e-01 -8.182241284722348018e-01 5.443718183286502255e-01 -1.848475019993792712e-01
-7.717724378634183147e-02 -1.751906995101884523e-01 -8.571730430144681723e-01 -6.269762152633571173e-01 7.109738247943413469e-01 -3.184604307466502582e-01
-6.140640451547509093e-02 -1.252928768235653245e-01 -7.788550238718611185e-01 -8.328314975062519609e-01 5.040262773585044709e-01 -2.287994940851526826e-01
8.673904617900895023e-03 -2.341981435076867513e-02 -8.184184850929449029e-01 -7.681011339673627925e-01 4.740661212965217031e-01 -4.304439111393294493e-01
-4.291899369313934010e-02 -5.273439771055124514e-02 -7.212471413850823909e-01 -8.212225039761594791e-01 4.800679414315454641e-01 -3.084288744148395711e-01
-7.428440690765487908e-02 -1.685239434761979238e-01 -8.475694279268499720e-01 -6.502909141102390933e-01 7.019103789666710780e-01 -2.905917186096906302e-01
-3.518297737598084785e-02 -3.012791915188381062e-02 -7.072775505389902184e-01 -8.217813743061738174e-01 4.690765458972450674e-01 -3.234850335526611165e-01
-6.679291829453662399e-02 -1.815776441568687505e-01 -9.036154873391306630e-01 -8.701754512864573465e-01 4.895621403595392107e-01 5.588912868346707780e-02
-5.662044990960560242e-02 -1.644841533934154054e-01 -8.986275156841423417e-01 -5.596431471376074329e-01 6.605629300205497767e-01 -5.004559554492091777e-01
8.289265109895733660e-03 5.701968979512377772e-02 -6.884131161674887922e-01 -8.217970088515905713e-01 5.160089319201686120e-01 -2.416287615768979991e-01
-2.558040143152125884e-02 -1.322817869033758309e-01 -9.079436864532256513e-01 -7.831443894853366006e-01 5.679471603041154060e-01 -2.532210266153481215e-01
-9.410886563671878521e-03 -3.162629343823423339e-02 -7.885035320887107124e-01 -8.710256135962614055e-01 4.256884934725546632e-01 -2.451605330886749423e-01
-1.097594749344649179e-02 7.856372552890669584e-04 -7.282297608429514346e-01 -8.526915378633210807e-01 4.241394074705172601e-01 -3.049965643853107533e-01
-2.965966269815250439e-03 -7.177214456849219382e-02 -8.554192142413973299e-01 -7.577748607299920058e-01 5.343404397690900698e-01 -3.745097527074788268e-01
-5.074983904788071820e-02 -1.680350708268344984e-01 -9.137868645180303728e-01 -7.179944225349171871e-01 6.060895392771046275e-01 -3.422564529524875776e-01
-1.953380971692409915e-02 3.038176927903370097e-03 -7.027000740348562369e-01 -8.341816949527042224e-01 4.356319644838212990e-01 -3.381799688417397309e-01
-3.388354921120877161e-02 -1.871986857740481902e-02 -6.954229136163762037e-01 -8.319120834983516621e-01 4.328068241500503399e-01 -3.472758821147517438e-01
3.640297335784198340e-02 -2.910297887236426920e-02 -8.832990881559648066e-01 -7.997932113060985948e-01 5.179457753366332184e-01 -3.034188408118593250e-01
-2.574984014871095628e-02 -6.558370452682484031e-02 -7.917703852577278045e-01 -8.507395124258022578e-01 4.513550557119163642e-01 -2.692970398663925846e-01
4.218033834692346690e-02 2.229641651488932855e-02 -8.327011604045306825e-01 -8.156935131034995790e-01 4.355766008726481564e-01 -3.806798096210265436e-01
-4.644584349304496651e-02 -1.418188772886627425e-01 -8.788419971666089348e-01 -9.045965889546709882e-01 4.261265699156783215e-01 1.100716418848919284e-02
3.854933399878564260e-02 1.526433717147385530e-03 -8.478007675047842806e-01 -8.094117640122638901e-01 4.273114350219468505e-01 -4.028120328118809379e-01
-1.609649970786996773e-02 -5.372462671396310147e-02 -8.030064649192261150e-01 -8.642947087241239501e-01 4.335435042771776382e-01 -2.550189921761647494e-01
7.856437765877281876e-02 1.657820374091795446e-01 -6.594841607373198578e-01 -4.154857733301101086e-01 8.924176884962614631e-01 -1.759609087816661477e-01
4.411372662638807750e-03 -8.006441911823039548e-02 -8.866993803643559158e-01 -7.995164837245131162e-01 5.370260071753077957e-01 -2.690287342834157269e-01
5.435123321621672388e-02 1.473882434940694541e-02 -8.660998842012264110e-01 -8.175182116990148407e-01 4.166904860270718158e-01 -3.975336619645779557e-01
3.611192901453955106e-02 5.381660000547815181e-02 -7.773688969210297284e-01 -7.668049135438790298e-01 5.260340624633856876e-01 -3.678292942293082124e-01
1.004322142255328204e-02 5.067849065177647966e-02 -7.090126054794001487e-01 -8.407268222058978946e-01 4.996737165248854029e-01 -2.085775333965310951e-01
-6.521781157416081665e-02 -1.806504942486150678e-01 -9.112541811614671694e-01 -4.875251284539635632e-01 7.063952381029910965e-01 -5.131520405409734087e-01
-3.434382955223599238e-02 -1.129701144096359050e-01 -8.512546819295875311e-01 -8.597619638365320283e-01 4.819418706996106416e-01 -1.689419983500543010e-01
5.622725470685911719e-02 1.265148750802861932e-01 -7.052236814046047853e-01 -7.028915752013078500e-01 5.980464905377853579e-01 -3.850763932864008088e-01
-5.815884537666677137e-03 -1.002183601399974922e-01 -8.987271181000958675e-01 -7.945231779547666795e-01 5.573553020714974160e-01 -2.410144953015234404e-01
-2.361010839314086826e-02 -4.953894443542126991e-02 -7.715984780134070853e-01 -8.490879122740375706e-01 4.538008948709709167e-01 -2.703968658184150442e-01
-2.951585699271475766e-02 -1.408779071758494150e-01 -9.146155814622333180e-01 -7.914735084535790000e-01 5.630191306036916865e-01 -2.378637088553981205e-01
-1.837645932130200360e-02 -2.383912738103234966e-02 -7.436533814818186983e-01 -8.395827102120581031e-01 4.651091553428167158e-01 -2.806676795237865174e-01
-7.540604306744098928e-02 -1.657441480506501030e-01 -8.374879507534669365e-01 -6.779576198078378635e-01 6.909491350999436010e-01 -2.509238100482517053e-01
4.715902216835371474e-02 -8.342712294360397560e-03 -8.780573651525562795e-01 -8.071313166458563559e-01 4.803367391346214377e-01 -3.432428509481955659e-01
-7.530568800686801567e-02 -1.934653517049479410e-01 -9.244444085824263801e-01 -5.333317851187934222e-01 8.438434790031738020e-01 -5.903719103938737806e-02
3.483402929763237954e-02 9.027191061657373339e-02 -7.220924463985153308e-01 -6.483510787587789537e-01 6.002294133404207921e-01 -4.683647403822601696e-01
3.156239065297468741e-03 5.518067711870808939e-02 -6.756347645052067641e-01 -8.080154625040683047e-01 5.430337673057259451e-01 -2.285286413561480601e-01
6.930106958317373833e-02 1.066649619629388701e-01 -7.644750872249558293e-01 -7.502559595389126645e-01 5.838089403385060550e-01 -3.102952084018960055e-01
-3.650034590832845760e-02 -1.092355560271664333e-01 -8.345174806511271859e-01 -8.429013346190491474e-01 4.867913289307383429e-01 -2.292412314032352683e-01
-3.115202056921785589e-02 -1.472456475324101025e-02 -6.969870790307304276e-01 -8.319120834983516621e-01 4.328068241500503399e-01 -3.472758821147517438e-01
2.778357158150594579e-03 1.680769763552492427e-02 -7.487208108192011657e-01 -8.835267716709287456e-01 4.078636282538104507e-01 -2.302774511071023766e-01
-1.187963782552772969e-02 -5.214624240209622674e-02 -8.152318834025665817e-01 -9.029470953131211175e-01 3.856523701991187991e-01 -1.896280370235352841e-01
2.449107200221254874e-02 8.927639884065004250e-02 -6.757086804458537488e-01 -8.444628333695176625e-01 5.017543113804542321e-01 -1.874170058149802753e-01
7.183484953215712489e-03 2.039098700204345846e-02 -7.601598812905770997e-01 -8.997520999187119672e-01 3.922181650997697000e-01 -1.913401935235725937e-01
5.098731796918170439e-02 3.302556990571971565e-03 -8.717426103019132455e-01 -8.126685014187172706e-01 4.393160454222017064e-01 -3.828463386744797026e-01
2.442177740437464009e-02 -2.701596819475955355e-02 -8.523729049342595454e-01 -7.905090636804588122e-01 4.839974039295307784e-01 -3.752891328409594385e-01
-2.818258195878092787e-02 -5.792991627119588836e-03 -6.929185260646026912e-01 -8.308907309951586440e-01 4.367913647443202318e-01 -3.447229276261231101e-01
1.140411244330418123e-03 4.492463037035343684e-04 -7.722627897258798058e-01 -9.004176395662493171e-01 3.887154553052884487e-01 -1.953160750290312830e-01
-4.982333801495928555e-02 -1.463430080591443250e-01 -8.713843451911879034e-01 -8.483118571438347244e-01 5.059928051663641346e-01 -1.560072887689932519e-01
5.886279300595916118e-04 -9.553161215227377878e-02 -9.122988568286687361e-01 -8.184775348258815919e-01 5.470966054287650371e-01 -1.754418117601109772e-01
1.540245247782385044e-02 7.627018213953074000e-02 -6.701688202104855163e-01 -8.239104583260702386e-01 5.261667722013785298e-01 -2.105233585427218335e-01
4.946433168261572810e-02 1.130910117771383866e-01 -7.136815838969483572e-01 -6.908916508021526459e-01 6.025372215844330137e-01 -3.995217434097781961e-01
4.233884128774281774e-02 9.597829940338475918e-02 -7.260298723473639360e-01 -6.900976686106713442e-01 5.828014621249766325e-01 -4.290776893793311619e-01
-1.886228470527203174e-02 -1.172403862055937107e-01 -8.956945379761902526e-01 -7.684064397997488749e-01 5.685075697410484352e-01 -2.938548730604990666e-01
-3.214173113318373465e-02 -7.797774492583070538e-02 -7.923995384673324649e-01 -8.508686451026300501e-01 4.521048616343399940e-01 -2.676261251593517465e-01
-4.513775996654292855e-02 -1.335265360036315962e-01 -8.563211498484291084e-01 -8.441208874548473684e-01 5.017966113673631989e-01 -1.888387888720763075e-01
2.402764515961993905e-02 6.117210512444406882e-03 -8.140323443180481622e-01 -7.849061892784395811e-01 4.606769906538254467e-01 -4.143657615133444216e-01
1.098052142507109641e-02 2.865708525798795273e-02 -7.614977386630968903e-01 -9.228525029690274328e-01 3.653031074483366614e-01 -1.220528469655264570e-01
3.144621867134071019e-02 1.025283843022072594e-01 -6.720755380247175337e-01 -8.551352477677300890e-01 4.992889197207071583e-01 -1.394786100782197669e-01
1.644062779953955541e-02 2.505365896408980747e-02 -7.765471363175464603e-01 -7.669412414116844046e-01 5.014845612003193676e-01 -4.003927660430787738e-01
2.325233632267973555e-02 4.965227569077950570e-02 -7.573592591203544000e-01 -7.356675031249547692e-01 5.429313967082040060e-01 -4.049923743903994788e-01
-3.481007612778900390e-02 -1.234575398137821578e-01 -8.712699294035783915e-01 -6.990345363389386391e-01 6.021493394912207364e-01 -3.857031111563553050e-01
-2.401952363248440955e-02 -9.796440791300677076e-02 -8.527860632057812085e-01 -7.086777733853150130e-01 5.776510540552928230e-01 -4.050865009580562615e-01
-2.958499537701791623e-02 -1.431638241947385051e-02 -7.002322312311158869e-01 -8.319120834983516621e-01 4.328068241500503954e-01 -3.472758821147516883e-01
-1.435415827289632934e-02 -3.384059560812948623e-03 -7.245430092406948130e-01 -8.541966816564511289e-01 4.216330724723077461e-01 -3.042590692891000703e-01
5.151901360155092778e-03 1.890615257498241483e-02 -7.542983648786648621e-01 -8.905784117230570729e-01 4.026086415481459069e-01 -2.116042871106200984e-01
1.481144130940837030e-02 -3.284365432424948827e-02 -8.403285453847707531e-01 -7.700046414920189708e-01 4.851485031811151316e-01 -4.143956828224334976e-01
-4.589222389269648206e-02 -1.552803361905651380e-01 -9.021441441241083714e-01 -6.958662904623041934e-01 6.069391933076989654e-01 -3.839204623684857043e-01
-5.009243095928452016e-02 -1.109024781666981679e-01 -7.907191535737145838e-01 -8.553223767351110229e-01 4.540890834962397204e-01 -2.494528735167145239e-01
-6.352967965963488006e-02 -1.755005868047803674e-01 -8.972130219630257697e-01 -8.697158555637735100e-01 4.895837010602208661e-01 -6.246703320271954074e-02
-2.474859053825102101e-02 -7.655149706065783946e-03 -7.035600800732136895e-01 -8.354400931111271023e-01 4.311827568925402643e-01 -3.407657274155075355e-01
6.294273223721597033e-02 1.520552930649646250e-01 -6.716703263500497512e-01 -4.777838091756754224e-01 7.207823607955935463e-01 -5.021906212341211706e-01
-4.182112072100450939e-02 -1.197537867068114992e-01 -8.368708113648541946e-01 -8.453319146480152702e-01 4.811805546799360345e-01 -2.321189950767271193e-01
-5.353478029511883618e-02 -8.377581067621762967e-02 -7.371780114766451897e-01 -8.629132075313813433e-01 4.029714210942975661e-01 -3.049505370533808768e-01
-5.762873573407312905e-02 -1.104573632143450446e-01 -7.634499095032584171e-01 -8.671859147785864197e-01 4.253180177497182801e-01 -2.590234989090313134e-01
-4.894400875769473747e-02 -8.894519994389132878e-02 -7.574296126603096146e-01 -8.575960715462528361e-01 4.240108991656644788e-01 -2.911077729246661638e-01
4.383086059744790292e-02 1.239205870339654264e-01 -6.742594922084427234e-01 -8.620441288095533894e-01 4.829565843100017686e-01 -1.537298203231712290e-01
4.187353710669817347e-02 7.454421408462234833e-02 -7.563740905754477994e-01 -7.303477754871980920e-01 5.822304517613712260e-01 -3.572111810717167324e-01
-5.266079705921495463e-02 -1.762415663952859590e-01 -9.265047607812509911e-01 -7.233681124338060542e-01 6.629998618823332857e-01 -1.927945981036799095e-01
3.789372456321989102e-02 6.254994477952988130e-02 -7.675799076689601153e-01 -7.479570527247918488e-01 5.591180948379359528e-01 -3.576970831640085002e-01
-3.526952952398969970e-02 -1.025356381656537530e-01 -8.256421049111957178e-01 -8.444333092853754108e-01 4.735374812863079597e-01 -2.503889773659556672e-01
4.925270875555232825e-02 1.307470746963194375e-01 -6.847622576300002040e-01 -9.120943394829832407e-01 4.081421344473919466e-01 3.878032970240979926e-02
-6.005467920904893585e-03 -2.699945913097607370e-02 -7.934164858188729186e-01 -8.895376578385242317e-01 4.011725748288915705e-01 -2.185939626163314053e-01
-6.063767949577964726e-04 -4.342133175422833308e-02 -8.246374149446241697e-01 -7.512603635743088093e-01 4.964387185576019657e-01 -4.349212168187286953e-01
-1.396492201907575080e-02 -1.208821724930129043e-01 -9.220266178508520483e-01 -8.247677705711998764e-01 5.375733716938602136e-01 -1.754223323089383890e-01
1.886990800724649628e-02 -3.515570964174460217e-02 -8.510608311037143325e-01 -7.821450476091885706e-01 4.817909265850869316e-01 -3.951286215407632807e-01
-5.909524642537556348e-03 -1.068701923451933905e-01 -9.169626050739874135e-01 -8.194166995863788605e-01 5.419114084739125037e-01 -1.867840940893698287e-01
3.199513359824236996e-03 1.040689611537667578e-02 -7.621440810632335028e-01 -8.937064041696379801e-01 3.969414829248733567e-01 -2.091083983956126824e-01
2.784879336709758513e-02 5.325658433085825316e-02 -7.610928674312996689e-01 -7.440977055271652540e-01 5.454660684763512624e-01 -3.857270703102917420e-01
1.762523282807865535e-02 2.042361457033396287e-03 -8.063354710594077268e-01 -7.804438147878515197e-01 4.684005453144008957e-01 -4.141357037355723469e-01
1.583104865203902034e-02 -6.589520074886935641e-02 -8.928613886609993999e-01 -8.032743386901317617e-01 5.468543847948843517e-01 -2.360097850355787064e-01
1.203751584744241626e-01 1.872247942772358731e-01 -6.245814819122251782e-01 -3.819406629250466922e-01 9.075859559200971649e-01 1.743819446530491535e-01
2.774234108034670521e-02 6.894949606517948582e-02 -7.392102543630959532e-01 -6.845989950166648796e-01 5.736784838222039884e-01 -4.496856826958471332e-01
-3.666242507875447365e-02 -1.120029892148628331e-01 -8.397981438315231806e-01 -8.429013346190491474e-01 4.867913289307383429e-01 -2.292412314032352683e-01
-4.204769056387252374e-02 -7.007814480713907279e-02 -7.497546859906293326e-01 -8.348974759287592917e-01 4.554709385467600735e-01 -3.090184926944024579e-01
-6.072033576822578882e-02 -1.702098139621801010e-01 -8.979208132994750402e-01 -8.872751968055675453e-01 4.610316777257038590e-01 1.387505917334932830e-02
1.498054077902053957e-02 6.439057570876657866e-02 -6.963923580209947506e-01 -8.475608004639904047e-01 4.860482594017310753e-01 -2.130675457440373843e-01
3.964840405894108004e-04 1.866074724061446422e-02 -7.369153340212378778e-01 -8.754013787884570297e-01 4.139259706992542420e-01 -2.496752226312189404e-01
-3.340764340015911493e-02 -3.810199716883477111e-02 -7.238328225232558699e-01 -8.212046196324811476e-01 4.805029297752619333e-01 -3.077984846805806307e-01
4.881465317963408490e-02 -8.510371611118592444e-03 -8.821851847519962542e-01 -8.071313166458563559e-01 4.803367391346214377e-01 -3.432428509481955659e-01
-6.485874037705446904e-02 -1.481223094323903255e-01 -8.211866554904815318e-01 -7.398008343780657636e-01 6.267115386491470819e-01 -2.448006796917376604e-01
-5.867556784975491713e-02 -1.339304275766925456e-01 -8.080518750942844441e-01 -8.185504516562603916e-01 5.188889892904993140e-01 -2.464333071774518213e-01
-7.323379817350822961e-03 -8.519398137665849498e-04 -7.419953276951128940e-01 -8.670127796507501872e-01 4.202812472387597587e-01 -2.676798706322766064e-01
-8.281112581798644179e-03 -7.475361885144737872e-02 -8.493827295084194207e-01 -7.462612005835795870e-01 5.374829891588278619e-01 -3.926910450576202583e-01
4.718224414384397658e-02 8.662697512984141035e-02 -7.479105043393374785e-01 -7.352455795558714424e-01 5.638369018277901157e-01 -3.761673641888536590e-01
-4.490725553359196931e-02 -1.203839381226692873e-01 -8.272065020843660799e-01 -8.409910958113039348e-01 4.835082114193862135e-01 -2.428040079078773450e-01
3.685399267261498663e-02 -5.881412902373111054e-03 -8.526893993609850897e-01 -8.051554281079739139e-01 4.438914114496102514e-01 -3.933003323537090923e-01
-2.554152110592516206e-02 -1.286003941502391864e-03 -6.935736019601935753e-01 -8.308907309951586440e-01 4.367913647443202318e-01 -3.447229276261231101e-01
-2.486025568040651709e-02 -3.941198718052619891e-03 -6.985800089590168405e-01 -8.308907309951586440e-01 4.367913647443202318e-01 -3.447229276261231101e-01
9.287090676200732142e-03 -3.528505480207696360e-02 -8.329139432072009130e-01 -7.701707653057282554e-01 4.853098136172839250e-01 -4.138977857818836315e-01
4.292533288935356656e-02 8.912757691451876629e-02 -7.365146550746823895e-01 -7.053332206183607900e-01 5.846131406258898711e-01 -4.009146089875801344e-01
-8.470273640483619651e-03 5.425891839154233474e-03 -7.288026986852138567e-01 -8.670870860409816139e-01 4.140056784411314528e-01 -2.770546578555538875e-01
2.438102957711235641e-02 -3.372316492083091838e-02 -8.608624479402198215e-01 -7.987101893751510362e-01 4.729987425918366628e-01 -3.719330892712446324e-01
1.709539408894679424e-02 5.093407703445029105e-02 -7.406450197933068802e-01 -8.914519682173712711e-01 4.211400145917054694e-01 -1.671959224116220666e-01
4.046638548334599572e-02 6.742012627277503556e-02 -7.650643798421359332e-01 -7.318485462006643072e-01 5.786654101756957269e-01 -3.599222811804904110e-01
-7.625874024111081728e-02 -1.754695434324052838e-01 -8.596038963690876278e-01 -6.269762152633571173e-01 7.109738247943413469e-01 -3.184604307466502582e-01
-9.852736843615161194e-03 -3.869233950360451146e-02 -7.990861865533894770e-01 -8.771831673283603248e-01 4.147738563616301111e-01 -2.418932389189240584e-01
6.378608168891712615e-02 7.419475067673127200e-02 -8.126239185141937993e-01 -8.017670562338554685e-01 5.262116824073521659e-01 -2.833211125845044309e-01
-1.072658549230156959e-02 -4.042274621647856669e-02 -7.988944938386490779e-01 -8.669149263997725230e-01 4.247356904513474585e-01 -2.608794810675883480e-01
-2.785639613682551127e-02 -8.123496355201442753e-02 -8.115909592451547860e-01 -8.484048920150821793e-01 4.574948223156369287e-01 -2.662848601765797074e-01
1.364177668330821165e-02 -4.634782818654419739e-02 -8.547708984393629361e-01 -7.827190957700017604e-01 4.914949955002499427e-01 -3.818160375301176690e-01
-5.377696226266736462e-02 -1.706859485927174624e-01 -9.125087403708969092e-01 -6.830662318187339377e-01 6.086958477821476921e-01 -4.036209705177969398e-01
-1.687896221282270473e-02 -1.670898555972944247e-02 -7.367383882539819684e-01 -8.456334775619188671e-01 4.526348191181392977e-01 -2.828882149337878515e-01
-7.124920411237800622e-02 -1.720101444294435955e-01 -8.623183981248467855e-01 -6.522906722847273686e-01 6.866378857838494332e-01 -3.210066863113971714e-01
-5.519686412866729730e-03 -1.041923481007628466e-01 -9.107177884924619882e-01 -8.199529232621425301e-01 5.441174784805522524e-01 -1.778014995601355508e-01
3.767938115537112359e-02 -1.023647522248695950e-02 -8.595456890186478072e-01 -7.982820570769727508e-01 4.702263133157915109e-01 -3.763415624328461662e-01
2.280658222319708814e-02 5.661738911948639708e-02 -7.474026614807816049e-01 -7.185502936283761910e-01 5.531371746279102330e-01 -4.215741234601896870e-01
4.783962679014003294e-02 9.897006595474971968e-02 -7.310953329716600724e-01 -7.025003536563839690e-01 5.807150355701505839e-01 -4.114162133113062336e-01
1.196168119944811085e-02 -3.123115204878832308e-03 -8.016125319446081310e-01 -7.750934884286806437e-01 4.756108932338625195e-01 -4.159619723397156577e-01
5.403191727411784523e-02 1.155874713559577188e-01 -7.179871497531730151e-01 -7.045228129893661428e-01 5.925623910109270032e-01 -3.905347855658496958e-01
-1.431268065625049442e-02 -1.165514225969653400e-01 -9.088942512400366436e-01 -8.097537347265278962e-01 5.469009994186304624e-01 -2.125986498812805769e-01
3.886522714274565776e-02 5.747046078009374753e-02 -7.777523654072350245e-01 -7.690173161644136002e-01 5.440219256874556653e-01 -3.356374708083038061e-01
2.952656810727724221e-02 -4.671304796160686418e-02 -8.966135993874668753e-01 -8.183364653921240128e-01 5.229970163313494291e-01 -2.383265623425801227e-01
6.255738845246944235e-02 1.084405603395535989e-01 -7.455144853686224149e-01 -7.395930469315343814e-01 5.697849252645083018e-01 -3.582558636949966235e-01
-5.788260530734188301e-03 -5.197171008125507641e-03 -7.546647356459527112e-01 -8.753437639268121240e-01 4.207685254626065130e-01 -2.381746059815470495e-01
-8.129538030311840580e-02 -1.984536855801989907e-01 -9.014167771699392873e-01 -5.739868876910242390e-01 8.188323390907008559e-01 -7.256253718200059155e-03
-5.060150741033182971e-03 3.345728100397574178e-02 -6.941768125114936572e-01 -8.087813958829470629e-01 5.152639768687576893e-01 -2.835060631009924670e-01
-1.198073317340266758e-02 -4.662721636539835651e-02 -8.049845528496267777e-01 -8.768338951419750726e-01 4.159723399843763825e-01 -2.411002544546029802e-01
-9.230184316331402697e-03 1.015464257070724033e-02 -7.199674450238192636e-01 -8.507711682070431269e-01 4.276481430371459891e-01 -3.054594655670437309e-01
3.615148618537462888e-02 6.597405528848974965e-02 -7.585845823561002677e-01 -7.479570527247918488e-01 5.591180948379359528e-01 -3.576970831640085002e-01
6.030400645716083724e-02 6.775876858830352789e-02 -8.143388149680836907e-01 -8.106546852545226667e-01 5.026491637926187028e-01 -3.003045111440585391e-01
6.210553678744518656e-03 -7.565863423784388586e-02 -8.831638454935919480e-01 -7.909420006808808301e-01 5.468983931200420701e-01 -2.744319572528710061e-01
3.202541497550916855e-02 5.502650176471046012e-02 -7.668441892650961211e-01 -7.504318540574042018e-01 5.495486565686447111e-01 -3.672169746615273622e-01
1.581671987113855357e-02 7.178940750504271551e-02 -6.829061041629466144e-01 -8.319106971075592716e-01 5.057925673794319010e-01 -2.282508944598856393e-01
-2.714436786482756284e-02 -5.059587089365894658e-02 -7.622731885549045572e-01 -8.373346722220320615e-01 4.699044319888605603e-01 -2.793930412376951500e-01
1.929140758101901415e-02 4.547257626702486816e-02 -7.558296605553380676e-01 -7.329475251689560045e-01 5.397179993744162241e-01 -4.141164166028440952e-01
2.068401558570107449e-02 -1.210312889615896940e-02 -8.278666404073408147e-01 -7.853713805894407818e-01 4.608523294280819083e-01 -4.132879444306919448e-01
6.063147765767045588e-02 1.129437685114938195e-01 -7.344751882497279061e-01 -7.145367435038512127e-01 5.896963116162298180e-01 -3.764246302370846675e-01
3.733813213664130548e-02 -2.510325313972095601e-02 -8.790845210448632319e-01 -8.079493260192578408e-01 4.949621608961764507e-01 -3.197348055279796153e-01
-3.614532564946502935e-02 -3.204869677670981604e-02 -7.076180665923461621e-01 -8.217813743061738174e-01 4.690765458972450674e-01 -3.234850335526611165e-01
4.039823458116474642e-02 4.822116865259704066e-02 -7.952604137708907395e-01 -7.875034237085936084e-01 5.046337769948124885e-01 -3.538122507251454940e-01
-2.108995215336773726e-02 -6.741415643189624385e-02 -8.096072596876616734e-01 -8.534698910540677863e-01 4.472653347626882048e-01 -2.674749808557390640e-01
2.647117352952486555e-02 2.297008384551629465e-02 -7.990573970956216243e-01 -7.883822343671048616e-01 4.774640243473005086e-01 -3.879195251445996528e-01
2.776701611116919044e-02 8.402044303265608638e-02 -7.080901545111901729e-01 -8.894575906903686713e-01 4.361689732609322911e-01 -1.364617936559126832e-01
5.226245505605089242e-02 6.910296911687729970e-02 -7.903219900982360047e-01 -7.892612648359900174e-01 5.361224592844840986e-01 -2.993983374707511746e-01
4.231036618723346687e-02 8.201865073176706211e-02 -7.456742939147020799e-01 -7.128069993931743786e-01 5.819451612808456131e-01 -3.914664875540556088e-01
4.192450949041984926e-02 1.108206813777573574e-01 -7.047402214392235464e-01 -6.285047289104830348e-01 6.311826756414351536e-01 -4.545219859448814681e-01
5.156772037993267999e-02 7.613022673268761420e-02 -7.755495605846890461e-01 -7.656981196963073000e-01 5.624145431002862683e-01 -3.120837567109763788e-01
5.797805474726418218e-02 9.649494812235090424e-02 -7.548674497394046723e-01 -7.638435918431665250e-01 5.523163904664345480e-01 -3.339005421113582783e-01
5.061727239232540615e-02 -5.937724891469290875e-03 -8.828238395169339947e-01 -8.071313166458563559e-01 4.803367391346214377e-01 -3.432428509481955659e-01
-2.199137595546067983e-02 -1.301339597317300589e-01 -9.149086236505892256e-01 -8.007843694448787408e-01 5.570174515435759588e-01 -2.201725512607512758e-01
-7.343605490371649981e-04 -6.343953474188777919e-02 -8.485273067961525140e-01 -7.499410514081416013e-01 5.200410662374078674e-01 -4.088345739287608804e-01
6.385794588296715701e-02 1.548943396576099307e-01 -6.670755757971057465e-01 -8.504231777628937783e-01 4.030752519669316691e-01 3.380987429368173536e-01
-2.584405239594873838e-02 -1.413836484374810243e-01 -9.282715448047553775e-01 -8.153602690630694649e-01 5.367821191524838609e-01 -2.169160855989421544e-01
-5.072117255026933891e-02 -1.479813008659012497e-01 -8.719166430380220767e-01 -8.440118402459287905e-01 5.152795363635234160e-01 -1.487649586753316822e-01
1.976248658802072858e-02 -6.032899002869263061e-02 -8.937094881823988146e-01 -8.111306550889404443e-01 5.317998497227703902e-01 -2.434255126518685419e-01
2.512714151243417016e-02 -4.171130433022041811e-02 -8.742088301791189897e-01 -8.076784739312680150e-01 5.013588208838695159e-01 -3.103140594139980890e-01
6.806380435603413825e-02 1.554459684078393356e-01 -6.720617723110375863e-01 -5.517770013573217724e-01 7.425888162122672442e-01 -3.796103144141180219e-01
5.572723510126847274e-02 1.431355581795220322e-01 -6.702801812800920356e-01 -7.453728802143917420e-01 6.664364057613424430e-01 1.678649805066558323e-02
-7.056303976182572157e-02 -1.865385955973321019e-01 -9.095693381994399696e-01 -7.925032880924661738e-01 5.931494189513164539e-01 1.418178591022479784e-01
-1.361739640251282205e-02 -2.329602291204384973e-02 -7.585833249000114575e-01 -8.648146136903628323e-01 4.401946968541016747e-01 -2.415042707885601825e-01
-2.990040021249395011e-02 -1.103490890079350806e-01 -8.602206356166522960e-01 -6.795159374365409288e-01 5.990588839984615221e-01 -4.235404871700661489e-01
-3.874776643501691431e-02 -9.234819746435245225e-02 -7.957661869318574110e-01 -8.503329920951764320e-01 4.537868156475826642e-01 -2.664795085909825167e-01
2.381320208299280913e-02 7.045432887518811305e-02 -7.254038074966774330e-01 -8.987203500513789578e-01 4.200666205427014410e-01 -1.258799694524946333e-01
-4.192057768946241825e-02 -8.642262383618536103e-02 -7.754689891793762335e-01 -8.514551718366110133e-01 4.455528177760306741e-01 -2.765985844586454356e-01
8.788961812060008816e-02 1.700155461466686668e-01 -6.388990897089732446e-01 -5.764122564980580510e-01 8.171054789176374067e-01 9.356649058023171206e-03
-9.088148982662632575e-03 -8.773413864748642876e-02 -8.664836080007466412e-01 -7.572484768600912242e-01 5.524586526356781713e-01 -3.483736233141698224e-01
1.344215786868529529e-02 -6.741846063491459609e-03 -8.084860928470609664e-01 -7.757514007788237631e-01 4.731268991850796080e-01 -4.175652062339534898e-01
6.506757496179947642e-02 1.558042752478577264e-01 -6.650492209553150458e-01 -8.434208055228755718e-01 4.719218165238207585e-01 2.567706055996301084e-01
-5.453117382296571169e-02 -9.254437202916414307e-02 -7.460456911575681360e-01 -8.609332528717761335e-01 4.109788909532445245e-01 -2.998170863884571102e-01
-2.872980434374839548e-02 -1.391759355351269156e-01 -9.132758596798797868e-01 -8.007843694448787408e-01 5.570174515435759588e-01 -2.201725512607512758e-01
8.454405048288815561e-03 -7.138042465075354788e-04 -7.924429781622827074e-01 -7.663892666485003780e-01 4.834437501253145975e-01 -4.230007475534136030e-01
2.041750032176927604e-02 3.814540589357368061e-02 -7.674370497437081884e-01 -7.595548755967628241e-01 5.155840360990046056e-01 -3.965469615027283901e-01
5.715318482993866911e-02 1.801964704527443326e-02 -8.685385410984399757e-01 -8.227558285977887298e-01 4.077474481167471798e-01 -3.959985669956986309e-01
4.957012658246534587e-02 2.118075574748982254e-02 -8.496022451557696531e-01 -8.208061313750985022e-01 4.080965451303210090e-01 -3.996679929012835197e-01
-1.970991466858791272e-02 -1.313147270505746755e-01 -9.263512675957428222e-01 -8.140730005041673101e-01 5.396046726430679952e-01 -2.147369253573062631e-01
-5.809828144149239808e-03 -8.754660870856702248e-02 -8.733200902821413036e-01 -7.722819381352694634e-01 5.458362710272807172e-01 -3.250282653263632526e-01
3.544495352779225561e-02 4.309587383435610486e-02 -7.915611821050758667e-01 -7.864982669575267815e-01 5.034742015626018086e-01 -3.576789124811633469e-01
2.561795015285234581e-02 6.818947442823533600e-02 -7.369942521026691118e-01 -6.587052036531723109e-01 5.804709535213579130e-01 -4.787075587435805635e-01
-2.756778196101877104e-02 -5.834822528937668590e-02 -7.739786796687286863e-01 -8.482345672687128246e-01 4.551826920911582475e-01 -2.707523512568364432e-01
-5.570330177959782053e-02 -1.579689237671891844e-01 -8.779357696318796922e-01 -8.474982482528914396e-01 5.143909644838200457e-01 -1.309528726897030704e-01
3.022125261336891175e-02 5.196341005532368468e-02 -7.677412529907100547e-01 -7.504318540574042018e-01 5.495486565686447111e-01 -3.672169746615273622e-01
9.322523869102478447e-03 -8.448799913287390051e-02 -9.189056475018041459e-01 -8.195538931568352448e-01 5.493533755807291641e-01 -1.629180313824498405e-01
-4.499443591317326546e-02 -1.034416992422512033e-01 -7.945900694988674573e-01 -8.536205054845695805e-01 4.559112803970098438e-01 -2.519462978950615661e-01
2.518254942329513704e-02 -1.555758659951808447e-02 -8.402672310348345830e-01 -7.853713805894407818e-01 4.608523294280819083e-01 -4.132879444306919448e-01
-1.316395724841293129e-02 -2.839795431035180631e-02 -7.695058230919091802e-01 -8.611705512307649135e-01 4.407147551077891801e-01 -2.532899254277241052e-01
3.142447682833713479e-02 3.615718863107703768e-02 -7.924291055549207430e-01 -7.837107783869357025e-01 4.927573069319491905e-01 -3.781370813677448206e-01
-6.811901301644340823e-02 -1.770253249554483710e-01 -8.799975531843741150e-01 -7.473320799847448237e-01 6.044588698603459154e-01 -2.759062102831834062e-01
-5.535566202149340247e-03 2.714700246743587120e-02 -7.042536015541754901e-01 -8.247412035897493388e-01 4.866185958182968063e-01 -2.881046499193670729e-01
4.581901952145994196e-03 1.089146279392932785e-02 -7.673781595016748724e-01 -9.025986250326784033e-01 3.866629169047433034e-01 -1.892287260957852824e-01
5.334199874719851991e-02 3.585486947477715264e-02 -8.419201923446653080e-01 -8.284341797216768777e-01 4.185426110325954907e-01 -3.721812631217347178e-01
-6.328984301063582223e-03 -5.235801309654385116e-02 -8.251381627024684251e-01 -7.300969892996440613e-01 5.170852162144673470e-01 -4.467451906714086096e-01
1.831722009059856549e-02 -6.680326590395306574e-02 -9.050053164635148972e-01 -8.132767195289268836e-01 5.480461364798121515e-01 -1.955157532318513580e-01
-4.762995929258165284e-02 -1.150819761943635555e-01 -8.074021215706408405e-01 -8.460852881856508745e-01 4.701965339284429057e-01 -2.511073567171672738e-01
-3.982280329735385371e-02 -6.943740142887695754e-02 -7.550924934337970296e-01 -8.425209815307491690e-01 4.563799808701583527e-01 -2.861393170143121667e-01
1.358046453764936989e-02 3.687417878775566676e-02 -7.564287841756969222e-01 -9.203259377283732334e-01 3.721086740076121058e-01 -1.205624447026815427e-01
1.859403765079531423e-02 -5.660438168495300626e-02 -8.822781520089343354e-01 -8.016062316628590478e-01 5.369740142578046660e-01 -2.628428377778813663e-01
4.679829665483418305e-02 2.238437610256339971e-02 -8.424211531876343306e-01 -8.247842881131515202e-01 4.133622944351307282e-01 -3.858270229273814689e-01
3.145422896388322398e-02 5.105527798466447109e-02 -7.716080783089113160e-01 -7.668049135438790298e-01 5.260340624633856876e-01 -3.678292942293082124e-01
-5.350740649733229382e-02 -1.004624773039161090e-01 -7.608360678956705980e-01 -8.671859147785864197e-01 4.253180177497182801e-01 -2.590234989090313134e-01
3.911753975297084518e-02 4.029065719238857785e-03 -8.462876775256346074e-01 -8.094117640122638901e-01 4.273114350219468505e-01 -4.028120328118809379e-01
2.800028744037001346e-02 8.014391432316524122e-02 -7.255219502447208813e-01 -9.142110356157158169e-01 3.939887549280582935e-01 -9.482111235731630061e-02
7.315168752244079024e-03 -4.516613788245681105e-02 -8.408785156640128378e-01 -7.657911246298191310e-01 4.997503907435591475e-01 -4.047388051445729440e-01
1.019684755246978713e-01 1.798808633775413612e-01 -6.420603143611851582e-01 -4.967077032588322338e-01 8.659950633561088740e-01 -5.774086738337409763e-02
-3.565818687901868567e-02 -1.176801542765529840e-01 -8.582430683824590067e-01 -8.664914229704667736e-01 4.765151250525246351e-01 -1.487479395312501784e-01
-5.774107012653127008e-02 -1.441712585401243030e-01 -8.346364951617833983e-01 -7.713689405283785661e-01 5.796809369411235480e-01 -2.626023018467049108e-01
2.229030076358396589e-02 4.154764947226449040e-02 -7.665384771279383225e-01 -7.573571423921605650e-01 5.223177056417123154e-01 -3.919111802956870005e-01
3.996975140827812439e-02 9.002849129338387490e-02 -7.303178824120337698e-01 -6.930707158805252677e-01 5.832173462940601905e-01 -4.236868062266873070e-01
