3.097626875937954313e-02 -9.163897210997906662e-02 -9.319762090063866689e-01 4.576772806306634300e-01 6.732485383340679475e-01 -5.807477183989292469e-01
6.564160252687079901e-03 -6.614689170823509490e-02 -9.241553029805368302e-01 2.389219383597905588e-01 6.794102940978260508e-01 -6.937708264580645379e-01
1.078412433730902703e-02 -7.207054869269254038e-02 -9.265765824229003078e-01 5.329748427808735922e-01 6.297359442361158965e-01 -5.651287087909712126e-01
-5.692545536540313811e-02 2.033485930135194367e-02 -8.663605283996304030e-01 3.162106188109463090e-01 6.343326194021297049e-01 -7.054310544012302175e-01
9.393193893580634168e-03 -1.140332587228193445e-01 -9.746061889093060593e-01 1.741853192109238668e-01 7.455254664968740119e-01 -6.433127181830052832e-01
7.300599927936136935e-02 -4.646773825621549475e-02 -8.584009956424731858e-01 4.044791551856728451e-01 6.048843670281196516e-01 -6.859384196451421278e-01
-1.387403869790771078e-02 -6.438299569336000672e-02 -9.306451395392505432e-01 2.982693585957012505e-01 6.739321075671165229e-01 -6.759074671233137321e-01
-7.006474135067906894e-02 2.443232653965214662e-02 -8.689150966493283113e-01 3.399345505343590035e-01 6.273841878080279599e-01 -7.005951628732991487e-01
7.818120479506514287e-02 -1.214874742432599519e-01 -9.415438741712309767e-01 2.456994725630020915e-01 7.708241959602738502e-01 -5.877600089360112134e-01
1.412145744323632136e-02 7.609717092256720709e-03 -8.466555052596128617e-01 4.363922692692139282e-01 6.267285120428013334e-01 -6.455797081032536022e-01
1.170235479336416591e-02 -9.466918439517789385e-02 -9.518017108195220288e-01 5.663406783502024089e-01 6.405849143878835639e-01 -5.185645605944361192e-01
-8.910647520432364577e-02 -7.884754679805643096e-04 -9.032486759299648282e-01 3.553053234785964465e-01 6.623971743582566241e-01 -6.595362844529234492e-01
-7.087577980076630035e-02 2.570323697549051212e-02 -8.681705166861591882e-01 3.399345505343590035e-01 6.273841878080279599e-01 -7.005951628732991487e-01
-3.438455588517669997e-02 8.280867153762282162e-02 -7.933705593162634351e-01 1.991452913602219932e-01 7.140887883789989177e-01 -6.711321443951745458e-01
1.856351948045585620e-02 -3.694820516409656752e-02 -8.853526731592503696e-01 4.680583054950391841e-01 6.067275757117331914e-01 -6.424975264762314842e-01
3.811548339530616142e-02 -8.023250128715314622e-02 -9.139771629619969362e-01 4.414484158412355086e-01 6.639407959871110876e-01 -6.035775969792659401e-01
-6.329591697181456700e-02 -2.468202610721642598e-02 -9.137984740549590645e-01 3.303205359572584099e-01 6.535454755215269751e-01 -6.810041519331953008e-01
-8.923930314082825777e-03 -2.055552775920295103e-02 -8.865877142819735823e-01 2.478638721140094259e-01 6.582474650946549266e-01 -7.108261219152761656e-01
6.812364364508026460e-02 -4.354460724115928605e-02 -8.587264860277352696e-01 4.127925208801541124e-01 6.030241148410212526e-01 -6.826157422925509533e-01
-4.567852015053932777e-03 -3.255562632274956042e-02 -8.961810878972303884e-01 2.413906853570384481e-01 6.560913196555064886e-01 -7.150347664942980908e-01
5.341945285271464811e-02 7.029377056997630421e-03 -8.226707539333427688e-01 3.752671315604629854e-01 6.438133355264705759e-01 -6.668425368620859439e-01
5.731099164671820539e-02 -1.598959645100381521e-01 -9.997196946000097562e-01 3.305913582196117750e-01 7.343659160974355116e-01 -5.928035552734876035e-01
-8.330907312116569985e-02 4.152335678323744450e-02 -8.603096357663898575e-01 3.623825062974033728e-01 6.238848931860619951e-01 -6.924207963253475873e-01
-2.702280736631882709e-03 4.242947025453782522e-02 -8.227812850821580870e-01 4.977986334755484799e-01 6.458557849316350907e-01 -5.788495707696584835e-01
-8.210224796258193403e-03 -1.412244408318288347e-01 -1.016838010560085159e+00 4.403479560313912078e-01 7.645943733713282953e-01 -4.706263080490528106e-01
7.922704272769360082e-03 -1.289232888252890390e-02 -8.705070527945345527e-01 4.620209226516536760e-01 6.096319045365646838e-01 -6.441161448087107111e-01
-2.211610658430021234e-02 1.073899908866899899e-01 -7.628693964595795185e-01 6.490041823313592584e-01 6.318272751836231382e-01 -4.237780853824817950e-01
7.785735428584568407e-02 -6.224842557488979161e-02 -8.706888661836468257e-01 3.879693579194274378e-01 6.533889396463511412e-01 -6.500482065688697464e-01
-3.185241159079316240e-03 5.967017268268270946e-02 -8.032888527077668428e-01 5.091914684331944052e-01 6.643552308920722682e-01 -5.471345133156824136e-01
-1.693289762309922730e-02 5.950503324042864112e-02 -8.132990318028089360e-01 1.507486472039936964e-01 7.004593663937388470e-01 -6.975897945049425175e-01
-2.682903131765225838e-02 1.145340660286111797e-02 -8.627203944443981865e-01 2.330457458669620840e-01 6.582535215895992664e-01 -7.158156058987553694e-01
2.415775459638634659e-02 6.006248867374804762e-02 -7.803813321354322596e-01 4.117770044910687988e-01 6.946144261621879368e-01 -5.898732893933550381e-01
6.236966882681519581e-02 -1.194182660219341718e-01 -9.460075541516319575e-01 2.865530075501361851e-01 7.560562121522315104e-01 -5.884440312637995163e-01
-9.037040351084553447e-02 2.561002408828731355e-02 -8.782676121346867371e-01 3.615915844112270738e-01 6.302585125993620530e-01 -6.870412894280940597e-01
-3.084171926577018372e-02 -1.135774217508025985e-01 -9.929513495620776453e-01 3.236573304141178165e-01 7.569430052691383803e-01 -5.676999376812821296e-01
-5.330622768507013026e-02 4.037105562900653033e-02 -8.463618367044469792e-01 3.178284175603885431e-01 6.560756027442432581e-01 -6.845070492513847249e-01
1.206895020885202091e-02 7.718895152655197434e-02 -7.690997815145779182e-01 4.351761122926723901e-01 6.782479478767350356e-01 -5.921160971387562366e-01
-6.888547704257502735e-02 6.426162910626409541e-02 -8.287426280375814747e-01 3.338889859974541463e-01 7.142258291564576034e-01 -6.151419429654932935e-01
-1.381227776939964683e-03 9.748812688248237324e-02 -7.556183511432450484e-01 4.847514034138609151e-01 6.863690734020250206e-01 -5.421379639589334332e-01
-1.500840668396418581e-02 -1.219567859081617245e-01 -9.944047813789468337e-01 3.544816234392461074e-01 7.454234291785566402e-01 -5.645234183588471177e-01
-7.513334657324696741e-02 1.285910364894029927e-02 -8.821607407940786905e-01 3.509479874645856645e-01 6.554677886417636934e-01 -6.687282618131473733e-01
1.355568079715898169e-02 -1.055146159166272940e-01 -9.634142812130032096e-01 5.658213303381868231e-01 6.518046818214491278e-01 -5.049721565492140130e-01
-1.162612434021999047e-03 -1.234873058237336840e-01 -9.895466690695448042e-01 2.605447703084138866e-01 7.448561231430813612e-01 -6.142522108069248254e-01
4.087303048638736558e-02 -1.131574964820701856e-01 -9.506470967770294100e-01 3.779736366130425629e-01 7.220855354041874063e-01 -5.794207534991817621e-01
5.817723414167253609e-02 3.265148128609399875e-02 -7.924664923652462445e-01 3.470433698562986891e-01 7.187438045488150351e-01 -6.024684579805645868e-01
5.378406220104300917e-02 -5.444953067411306691e-02 -8.776886965587360478e-01 4.158573186755495366e-01 6.359240634084405430e-01 -6.501255848542498716e-01
-5.056154484065580185e-02 -6.487719771165403881e-02 -9.468635026423930512e-01 2.778209977681799780e-01 6.810609692185619624e-01 -6.774743164180955235e-01
7.364869232943219157e-02 -2.033097265033848022e-02 -8.359270146964883352e-01 3.902072039474951959e-01 5.884628030189485992e-01 -7.081312501581609187e-01
-8.259296941165379657e-02 -7.611259531977627307e-03 -9.066709055463935130e-01 3.496672574831092839e-01 6.674575339241320959e-01 -6.574444839316525568e-01
8.682377045929745574e-02 -8.217635822658712896e-02 -8.876698221608192441e-01 3.272003406431827632e-01 7.316433646668097923e-01 -5.980283638942344160e-01
3.763578416342480693e-02 -1.494007437905380264e-01 -9.991570092094782529e-01 4.292076122255006898e-01 7.147279063991015535e-01 -5.522181139930500970e-01
8.405518578133840124e-02 -1.116442578892511139e-01 -9.261424869439758290e-01 2.493136854018676851e-01 7.700323936647590628e-01 -5.872757435636690726e-01
-8.056331034921022580e-03 -2.614775295937544347e-02 -8.914637612344080697e-01 2.478638721140094259e-01 6.582474650946549266e-01 -7.108261219152761656e-01
-7.686362575120693486e-02 4.753355390344238610e-03 -8.910843335398054288e-01 3.492897534837985374e-01 6.680149823302159451e-01 -6.570788776802891640e-01
6.733302993140133363e-02 -8.419058235115610411e-02 -9.002328492388383951e-01 3.396032674287209896e-01 7.025748735630792385e-01 -6.253464382160980328e-01
4.446267931314427935e-02 5.668899669464997487e-02 -7.713838807547636067e-01 3.802986801558442265e-01 7.259856672986241266e-01 -5.729901611273046091e-01
8.991982540323630035e-02 -4.412729036971328733e-02 -8.464222338223229558e-01 4.009046283288392187e-01 6.062078932238588180e-01 -6.868678687910840797e-01
-8.918248643133329379e-02 9.480880568681801859e-03 -8.929224712527479291e-01 3.584095753396134287e-01 6.536965436790399542e-01 -6.665008665312859293e-01
5.456736350484391734e-02 -2.797815751306989215e-02 -8.533387155394933643e-01 4.238883494520661044e-01 5.917277586999526440e-01 -6.856944850170035854e-01
-7.777706089191660510e-02 2.748476377707827559e-02 -8.700753279473837365e-01 3.553435449021197234e-01 6.228958066429209905e-01 -6.969446026500671909e-01
2.252089717054512122e-02 -4.131807738128311439e-03 -8.522257320721261520e-01 4.284690883704541098e-01 6.164143309795652170e-01 -6.606418188958425031e-01
5.380165590639317263e-02 2.905969372704542489e-02 -7.991807697169540647e-01 3.555757879096821950e-01 7.052407126424740103e-01 -6.133525872481051522e-01
-5.720675199730203969e-02 -9.083229403568834903e-02 -9.779755573264692359e-01 3.109512688640937439e-01 7.319599692056428797e-01 -6.062539994691039658e-01
-6.494985250941892260e-03 -1.523935041444366978e-01 -1.032137938600040439e+00 4.940681141655985376e-01 7.145030094124875664e-01 -4.953606242984477936e-01
-6.111721891300273685e-02 -7.437959559651061148e-02 -9.608423019119295416e-01 2.884462466340700360e-01 7.083374313706036762e-01 -6.442490559729309174e-01
-7.877842453763243477e-03 -2.396407197104849507e-03 -8.696755540708477339e-01 1.983791660063590756e-01 6.574359326856594743e-01 -7.269275761094489141e-01
6.366913087413514361e-02 -1.202208552674687708e-01 -9.464059570830590795e-01 2.865530075501361851e-01 7.560562121522315104e-01 -5.884440312637995163e-01
-4.800616368795004169e-02 6.649260700546084923e-02 -8.159062011695520367e-01 2.528556338940491921e-01 7.269255534624347037e-01 -6.384694731397670964e-01
-7.164159826782268148e-02 1.657516526960880338e-02 -8.768574595876426070e-01 3.384471874193830665e-01 6.367251581666646398e-01 -6.928452744195814361e-01
-4.278932643580607431e-02 -4.092293895792733366e-02 -9.202093319097969237e-01 3.008890803624021393e-01 6.674319152879293338e-01 -6.811757480810325394e-01
2.074998410828992473e-02 1.517343190566488101e-02 -8.347192967032053268e-01 4.231483513344038161e-01 6.393633291406467523e-01 -6.419968894886992627e-01
6.763246043425095999e-02 2.094837812819457662e-02 -8.004126533185347281e-01 3.535568103310305355e-01 6.843146353762278311e-01 -6.377390231736239645e-01
-3.933700560232242238e-02 7.805935954404492894e-02 -7.999083311734140889e-01 1.978042782743902328e-01 7.213429021086891213e-01 -6.637302803652714855e-01
-6.165689228869309507e-02 4.432910903982031220e-02 -8.465253996519465085e-01 3.392833955336489460e-01 6.493953526534220755e-01 -6.805677434813490745e-01
4.937983672789782869e-02 5.098883719427418915e-02 -7.753371334706544715e-01 3.511734419157305220e-01 7.269321207466805657e-01 -5.901244830709811984e-01
1.627208846097035963e-02 -1.504699670928729693e-01 -1.016971319406656082e+00 9.972222933937344158e-02 7.730807852604638652e-01 -6.264196488270863394e-01
-7.964935300785921934e-02 4.233951830086818413e-02 -8.576083815886329509e-01 3.531971302525452883e-01 6.444497304449485764e-01 -6.781860600976695741e-01
6.987792089473587875e-02 1.463582122143448384e-02 -8.059314613785660830e-01 3.570901467624902348e-01 6.625529796519530334e-01 -6.584148967326466373e-01
7.506674880202056366e-02 -1.383457914721200610e-01 -9.643061500614964476e-01 2.715157928551702460e-01 7.471420246004378818e-01 -6.066778134283361545e-01
-6.314411189643648337e-02 -5.334516594942086826e-02 -9.408528762092499553e-01 2.864372430224099153e-01 6.577667157378129792e-01 -6.966323660850191057e-01
7.227128038054321524e-02 -4.006994921464698128e-02 -8.531924101630705692e-01 4.045192409643710851e-01 6.049119007087753186e-01 -6.858904986005462945e-01
-1.371354543876349835e-02 -5.588544504217453357e-03 -8.743506189735540390e-01 2.327485506949070748e-01 6.589293522209783704e-01 -7.152903053523528287e-01
-6.465642353706789469e-02 3.260585207003940944e-02 -8.589272775486986866e-01 3.404831971676063329e-01 6.319980971470838815e-01 -6.961677941767990818e-01
2.701754549730710567e-02 -1.301565360630378698e-01 -9.828385805623688354e-01 4.535814865727061385e-01 7.077183927171564193e-01 -5.416627286867157220e-01
5.588223423014556518e-02 -3.883810923696123796e-02 -8.620143938088823399e-01 4.250899253320981619e-01 6.008142840504828719e-01 -6.769939079947889793e-01
-4.780533439407671364e-02 -7.418980811774662787e-02 -9.550742506858355130e-01 2.775047250047854019e-01 6.989175033549827054e-01 -6.591702747424645903e-01
-3.633368918592505548e-02 9.147169366236759802e-02 -7.845706177380785684e-01 1.817177329669455443e-01 7.205345304915069526e-01 -6.691850684935650717e-01
-5.444953499173875444e-02 -1.664255514363175911e-02 -9.015346706715345881e-01 3.169311497888833151e-01 6.752830472142068441e-01 -6.659935828809401270e-01
4.429205705376603602e-02 -9.168670298498066140e-02 -9.225353355118605103e-01 3.998061278343288394e-01 6.957278119510615921e-01 -5.967561242449955783e-01
-3.699022445728038927e-02 9.917551436552890509e-02 -7.762563880268549266e-01 1.798455849656394046e-01 7.303063617879373970e-01 -6.590206244879088793e-01
3.965651720296430732e-02 -8.818701240807869102e-02 -9.216877201237981820e-01 4.350819323574533493e-01 6.692143259684383283e-01 -6.023752136789107814e-01
-4.897171401183058465e-02 5.258841797465916429e-02 -8.319121131121560708e-01 2.675279515439374922e-01 7.143809657539180735e-01 -6.465977350031500981e-01
-1.808995975364208978e-03 5.399154263792712433e-02 -8.088756807091747048e-01 4.919041050841507778e-01 6.597564383997254200e-01 -5.681124830449251206e-01
9.007823664952325712e-03 7.449932083334864785e-02 -7.746761209861752207e-01 4.553912454243275731e-01 6.759212817683323271e-01 -5.794387236313557343e-01
1.891072113610106284e-02 6.998259576826010298e-02 -7.724042141705782516e-01 4.339826364394300806e-01 6.846229178974803098e-01 -5.856197841250083691e-01
1.376626014785863918e-02 -4.351323090217642381e-02 -8.951782281572715494e-01 4.805002008283362214e-01 6.100584069778851593e-01 -6.300383298494892648e-01
6.427437055375900821e-02 8.663348850906592985e-03 -8.150356212307232617e-01 3.630967548542916590e-01 6.625379909401351020e-01 -6.551367469279157918e-01
5.832468243178216827e-02 -1.598242711384832981e-01 -9.990655713605665067e-01 3.305913582196117750e-01 7.343659160974355116e-01 -5.928035552734876035e-01
-3.049239265616500091e-02 5.507082097511990793e-02 -8.219067712817527127e-01 2.330270418988763248e-01 7.073473154818088471e-01 -6.673516112399354716e-01
-1.150635432381782140e-02 -1.090393508732993566e-01 -9.768285908264124906e-01 2.633756746844459484e-01 7.317851713686360782e-01 -6.285886707135986962e-01
-3.076926844715979683e-03 -1.162020174781976251e-01 -9.816298736024968719e-01 2.668319338828775700e-01 7.331333006033762256e-01 -6.255527816313529721e-01
2.137120318804335353e-02 -1.568498007438201211e-02 -8.636792424754250463e-01 4.510778441094746016e-01 6.091449687176799799e-01 -6.522815233007028812e-01
-5.655070940136407154e-02 -7.968024025519993003e-03 -8.936951668904192791e-01 3.165083621713609685e-01 6.779772851753635976e-01 -6.634525284161982839e-01
3.931491445458668715e-02 2.388679941877017848e-02 -8.136676208660594822e-01 3.852170657595735959e-01 6.788771199465718498e-01 -6.250869285632458805e-01
-4.258827293005678499e-02 -1.037988860013082937e-01 -9.867393715645257357e-01 3.344566086087035206e-01 7.573849690201857054e-01 -5.608090456298444604e-01
1.364576376547863706e-02 -3.793910790497719010e-02 -8.899280914092765338e-01 4.810080727605824946e-01 6.061506350404899379e-01 -6.334134838943366042e-01
7.000379825747374274e-02 -2.334387428016168609e-02 -8.404392353647560654e-01 3.902072039474951959e-01 5.884628030189485992e-01 -7.081312501581609187e-01
-4.053960603390275447e-02 1.208121127225698088e-01 -7.524230789772351491e-01 2.074993311808992769e-01 7.286658953687783491e-01 -6.526791252107700947e-01
1.810653728563477866e-02 2.075624070660268480e-02 -8.307692392310270790e-01 4.251539190695266535e-01 6.506872562577765695e-01 -6.291663052353878571e-01
-7.612986356555632994e-02 1.996956883907248514e-02 -8.760344938846195140e-01 3.540697234255152925e-01 6.325377673861818373e-01 -6.888618176263535675e-01
-2.359754835516236077e-02 -1.236077047384752103e-01 -1.002480545257625533e+00 3.894741657449874994e-01 7.543717294234042470e-01 -5.284251773562536059e-01
5.947357106619566985e-02 -1.516921026822464214e-01 -9.882132274942103667e-01 3.039438720990397802e-01 7.428829161588091923e-01 -5.964420302869559709e-01
-3.282195023426407593e-02 -3.630826010352548872e-02 -9.112725333401416883e-01 3.016124656244740243e-01 6.685059239870584369e-01 -6.798012578497737435e-01
-3.549962289022658840e-02 5.466293343737486238e-02 -8.242067847302256833e-01 2.411729408275558040e-01 7.133353361377150481e-01 -6.580184730156755091e-01
-3.395274417764925640e-02 1.427235914281690388e-01 -7.145515549582245329e-01 -2.177946234328232145e-01 9.063678113566195904e-01 -3.620260937285684211e-01
-5.359118553132161816e-02 -9.383446091625859131e-02 -9.799224611281328601e-01 3.026737248135920599e-01 7.680868663804190088e-01 -5.642970689285693453e-01
8.692966066360546806e-02 -8.075376209449366960e-02 -8.858714453671768796e-01 3.272003406431827632e-01 7.316433646668097923e-01 -5.980283638942344160e-01
-4.605862981537183626e-02 -3.985281817030782159e-02 -9.206049198637016318e-01 3.008890803624021393e-01 6.674319152879293338e-01 -6.811757480810325394e-01
-1.931893952040819942e-02 4.399222316396313170e-02 -8.295729916346021859e-01 2.158250800827946625e-01 6.878239674518408231e-01 -6.930495830790637246e-01
-7.937589445882119524e-03 -8.118890040356936677e-02 -9.451269367157705270e-01 2.904384838828727999e-01 6.907663935133037114e-01 -6.621837182175668302e-01
-5.537857496791442208e-02 9.027526940362440300e-02 -7.924209839568797653e-01 2.368481583004733715e-01 7.341020929138688533e-01 -6.363937987513323957e-01
-9.322184072882074013e-02 2.681939257347437308e-02 -8.786697782370461729e-01 3.628279563019748966e-01 6.201818425567882098e-01 -6.955072654463066995e-01
-3.233450633508747063e-02 1.042490993842063451e-01 -7.692278769128160221e-01 1.737936038901835012e-01 7.420578452753413545e-01 -6.474148110077336815e-01
4.881492568179750073e-03 -1.130548831059112191e-01 -9.749253129657913242e-01 2.273591437835344176e-01 7.387342422672532605e-01 -6.344915594709242823e-01
3.269785265645557687e-02 -1.091842687609887452e-01 -9.516429472531573452e-01 4.146376041798343626e-01 7.083659563655066993e-01 -5.712209109113464134e-01
1.950344315532073422e-02 -1.592901548022416236e-01 -1.027720233350589263e+00 4.600257354096393830e-02 7.857894713285915600e-01 -6.167808930055639349e-01
-4.123234051351527124e-02 8.301656033061864670e-02 -7.952102251256586429e-01 2.277708966491154008e-01 7.121802083693559160e-01 -6.640178984384675909e-01
-4.769934680284011047e-02 1.129020934806457682e-01 -7.637463895215274023e-01 2.040240704600046473e-01 7.402655315190622698e-01 -6.406099605202305591e-01
4.437575651937671409e-03 8.933465638285505162e-02 -7.607767965554080858e-01 4.563182460155698617e-01 6.795444118438385139e-01 -5.744502160197045848e-01
-6.514639382291903535e-02 5.560244454502107081e-02 -8.365699438693682266e-01 3.295704913502727207e-01 7.044689947564195531e-01 -6.285751559344511241e-01
-7.503856533083093361e-02 6.760416366613672401e-02 -8.282288330596229153e-01 3.390481001791494919e-01 7.157595666910683274e-01 -6.105199656482362958e-01
6.230147854591443213e-02 -1.687297266395141465e-02 -8.393274911294718033e-01 3.963726803129630771e-01 6.047179941592198960e-01 -6.908001489878006218e-01
-8.648760502866259525e-02 4.844216858403117137e-02 -8.554458143982879292e-01 3.600579138914989930e-01 6.419593048136545965e-01 -6.769391033226483945e-01
6.273980523735114834e-02 -1.496260047613021393e-01 -9.839576281803911195e-01 3.147895599040458348e-01 7.374933603167442842e-01 -5.975040388684699222e-01
2.803792948475427801e-02 -1.659102141754087434e-01 -1.032686810800964583e+00 5.868054296348010901e-01 7.212619080071359656e-01 -3.680226186106256847e-01
-5.516749617265417210e-02 5.718877833287192014e-02 -8.297338729226664267e-01 3.020097597664834765e-01 7.062016818032738064e-01 -6.403665275637215881e-01
5.879855087932688712e-03 6.752297844222654444e-02 -7.856246215599509419e-01 4.943745403701045316e-01 6.745475644915717162e-01 -5.482512171188831385e-01
-5.074081227533494554e-02 -2.911525830563782211e-02 -9.122160215252399507e-01 3.096684098226040183e-01 6.695885311838523091e-01 -6.750975298910453226e-01
8.156881644959033950e-02 -6.166909485022756265e-02 -8.679584724630595716e-01 3.681074020270038161e-01 6.704925336397040692e-01 -6.441558063903020104e-01
-1.376232508666797721e-02 -4.522831642423526949e-02 -9.117831386581501940e-01 2.949307811592265516e-01 6.624387639009864381e-01 -6.886150727410356165e-01
-2.227907117676772991e-02 9.896753064696986457e-02 -7.733490017037670805e-01 1.132385332300452942e-02 7.285006466535378644e-01 -6.849515151974602256e-01
2.411733310594010166e-02 -6.519022925434077298e-02 -9.086305399571721342e-01 4.703088109021588137e-01 6.222738896569292022e-01 -6.257673917990880241e-01
4.736684412278117928e-02 -1.265366025589585441e-01 -9.631694940241231073e-01 3.820928071359266931e-01 7.229463700124618697e-01 -5.756332450621596264e-01
-5.325501013910786952e-02 7.871130610270404837e-02 -8.043511896729306221e-01 2.628594175060511851e-01 7.144338668332128606e-01 -6.484513679144507936e-01
-3.048627384141538305e-02 1.466069675683580043e-01 -6.874128023634834550e-01 4.179964291633930795e-01 8.985461861018486651e-01 -1.337674723110011399e-01
3.742313814083159107e-02 -8.861246545912858374e-02 -9.237735000933217089e-01 4.350819323574533493e-01 6.692143259684383283e-01 -6.023752136789107814e-01
-4.084706322103059256e-02 -1.014489300536145638e-02 -8.888056869805176508e-01 2.869731390634663315e-01 6.809416313287937061e-01 -6.737691831624105232e-01
-6.638494819570982253e-02 -5.931665417933788820e-02 -9.478265185026067963e-01 2.763799689498203649e-01 6.636429794229184997e-01 -6.951202116367847239e-01
-6.624548464763033162e-02 -1.357430055284133963e-02 -9.042527413033348838e-01 3.334813187649660060e-01 6.718331670889263751e-01 -6.613852172781320427e-01
-6.217020791567290372e-02 -7.147652295549664081e-02 -9.582499229952091691e-01 2.773329507536165806e-01 6.835432773162214426e-01 -6.751703655093960199e-01
-1.472862914936730674e-02 7.578904491429283574e-02 -7.954823094579036580e-01 5.883092674141895406e-01 6.259243486886858499e-01 -5.119676899895383437e-01
2.393876123164579220e-02 -1.378404276622726965e-01 -9.959494822154061344e-01 4.937545958092051102e-01 6.962366673343683976e-01 -5.210190996272793251e-01
-3.432918847303442766e-02 5.149808716106286932e-02 -8.271304651919501039e-01 2.541722297628028482e-01 7.043218932505450613e-01 -6.628175829784338502e-01
-3.940153749903101826e-02 1.123440075468527533e-01 -7.618491789496560918e-01 1.912651052728504830e-01 7.435623381884193250e-01 -6.407282643467010486e-01
3.488045651696597416e-02 4.373913953568383389e-02 -7.932095363804295696e-01 3.719275809147696843e-01 7.171450008100367368e-01 -5.893835104310773954e-01
3.120184293555134172e-02 -1.117161794446988599e-01 -9.559300538321480190e-01 4.425538620528063904e-01 6.985616800876676136e-01 -5.622789861761161578e-01
-5.708069434379422352e-02 -7.229204753411544448e-02 -9.569849926647077121e-01 2.773329507536165806e-01 6.835432773162214426e-01 -6.751703655093960199e-01
-1.153163362857804672e-02 8.165193086932134858e-02 -7.847566622609857268e-01 5.404806167024094332e-01 6.507040029544154391e-01 -5.333526071072337560e-01
2.940491102368021116e-03 -2.491497713730760413e-02 -8.858584232618867960e-01 5.207298994937838987e-01 5.946678204290258840e-01 -6.125443291055640005e-01
1.400961116099411555e-02 -8.246111634160296910e-02 -9.352318224608617836e-01 5.021194600514901074e-01 6.411837874557554384e-01 -5.803097436210187254e-01
2.698594259251124380e-03 6.592860695521694792e-03 -8.556679061826460986e-01 4.702326768035955951e-01 6.197680885256358074e-01 -6.283062518480972969e-01
3.362921642333525289e-04 -1.889015109645450496e-02 -8.822791198443493688e-01 4.947438158716248036e-01 6.027742456348728073e-01 -6.260125920906814967e-01
4.036465090012824469e-02 3.087829810154673477e-02 -8.051187046408170289e-01 3.701678090138117438e-01 7.032306567790159724e-01 -6.069945934982189373e-01
5.648439758358865526e-02 -5.600403250778712705e-02 -8.774819532583714166e-01 4.158573186755495366e-01 6.359240634084405430e-01 -6.501255848542498716e-01
-1.081851767200751012e-02 -9.163015478290205407e-02 -9.573687509404292806e-01 2.781836451614013717e-01 7.033077516004473395e-01 -6.541957399000997153e-01
2.680231820579264193e-03 -1.323719276041770143e-01 -9.988109340100753686e-01 2.499897678375753163e-01 7.533939451483709915e-01 -6.081962507203482193e-01
1.801663687046858864e-02 -4.688890610864281105e-02 -8.952052934472921608e-01 4.805002008283362214e-01 6.100584069778851593e-01 -6.300383298494892648e-01
2.884413240355715793e-02 -1.646017213281762426e-01 -1.028872138138247072e+00 5.610458201149788326e-01 7.029027859874223960e-01 -4.372130615416592314e-01
5.022072861352321754e-02 -2.830853076715767608e-02 -8.562948556725656912e-01 4.167715277873723645e-01 5.988807982557661225e-01 -6.838444875162158487e-01
5.244512495092501503e-02 -5.865391170075102967e-02 -8.826071415110662288e-01 4.069514526107042562e-01 6.313881278508181039e-01 -6.601057091308001334e-01
-6.763945561305544085e-02 -2.192201105017616523e-03 -8.933354144451557399e-01 3.354480952714957720e-01 6.704972469387781020e-01 -6.617461879196924190e-01
-3.491831367022107946e-02 5.279219597356792082e-02 -8.259812351119415474e-01 2.541722297628028482e-01 7.043218932505450613e-01 -6.628175829784338502e-01
-2.967969339736566473e-02 -2.837333558697751473e-02 -9.021224741671425296e-01 2.876725168840606472e-01 6.668404656240987105e-01 -6.874360453422740935e-01
-5.582603388085672323e-03 -1.487177003360910243e-01 -1.025724622157870858e+00 4.492887588066902804e-01 7.356605692851474476e-01 -5.068955888632257212e-01
-1.243713510443613356e-02 4.797511342270166512e-02 -8.237773498575211573e-01 1.509612234258636831e-01 6.881817783839210279e-01 -7.096594598271133147e-01
-7.506186523169015856e-02 7.586427178152752027e-02 -8.184213652111680393e-01 3.297711854632261463e-01 7.235593910986416466e-01 -6.063932492954896558e-01
4.557053104378742774e-03 -1.068874879844998287e-02 -8.709313912486976728e-01 4.815729149774027884e-01 6.044328246622957534e-01 -6.346246828093953241e-01
2.001281288563781791e-02 -1.383645827773438697e-01 -1.001005439333511493e+00 6.276365962919121522e-01 6.495971271290472693e-01 -4.290639526000660231e-01
4.555936906286379984e-02 -3.334399455784452238e-02 -8.636028717824111300e-01 4.372950519443403739e-01 5.997441036583311957e-01 -6.701343504641896764e-01
-3.895103731378412454e-02 -7.116479582597590170e-02 -9.483432516185275052e-01 2.851296433814981546e-01 6.788208256241535787e-01 -6.766855792493899902e-01
-4.032597656868706741e-03 -1.166942099482607964e-01 -9.826086928623968264e-01 2.633756746844459484e-01 7.317851713686360782e-01 -6.285886707135986962e-01
9.872913456465896853e-03 -8.352530831221245677e-02 -9.404023262900027547e-01 5.686481603409272445e-01 6.280991201509330546e-01 -5.311598300008228968e-01
-1.107362211290937627e-02 6.015831309397481896e-02 -8.102390592300484640e-01 5.694181005153097219e-01 6.257355191567658403e-01 -5.331210808729566208e-01
-2.104951646671468501e-02 1.791919556755744262e-03 -8.698090209444280241e-01 2.387313280712386465e-01 6.618649135419442109e-01 -7.105928434901784829e-01
-4.862881081867158339e-02 5.231547404376077348e-03 -8.768275342896650892e-01 2.827497755953601866e-01 6.666202945606370944e-01 -6.896882971898705694e-01
1.902098971909528535e-02 -1.459480058021941640e-01 -1.011080280644897744e+00 -3.003774069021463225e-02 7.684053906983263627e-01 -6.392580775242342472e-01
2.527870590677899765e-02 -1.364117145067202663e-01 -9.927704695291907910e-01 4.937545958092051102e-01 6.962366673343683976e-01 -5.210190996272793251e-01
4.118046009646746108e-02 -1.731735277189618560e-01 -1.033306354679654149e+00 2.700305988183070438e-01 9.184040664493402506e-01 -2.891668141940608727e-01
-1.666951888108525806e-02 8.160423885357483142e-02 -7.905834749524314198e-01 6.588910638546349174e-01 5.971871231428320659e-01 -4.574167748617177232e-01
-7.812350003771068030e-02 -3.682543070309560185e-02 -9.320736415080678183e-01 3.260614503273212561e-01 6.359069577184903732e-01 -6.995043043010227279e-01
-5.653745510157655654e-03 9.750200115147629465e-02 -7.594292315772566138e-01 4.934682909861995981e-01 6.841459936522730212e-01 -5.370598711137366532e-01
-3.933853292863157686e-02 6.399339597101363908e-02 -8.153280789029851983e-01 2.262024082581592099e-01 7.156043499027817667e-01 -6.608652547217369611e-01
-1.517594711371755270e-03 -4.219817804911443759e-02 -9.040462432203918430e-01 2.538584675462594031e-01 6.596686749051692278e-01 -7.073847028342661325e-01
-2.721317070787924661e-02 6.227634960635049927e-02 -8.132409289228380578e-01 2.011353432788116624e-01 7.187632894803027694e-01 -6.655252868070221650e-01
-3.747233574775459854e-03 -5.045450452982879613e-02 -9.126440996818839801e-01 2.628281846042232472e-01 6.679762807235096744e-01 -6.962248442625668110e-01
1.556105515404188587e-02 -7.975137915441134207e-02 -9.308954317652992083e-01 5.021194600514901074e-01 6.411837874557554384e-01 -5.803097436210187254e-01
-2.150805875989185434e-02 -1.102483951986533706e-01 -9.831859232502461188e-01 3.332270346359226809e-01 7.339313497499196925e-01 -5.918652863971756162e-01
-4.497468204238985051e-02 4.470090332278488232e-02 -8.384785543239803296e-01 2.851958181124432667e-01 6.887020636844169985e-01 -6.665979393967547129e-01
-6.463535278181355148e-02 4.293930380439477112e-02 -8.493365569001549709e-01 3.397675844934857636e-01 6.489251111340862410e-01 -6.807746974345300073e-01
6.605795662926051970e-02 -8.737818210087798521e-02 -9.046268403127422086e-01 3.359343556329240643e-01 7.210230838630304895e-01 -6.060312048419101982e-01
-3.022761342295187878e-02 2.338699745429785246e-02 -8.529003408096609284e-01 2.562883635241998137e-01 6.536433938478002359e-01 -7.120860821566569188e-01
8.463349858533203429e-02 -2.432020955329796882e-02 -8.331840819522968733e-01 3.872936652284146852e-01 5.797928126646060276e-01 -7.168290669723192954e-01
4.223424007774399108e-02 -2.704332648611997014e-02 -8.601491061148620609e-01 4.314774620265879879e-01 5.957476767348465208e-01 -6.774303694315211288e-01
-3.854305982040921036e-02 5.474649527693881829e-02 -8.252316602457578920e-01 2.411729408275558040e-01 7.133353361377150481e-01 -6.580184730156755091e-01
-9.415554912276374866e-02 2.590301674683415795e-02 -8.799909666114577034e-01 3.615915844112270738e-01 6.302585125993620530e-01 -6.870412894280940597e-01
4.847903892750259763e-02 -9.273246293892922765e-02 -9.209494000061932972e-01 3.998061278343288394e-01 6.957278119510615921e-01 -5.967561242449955783e-01
6.511617608568724680e-02 -7.148110683238834140e-02 -8.876503555071809659e-01 3.827222783914279725e-01 6.617770931126299994e-01 -6.446508641538237772e-01
7.869162290124807890e-02 -1.140937115452315825e-01 -9.316311663688158218e-01 2.493136854018676851e-01 7.700323936647590628e-01 -5.872757435636690726e-01
6.732652181581984252e-02 -6.950926274247891390e-02 -8.843138676137164422e-01 3.827222783914279725e-01 6.617770931126299994e-01 -6.446508641538237772e-01
-6.759777869222824420e-02 4.509491895974077069e-02 -8.487603067693834102e-01 3.397675844934857636e-01 6.489251111340862410e-01 -6.807746974345300073e-01
-3.537694769455283078e-02 1.271934060900901109e-01 -7.436247264276653057e-01 2.897961751180393453e-01 6.755726923933165207e-01 -6.779525899201213068e-01
4.137697765546645423e-02 4.314631988641793453e-02 -7.898051713302656207e-01 3.781093718475627141e-01 7.227699309534215688e-01 -5.784781152564266726e-01
-3.740024003728231738e-02 1.490655789876393564e-02 -8.632717809098521267e-01 2.561877167874680450e-01 6.543906257995458775e-01 -7.114357051996357262e-01
-3.614228468027726876e-02 9.280505142041944877e-02 -7.830829696331049750e-01 1.817177329669455443e-01 7.205345304915069526e-01 -6.691850684935650717e-01
-1.491383437378287699e-02 -1.267577399327876053e-01 -1.000723625006480155e+00 3.526927165043149404e-01 7.527786688937714299e-01 -5.558166274800788731e-01
-3.872340916604283256e-02 4.098884738175568448e-02 -8.395504546234957566e-01 2.639575133060224621e-01 6.686402803361188862e-01 -6.951594109852338166e-01
7.877396316790598318e-02 -7.828829512478985286e-02 -8.873738028478835860e-01 3.390071158796252315e-01 7.153021582642721254e-01 -6.110785528599841365e-01
1.305764408458743794e-02 -6.491233194335280232e-02 -9.170831092465883128e-01 5.048706319408688969e-01 6.253975840535768160e-01 -5.949651307963997882e-01
-5.361194587300329578e-02 -8.988310921765607642e-02 -9.750226993285718846e-01 2.842694614466975689e-01 7.300948426185916995e-01 -6.214116140454234438e-01
-7.044027161516545898e-02 5.421012946895667484e-02 -8.408980446888283389e-01 3.480090799982844540e-01 6.773349264878169018e-01 -6.481566767367989979e-01
-5.607201185845234193e-02 -2.784179485109318508e-02 -9.134579089613529268e-01 3.164601561538688546e-01 6.640839893136935013e-01 -6.773812993464457533e-01
-6.649467145042076144e-02 2.192812604416978853e-03 -8.883095133157936640e-01 3.347338569851409651e-01 6.711386297128387746e-01 -6.614576212389002841e-01
-3.196191652169520087e-02 -1.028941375047424528e-01 -9.795601578867932924e-01 3.044334569145007996e-01 7.245195960851439354e-01 -6.183782218025686284e-01
2.843959528436398182e-02 -6.212442636567208631e-02 -9.023333644800893838e-01 4.703088109021588137e-01 6.222738896569292022e-01 -6.257673917990880241e-01
-2.790091422566159593e-02 -5.806506435678985417e-02 -9.305361605478662534e-01 2.932301180334562773e-01 6.736545138971282709e-01 -6.783846208340141848e-01
-2.506303012332195684e-02 9.291535855124898047e-02 -7.802852709492987815e-01 1.365128136204963871e-01 7.338837120725202334e-01 -6.654163725608756019e-01
-6.428255793475501356e-02 3.939977449305116092e-02 -8.525379263129163609e-01 3.392833955336489460e-01 6.493953526534220755e-01 -6.805677434813490745e-01
4.522036280730323127e-02 -6.217935690997038883e-02 -8.906755389061643546e-01 4.318225769465753872e-01 6.392805627583280081e-01 -6.362779456484521923e-01
6.493184079142660936e-02 -1.279729628024041110e-01 -9.556805804753031319e-01 2.600839670690985872e-01 7.621628301373396530e-01 -5.928441198414983182e-01
7.800605487298252483e-02 -6.175039552679535172e-03 -8.214926720372721647e-01 3.681071961842630191e-01 6.109155991307414491e-01 -7.009131350289333762e-01
-3.178850641685614098e-02 -1.156044014059320751e-01 -9.965168713201997264e-01 3.689316850388587588e-01 7.686285575172401296e-01 -5.225892769119501180e-01
2.986483462867069519e-02 -3.084046663898814059e-02 -8.717497380614063207e-01 4.484731692888138110e-01 6.002532491443517415e-01 -6.622445570328954201e-01
3.381528304960190745e-02 -4.342105178831277140e-02 -8.806181073184056185e-01 4.553837584790035309e-01 6.054313727680268320e-01 -6.527468769605559995e-01
2.663569704528154919e-02 -1.608735149008140020e-01 -1.025804123358238229e+00 5.885333970617928623e-01 6.928106140891461262e-01 -4.167036039540889525e-01
3.845582493898406368e-02 -4.565525949820876256e-02 -8.794991341776676741e-01 4.399908881247865944e-01 6.095688315142909763e-01 -6.594193339700190615e-01
4.888925387570373926e-02 -1.268522272768547732e-01 -9.626580982570416278e-01 3.313340867217085539e-01 7.414249826354358808e-01 -5.835295348997640019e-01
8.508617303954844890e-02 -6.866175785748333815e-02 -8.732210133307842792e-01 3.587820100169991644e-01 6.855674639546432969e-01 -6.334609077559252288e-01
-4.915905826188420036e-02 -2.551271784152580116e-02 -9.079357029633718934e-01 3.172004292431988004e-01 6.640018551060312690e-01 -6.771155175475447319e-01
-4.383508698578585105e-02 -1.097810968605954646e-01 -9.963194581900641777e-01 3.700070260264122224e-01 7.924033772898992911e-01 -4.849656568775270182e-01
-7.132534264063913887e-02 -2.817156031341905981e-02 -9.210315476142034719e-01 3.233931878717969943e-01 6.425420330743332187e-01 -6.946629267283659370e-01
4.951831919718503033e-02 -1.140786753926417152e-01 -9.461343174175255166e-01 3.295659529913785857e-01 7.394795162085910922e-01 -5.869892058094360321e-01
3.767397955094022033e-02 -1.324561255057344093e-03 -8.399053974886571128e-01 4.140969019506425819e-01 6.273588583921900774e-01 -6.595033120399987903e-01
8.072202451127243050e-02 -1.162544995576224177e-01 -9.336088953698306048e-01 2.490489677041436145e-01 7.711114367400621061e-01 -5.859707875092217133e-01
6.823100213001177805e-03 -9.960552357809052126e-02 -9.589444993391889049e-01 2.217268564799848851e-01 7.207523718355378639e-01 -6.567748621932411046e-01
1.805444674399031644e-03 -6.141046803458023728e-02 -9.210551420059707173e-01 2.677977542407317668e-01 6.765207070680080426e-01 -6.860059006537941872e-01
3.629612391583180581e-02 -1.494154132069347163e-01 -1.000246566436189477e+00 4.622243651879069382e-01 7.070669716918589476e-01 -5.351681359807780591e-01
-6.694221913731301932e-02 7.202843019036599126e-02 -8.186075962861928401e-01 3.220806008019322930e-01 7.202892573596902936e-01 -6.143675384647955262e-01
-1.084753511241092795e-02 5.754614904387884283e-02 -8.130635316654073463e-01 5.694181005153097219e-01 6.257355191567658403e-01 -5.331210808729566208e-01
-7.580420118068030566e-02 5.536181721712490900e-02 -8.425745187513939971e-01 3.480090799982844540e-01 6.773349264878169018e-01 -6.481566767367989979e-01
8.297948872878589677e-02 -2.175578894155880821e-02 -8.320035423527463170e-01 3.872936652284146852e-01 5.797928126646060276e-01 -7.168290669723192954e-01
5.212598857687754383e-02 -1.004165904821672783e-01 -9.278058801709422321e-01 3.418099544744542251e-01 7.181764293559420587e-01 -6.061258708714891696e-01
-3.477880206149219777e-02 1.065940816322652474e-01 -7.671970804978300862e-01 1.740260955318903291e-01 7.419585974765318115e-01 -6.474661054484500688e-01
1.859155148341651645e-02 -2.033188544566847875e-02 -8.699154989710260466e-01 4.513626956183766636e-01 6.068420999593702181e-01 -6.542280815747778533e-01
2.768464483551677166e-02 -1.539376145667480655e-01 -1.014345120856399385e+00 5.414957564571818427e-01 6.855985555239098028e-01 -4.865562314906602959e-01
7.379547153171424345e-02 -1.104891757504175148e-01 -9.291898372322396904e-01 2.638333323286212173e-01 7.608886218358013043e-01 -5.928241542929828523e-01
-4.055190010967180125e-02 -6.935218006798453405e-02 -9.471963234114793018e-01 2.839764328104965041e-01 6.794674286712588662e-01 -6.765215436208171784e-01
6.640479260987014465e-02 -1.801476389979342688e-02 -8.379893441962044109e-01 3.796238658499268559e-01 5.987600487721372877e-01 -7.052461445988518207e-01
8.869702335195556175e-02 -2.539583175590337180e-02 -8.318181999970798435e-01 3.981839444778756398e-01 5.691098129734997180e-01 -7.194189093548406522e-01
4.750137356952603522e-03 -1.148067276039999585e-01 -9.770120425785946416e-01 2.273591437835344176e-01 7.387342422672532605e-01 -6.344915594709242823e-01
-1.303185495270297797e-02 -1.215267749039118522e-01 -9.926311814299462188e-01 3.001277443981431592e-01 7.465223475541746812e-01 -5.938246556389240594e-01
1.773582480491159297e-02 6.653832302865381187e-02 -7.773168082711446880e-01 4.373999295138856769e-01 6.862132580957015504e-01 -5.811993342003500818e-01
8.742841063151887693e-03 -2.893730604255531288e-02 -8.850692914786326693e-01 4.877497344994179973e-01 6.013353243254166980e-01 -6.328475521120339176e-01
6.953626599281495513e-02 -1.475338596590390627e-01 -9.780842905470549242e-01 2.716143880982034298e-01 7.467048857440080623e-01 -6.071716707687097037e-01
8.175320562260650348e-02 -6.453152982914131530e-02 -8.708325694495082647e-01 3.681074020270038161e-01 6.704925336397040692e-01 -6.441558063903020104e-01
3.623884806466165509e-02 -4.956015927712060370e-02 -8.846384612233761935e-01 4.540820049883598775e-01 6.157625507765621675e-01 -6.439301311531343552e-01
-6.422746569414350404e-02 9.870991904811084183e-02 -7.860115654231432103e-01 2.501715246434064732e-01 7.418716648333869568e-01 -6.221259046004533610e-01
2.494062183836676105e-02 1.464100944893008752e-02 -8.324874322260803483e-01 4.231483513344038161e-01 6.393633291406467523e-01 -6.419968894886992627e-01
4.252772718350269349e-02 1.542834133863933872e-02 -8.206271969996747906e-01 3.880458598381897328e-01 6.618205361079995130e-01 -6.414156130374130127e-01
-6.241075983799698745e-02 -6.078629469469408984e-03 -8.946489302603887195e-01 3.347579430355194785e-01 6.748906118420865408e-01 -6.576167437208713107e-01
3.451976216365995609e-02 -4.059338472141921228e-02 -8.775039343173254291e-01 4.553837584790035309e-01 6.054313727680268320e-01 -6.527468769605559995e-01
3.751373208997733910e-02 -6.213146136292987259e-02 -8.958590572135516350e-01 4.526566984747665834e-01 6.288537039840020881e-01 -6.321747640577921601e-01
3.269698730321714958e-02 -7.106524789886012328e-02 -9.083104343731462915e-01 4.482358233902639655e-01 6.459602504233089570e-01 -6.179158530922381765e-01
-5.365166970792087549e-03 8.658858048914289118e-02 -7.727419203482869259e-01 5.061442972723375622e-01 6.645864712860878321e-01 -5.496751518144125104e-01
-2.435033358774623541e-02 7.575562233294116932e-02 -7.982637911147366649e-01 1.504150978319203080e-01 7.102564246271602100e-01 -6.876853274718437437e-01
-2.268685445725277666e-02 1.141649032704652733e-01 -7.538088069281000392e-01 5.284781366746679199e-01 6.909403433466736466e-01 -4.932669672630143887e-01
4.968358832992585475e-03 -1.494994746979405320e-01 -1.019344320239833346e+00 2.922279045156647159e-01 7.503258833018665586e-01 -5.929704214121116479e-01
-1.439755323436351341e-02 -1.444975066156357624e-01 -1.028364096799637029e+00 5.006049086516697333e-01 7.478373722432734017e-01 -4.360435644636082575e-01
3.319706843608735691e-02 6.507343660857162204e-02 -7.684157345086659596e-01 3.853732583498772346e-01 7.019368625920260341e-01 -5.989758698672775772e-01
1.980060956549676426e-02 -8.416146850908283461e-02 -9.322639236577012767e-01 4.815796717615260514e-01 6.480962787936163094e-01 -5.899595182382668668e-01
-5.760820094834263189e-02 3.913118426873076622e-02 -8.495476895120348537e-01 3.178284175603885431e-01 6.560756027442432581e-01 -6.845070492513847249e-01
5.424792250925003501e-02 -1.550767921379713477e-01 -9.953282304419875937e-01 3.237200983765952667e-01 7.489295946231904200e-01 -5.781952613128121810e-01
-1.837606228719319487e-02 -4.633732818577298435e-02 -9.148260367590272946e-01 2.949307811592265516e-01 6.624387639009864381e-01 -6.886150727410356165e-01
5.296314449222190579e-02 -1.016954810151953215e-01 -9.288490971686363951e-01 3.418099544744542251e-01 7.181764293559420587e-01 -6.061258708714891696e-01
2.200422451345728989e-02 -3.517642519539727203e-02 -8.812258890255799670e-01 4.644593114553794422e-01 6.001548487997462322e-01 -6.512232378106209696e-01
5.435527115130158599e-02 -1.539098914612458402e-01 -9.937569413090769910e-01 3.258603017070497154e-01 7.397071542814863676e-01 -5.887685365881704103e-01
3.556457229778779011e-02 5.491925000659111933e-02 -7.790527702649168162e-01 3.727901024721435586e-01 7.164632786022037125e-01 -5.896676266452056669e-01
1.991561552164962737e-02 -6.733470666738150534e-02 -9.140674351928990138e-01 4.861278639525697942e-01 6.311421059886476170e-01 -6.044330748206343529e-01
-6.575418555406001286e-02 4.505020944065150218e-02 -8.478828063864348730e-01 3.397675844934857636e-01 6.489251111340862410e-01 -6.807746974345300073e-01
3.816183554990742327e-02 1.061187491288877703e-02 -8.280860081374722403e-01 4.084366129934726142e-01 6.414087252663805971e-01 -6.494415911524124008e-01
-3.892077462736538013e-02 7.002778610813129023e-02 -8.084954001960560355e-01 2.245290087286066771e-01 7.245687458894018995e-01 -6.516032970447650507e-01
-4.443825772459644718e-02 -7.829115508930281631e-02 -9.579973974185088670e-01 2.906632185219230613e-01 6.923411899989529994e-01 -6.604381651822601729e-01
-2.387841987235061678e-02 -6.924363591894835968e-02 -9.399355339784869479e-01 2.933078763217039087e-01 6.793709154663163385e-01 -6.726259353504823180e-01
2.435834814221774294e-02 -4.114434738352483467e-02 -8.851144482490227450e-01 4.638737985943333086e-01 6.049793517693834444e-01 -6.471638763948128759e-01
-6.528326515149460163e-02 1.812361971204547173e-02 -8.723272379801342291e-01 3.387380897763702658e-01 6.369096514124821251e-01 -6.925334666803375505e-01
-7.344997415040802058e-02 -8.839994478043462778e-03 -9.031190826385139259e-01 3.436836904684684169e-01 6.718656149221534646e-01 -6.561083114785627446e-01
-5.029627959738219162e-02 -5.610459592454585323e-03 -8.883370200389161253e-01 3.157018686143522324e-01 6.718483363453671142e-01 -6.700389116337712725e-01
1.774882122640619384e-02 -1.418017939748494050e-01 -1.006093468687753179e+00 8.463278849930144787e-02 7.725350741350948125e-01 -6.293066425375756223e-01
2.449046641529804835e-02 3.706498462485308121e-02 -8.084416993624925496e-01 4.171472490545716783e-01 6.958780310614780529e-01 -5.845869811176127584e-01
4.320163961319789525e-02 1.698146788570744151e-02 -8.186169559858100797e-01 3.880458598381897328e-01 6.618205361079995130e-01 -6.414156130374130127e-01
-3.253600365267993091e-03 -9.923324509832993912e-02 -9.624063879631599150e-01 2.673493890088937119e-01 7.039355019878048569e-01 -6.580266812506530005e-01
-2.983121058008876558e-02 -9.536468745150794568e-02 -9.698033190724018038e-01 2.995484795537924350e-01 7.075728353712069651e-01 -6.400088991895049872e-01
7.402195453430018834e-02 -1.127563789750203604e-01 -9.319989929652543470e-01 2.638333323286212173e-01 7.608886218358013043e-01 -5.928241542929828523e-01
-1.102332195254121690e-02 2.355410957958029364e-03 -8.661948581716617523e-01 1.977973077370960842e-01 6.617818104695794013e-01 -7.231328096439560982e-01
3.829550982379708451e-02 -8.547869445117275977e-02 -9.196619139022814693e-01 4.350819323574533493e-01 6.692143259684383283e-01 -6.023752136789107814e-01
-4.211754347384984859e-02 1.459213188102923553e-01 -7.024308966850330016e-01 1.648667106730177245e-01 9.538817369665649748e-01 -2.508557346235248953e-01
-3.326370078010667392e-02 -8.158024351613346603e-02 -9.565904692063840198e-01 2.904127680131287081e-01 6.883885075945365140e-01 -6.646665982180234300e-01
-1.915297522004144951e-02 -7.424031085415595810e-02 -9.429217189942764588e-01 2.933078763217039087e-01 6.793709154663163385e-01 -6.726259353504823180e-01
8.422043992582659011e-02 -9.259874786877526909e-02 -9.014688858766231050e-01 3.021023849289561913e-01 7.406458226258806343e-01 -6.001482437257228408e-01
-3.921272891976571723e-02 1.480161883933930334e-01 -6.943450582843897489e-01 -8.529913760063952133e-02 9.626775094403872135e-01 -2.568580735391443604e-01
-4.629652977723804769e-02 -9.261329397122343432e-02 -9.746227337658838197e-01 3.110184501603139307e-01 7.185561688021020466e-01 -6.220486765007393615e-01
4.373783268818437486e-02 -1.686198901975610176e-01 -1.020642339030633616e+00 3.385648371216135044e-01 8.144499655526442616e-01 -4.712166218164549614e-01
6.299315267104782512e-02 1.226569619255702022e-02 -8.121026672727258422e-01 3.630967548542916590e-01 6.625379909401351020e-01 -6.551367469279157918e-01
-3.504764625529713240e-02 4.220605695506700339e-02 -8.369715822292905782e-01 2.655614328485341180e-01 6.695280807156108738e-01 -6.936924927636913818e-01
