-3.183794598741572501e-02 6.024095538312560644e-02 -7.221699370823595476e-01 3.544346803402247947e-01 7.072443355615226634e-01 -6.117037740510211652e-01
3.375153022755934817e-02 4.913280191998048441e-02 -6.710136016613699184e-01 4.891210954745875972e-01 6.968550364127688024e-01 -5.245508671119488708e-01
3.606822182313685482e-02 -2.995042536727535957e-03 -7.339712503338808869e-01 5.208405010135953583e-01 6.142452406250297203e-01 -5.928135936982267262e-01
1.474884338113202804e-02 6.029603794359757185e-02 -6.746956772064195418e-01 5.327714556290955583e-01 6.778300006110050679e-01 -5.066567539651861685e-01
-8.017917212484952649e-02 1.529350594536774688e-01 -5.362074796182580982e-01 1.717485479277692795e-01 9.667564712915376335e-01 1.894316802982989045e-01
-1.663460259845858874e-03 -8.364549677294040586e-02 -8.562213136435024019e-01 4.127233612153162756e-01 6.897612857972226230e-01 -5.948855316130101656e-01
6.189454067668086895e-02 -8.559160570891409525e-02 -7.967391057600518023e-01 4.878914885552613212e-01 6.732449572862010401e-01 -5.556105856479270910e-01
3.677220543943394981e-02 -1.451297626997166967e-01 -9.061752186288932753e-01 6.017049457923890898e-01 6.706244677314822100e-01 -4.338363533509430603e-01
-3.874756794362810286e-02 -2.544435229463379994e-02 -8.182829344906453750e-01 4.337510395539539987e-01 6.637610243289291390e-01 -6.093285962989714033e-01
-3.430640257025001361e-02 2.105454613068534486e-02 -7.657423561167948645e-01 3.926765827965301714e-01 6.509798742163181995e-01 -6.496385954425322184e-01
4.900799527768573416e-02 6.636548546371340458e-03 -7.122338290517690185e-01 4.996898090000705950e-01 6.504165623434723376e-01 -5.720737629106694699e-01
1.209016705539233544e-02 -3.660356130181260936e-02 -7.922946821733430900e-01 6.011267379954452483e-01 5.857664541027235439e-01 -5.436214731914817966e-01
6.704226412014839542e-02 -7.128122119902127740e-02 -7.751621315948075130e-01 5.128315015163081858e-01 6.309308755414899661e-01 -5.821770189048839361e-01
4.445226072079888624e-02 -1.391399420330623193e-01 -8.874049241852948189e-01 5.271724813133957799e-01 7.037298470476157641e-01 -4.762913785911062070e-01
5.349763473422682047e-02 -1.580127334257821758e-01 -9.053050009328613701e-01 4.882760922872437792e-01 7.196603910615230193e-01 -4.936348642852067536e-01
-3.091627799814020833e-02 7.566279704284914476e-02 -7.037609191659193186e-01 2.987919193212876801e-01 7.168207218427520289e-01 -6.299932076500007749e-01
1.250178604572537225e-02 -1.281934263966464649e-01 -9.028345973264139124e-01 3.359243201275511348e-01 7.523331851059010811e-01 -5.667006526688077583e-01
-2.796578135757664852e-04 8.157874801937778364e-02 -6.628734337812905997e-01 5.737315723588023442e-01 6.592676911853110333e-01 -4.860022574411413387e-01
-2.595160538956465396e-03 7.329014800667492391e-02 -6.770527657225726692e-01 5.957641834838078854e-01 6.532464667676985970e-01 -4.672623367375009495e-01
-2.096185639397574532e-02 -3.188117390117345407e-03 -7.825766127310092024e-01 3.859301819074331674e-01 6.607259249374760612e-01 -6.438160815080747890e-01
2.525018874113633960e-02 -1.120020512554208841e-01 -8.704270387357209149e-01 6.076406893642473106e-01 6.633396017829695790e-01 -4.367532087293161114e-01
-4.806766454695525492e-02 -5.042004269836529440e-02 -8.515614392313738401e-01 4.210202979432393633e-01 6.629107420291161512e-01 -6.191052065862412412e-01
-4.156862352771048541e-02 -1.487487490230435250e-03 -7.938537977750237395e-01 4.206458368976077611e-01 6.707029920671025991e-01 -6.109129040484797546e-01
5.441823004459448582e-02 -8.943294259771153443e-02 -8.083287903012484898e-01 4.933890608923901522e-01 6.890737991630822012e-01 -5.307961321436709401e-01
-8.617554603546034864e-02 -1.122817321956579581e-03 -8.283023236879110129e-01 4.822523587022924385e-01 6.389636691378772770e-01 -5.992979993692092444e-01
5.288801043453172923e-02 -8.105521575813036395e-02 -7.993347896702541755e-01 5.139916936234327771e-01 6.550153979677881821e-01 -5.538658387292137997e-01
-7.424848064651817792e-02 2.198063489012740471e-02 -7.930108241033035910e-01 4.848248892346430083e-01 6.224330316269832686e-01 -6.144281470751962182e-01
4.899237148752356302e-02 -6.051627765914518314e-02 -7.798642550002561347e-01 5.331770697514155444e-01 6.168354742927941725e-01 -5.789958634958262129e-01
-1.517692196348631797e-02 -1.630004188269001258e-02 -7.926012319851512000e-01 3.856378881542820158e-01 6.622449420919753749e-01 -6.424290279038624707e-01
8.764040675468232067e-02 -8.617773435068287746e-02 -7.757478367650076923e-01 4.614745171007643143e-01 6.894471423245359665e-01 -5.583044939879560076e-01
5.708562787121312238e-02 -1.184469301188793705e-01 -8.453434995384510042e-01 4.507001181013134961e-01 7.309912674069479754e-01 -5.123681981917356243e-01
6.754843091410699107e-02 -7.513605619166953409e-02 -7.792558541382896831e-01 4.894591454062426350e-01 6.666854314246591917e-01 -5.621034428860107734e-01
-2.050238241845358730e-02 9.119358729866061664e-02 -6.760227783028137649e-01 6.438186541801851348e-01 6.387845046617961486e-01 -4.212503971910278033e-01
7.031653221677139354e-02 -3.586927786475791607e-02 -7.361614683431020323e-01 5.295883901319613507e-01 5.719990680787457871e-01 -6.263810367136635193e-01
-4.169756237405451704e-02 1.419608749743434539e-01 -5.945541846151606302e-01 4.918562975015134398e-01 8.692102458700381451e-01 -5.050674294240835999e-02
2.926603758696978697e-02 -1.505941048103864033e-01 -9.245379141084481001e-01 1.785080709030138491e-01 7.929962168961645075e-01 -5.824876553291543635e-01
3.527130733387231348e-02 -1.606214733828238983e-01 -9.375888646768621992e-01 6.022776784670178518e-01 7.217211307154248745e-01 -3.411454345278975842e-01
5.059507343081258435e-02 -4.325781052763656015e-02 -7.605261124573029496e-01 5.513249721007673632e-01 5.854728854202768673e-01 -5.943587095145013155e-01
-3.436199593826144098e-03 3.793318625928403676e-03 -7.662943720925197155e-01 5.965288946468713105e-01 5.929083306451291557e-01 -5.409371398813248577e-01
1.441916928407790087e-02 6.118305829039484556e-02 -6.738556448762276219e-01 5.327714556290955583e-01 6.778300006110050679e-01 -5.066567539651861685e-01
7.975801326399589719e-02 -1.120605747592483825e-01 -8.183046609304108765e-01 3.768513760993494888e-01 7.644942612306204754e-01 -5.230024520759675166e-01
5.858371453440916476e-02 -1.617105947261493482e-01 -9.059449933771202002e-01 4.720586988929333927e-01 7.333891766842249860e-01 -4.891839125747547978e-01
-3.991986900152441620e-02 1.401426014647446094e-01 -6.084682440275490656e-01 5.628281808260915398e-01 8.236334124352622243e-01 -6.965946302001874146e-02
5.296269656042550122e-02 -1.711705026567468535e-01 -9.302208906730474736e-01 3.673165579362395183e-01 9.037142080339941597e-01 -2.199526686888887694e-01
-6.494241482302570700e-02 -5.730633232303342789e-02 -8.700440937400889529e-01 4.050547326111602064e-01 6.786016108755271725e-01 -6.127238507732835071e-01
6.367125415824467782e-02 -5.378494330267580975e-02 -7.591675225236884650e-01 5.359868123800592965e-01 6.127765787389601870e-01 -5.807090506472564195e-01
3.023456046795656646e-02 -9.604725678391466681e-02 -8.418383780240866754e-01 5.716315354433130214e-01 6.526922710377980330e-01 -4.972224723544199643e-01
-4.546539624386037280e-03 7.273532735386262216e-02 -6.802397559711191866e-01 6.152377899866195987e-01 6.430632890505433297e-01 -4.560176181332004086e-01
-8.129923943988487389e-02 5.826553566439885562e-02 -7.614938171810218259e-01 4.831403052422877376e-01 6.633341041125077053e-01 -5.714571827981913543e-01
-2.433002143966491240e-02 -5.136582573295341014e-02 -8.361666353125392082e-01 4.295956394715778615e-01 6.637157569797879075e-01 -6.123144457578584277e-01
5.369314271612991157e-02 -1.288689394429221868e-01 -8.632175398221149099e-01 4.555250917056794524e-01 7.300591955873221295e-01 -5.094216934573205791e-01
-6.299008226553232115e-02 1.799070566736066593e-02 -7.883613094816098732e-01 4.701935950415576104e-01 6.278136610523934458e-01 -6.202966952820933022e-01
9.970331721838688460e-03 2.806175416709107140e-02 -7.239865797116213919e-01 5.522515069406240817e-01 6.456045216408105025e-01 -5.274590739751756630e-01
-7.433414901972829059e-02 4.176307280277018197e-02 -7.733599968295685745e-01 4.865076482142532410e-01 6.163721981332026534e-01 -6.191894876348275067e-01
-7.211111046852626549e-02 -2.420764108769459660e-02 -8.413583849539528758e-01 4.587856425156504603e-01 6.280384406631851490e-01 -6.285566412590486429e-01
6.030421322151038876e-02 -9.931018056799305327e-02 -8.158754277720983161e-01 4.303642752230435464e-01 7.265086255964916528e-01 -5.356974963033158676e-01
-4.311086193166636937e-02 -7.506945629248498730e-02 -8.755543513124735000e-01 4.070762232828909477e-01 6.934376748073669550e-01 -5.945024302687836881e-01
-4.156030045359566938e-02 1.134784835141277731e-01 -6.634725362040103658e-01 3.213315089530751623e-01 7.448643658669028556e-01 -5.847419412147862872e-01
2.583706229546230831e-02 -1.168979104548278913e-01 -8.770463582571754735e-01 6.076406893642473106e-01 6.633396017829695790e-01 -4.367532087293161114e-01
-3.917117886458820059e-02 1.389506836216507779e-01 -6.154247121793711139e-01 6.008583849315312087e-01 7.916339317615178617e-01 -1.108373553513084947e-01
-2.124787874587673320e-02 5.949296966391097972e-03 -7.733621157306254101e-01 3.756688861872244933e-01 6.603870056983113246e-01 -6.502014231418357104e-01
1.037096369939423043e-02 -1.026486898880136708e-02 -7.663249314828998182e-01 5.794684343078942979e-01 5.894728053627292796e-01 -5.627949407897615552e-01
5.789122231511616146e-02 -1.857169882948090170e-02 -7.306526477983982248e-01 5.180679220441716248e-01 5.856276547004006794e-01 -6.234146919979847157e-01
-5.389580582535869607e-02 4.218185569134828838e-02 -7.573891626586516379e-01 4.499872034388114339e-01 6.483687130525811471e-01 -6.141087270800322795e-01
6.554501701783388423e-02 -1.268311104280520074e-01 -8.503682370563071524e-01 4.140264884469399553e-01 7.444632995835147593e-01 -5.237904757033309266e-01
8.131263241964423183e-02 -1.024893453970357332e-01 -8.033043410213512869e-01 4.054587918031343774e-01 7.493929857400399852e-01 -5.234628172785251721e-01
3.899211648269125530e-02 -6.424086778468253434e-02 -7.936527555590542349e-01 5.500944861803174213e-01 6.203500648407370699e-01 -5.590723149343970189e-01
3.380140613550094986e-02 -9.104985906204744739e-02 -8.311666374007367075e-01 5.527028258595105825e-01 6.633872207377968788e-01 -5.044174676284444159e-01
8.469254693839771420e-02 -6.907784490124740939e-02 -7.569441571475833408e-01 5.067297805075103856e-01 6.539866947211576687e-01 -5.617173067251050034e-01
-5.438087742824067317e-02 1.448100652539608402e-01 -6.061398004297479103e-01 1.887805847368189405e-01 9.596851946933283584e-01 -2.082455711722418779e-01
-3.291306147037287994e-02 -6.702333978929410352e-02 -8.592845628833969407e-01 4.181341431076831539e-01 6.731782952853753166e-01 -6.099137817136777162e-01
-3.956366768205901718e-02 -3.370851556555703316e-02 -8.278223209217935308e-01 4.335539744950890340e-01 6.608132110023819950e-01 -6.126637343308586336e-01
-4.750195344775227230e-02 1.452861925909133822e-01 -6.019600199802341844e-01 7.045628856346489721e-01 7.023211059244721666e-01 1.016671252628039007e-01
4.858427863666699847e-02 -7.191850217481138285e-02 -7.927238719147292612e-01 5.301339730353710200e-01 6.323552380823214136e-01 -5.648759363821254098e-01
-2.533032134261439111e-02 -1.148790125122752803e-01 -9.204212234748534449e-01 5.172831047488346545e-01 7.787858553125364125e-01 -3.548390918522463244e-01
-3.086958951568050807e-02 2.686778043897510362e-02 -7.578413619394464007e-01 3.978645290645042021e-01 6.465510063412280850e-01 -6.509036892747079861e-01
4.476978291195558152e-02 -3.125916117335754245e-03 -7.264570067016427046e-01 5.256425385028595798e-01 6.094177193429268780e-01 -5.935570444928904843e-01
7.353819062445582366e-02 -1.465581073863022887e-01 -8.720361535959609833e-01 4.000035059629748480e-01 7.401357139119814077e-01 -5.405518663452468786e-01
6.765475509087130745e-02 -8.259270008854498191e-02 -7.880822099364888089e-01 4.667023059262033757e-01 6.917510731781371103e-01 -5.510620749063213086e-01
6.468212531506511639e-03 2.217169666321744392e-02 -7.347393694408957954e-01 5.570621529141326356e-01 6.286451465702671548e-01 -5.426665988287087128e-01
-3.918306782578119540e-02 -2.277316582501700062e-02 -8.156831370246165891e-01 4.337510395539539987e-01 6.637610243289291390e-01 -6.093285962989714033e-01
-4.695557053905177747e-02 -2.266052933155809565e-02 -8.212106830796473966e-01 4.489067797349847178e-01 6.561370579770952061e-01 -6.066027235820226071e-01
-2.197145882305345799e-02 -1.042035982783768161e-01 -8.974013634835754649e-01 4.468532783768713323e-01 7.456922056493814344e-01 -4.942320123561431688e-01
-6.980949554824848746e-02 6.400998018338235895e-02 -7.447894389302538443e-01 4.711236022147664571e-01 6.882996235698838339e-01 -5.516214096912287479e-01
-2.005639277582712404e-02 8.784605127175233730e-02 -6.803861932083603570e-01 6.475772576566498628e-01 6.297342597457949998e-01 -4.290436545018563863e-01
7.721674694309742237e-02 -1.337909220951094269e-01 -8.516306366457618848e-01 3.827474806646781191e-01 7.539659218766592286e-01 -5.338911449851188040e-01
4.093210239809200179e-02 -1.131079391244627780e-01 -8.535310028524971671e-01 5.356684647986666992e-01 6.909487591033629528e-01 -4.854370279590980441e-01
-3.890763470123669021e-02 -9.443366750717718805e-02 -8.982777465335061162e-01 4.624579641198505731e-01 7.418004056625679965e-01 -4.856591289999316330e-01
1.444888012971421408e-02 4.368431902717921644e-02 -6.982293325701691700e-01 5.439996216464684231e-01 6.909684838954970321e-01 -4.760535326112573795e-01
-5.536999509319771168e-03 1.406003000980506415e-02 -7.572183115635160444e-01 5.982009811496428187e-01 5.972982710381938842e-01 -5.342193945996238647e-01
-2.282352189552831409e-02 1.119162714108727363e-01 -6.478057481502698112e-01 5.981171480672845542e-01 6.678787006502460155e-01 -4.429378267946835757e-01
6.616887448872114941e-02 -4.113886631460488691e-02 -7.445441507160857064e-01 5.347155134471345272e-01 5.759645509091089188e-01 -6.183398384181919560e-01
1.198807786984689393e-02 -1.158757092754072043e-01 -8.867833570768339779e-01 3.405145683892953912e-01 7.428761935842578268e-01 -5.763547429495275987e-01
-4.510368302885607583e-02 -2.007334387212767260e-02 -8.170417715068604148e-01 4.489067797349847178e-01 6.561370579770952061e-01 -6.066027235820226071e-01
2.911161766025665773e-02 -2.115678605826864719e-02 -7.589126141621548305e-01 5.663992830677567758e-01 5.846517179180403812e-01 -5.808392384092309069e-01
1.533840815702091839e-02 -4.830453350972291338e-02 -8.013773586517289882e-01 6.042558424179905741e-01 5.901105495324434624e-01 -5.353918342991814683e-01
3.316278521679347918e-02 2.508879411671087120e-02 -7.043683910803736348e-01 5.072189335521489761e-01 6.882328926377426770e-01 -5.187142170190691681e-01
6.073970610190928751e-03 -1.228244853369325901e-01 -8.999356373354103766e-01 3.871514216683645260e-01 7.384272456743921076e-01 -5.521222505441115702e-01
-4.927380646559258864e-02 -7.313311487354992591e-02 -8.776316669650804370e-01 4.190436388472038032e-01 7.015861206641396119e-01 -5.763500186806082004e-01
-7.356900488095099999e-02 1.522346987456934531e-01 -5.391559019476553916e-01 1.873284403608959925e-01 9.690549605668388189e-01 1.607499263849173354e-01
-6.739436236270693326e-02 2.289334856793246928e-02 -7.867377607775143389e-01 4.701935950415576104e-01 6.278136610523934458e-01 -6.202966952820933022e-01
3.267036574294035489e-02 -1.206418448758913992e-01 -8.738815076489570011e-01 5.613114640588281468e-01 6.847486028996688789e-01 -4.648104894933914322e-01
-5.937958329135024915e-02 1.479615157724324948e-01 -5.974926519630007204e-01 3.361691649085642442e-01 9.284630648635237016e-01 -1.579450212856055857e-01
1.525055447679055272e-02 -9.449151115874049323e-02 -8.582789031642339417e-01 2.897531648759738010e-01 7.311565861350693973e-01 -6.176189359108635868e-01
-6.394219912626741831e-02 5.197193522770595514e-02 -7.544542833873466581e-01 4.639497020106116421e-01 6.716779200571891817e-01 -5.775806832918780609e-01
-3.082623209107549292e-02 6.864104551655361708e-02 -7.118037397439757052e-01 3.378528057728414358e-01 7.124047845441089377e-01 -6.150893468351409377e-01
3.323201942267217657e-02 -6.786660418977916165e-02 -8.036403184079288220e-01 5.729194499650972494e-01 6.098437102872226179e-01 -5.475892191002342813e-01
1.712369580378068565e-02 -8.710070735190690583e-02 -8.459702139025414569e-01 6.140741757053790328e-01 6.311095076151813643e-01 -4.739342740607419557e-01
-4.234208425520429031e-02 8.970583684149842363e-02 -6.932787705988908700e-01 3.238433073049396538e-01 7.229103815784462261e-01 -6.103491562375618074e-01
-3.715420947189165823e-02 -5.523272601177326574e-02 -8.493093026121281142e-01 4.193066665516106406e-01 6.631052823485694692e-01 -6.200591132358268531e-01
3.721899787370622908e-02 1.831478868591497611e-02 -7.090276053229714881e-01 4.953265160840906733e-01 6.696221662167339828e-01 -5.534056351133458396e-01
-2.437971847789521807e-02 2.715029056270584773e-02 -7.537761402869525007e-01 3.757676218058861317e-01 6.629358807385857810e-01 -6.475451431612347930e-01
2.972553977109025983e-02 -2.940088853853942488e-02 -7.665651417438780202e-01 5.719945250411078153e-01 5.855683269442633065e-01 -5.743970732887603292e-01
-6.218437341783392830e-02 5.098685802411240253e-02 -7.541878476998999936e-01 4.639497020106116421e-01 6.716779200571891817e-01 -5.775806832918780609e-01
-4.737135788072994319e-02 -6.446239389134865438e-02 -8.662603029851501102e-01 4.073681936466568843e-01 6.761841365095149214e-01 -6.138616850219122956e-01
5.284589558977755008e-02 -9.104999258886711452e-03 -7.256910167936984069e-01 5.146644117565234433e-01 6.073768960589632782e-01 -6.051560537622431291e-01
1.643703268365607345e-02 -9.475000009131358258e-02 -8.577100530922991961e-01 6.362310934384547423e-01 6.309604721386575799e-01 -4.439581943614404058e-01
2.101955780988396319e-03 -4.524962847870243887e-02 -8.116665414867951789e-01 3.686683079067100688e-01 6.606568367525577079e-01 -6.539237132856611234e-01
-2.122860876404585387e-02 1.080693370972063555e-01 -6.514476555853910833e-01 5.977774685878344263e-01 6.701851473463992237e-01 -4.399022235963412353e-01
3.975717815398718130e-02 4.350499816685278465e-02 -6.731573557976838762e-01 4.750528259287826183e-01 7.143608425166726450e-01 -5.138223421144192393e-01
-4.210866218993277246e-03 3.608010978627032572e-02 -7.296957835623080202e-01 5.725118406378707503e-01 6.291913221383104160e-01 -5.256885698541315932e-01
4.655226781310661116e-02 -1.177197691361838300e-01 -8.542035771555654966e-01 4.997903859271867200e-01 7.073663832961424314e-01 -4.998423450622090369e-01
3.160969047774235541e-02 -1.208557178881585620e-01 -8.754774665378273202e-01 5.613114640588281468e-01 6.847486028996688789e-01 -4.648104894933914322e-01
3.626537603051622951e-03 2.893426185280131846e-02 -7.297107813649055252e-01 5.587800867036112340e-01 6.382543754012103276e-01 -5.295244725078488424e-01
7.004001624351991265e-03 -1.818100907862364030e-02 -7.782120789278006434e-01 6.020683245857972876e-01 5.821280466690573752e-01 -5.464802556467328598e-01
-7.930740927571706955e-02 -5.111789379943698294e-03 -8.270404736216167008e-01 4.707044064135579853e-01 6.497541042528252042e-01 -5.968726545834286412e-01
8.110202557826028807e-03 -6.253015999767469468e-02 -8.261742555023799950e-01 3.300920427649033373e-01 6.843058304396769653e-01 -6.502036402001738491e-01
-8.565964280915308940e-03 1.719645686997512812e-04 -7.723421632620780519e-01 3.368728490045831969e-01 6.635127804569893595e-01 -6.680325394573007891e-01
-7.898180543708921419e-02 -1.092964465942869098e-02 -8.330953881671646633e-01 4.743304160973080830e-01 6.309950930988671436e-01 -6.138858597899992109e-01
5.880216098791671286e-02 -5.809072856764373183e-02 -7.680997275126809631e-01 5.295090048842773234e-01 6.091947885990490752e-01 -5.903405146948851323e-01
-6.136492068867216432e-02 1.525690138254263417e-01 -5.701610712753798493e-01 1.063285288513441673e-01 9.929064250727349661e-01 -5.320784718056177642e-02
4.849155913299776216e-02 5.636907460661855912e-03 -7.138216408166242477e-01 4.997491448999961672e-01 6.504703423479828439e-01 -5.719607730407920698e-01
-5.315210711891703299e-02 1.709983379650049928e-02 -7.820669801939782451e-01 4.475563311361639429e-01 6.355738232690134604e-01 -6.290780918416609691e-01
-1.658648191880979922e-02 9.638093077069413706e-02 -6.626980438088119207e-01 6.050504492742916351e-01 6.601069145365017210e-01 -4.451660535284305831e-01
-4.982308685868717252e-02 -4.278157013456981156e-02 -8.447620628134948628e-01 4.239445104901888306e-01 6.481808026813199453e-01 -6.325604311531304313e-01
-3.593932984106651407e-02 7.379934474366994790e-02 -7.084617770244916457e-01 3.215133595583162252e-01 7.177330012481807353e-01 -6.176475520430754207e-01
-3.130351935844274958e-02 2.237507131582656614e-02 -7.626040000348515147e-01 3.926765827965301714e-01 6.509798742163181995e-01 -6.496385954425322184e-01
-3.136476092695775989e-03 2.851107391510292882e-02 -7.375885812714687573e-01 5.938478387373553602e-01 6.113933500504621366e-01 -5.230133037897268800e-01
6.565076843684031216e-02 -6.517939623857142706e-02 -7.695955167585013523e-01 5.243176900071935265e-01 6.362024873493683508e-01 -5.659835289440827699e-01
-2.802439143462126872e-02 -9.635769426710077967e-02 -8.912724751589277128e-01 4.528727382317719874e-01 7.270624860253808164e-01 -5.160294801472583570e-01
1.536812668765652652e-02 6.412575622258049127e-03 -7.435356344358555747e-01 5.621642860063437164e-01 6.076828954242565750e-01 -5.609748783571059105e-01
1.809966412751238748e-02 -6.714571050697476506e-02 -8.196243877335126493e-01 6.030606417760411286e-01 6.103951881196668650e-01 -5.135519220692549291e-01
3.490781419184312007e-02 4.104833560698323974e-02 -6.810911156009330503e-01 4.847046414049893115e-01 7.082040755806431331e-01 -5.133306906190466812e-01
5.567461610744082155e-03 5.523068852333193335e-02 -6.920345174690539780e-01 5.723929661373201583e-01 6.710891815327835186e-01 -4.711747051213374671e-01
7.976438617083678184e-03 7.398817214536991538e-02 -6.636031878324630817e-01 5.623938565243611354e-01 6.712217596191465407e-01 -4.828814549736122896e-01
-6.062735508386944000e-02 1.508682753410169886e-01 -5.827468581925970836e-01 3.198705767290104252e-01 9.348554554433531338e-01 -1.540392533442397349e-01
7.609631304873182289e-02 -1.192589362925634000e-01 -8.315098319874567601e-01 3.899397819112143115e-01 7.586677381348249094e-01 -5.218910131401225394e-01
-5.937715305904527063e-02 -1.611110529831218802e-02 -8.234654315262924795e-01 4.616989735012553275e-01 6.448744018725202087e-01 -6.090739394174126131e-01
-7.986950143373689262e-03 -1.183487573214930949e-01 -9.054171474206164083e-01 4.761312145997342871e-01 7.319415874304999736e-01 -4.874018660956288551e-01
5.480749046334412039e-02 -9.868086925943887755e-02 -8.200013786970200558e-01 4.764991784597354396e-01 7.084933793924861334e-01 -5.205628341364872957e-01
-8.470096299482367252e-02 4.825569081734032428e-02 -7.751228159630708658e-01 4.929407832000317624e-01 6.133017061861877339e-01 -6.171469852857180971e-01
-3.656800434896756435e-02 9.508286588504344383e-02 -6.839255562688734136e-01 2.965721871076040239e-01 7.346339414329264850e-01 -6.102113649621216940e-01
2.455305782091099856e-02 -6.838566353365123363e-02 -8.136540316318436883e-01 5.876983399272063258e-01 6.168143604492096754e-01 -5.235940278406909787e-01
-5.362993473423765395e-02 5.889722891642609065e-02 -7.381344055916879698e-01 4.317902457773737934e-01 6.983998416785566210e-01 -5.707844118359242103e-01
-8.123886487020760827e-02 4.903193108537516609e-02 -7.714905346130713770e-01 4.897786923670738313e-01 6.311128080999265366e-01 -6.015093149365389191e-01
5.784656800292010265e-02 -1.147194174584444393e-01 -8.393665274705509605e-01 4.541103126004938373e-01 7.283289133885224587e-01 -5.131479493403201531e-01
-6.640348781164048808e-02 -7.793718197321760320e-03 -8.197154060716596025e-01 4.656880818580239056e-01 6.575834299233074276e-01 -5.922150311379246190e-01
-5.464787416544553134e-02 -3.047087217984610803e-03 -8.051367818076063942e-01 4.473277883056907545e-01 6.697892612826203962e-01 -5.926889532292808349e-01
8.236882679459059386e-02 -5.853592154694564620e-02 -7.473361069943366131e-01 5.229876059233680152e-01 6.247211272081492073e-01 -5.798340083768143138e-01
1.675483461211469891e-02 -9.634271873175971612e-02 -8.595182121647417794e-01 6.362310934384547423e-01 6.309604721386575799e-01 -4.439581943614404058e-01
1.458675670784525050e-02 -1.406396593253770033e-01 -9.185301285082476674e-01 3.665148401108641596e-01 7.576083129510737812e-01 -5.400893593896620715e-01
1.121945703481094792e-02 -1.278493244755898040e-01 -9.031679948524358181e-01 3.792089795091776461e-01 7.483645319637477478e-01 -5.441976453075563214e-01
-1.015348818842391927e-02 1.655233382231210623e-02 -7.568975050338657695e-01 3.005655270006718505e-01 6.732441822822512467e-01 -6.755757803547365326e-01
1.889304520536079848e-02 -5.377798932997873704e-02 -8.033987238208208925e-01 6.004341090554067284e-01 5.896169911373322359e-01 -5.402135544810025003e-01
-1.578163000567476756e-02 -7.967463624407855605e-02 -8.616029714724132704e-01 4.214153055529206715e-01 6.821054383543128097e-01 -5.976130112482567203e-01
1.342755767038995851e-02 -8.791003237657256386e-02 -8.514071261591980022e-01 2.933164383037952794e-01 7.174751428264510844e-01 -6.318187132769488290e-01
-6.540986801529125559e-03 4.456351472774682659e-02 -7.217789782952325206e-01 5.932591434729909130e-01 6.305077743202472940e-01 -5.005032819147352541e-01
-4.302934861769824870e-02 -4.441812998012863167e-02 -8.417617445145387789e-01 4.258953211235387282e-01 6.566996552742832005e-01 -6.223815053548065190e-01
6.058089845739240975e-02 -4.587342948856793640e-02 -7.540400812967882338e-01 5.400683092718276956e-01 5.886856298301813561e-01 -6.014777224068336148e-01
-1.861696177564959448e-02 1.089712412677183440e-01 -6.466256121669277102e-01 5.986330034726192739e-01 6.641360157321284374e-01 -4.478413555722659534e-01
-3.048481607537630381e-02 9.833061031686328446e-02 -6.772868356454613270e-01 2.216208717931372474e-01 7.421592678650019703e-01 -6.325217864293167791e-01
-3.487994439790826923e-03 3.353658175945477965e-02 -7.319528482528353530e-01 5.725118406378707503e-01 6.291913221383104160e-01 -5.256885698541315932e-01
-2.414605485304313626e-02 5.208516991405222341e-02 -7.270779472151586154e-01 3.491211511371768439e-01 7.018686390351352999e-01 -6.208823039575368519e-01
-7.463263635178653092e-03 -6.874027359006369686e-02 -8.433380573762687682e-01 4.291872077410722741e-01 6.742552445998999389e-01 -6.009810361741462215e-01
-1.830289076382496383e-02 1.012317248217352583e-01 -6.577887749570979770e-01 6.037104894895197749e-01 6.671305566633831674e-01 -4.364292213478938587e-01
7.785149520429449424e-03 -8.569519858694327197e-02 -8.521745825365107940e-01 3.766331917930180739e-01 7.001306826012850815e-01 -6.066007468838643391e-01
-3.510482219373942808e-02 3.806130663672084580e-02 -7.490302831778332671e-01 3.989952982461524855e-01 6.649781440149027389e-01 -6.313531657954671861e-01
6.174704833267162518e-02 -3.500830879419777192e-02 -7.426648965258716428e-01 5.415842001802403383e-01 5.739191448272369378e-01 -6.142502497483435242e-01
-1.662216927466465821e-02 7.796710520266902575e-03 -7.689385237509324122e-01 3.512101616543567562e-01 6.646807426903204030e-01 -6.594322805621245509e-01
-8.116658031809624585e-02 7.283153630706466763e-02 -7.431946473411389364e-01 4.714778311552325629e-01 7.038703847923042378e-01 -5.312957144015857391e-01
4.260722548586449998e-02 -1.400871933793832458e-01 -8.909246580184124742e-01 5.575709205639192145e-01 6.926630989639563918e-01 -4.575286874887209976e-01
1.113977488721241450e-02 3.114827414577479511e-02 -7.189796697109196444e-01 5.486106066232936396e-01 6.605535945251941321e-01 -5.125381459562470265e-01
7.105266360079898896e-03 -7.102488942184552456e-02 -8.358559300213950216e-01 3.570574659573694243e-01 6.931688758818306262e-01 -6.261204960012259901e-01
-3.617150440823713869e-02 1.377169575746492736e-01 -6.082095445674761125e-01 5.401520767872266537e-01 8.365031955774524519e-01 -9.218534444886788970e-02
4.188605252378545252e-02 -2.746556171856805520e-02 -7.530994519051221747e-01 5.438893191486846579e-01 5.843017309354147093e-01 -6.023088043037876371e-01
-3.901182617780604017e-02 1.760728065087241445e-02 -7.720704216859241020e-01 4.159890648552485026e-01 6.459311996407453016e-01 -6.400984168481619330e-01
-2.122589880149164387e-02 6.950163295915560979e-02 -7.064274287475325043e-01 2.280715388612658545e-01 7.102565442305314170e-01 -6.659722325586533431e-01
8.078857446363665873e-02 -1.332628385301561080e-01 -8.483242229445525640e-01 3.827474806646781191e-01 7.539659218766592286e-01 -5.338911449851188040e-01
6.451187768294561198e-02 -1.259150680720640958e-01 -8.498829039397486351e-01 4.140264884469399553e-01 7.444632995835147593e-01 -5.237904757033309266e-01
-5.242438006124511968e-02 5.008775767965116532e-02 -7.477031045391920872e-01 4.421240928946908455e-01 6.774906196773413658e-01 -5.878203354182796048e-01
8.025929423290571740e-02 -1.260229602800666260e-01 -8.383658404662879260e-01 3.733959977459227475e-01 7.655519563520946091e-01 -5.239328496981338068e-01
-5.286344821541788530e-02 9.920101619454673933e-03 -7.894523872042660262e-01 4.463068757510137430e-01 6.534113847694208443e-01 -6.114439752839805342e-01
-5.347375554423046407e-02 -4.018920839668964351e-02 -8.445523782415350622e-01 4.239445104901888306e-01 6.481808026813199453e-01 -6.325604311531304313e-01
-5.478812728330589854e-02 1.397804877399923817e-01 -6.261847089012385625e-01 3.025008724846493524e-01 8.828224027503405180e-01 -3.593296917152009051e-01
3.618098824220254695e-02 1.385137067561372469e-02 -7.153487678507475245e-01 5.140196682364523983e-01 6.480675193332613437e-01 -5.619539759191319872e-01
4.315074826854552181e-02 2.802509623477576414e-02 -6.912656336059955775e-01 4.785252107819683021e-01 7.050492964172900834e-01 -5.233728233941430386e-01
4.843982287581285323e-02 -7.040581552212357708e-02 -7.911660529932668107e-01 5.301339730353710200e-01 6.323552380823214136e-01 -5.648759363821254098e-01
3.146873968256081594e-02 -2.215778117661018620e-02 -7.576617769473608099e-01 5.493703743112726690e-01 5.900797870450166238e-01 -5.916063190585442166e-01
6.603804553858426407e-02 -1.254873223779796043e-01 -8.480686004483088958e-01 4.140264884469399553e-01 7.444632995835147593e-01 -5.237904757033309266e-01
-2.498251822821483201e-03 -9.302069193394167657e-02 -8.678619933261779718e-01 3.997370435757805485e-01 6.990285327019730710e-01 -5.929328852929486304e-01
3.397842134518665874e-02 -1.517719549545727686e-01 -9.218000854860891602e-01 7.137454175925512789e-01 6.171395278038086518e-01 -3.312193866423377431e-01
1.937488374536400215e-02 -9.141955525786008008e-02 -8.488174547401822201e-01 6.115249942813967277e-01 6.329144288754560144e-01 -4.748226059176131608e-01
5.126505248912564122e-02 -8.760071917750907045e-02 -8.088714703329266120e-01 4.826416264525827948e-01 6.862422221437328718e-01 -5.441770603052253907e-01
-5.040755001496406013e-02 7.846481225496712217e-03 -7.898757177636600568e-01 4.463068757510137430e-01 6.534113847694208443e-01 -6.114439752839805342e-01
-4.491362869321311596e-02 -4.663207060861008363e-02 -8.453975780614616520e-01 4.349180209688701670e-01 6.554186660857101998e-01 -6.174728230318720090e-01
-5.325751228016885330e-02 1.419404022543960253e-01 -6.176320510508417350e-01 2.241629560637282692e-01 9.455683882434205989e-01 -2.359054731953268147e-01
3.630809485976695117e-02 -1.666834538329651783e-01 -9.521851208881307871e-01 2.544968873280765154e-01 9.389863073397780591e-01 -2.313785836431885845e-01
9.195261171461912306e-04 -3.905922532504080801e-03 -7.696028060998666431e-01 5.962910541531230013e-01 5.880899987991596856e-01 -5.464312692822049788e-01
7.650058565579363756e-02 -3.695704470700011263e-02 -7.319891641535023474e-01 5.282849771028355068e-01 5.567997334356992178e-01 -6.410062712746193991e-01
-3.225019723399779464e-02 -2.275262660579720209e-02 -8.107456382264645045e-01 4.328356011725009167e-01 6.631942740087574117e-01 -6.105953629693205986e-01
-2.860358634178050349e-02 -4.518673856724193111e-02 -8.324671428632259840e-01 4.295956394715778615e-01 6.637157569797879075e-01 -6.123144457578584277e-01
7.805196508324829634e-03 -6.911551708826686735e-02 -8.333238560522452376e-01 3.692326076859329675e-01 6.782359358731672172e-01 -6.353450217887088858e-01
-5.869029779233359001e-02 1.517442039858671043e-01 -5.671523029974332442e-01 2.561444065225648714e-01 9.662583272893119357e-01 2.710881685474404723e-02
2.924786937013699323e-02 -3.615682913690565492e-02 -7.738836719580686196e-01 5.764954554555730137e-01 5.852713128012706489e-01 -5.701846019062145610e-01
-5.990806654425247235e-02 -2.833633556430612856e-03 -8.090222175881683908e-01 4.643819180791958212e-01 6.652747992068005489e-01 -5.846014674130045607e-01
3.096853535989950099e-02 2.068386051042764295e-02 -7.120086902463023115e-01 5.101772874730020613e-01 6.648787769712718454e-01 -5.455779937642972754e-01
-1.513228733300403875e-02 -1.203650797404891420e-01 -9.173463431237571797e-01 5.146939121198533806e-01 7.656349685970507135e-01 -3.858669092940644751e-01
4.491943043137028996e-02 -1.654306169848418218e-01 -9.275061231952977936e-01 5.926875864327876275e-01 7.113879026618757928e-01 -3.776885977029414421e-01
2.579674236171090179e-02 -1.451995161733671547e-01 -9.184722924462536131e-01 2.344019043129771940e-01 7.790970523187434882e-01 -5.814323093212957483e-01
-4.521916946956624356e-02 -3.434990806444215145e-02 -8.325305230300644732e-01 4.434111036735378097e-01 6.531433308738345822e-01 -6.138325361807139835e-01
6.695534222190265006e-02 -1.445435651673726285e-01 -8.743226095490814753e-01 4.106671289365446120e-01 7.404838404636218119e-01 -5.320114577932140154e-01
4.999786937236344597e-02 -1.016227506082764687e-01 -8.282728799334702074e-01 5.126664171952322047e-01 6.881472534978561040e-01 -5.134457149334890058e-01
2.519486169655998919e-02 3.169847533831970932e-02 -7.034598180712038351e-01 5.137523157743628666e-01 6.829684468050133406e-01 -5.192423891644701861e-01
-1.608196102120295484e-02 6.012501755320711488e-02 -7.142370234381520966e-01 6.919041130800825945e-01 5.867562750980217512e-01 -4.206967695810829300e-01
-1.098529387525052151e-02 -1.234398561900857394e-01 -9.175434885569534460e-01 5.531884730638005898e-01 7.468769461749382721e-01 -3.689950413511527416e-01
-5.147844982123261914e-02 -2.468479791533202336e-02 -8.267463541131666593e-01 4.482160068669243103e-01 6.562779382327122990e-01 -6.069610193227317207e-01
3.201190222392962664e-02 -1.386193529372363627e-02 -7.488776241424787150e-01 5.490702897656504211e-01 5.919406308608464728e-01 -5.900238185300045179e-01
-2.957153102093615024e-02 4.430301889573704660e-02 -7.389258843632431351e-01 3.770167461464634662e-01 6.898113990810668117e-01 -6.180765379974829665e-01
-3.442777603521440452e-03 1.632269672426786902e-02 -7.520541985581999933e-01 6.166435318777788721e-01 5.957727823666560951e-01 -5.145926023413001094e-01
7.035477017953653545e-02 -1.255347215090365787e-01 -8.448683222685207106e-01 3.877189009920323781e-01 7.560187218262013342e-01 -5.273611154245327892e-01
5.263908882316108845e-02 -2.337254183150188833e-02 -7.396246352303347260e-01 5.275375433996765118e-01 5.745465529322821840e-01 -6.257798325429370090e-01
-6.119057197084774857e-02 -6.378851659366442661e-02 -8.747844031456321057e-01 4.087574536216382892e-01 6.813364807002081358e-01 -6.072050264744265347e-01
-7.121598989936167579e-02 4.954274621788301580e-02 -7.628896249191319257e-01 4.834300961542046249e-01 6.341573429177580490e-01 -6.034399775916615694e-01
2.817851384368205703e-02 -1.193574212632007858e-01 -8.776390751367407761e-01 5.830729783362845753e-01 6.755049325301298868e-01 -4.513523989761425437e-01
5.115312809545558004e-02 -1.112433115434453834e-01 -8.404148412360670228e-01 5.096300910007767193e-01 6.987665423203904824e-01 -5.019984956951025756e-01
6.405407847205468741e-02 -1.240231205097755141e-01 -8.475557434018929914e-01 4.140264884469399553e-01 7.444632995835147593e-01 -5.237904757033309266e-01
7.607009427079833297e-02 -2.237154248305992660e-02 -7.194395895380953920e-01 5.073861210967209878e-01 5.793013270562823447e-01 -6.379414523208642995e-01
1.247922267149155669e-02 -1.448894715830199575e-01 -9.262213205563523122e-01 4.187230747204673809e-01 7.419385242518949930e-01 -5.236393920701134519e-01
5.480318789086246339e-02 -1.292874221164517223e-01 -8.628246702043037564e-01 4.555250917056794524e-01 7.300591955873221295e-01 -5.094216934573205791e-01
-6.925247240717953556e-02 -3.075725300648026600e-02 -8.458203854376888930e-01 4.396768739050026520e-01 6.309674104943995276e-01 -6.391904046894919533e-01
-5.281075575577956482e-02 1.150728380209146556e-01 -6.677348019310184180e-01 3.296820980827975256e-01 7.450183879719716185e-01 -5.798769833226434800e-01
4.992187301893769719e-02 -4.454068909378275376e-02 -7.624142698883219493e-01 5.513249721007673632e-01 5.854728854202768673e-01 -5.943587095145013155e-01
-4.134495859811736923e-02 3.751815406963088240e-02 -7.535953248499764889e-01 4.215721048708760965e-01 6.577282476563268698e-01 -6.242359430773561924e-01
-4.452964869913752372e-02 5.247580273496232212e-02 -7.393752287399212308e-01 4.123615250464677806e-01 6.872883383665677748e-01 -5.979905623056885888e-01
7.192907598801850932e-02 -5.619739729779228005e-02 -7.542190025573402012e-01 5.282862865662649732e-01 6.155421608660819333e-01 -5.848259977312402214e-01
4.300189454228831899e-03 5.931879852389577990e-02 -6.877796011972936441e-01 5.760903858021991786e-01 6.577403228366790477e-01 -4.852808826864852820e-01
1.727212816979554913e-04 -7.565400493115718994e-02 -8.457262634660778211e-01 4.165550594636901471e-01 6.808956233820339099e-01 -6.023811355731457651e-01
4.156159095681632998e-02 -7.737579350851855886e-02 -8.060322343060264405e-01 5.392058636156122908e-01 6.400511232204716405e-01 -5.473496106756213786e-01
-2.665209905456876471e-02 5.182303620730146360e-02 -7.287846664409078912e-01 3.560336169311745791e-01 7.006146398728898550e-01 -6.183681670418412768e-01
5.490332582783159776e-02 -8.714062468342821666e-02 -8.049020185957480589e-01 4.933890608923901522e-01 6.890737991630822012e-01 -5.307961321436709401e-01
3.578621431924426666e-02 -3.319429117112245725e-02 -7.644913222979903278e-01 5.624008728659380951e-01 5.833729643999366887e-01 -5.859874082323448530e-01
-3.380242224455561051e-02 -1.404154397557534108e-02 -8.022770993721142219e-01 4.319676529180195290e-01 6.673516729505888367e-01 -6.066676944114856029e-01
-4.115063637124932727e-02 1.412323119628242640e-01 -6.027059693932341755e-01 5.248729018700227789e-01 8.501474341576684690e-01 -4.192585214010581540e-02
-8.280650171581338537e-02 -8.000318691121244621e-03 -8.329443661489991380e-01 4.707044064135579853e-01 6.497541042528252042e-01 -5.968726545834286412e-01
5.939685077160537091e-02 -1.309760772102002424e-01 -8.612073032524009131e-01 4.192054547574530221e-01 7.442936944621161288e-01 -5.198977621470699528e-01
-6.285726293654286811e-02 5.693056617779381628e-02 -7.478291900574797202e-01 4.629838296975373746e-01 6.712707764627380280e-01 -5.788277102089314230e-01
5.207759735715650207e-02 -1.045883057284625051e-01 -8.303420802462403438e-01 4.639428055282471819e-01 7.183075785531853885e-01 -5.184508615014910005e-01
-3.350874196615605954e-02 -7.278306860588165672e-02 -8.661772565703678151e-01 4.151387140772989648e-01 6.864425859883838132e-01 -5.970397174525550188e-01
-4.104385766995117158e-04 -6.704434786115934242e-02 -8.364513948967989831e-01 4.246730104473347978e-01 6.682792227794008832e-01 -6.107828702566547863e-01
-8.507992770824432394e-02 5.577079879314874450e-02 -7.675475948622485500e-01 4.897786923670738313e-01 6.311128080999265366e-01 -6.015093149365389191e-01
1.793759088066667826e-02 -9.957258050854318754e-02 -8.623644033460808878e-01 6.708236124662191324e-01 6.221469448614664888e-01 -4.036444722244007521e-01
4.999164845294033072e-02 -1.596994318479123820e-01 -9.115366556537872755e-01 5.212130037391856652e-01 7.103536038051196932e-01 -4.730060911809218505e-01
-4.904825670258026321e-02 2.568655127471875313e-02 -7.705191818633558842e-01 4.217963046161076757e-01 6.374624825044953313e-01 -6.447708591518399590e-01
8.181375802496631058e-03 -2.037220449866572816e-02 -7.792781165380066044e-01 5.843462178246962013e-01 5.889958438940244845e-01 -5.582323831430223704e-01
-6.551697812984130787e-02 -6.007586275759820710e-02 -8.735309291118950048e-01 4.087574536216382892e-01 6.813364807002081358e-01 -6.072050264744265347e-01
3.638652258994605482e-02 -1.290220944382867163e-01 -8.818301346746272307e-01 5.603698080542542925e-01 6.878784563291102661e-01 -4.613121584562004385e-01
2.719006532070790752e-02 3.469046668296704022e-02 -6.973513465687833923e-01 5.090539572822340153e-01 6.995936572199967785e-01 -5.014307363463542666e-01
2.455376390044740429e-03 -7.340858325687335539e-02 -8.416096848107716966e-01 4.165550594636901471e-01 6.808956233820339099e-01 -6.023811355731457651e-01
6.656749731961304761e-02 -1.318597072430272021e-01 -8.567201723924259271e-01 3.877189009920323781e-01 7.560187218262013342e-01 -5.273611154245327892e-01
4.199785168914589584e-02 -1.223500404953060394e-01 -8.656167838537663917e-01 5.364822886220420584e-01 6.937979527347639674e-01 -4.804489096417076666e-01
3.835926327153765109e-02 -6.616742616847275105e-02 -7.964131671178021898e-01 5.500944861803174213e-01 6.203500648407370699e-01 -5.590723149343970189e-01
-6.199941914269109511e-02 4.625522276628116214e-02 -7.591462485454469888e-01 4.702238447558815815e-01 6.400896808293689011e-01 -6.075975117779477408e-01
-6.121214165934746321e-02 -3.981313849587250070e-02 -8.493280265571301335e-01 4.214818687335250003e-01 6.484694173357120617e-01 -6.339088649870560088e-01
9.513992935202972984e-03 -7.582651141053467492e-02 -8.397979196617784137e-01 3.659944625809918861e-01 6.928556739024397393e-01 -6.212882330297644362e-01
2.121523362871523960e-02 -1.249688563561968807e-02 -7.577984154976450393e-01 5.595318769591800523e-01 5.921364350608363525e-01 -5.799125114532198699e-01
7.452727387119232856e-04 -4.327642023153348977e-02 -8.104532512350418605e-01 3.900478084805069634e-01 6.570459494242320009e-01 -6.450994709692167151e-01
-7.768082721285128611e-02 6.615702949973874258e-02 -7.488232302434669752e-01 4.776067071226162697e-01 6.863445119034334851e-01 -5.484733761009087383e-01
-6.812778362847745142e-03 3.150716319685569616e-02 -7.382624561715240841e-01 6.196910114313510798e-01 6.076722819391587871e-01 -4.967066016412954310e-01
6.777260279798485998e-02 -6.947301656019433391e-02 -7.724718742958021078e-01 5.145360592199454963e-01 6.398754596830387165e-01 -5.707994742970848856e-01
-7.499114695145484878e-03 -1.141507613798186105e-01 -8.986363742476691785e-01 4.761312145997342871e-01 7.319415874304999736e-01 -4.874018660956288551e-01
-8.984545564529728551e-03 6.560080777357975290e-02 -6.961813596090908884e-01 6.184397516129486183e-01 6.414867401559478655e-01 -4.539020112634550852e-01
7.600618314014076851e-03 -4.584835895983395415e-02 -8.077544630183101093e-01 6.465487497840587405e-01 5.726012498192916134e-01 -5.040858288605779558e-01
-3.407361263011794011e-02 1.318370148053561730e-01 -6.253565052158310822e-01 6.126122710847603514e-01 7.451246442267797088e-01 -2.636199345312998932e-01
-4.002632424577518694e-02 1.385534897104388763e-01 -6.234884037318809691e-01 8.145313312659601124e-01 5.666002674146154439e-01 -1.245104306947360795e-01
5.733078490770010527e-02 -8.701270105995115290e-05 -7.125658242951771193e-01 4.956300737894882014e-01 6.288534290755953826e-01 -5.990777868484955526e-01
2.093082215132964843e-02 -2.654472516533677717e-02 -7.724521967047206505e-01 5.813741484486338873e-01 5.821892847956473549e-01 -5.683834411598900349e-01
5.780432826991996342e-02 -3.662467676644916986e-02 -7.476514299743081127e-01 5.415842001802403383e-01 5.739191448272369378e-01 -6.142502497483435242e-01
2.401378277043620529e-02 2.726939603531444711e-03 -7.391351244095517581e-01 5.496044698384785487e-01 6.095543343829041838e-01 -5.712954053452375947e-01
4.955114352816997886e-02 -1.686596896297283543e-01 -9.278252754324594065e-01 4.658732586844583912e-01 8.266487735992934516e-01 -3.156167168410248247e-01
1.173637697456987768e-02 -1.556806565213028626e-01 -9.448376271831919748e-01 5.178839017489330621e-01 7.411466521339316049e-01 -4.271977344742899918e-01
4.488729003184635524e-02 -1.696909665473103901e-01 -9.390392545240366928e-01 5.149606106219206669e-01 8.384507449943462420e-01 -1.783701705059581033e-01
1.810720275174223029e-02 -1.579011960946818671e-01 -9.414274293432960405e-01 3.899306988871519275e-01 7.833860623161337244e-01 -4.840044704692301192e-01
-6.053950694381166932e-03 -9.598895448796629370e-02 -8.739110698520394793e-01 4.069807292974033097e-01 7.088237598888060820e-01 -5.761384932441591111e-01
7.661917763360634459e-02 -9.542144195846057053e-02 -7.971868094434612084e-01 4.200278311012685117e-01 7.350316576397801782e-01 -5.322641105388198346e-01
-2.291781467787716922e-02 -1.005971289833049315e-01 -8.928155945120248571e-01 4.468532783768713323e-01 7.456922056493814344e-01 -4.942320123561431688e-01
4.598142941307884770e-04 8.610347040725585543e-02 -6.554459251936088915e-01 5.836922610395585131e-01 6.662172363910874306e-01 -4.641744697179603363e-01
3.229711143290355663e-02 -1.143456768514096306e-01 -8.650814543720979355e-01 5.579734622950439649e-01 6.850274425888926988e-01 -4.684047590221543378e-01
7.093307200911889987e-02 -2.378541283711172252e-02 -7.248092214365502439e-01 5.073861210967209878e-01 5.793013270562823447e-01 -6.379414523208642995e-01
-6.797525823611268170e-02 -5.272373326519018757e-03 -8.181872919382362497e-01 4.755614413403157492e-01 6.485352982828341828e-01 -5.943427314197732292e-01
-3.545723959324421221e-02 1.259390738910243779e-01 -6.429494927883128153e-01 5.557838113799148383e-01 7.040651202021200872e-01 -4.420369458798543705e-01
5.487979050185014945e-02 2.006165379068478374e-02 -6.911212858145739935e-01 4.756626423916666124e-01 6.937887170874347254e-01 -5.407423292799895531e-01
5.236851497672764116e-02 -8.455265262274561100e-02 -8.040136800327530864e-01 4.984738971416516895e-01 6.691781995506260738e-01 -5.511118862033335120e-01
-4.593281624870685850e-03 6.384344571834803250e-02 -6.927130356621842289e-01 6.002357157679788502e-01 6.468837156379805275e-01 -4.703812750938353160e-01
3.978283333792157102e-03 -3.483373232986421847e-02 -7.999803868200945356e-01 6.716451041546203093e-01 5.569478838120822672e-01 -4.885712934489420123e-01
-5.525169077499740566e-02 -2.623067936318677559e-02 -8.311889887507931673e-01 4.510321951859252443e-01 6.419732839185869899e-01 -6.200324682148112831e-01
1.708991292239472881e-02 -7.654233847800329159e-04 -7.495858527639597257e-01 5.621642860063437164e-01 6.076828954242565750e-01 -5.609748783571059105e-01
2.577011907027804485e-02 -1.019426332773767929e-01 -8.553033164084687945e-01 5.850214030282714361e-01 6.575844518467079958e-01 -4.746921599187174934e-01
-4.060473401960202310e-03 -8.601197851779102121e-02 -8.606320253203765258e-01 4.096947781492837892e-01 7.019422608608979486e-01 -5.826038544111258322e-01
-2.457676259686484774e-03 8.298252770417766100e-02 -6.635403676298891051e-01 5.737315723588023442e-01 6.592676911853110333e-01 -4.860022574411413387e-01
2.419293320651767429e-02 -1.537331375272278644e-01 -9.307673835759394665e-01 2.411449118684415860e-01 7.900867564138748245e-01 -5.635708019578054007e-01
3.316379377039956750e-02 1.639988969001125035e-02 -7.151695448208393868e-01 5.140196682364523983e-01 6.480675193332613437e-01 -5.619539759191319872e-01
-1.648632593325971563e-02 8.481982656043249302e-02 -6.795332069060543434e-01 6.311637698578917988e-01 6.360802012075120748e-01 -4.438854280674067176e-01
5.914474487777033468e-02 -6.953223943947311504e-03 -7.182960090381796947e-01 5.022433873023480766e-01 6.048572224975131695e-01 -6.179800322855565353e-01
