1.894445497310498841e-02 -1.197514079868758179e-02 -8.033251865202775122e-01 -6.289951734276755246e-01 5.520885134367367053e-01 -5.473238028223352813e-01
3.826506882180179259e-02 -3.720187781365413837e-02 -8.543932574166225313e-01 -6.733327688742349881e-01 5.761967969249417454e-01 -4.632712311093725721e-01
2.985043504759441607e-02 -1.891266912377339432e-02 -8.232531335651287474e-01 -6.430356434136726973e-01 5.511949131119420198e-01 -5.316853666023569902e-01
1.427842317736427794e-02 7.327371851305347628e-02 -6.880506593421932271e-01 -7.840221287723181387e-01 5.376019793831449123e-01 -3.103118002246245122e-01
-7.360711513775516739e-03 6.047909288332575795e-02 -6.632546562310319693e-01 -7.032045815665126653e-01 6.034545550494331279e-01 -3.759599931561286024e-01
-2.055105960534011917e-04 -3.435864053632631254e-02 -8.047552086425123763e-01 -5.878249733433568158e-01 5.775706741464076144e-01 -5.664573391526904755e-01
5.564934419240229191e-02 8.965472120634040976e-02 -7.263380955857231536e-01 -6.112260858385540896e-01 6.351535494823380423e-01 -4.722103774489370132e-01
2.592678385350636466e-02 9.306589163759258765e-02 -6.833369636138481029e-01 -7.980585428015963823e-01 5.391022182306627331e-01 -2.692050529989574170e-01
7.167121415415220187e-02 6.859556659130738865e-02 -7.827998721552594796e-01 -6.800441691735417127e-01 6.074754621183251491e-01 -4.105039474806479460e-01
-5.881215734789489724e-02 -1.093957654634857279e-01 -7.997752137457746491e-01 -7.392079237565045702e-01 5.604760992219727234e-01 -3.734142306561433755e-01
2.534297349062146834e-02 2.485566021441085877e-02 -7.722488686189975526e-01 -6.372119208447289962e-01 5.785228961415586069e-01 -5.091878107077528748e-01
-5.205195444615890593e-02 -3.130499385157814451e-02 -7.116747255178712539e-01 -6.970199481098801053e-01 5.534075768188561062e-01 -4.559640839544077395e-01
2.727452377705033223e-02 5.299195067341631871e-02 -7.408829345421888979e-01 -6.020858160398629977e-01 6.231630279976616560e-01 -4.991598047323103637e-01
2.539969196709046087e-05 3.787012168737304701e-02 -7.145041657790692780e-01 -7.564292651429336267e-01 5.438167589964830739e-01 -3.634255074563184640e-01
2.007579879578512069e-02 -2.309270142418823682e-02 -8.159565220157608545e-01 -6.318533094821333629e-01 5.569973188206802650e-01 -5.389947885861688937e-01
1.569156855166796774e-02 7.773590646922569347e-02 -6.837291104271052689e-01 -7.875031088590334072e-01 5.392467556058344602e-01 -2.984154655944276091e-01
-6.572084351380109990e-02 -1.779606283578009651e-01 -9.062357551627184815e-01 -6.428748487522154553e-01 7.098502460552860160e-01 -2.877925590022539781e-01
1.417625631710126531e-02 4.948493103232959323e-02 -7.288059905412438422e-01 -8.215984238150716434e-01 4.892844553854208134e-01 -2.925350435465505217e-01
8.549010142024767930e-03 8.371515863231583643e-02 -6.559025618302490868e-01 -7.534335032867328641e-01 5.860985250483434772e-01 -2.980377074486332822e-01
1.813118293666745803e-02 4.660489369429882817e-02 -7.382116534239859806e-01 -5.862114919608841790e-01 6.169514617280751345e-01 -5.250971153649445222e-01
-5.891366519920886863e-02 -1.592475965457274267e-01 -8.838313880486867724e-01 -6.865374163571094090e-01 6.413821811406836826e-01 -3.424839757666396922e-01
1.468841058872692382e-02 -8.056739546301834587e-02 -8.786009755614699879e-01 -6.747873301010572922e-01 6.301444115423754377e-01 -3.841615281844343310e-01
9.478650454298026204e-03 -2.110688425344082672e-02 -8.017678049835034182e-01 -6.120981489980077406e-01 5.634339234323209045e-01 -5.548676147684908910e-01
1.160379821478348811e-02 -5.724514902231625513e-02 -8.427207569567999323e-01 -6.206205261162626163e-01 5.967932623234109002e-01 -5.085941059514497153e-01
6.519838024576616806e-03 7.740598664494240111e-02 -6.629179939600382543e-01 -7.444997190127786713e-01 5.803069804665811349e-01 -3.300969203304578992e-01
5.149116894135499084e-02 9.637057974738480123e-03 -8.217425304081091841e-01 -6.777080738519674075e-01 5.149079282532431634e-01 -5.249586574748618117e-01
-4.976124237480952783e-02 -1.043269835722158562e-01 -8.098827202229297306e-01 -7.383693838270021237e-01 5.558082229291306797e-01 -3.819527095744904011e-01
-3.738629741265990514e-02 -5.429354569375059725e-02 -7.656861410439522730e-01 -7.285473968663269684e-01 5.445118176489810446e-01 -4.156026599528706011e-01
2.864543655280975959e-02 -4.091732158576326384e-03 -8.068587183552956565e-01 -6.447125207974583327e-01 5.407576708558824441e-01 -5.403026068209445532e-01
3.199647528054019863e-02 8.990907039928740241e-02 -6.999119222941211360e-01 -4.852051728328350966e-01 6.765675863801807743e-01 -5.539244003615974021e-01
3.262336284527295183e-02 9.471599288381557513e-02 -6.945951522098040565e-01 -4.801657190600936986e-01 6.767444801186167647e-01 -5.580840356689001913e-01
4.055802790038831596e-02 -8.826550943067980326e-03 -8.261793729007635978e-01 -6.608454004843303808e-01 5.341015276062027750e-01 -5.272749897988958656e-01
3.943932691223964171e-02 -2.651219425569161306e-02 -8.434229459815872909e-01 -6.550594875473558787e-01 5.662942909187023144e-01 -5.002078006659632647e-01
4.045316225834050435e-03 4.690653540804260585e-02 -7.088878951684149943e-01 -7.574825710775687782e-01 5.579831799497106948e-01 -3.389320365603181173e-01
4.471151864307403023e-02 -5.012468704232151545e-02 -8.840418896533991377e-01 -6.984689989807867372e-01 6.220255362975242175e-01 -3.538718548522266083e-01
4.411853404643924226e-02 2.295115874225322258e-03 -8.195987538216812363e-01 -6.673836721025840912e-01 5.259496737999441729e-01 -5.272342694102906124e-01
4.391618870325780105e-02 7.350990411382200829e-02 -7.335640681529106422e-01 -5.775281578212563272e-01 6.600730451964565981e-01 -4.803798517097304099e-01
-5.963277492754540804e-02 -1.626203133578041082e-01 -8.887079692878675496e-01 -6.864840235051354878e-01 6.415020772838468943e-01 -3.423664269648969416e-01
-5.001816380857859214e-03 -1.247219543581550988e-01 -9.192127786780701637e-01 -7.084157079928544709e-01 6.205224193674991895e-01 -3.363021137776097680e-01
1.099560622991761598e-02 7.305587482586574366e-02 -6.803886156184965062e-01 -7.717147216999903359e-01 5.535573175904167087e-01 -3.130985219601160052e-01
5.966599983269640917e-02 4.252616911806421027e-03 -8.374640923586368357e-01 -6.793334047341810233e-01 5.096022557996168212e-01 -5.280261983047882524e-01
5.715472970771712929e-02 1.470355494344852409e-01 -6.246861348548931048e-01 -5.554198550614998231e-01 8.290360364841600216e-01 -6.486936730150182073e-02
5.321254922131406911e-03 -4.347522034138508878e-02 -8.202525299627826394e-01 -6.128536622590454730e-01 5.732421491692067939e-01 -5.438785039616338413e-01
7.788478778083351983e-02 7.033854680555876038e-02 -7.905140167399202777e-01 -6.800441691735418237e-01 6.074754621183251491e-01 -4.105039474806480015e-01
-1.529789336106551247e-02 -2.203357310271165936e-02 -7.634833405885398383e-01 -7.727069975249137856e-01 5.074705588319917693e-01 -3.813102777198367765e-01
-5.602677005535438431e-02 -1.672821433159090709e-01 -9.143074919013475244e-01 -8.403954527931180030e-01 5.362793282030848818e-01 -7.835792918842493515e-02
-4.963256739362140874e-02 -1.692737521039280324e-01 -9.221354292981038814e-01 -4.662830394818970881e-01 7.408585978858852616e-01 -4.834342406471469067e-01
4.678703795563307621e-02 2.184754597855049010e-02 -8.034188146842548006e-01 -6.798653021645211236e-01 5.223136602493272385e-01 -5.147539326995905773e-01
-5.308867453977457462e-02 -1.688950393367921188e-01 -9.184476521397368920e-01 -4.214441202014129750e-01 7.473515302754593082e-01 -5.136638431334116239e-01
1.703671311315375567e-02 -1.219471496733835238e-02 -8.013542580860796294e-01 -6.289951734276755246e-01 5.520885134367367053e-01 -5.473238028223352813e-01
-5.747777388457900316e-02 -1.790374554465985757e-01 -9.355880254436705901e-01 -4.457209542614218312e-01 8.928873668207378822e-01 -6.391385690299562772e-02
2.103770202187934049e-02 -2.286117016039559968e-02 -8.168448783668668112e-01 -6.318533094821333629e-01 5.569973188206802650e-01 -5.389947885861688937e-01
4.829312271087168179e-02 1.387539063189768274e-01 -6.372675678851053016e-01 -7.074448276666056579e-01 7.035529635429920159e-01 -6.734273010236684065e-02
7.253640584362487653e-02 6.332468892029949857e-03 -8.522229253102825419e-01 -6.787314242037409961e-01 5.248733089281222286e-01 -5.136454646672210522e-01
1.713741133020498311e-02 3.763360631944270146e-02 -7.475103889299754556e-01 -5.974114594287757152e-01 6.085680754934766901e-01 -5.222494094140713861e-01
6.211959827765928255e-02 6.687543808195392514e-02 -7.698399225662527767e-01 -6.579107717643944975e-01 6.322314955614786181e-01 -4.091903620767171623e-01
1.051475318098792078e-02 7.177620767755041320e-02 -6.814658731382224888e-01 -7.717147216999903359e-01 5.535573175904167087e-01 -3.130985219601160052e-01
7.552910727499434484e-02 1.565500459641590847e-01 -6.351536929636166784e-01 -3.296381890705216700e-01 9.211456989351860525e-01 -2.069523269729393045e-01
7.494366002092851808e-02 2.205722130056369731e-02 -8.406004773588561241e-01 -6.913833627045200547e-01 4.832393507023710622e-01 -5.370928929972368371e-01
-2.984968543899587864e-02 -1.336045242550398457e-02 -7.250960043548930756e-01 -7.352796622160736595e-01 5.171023954549360813e-01 -4.381425920247695727e-01
-3.141723344922266181e-02 -3.507749053124707694e-02 -7.505307983385313131e-01 -7.404333766459626487e-01 5.451515197215458519e-01 -3.931516695805159500e-01
2.851685188107615926e-02 7.258370408444539401e-02 -7.177317613215039582e-01 -5.307642376135488504e-01 6.623458478446048181e-01 -5.287601553762535378e-01
2.776695270376658767e-02 -4.752395807985964477e-02 -8.521205147032026028e-01 -6.678473725673303996e-01 5.781308738921456802e-01 -4.687692178541774113e-01
-5.922520916010618613e-02 -1.617705528078779709e-01 -8.879329640618907060e-01 -6.864840235051354878e-01 6.415020772838468943e-01 -3.423664269648969416e-01
3.216375663922727002e-02 1.545461423076701507e-02 -7.911783170666784049e-01 -6.477568589542757049e-01 5.492326828720177634e-01 -5.279720747756421195e-01
3.544089008594447469e-03 3.768848707754875876e-02 -7.221520646644952190e-01 -7.664027241848322403e-01 5.347347459017047777e-01 -3.559292287625546169e-01
-5.726334912270807098e-02 -9.139228307758627545e-02 -7.779690729587668274e-01 -7.520090438025428536e-01 5.223969760680763352e-01 -4.019748716451254089e-01
5.401296080523682736e-02 8.837123765138640841e-02 -7.259463399491008495e-01 -6.112260858385540896e-01 6.351535494823380423e-01 -4.722103774489370132e-01
-4.913736245118421192e-02 -1.515272733375798708e-01 -8.932654782317609454e-01 -7.775638091237896399e-01 5.823980024429152857e-01 -2.370803439583405725e-01
-5.457860447327028686e-02 -1.167327818896836955e-01 -8.188083207846564848e-01 -7.188259392919514879e-01 5.821330039538600287e-01 -3.800137296318368829e-01
-3.870132380775035547e-02 9.451233321550872590e-03 -6.857981171164652112e-01 -7.002255679675920552e-01 5.412596450564360895e-01 -4.655342636131565848e-01
-4.076269914052559756e-02 -1.240571906360345839e-01 -8.584628215608082202e-01 -7.419774610483490518e-01 5.853288405187200283e-01 -3.268938600727407939e-01
4.736215125621921762e-02 1.375179751673811512e-01 -6.404031264933466305e-01 -7.053451970971934548e-01 7.057024269851287501e-01 -6.687478956393408391e-02
3.185895269252446427e-02 4.021154415585601505e-04 -8.062649176505702897e-01 -6.550703707917300278e-01 5.324965523561280278e-01 -5.360319309888386119e-01
6.980332270523421923e-02 7.046043287420028500e-02 -7.769755658758994432e-01 -6.696843099316082126e-01 6.239124855417851334e-01 -4.028102970586745490e-01
-2.522270398299775174e-02 7.539023571633335016e-03 -7.086778639989440576e-01 -7.192206834260177484e-01 5.194908895490865097e-01 -4.613575882194969058e-01
7.349543399003134400e-03 -6.555353707977937261e-02 -8.472196636411339910e-01 -6.246957574048546125e-01 5.931580004048984112e-01 -5.078570637847203972e-01
-4.981951242914580552e-02 -1.056403066876129837e-01 -8.116482486225894410e-01 -7.347006466225598498e-01 5.553754114085617255e-01 -3.895806877338290897e-01
3.870595656182164446e-02 8.406105120684990994e-02 -7.138359269310300403e-01 -5.414306680544167527e-01 6.565572716205982928e-01 -5.251527213794706661e-01
-7.420982261349880205e-02 -1.865204996629260814e-01 -9.121873426140073571e-01 -5.479593368680146792e-01 8.169091402187383943e-01 -1.800000604617875422e-01
-4.820213465406745536e-03 3.523600107516938924e-03 -7.509986938589280348e-01 -7.846961125645390833e-01 4.933311610993151297e-01 -3.753350189024494132e-01
5.007685790312412649e-02 -4.090145531178094457e-02 -8.789945842389024211e-01 -7.052528226692719171e-01 6.049492809059499043e-01 -3.696685321316910411e-01
4.909697385084659665e-02 1.264219214232643607e-01 -6.691621471061793835e-01 -5.678389637564345005e-01 6.700223816373631625e-01 -4.781515652437149932e-01
2.400804169435713509e-02 -5.520254781813161565e-02 -8.564704117836076103e-01 -6.649800368579587007e-01 5.877656345062360899e-01 -4.607961691180494368e-01
-3.642181264688991449e-02 -1.095130602137260184e-01 -8.434096454947482835e-01 -7.440431132166467343e-01 5.608461103212672993e-01 -3.631135995971304653e-01
6.062302788225524403e-02 5.334970922603831517e-02 -7.865770407831046418e-01 -6.754392413144419960e-01 5.918258068415778173e-01 -4.399136797701188040e-01
-1.076912644942093315e-02 -3.403180303283831476e-02 -7.884156634707891742e-01 -7.642816358619632933e-01 5.133891072157126256e-01 -3.902629955253443805e-01
-2.357251154531446111e-02 -5.903713878723484271e-02 -7.967835304649260042e-01 -7.421950938940333753e-01 5.286680101520203623e-01 -4.118938912408517949e-01
-1.714786277486759006e-02 -2.464522686647968586e-02 -7.634075611678039497e-01 -7.517053418692104527e-01 5.275521773334828080e-01 -3.957622761153406499e-01
-2.282670053541100211e-02 -3.020445432496480717e-02 -7.599355910078915421e-01 -7.564290700650412314e-01 5.311796676393015781e-01 -3.816585157534653217e-01
5.195587524712404204e-02 3.403814944942343268e-02 -7.972574094772877373e-01 -6.742236029856051305e-01 5.591883100599849277e-01 -4.824219802925311940e-01
-1.693905260062746054e-02 -3.527582136964076825e-02 -7.780205699558658816e-01 -7.532184845572447163e-01 5.270507705966662737e-01 -3.935472014063221557e-01
1.636327408919456897e-02 5.185609971928244362e-03 -7.826284775191587606e-01 -6.365734507162942313e-01 5.612967470281053917e-01 -5.288858134028714408e-01
4.866412251877996059e-02 1.387038496607855276e-01 -6.426653154448346283e-01 -7.621976031713878497e-01 6.460705444623795479e-01 -4.059144365351343570e-02
-3.990766426469707917e-02 -1.463490420647869661e-01 -8.997827908605229297e-01 -5.230708855860856099e-01 6.912503926353499306e-01 -4.985676918269603686e-01
5.002751073302822565e-02 1.405086522539706340e-01 -6.467210992477795406e-01 -8.797573529019925287e-01 4.500444628544011949e-01 1.532546295188911833e-01
6.084718934451185252e-02 4.073584226743211939e-02 -8.023243158783766038e-01 -6.930167751531842724e-01 5.465394321285080848e-01 -4.701301931219997177e-01
1.264193084508343987e-02 8.365532537005314351e-02 -6.660447530398587723e-01 -7.546493927130267787e-01 5.663899530660982951e-01 -3.312200403714168351e-01
2.645861886355411682e-02 2.768558195766594385e-02 -7.704297520332992200e-01 -6.372119208447289962e-01 5.785228961415586069e-01 -5.091878107077528748e-01
-3.933340357795241105e-02 -5.446680002822187200e-02 -7.624998763176441541e-01 -7.285473968663269684e-01 5.445118176489810446e-01 -4.156026599528706011e-01
-5.711023910885390520e-02 -6.507290662381860769e-02 -7.461048644451933054e-01 -7.285817229402563600e-01 5.218368224933350730e-01 -4.436834498687853290e-01
-6.357020452402713240e-02 -1.619184383593590126e-01 -8.804400732603439028e-01 -6.115471721530151283e-01 6.928627445148254349e-01 -3.820356966240647245e-01
5.747652000096548650e-04 -4.877126697784098935e-02 -8.206198311748907903e-01 -5.967211464389257092e-01 5.895644886630228010e-01 -5.443689806556972766e-01
2.930553564043802614e-02 -4.913541148529365632e-02 -8.563763864429247974e-01 -6.649800368579587007e-01 5.877656345062360899e-01 -4.607961691180494368e-01
6.428946678574284923e-02 -9.865027134492753477e-04 -8.487964602341099285e-01 -6.793197140518641985e-01 5.241468262527095856e-01 -5.136096091679996922e-01
2.968932681194475648e-02 5.858161714218256683e-02 -7.365808591917429871e-01 -5.833155609479195869e-01 6.384321166119281132e-01 -5.021427972543542895e-01
9.389690035346289279e-03 7.512524402084970465e-02 -6.733137940259639187e-01 -7.630040452767842263e-01 5.648274706507925291e-01 -3.143163299758555684e-01
-5.194190238356184708e-02 -1.697854993304095117e-01 -9.207458492911445580e-01 -4.527407868373926614e-01 7.393873511977091528e-01 -4.983293336967975495e-01
5.611152499116009440e-02 3.874219911451610987e-02 -7.978006978351301903e-01 -6.857917828234417756e-01 5.509651189903320700e-01 -4.755281992351393372e-01
-5.250578112935926078e-02 -9.363009453374988855e-02 -7.897776720281256546e-01 -7.520090438025428536e-01 5.223969760680763352e-01 -4.019748716451254089e-01
3.778579131496492133e-02 6.776305879326513515e-02 -7.340211037502316627e-01 -5.800518000385392892e-01 6.532731114616502355e-01 -4.865944421314993829e-01
-2.306936031633320325e-02 2.908924331393350146e-02 -6.846837373775337410e-01 -6.878597720175827490e-01 5.972679474085721418e-01 -4.124559770912165080e-01
6.679712285903630087e-02 2.551921504796747855e-02 -8.266312292454163213e-01 -6.928635152106534800e-01 4.999993359773807211e-01 -5.195582867322156018e-01
4.366198134924617613e-02 1.836029482495837167e-02 -8.028634278993805884e-01 -6.721619605282938004e-01 5.325113995843062664e-01 -5.144219164572245706e-01
-6.132546458230016262e-02 -1.475913417377441028e-01 -8.582386440474039091e-01 -6.517125792050049160e-01 6.572463942385023961e-01 -3.785470794583514209e-01
6.513629850731995907e-02 8.149792929435378808e-02 -7.519576302550555758e-01 -6.539280595008261088e-01 6.334394447710737230e-01 -4.136817167891250202e-01
-6.284048014440028751e-02 -6.678229262760917995e-02 -7.388506092924072011e-01 -7.142111052454902520e-01 5.302000640240183138e-01 -4.569358699565425619e-01
4.815088131086579099e-02 7.511535066843612329e-02 -7.367042954221690865e-01 -5.979145648316950279e-01 6.573649319813364977e-01 -4.586605709708407863e-01
-4.832984989415890775e-02 -1.429419856438709502e-01 -8.763731144820972041e-01 -7.484151410524478854e-01 5.978983451207946498e-01 -2.870406688001886364e-01
2.704768235622781458e-02 -6.905943492322806632e-02 -8.823126102130374182e-01 -6.888107259339151245e-01 6.271754375443181484e-01 -3.635804647935392264e-01
-2.630730358751492623e-02 -5.719607562628238606e-02 -7.894048232528544373e-01 -7.408144797980975582e-01 5.333439675281816950e-01 -4.083357917483747546e-01
-5.582846446104367671e-02 -1.660544156193207443e-01 -9.074729523151244814e-01 -8.190657732172020866e-01 5.505102500438214808e-01 -1.614612143543956158e-01
9.051344580758263758e-02 1.678269163274877518e-01 -6.013623997059661663e-01 -4.129415577887146638e-01 9.107375435200403269e-01 6.032965615029908454e-03
-6.132575803354654203e-04 -4.485882618925351312e-02 -8.152000862131069114e-01 -5.992580070710878948e-01 5.798114290940242777e-01 -5.520041192356571758e-01
-8.993755064695175411e-03 -3.133667154553094331e-02 -7.885432263168982159e-01 -7.815169458677740932e-01 4.920580745094572661e-01 -3.835493640087964673e-01
-5.188587135920139787e-02 -1.184277895072513714e-01 -8.265041517455475883e-01 -7.304672647431620369e-01 5.685169693901971355e-01 -3.784257267338322350e-01
-3.400815576135661489e-02 -2.130573003898961551e-02 -7.279171394078637336e-01 -7.125922342688741917e-01 5.461870203984136030e-01 -4.403317458553234198e-01
-5.140499830266472697e-02 -3.859955933853675969e-02 -7.218371433502208667e-01 -6.993785116320634376e-01 5.632840658848927706e-01 -4.399781342152169206e-01
-1.437228543292046190e-02 2.328801709439732442e-02 -7.076557557392663123e-01 -7.274099791570680651e-01 5.333813463022003543e-01 -4.317164134470291570e-01
6.736096201873127687e-02 2.802687024573251307e-02 -8.249715560352279820e-01 -7.037402301972359719e-01 4.937535814584537719e-01 -5.108395924347403083e-01
-6.941833886048258406e-02 -1.117878158694195906e-01 -7.823680888931856536e-01 -7.461543650547607376e-01 5.453431157652388617e-01 -3.819090855127542650e-01
4.904371779287466926e-02 6.310694135450856113e-02 -7.553578000894409783e-01 -6.092857889182049513e-01 6.538813767952014189e-01 -4.485643460003619354e-01
2.865909726786327119e-02 -6.406073051791570661e-02 -8.769118635389699934e-01 -6.980349370939292752e-01 6.035294529428276711e-01 -3.853562326300248864e-01
-6.711240111579455658e-02 -1.781392837935126261e-01 -9.035136588649077538e-01 -6.915322831527759284e-01 6.630904575691846103e-01 -2.865207609200394190e-01
6.598367540256705466e-02 6.489658469226437798e-02 -7.789719787078879243e-01 -6.752504490017410266e-01 6.104499544446105874e-01 -4.139899566916090956e-01
-2.414331099492987229e-02 -1.377119282636447284e-01 -9.070461971182838257e-01 -6.178965519829902053e-01 6.600380251166344525e-01 -4.272629827725132889e-01
5.302031476186788023e-02 5.160583772802034008e-02 -7.773659573194184880e-01 -6.593444679871321989e-01 6.017074974043636892e-01 -4.507914818429286097e-01
-7.764508664093034730e-03 -6.953524900950888710e-02 -8.343547959484787224e-01 -5.894202870596851884e-01 6.032701117152314829e-01 -5.372605490016650887e-01
-4.235647429231263056e-02 -5.478922658925159533e-02 -7.577364683857419347e-01 -7.251588166985766248e-01 5.423193129037943150e-01 -4.243046705091478854e-01
-1.528482202412148779e-02 4.077606033131318808e-02 -6.803712807197227486e-01 -6.883798998211653197e-01 6.086702129550217721e-01 -3.945297015225732173e-01
1.944319422920172055e-02 1.730001868030329321e-02 -7.733358836994488339e-01 -6.399655426555080906e-01 5.680963760042340160e-01 -5.174075876758061909e-01
6.917603339199804302e-02 1.557625399194062510e-01 -6.289268845401555508e-01 -2.901221514748983932e-01 9.320652046799317025e-01 -2.169875375419827723e-01
1.301335192111433524e-02 4.920678053489647985e-02 -7.262212421345761726e-01 -7.997771371261335194e-01 5.092229821528597711e-01 -3.178812441426425717e-01
7.205965237578727464e-03 2.182352399303074189e-02 -7.533943065436753406e-01 -8.466180511102127104e-01 4.494697678476810565e-01 -2.849821105355510586e-01
3.053893052412863865e-02 -5.877243280786275531e-02 -8.719790215506564302e-01 -6.828774008930442729e-01 6.177416067574266201e-01 -3.899663608958000016e-01
-5.226258141789612288e-02 -1.649656610904887688e-01 -9.136823373623919053e-01 -4.080310496809009813e-01 7.295995477440492261e-01 -5.488125020696786871e-01
-1.080271222954537133e-02 5.929899518003925972e-03 -7.357262880840919061e-01 -7.721521272392426471e-01 4.987987446424747562e-01 -3.936761419530064865e-01
-5.147887333759629258e-02 -1.484529577852841328e-02 -6.938303397361192948e-01 -7.056126305631785778e-01 5.187990483901744332e-01 -4.826576042902056551e-01
4.076075820312548281e-02 -5.660637990515130641e-02 -8.876372442202240531e-01 -6.984689989807867372e-01 6.220255362975242175e-01 -3.538718548522266083e-01
4.527007151706923666e-02 1.349860700721433326e-01 -6.450320842020744738e-01 -6.647207078212069575e-01 7.415586268048662832e-01 -9.075893126824999269e-02
-5.356361696894007540e-02 -1.349246762573619307e-01 -8.501496659658915878e-01 -7.082074432506515471e-01 6.104707036163107281e-01 -3.546374731335954489e-01
7.817911630340655194e-04 -1.051785137378158652e-01 -8.952351853570773565e-01 -6.787113708105763088e-01 6.359798364762917489e-01 -3.672608374548225196e-01
5.337970786477743562e-02 1.435533824942211711e-01 -6.456459418772747538e-01 -2.977426593760669760e-01 7.827933196384059267e-01 -5.464283370371196824e-01
4.460269396382459534e-02 5.091548029859430113e-02 -7.661193147689306926e-01 -6.425102497760961651e-01 6.043938532201583724e-01 -4.710505802165497191e-01
-1.169234601290827270e-02 7.714448831745310264e-03 -7.317832971974570500e-01 -7.700519417067954731e-01 4.969835728899198446e-01 -4.000341677296628817e-01
-3.671989973289253167e-02 -1.213624928218295235e-01 -8.632494924227784860e-01 -7.630849217040392984e-01 5.766941494307011862e-01 -2.917623352668066716e-01
-4.360299668266690715e-02 -1.326770169893284890e-01 -8.677997152685770210e-01 -7.454809707296876642e-01 5.913342049954488644e-01 -3.075418350116337907e-01
-4.394658042708853019e-02 -1.298361540074579601e-01 -8.616021088699815644e-01 -7.484953725250726997e-01 5.837555534470350027e-01 -3.146174361479326387e-01
-3.681466890841086220e-02 -8.733024775018348451e-02 -8.104369134140617659e-01 -7.334794476906977279e-01 5.502809763049745229e-01 -3.989971765967689765e-01
-1.256499735578357670e-03 2.015834540510856587e-02 -7.365008745651925315e-01 -7.795974388813619038e-01 5.019737613644689178e-01 -3.744999014569010409e-01
8.952184821746053331e-03 -1.025761741568900903e-01 -9.074363860556298178e-01 -7.166464586077830878e-01 6.248596133909198880e-01 -3.097875351234671282e-01
-2.019942356042613019e-02 -6.587775055510572408e-02 -8.118689915400130186e-01 -7.424257836172312164e-01 5.326525147655147840e-01 -4.063068475109834488e-01
-2.130806773604930482e-02 2.617005743897623388e-02 -6.918361454416299683e-01 -7.051734043813957520e-01 5.704124038284292819e-01 -4.211414955948010741e-01
-3.702104059872434599e-02 -6.282505809544102621e-03 -7.058932696427233644e-01 -7.106655096752554357e-01 5.176420112007261709e-01 -4.764465149395856192e-01
-1.098212374649813923e-02 -1.931549448365030633e-02 -7.686116589669760302e-01 -7.727069975249137856e-01 5.074705588319917693e-01 -3.813102777198367765e-01
4.788012301761925688e-02 1.685831587360903799e-02 -8.099297972954661029e-01 -6.721619605282938004e-01 5.325113995843062664e-01 -5.144219164572245706e-01
-6.342884228016316961e-02 -1.497234683702002023e-01 -8.584877179460232988e-01 -6.096802217420114189e-01 6.949169606505093411e-01 -3.812878768291360632e-01
5.168359605964847892e-02 3.943395990451420419e-02 -7.906224481460418785e-01 -6.742236029856051305e-01 5.591883100599849277e-01 -4.824219802925311940e-01
-4.238940267804396783e-03 -3.264114294828123625e-02 -7.989123978842577189e-01 -5.360837093929027297e-01 5.952109367763142034e-01 -5.986135625471648014e-01
-3.103017557545032640e-02 -9.698381232837914590e-02 -8.349523139324538379e-01 -7.385821757428590040e-01 5.582219178410645632e-01 -3.780008731693465518e-01
1.765285515941765471e-02 5.113101864223811022e-02 -7.325063100847369890e-01 -5.400020455832301725e-01 6.348639587840251286e-01 -5.525808036866669548e-01
2.671277526716723735e-02 -6.145351909314736988e-02 -8.693029827374176843e-01 -6.980349370939292752e-01 6.035294529428276711e-01 -3.853562326300248864e-01
-2.971714634216602452e-02 -2.518550529687088591e-02 -7.403321741093297215e-01 -7.230781600385979280e-01 5.502976109373857172e-01 -4.175290575179189112e-01
-1.027218850374671082e-02 7.299717071378768185e-03 -7.350322944690990123e-01 -7.700519417067954731e-01 4.969835728899198446e-01 -4.000341677296628817e-01
-3.910952773133735509e-03 -1.273217725775964426e-01 -9.261451255559010054e-01 -7.041485057650394008e-01 6.205679340844652003e-01 -3.450656763791510873e-01
-3.886500254291270356e-02 -8.410252703300569177e-02 -8.022816718399681246e-01 -7.389643746111246303e-01 5.402874526851273451e-01 -4.025184735221550292e-01
5.834014159089974394e-02 1.001521255126519572e-01 -7.158428894515955765e-01 -6.173341020612269636e-01 6.258793873080416015e-01 -4.766273166481009849e-01
-4.643367844380065675e-03 -1.333059913480918839e-02 -7.739999925585986373e-01 -7.987332209499524716e-01 4.834653957643901268e-01 -3.581709827014129544e-01
-8.101542088356368868e-03 -9.098688057952204755e-02 -8.604425267918991427e-01 -5.978255193273278589e-01 6.436711183940481140e-01 -4.777992672518097117e-01
1.486307762773846769e-02 7.239250345999781455e-02 -6.910544928505831797e-01 -7.840221287723181387e-01 5.376019793831449123e-01 -3.103118002246245122e-01
-5.447374728920447579e-02 -9.509200957862176673e-02 -7.879958980867338703e-01 -7.520090438025428536e-01 5.223969760680763352e-01 -4.019748716451254089e-01
-5.598914653564279753e-02 -1.055458935950732841e-01 -7.995851588410096689e-01 -7.392079237565045702e-01 5.604760992219727234e-01 -3.734142306561433755e-01
-4.980152986588379932e-02 -1.673263670380465973e-01 -9.190576394165218543e-01 -4.815454475102839416e-01 7.097169431158153463e-01 -5.142138102350648499e-01
2.442334717607737987e-02 5.168680448632285290e-02 -7.391771849244646031e-01 -5.903450317342536779e-01 6.202230780277205868e-01 -5.165424251583824455e-01
-9.474385782233023245e-03 4.110001371772056822e-02 -6.903801149186367114e-01 -7.175290183239496633e-01 5.959613818736750890e-01 -3.605303581923287592e-01
4.249472571028731910e-02 -1.610252366056394088e-02 -8.360697685288750458e-01 -6.554335016352814680e-01 5.505205067911371764e-01 -5.170436118322547792e-01
-3.600474050305414037e-02 -2.734941497481790940e-02 -7.322598672284309496e-01 -7.084179967722818994e-01 5.595400585587219089e-01 -4.301846867535494279e-01
-1.971893434099775480e-02 -7.809062493474044908e-02 -8.296621798307660667e-01 -7.792631611227385235e-01 5.260194125474746407e-01 -3.406647961562900839e-01
7.631329623335995904e-02 8.768664732546571638e-02 -7.606739048257439295e-01 -6.665400641175442953e-01 6.333162010098662975e-01 -3.932364841474031425e-01
-2.946442169249675891e-02 -9.921204321578880325e-02 -8.415144789028048411e-01 -7.395085326839303530e-01 5.717495043065151661e-01 -3.552881005788327551e-01
2.157640316920543880e-02 -6.630058851194005343e-02 -8.681943755898299253e-01 -6.779748524907167617e-01 6.031327613441767044e-01 -4.202153871332406365e-01
-3.621944538593604990e-02 -1.304787503491102174e-01 -8.813543265228828139e-01 -4.908772722476462680e-01 6.960174694833719533e-01 -5.240221233542280421e-01
1.575475013392164253e-02 -6.356028644993959309e-02 -8.556855905156036668e-01 -6.402790541499820964e-01 6.100464494880860622e-01 -4.667826713619354639e-01
-2.171310857006335943e-02 -9.017581151443283816e-02 -8.441843188527271558e-01 -5.373004387112988445e-01 6.450494792070745609e-01 -5.433409683939983692e-01
-3.462556323987008022e-02 -9.755846353767495815e-02 -8.288387780844448383e-01 -7.336135776024890198e-01 5.580807831891443360e-01 -3.877588918287602771e-01
7.962846377032224005e-03 2.069180581831073576e-02 -7.564468986192064426e-01 -5.478821504367737960e-01 6.057999132310567525e-01 -5.769156041935603607e-01
-4.465804178607846175e-02 -1.419555547101383486e-01 -8.847029907722119280e-01 -7.885203947250413181e-01 5.692227826233846599e-01 -2.328540548179399428e-01
6.074030945899796391e-02 1.463844136867175072e-01 -6.465463894607220707e-01 -4.226677242186745453e-01 7.998606313844777160e-01 -4.261161405826249249e-01
6.265306354249712550e-02 1.026776597350011894e-01 -7.177994903744210342e-01 -6.007944823969330050e-01 6.463502273888620531e-01 -4.704012898321686120e-01
4.716588588681231570e-02 5.339515808666522173e-02 -7.664341920016064513e-01 -6.460602726727456835e-01 6.067080901695341977e-01 -4.631537729489568767e-01
-6.944705110529394987e-02 -8.397582409718991336e-02 -7.475287612350165478e-01 -7.468317688877204041e-01 4.912430934101588154e-01 -4.482438311419985610e-01
-1.466138864644935154e-02 -1.929799949153720301e-02 -7.610949471536098132e-01 -7.781027584423755306e-01 5.086639135864038375e-01 -3.685337438001164978e-01
-3.063326497185974231e-02 1.791984410474362771e-02 -6.877343828428214012e-01 -6.953728378038978031e-01 5.742110427809110629e-01 -4.321322653922209378e-01
-1.715847438695134244e-02 -4.752082647378458313e-02 -7.936015504626905415e-01 -7.550765751619784583e-01 5.207563341703215221e-01 -3.983367997852391706e-01
4.174185265720779976e-03 2.717373860868278757e-02 -7.385335359708600222e-01 -7.876383399844690825e-01 4.967884776984574091e-01 -3.644544605469375864e-01
6.175937834204136417e-02 5.159458754503556954e-02 -7.905264411323781326e-01 -6.816558435686300710e-01 5.715363308432542810e-01 -4.568276846415610382e-01
-6.868962127971538212e-02 -7.539840312703717518e-02 -7.392788719223776228e-01 -7.288791705740850224e-01 5.159687118667384276e-01 -4.500127143512864802e-01
-5.423320983998711209e-02 -4.290023619053325715e-02 -7.228475927679044455e-01 -6.992999310784682176e-01 5.635533371182070983e-01 -4.397581637861678883e-01
4.989599621828549880e-02 1.242161486407657861e-01 -6.731410122633764148e-01 -5.701464488113927587e-01 6.640858852058458828e-01 -4.836558321556002626e-01
1.018444164247002057e-02 2.210587376240329832e-02 -7.571849289058418808e-01 -5.812680543158662561e-01 5.969443364582832645e-01 -5.529782167520047587e-01
-1.680540130610145774e-02 -8.013462089212738948e-02 -8.371542885917272470e-01 -5.390370336627949843e-01 6.316924978354611087e-01 -5.571388197912712226e-01
4.954377083789658631e-03 2.486832372142454978e-02 -7.434252685647788628e-01 -7.905077875491052231e-01 4.972415758661508089e-01 -3.575587407047487454e-01
3.733638731177350151e-02 -4.814504853735365048e-02 -8.675457263384280804e-01 -6.899463827572012153e-01 5.983728902483386181e-01 -4.073375420165732397e-01
-5.177176622903923581e-02 -8.623170359924355044e-02 -7.813770879516096501e-01 -7.451741733696178871e-01 5.314546999341666078e-01 -4.028291862077420515e-01
3.610799358762149802e-02 4.217610976884933471e-02 -7.658062720888584307e-01 -6.403653064581550369e-01 5.883404182442725228e-01 -4.937487483983203362e-01
3.970056174317399683e-02 -6.289273052390007002e-02 -8.975219444061655061e-01 -7.116214725148154452e-01 6.341286065540716610e-01 -3.024496490420138239e-01
3.546003112182292971e-02 -1.241230605732669169e-02 -8.234336294518047605e-01 -6.488501933161243684e-01 5.388091064467440683e-01 -5.372877938718590984e-01
1.050877753594602927e-02 6.805310317080047466e-02 -6.877785222014524136e-01 -7.625031731933191725e-01 5.622005541060479672e-01 -3.201865828434599659e-01
7.736945125238506304e-02 8.342191588463354623e-02 -7.693388126302456165e-01 -6.705080825233281638e-01 6.304556773298178873e-01 -3.910812577885706687e-01
-3.703158029878642066e-02 -2.780284702501792382e-02 -7.311577805278283160e-01 -7.087048466735748065e-01 5.598695904384060062e-01 -4.292825200304764555e-01
6.478411118982359274e-02 1.546578082616079375e-01 -6.280472105766817803e-01 -7.804934961526043269e-01 4.230088731028698312e-01 4.603187979430394816e-01
-4.254787716524208868e-02 -1.079984248727519358e-01 -8.288872419532579139e-01 -7.333611573230063296e-01 5.657303146497291158e-01 -3.770021538614591328e-01
8.760155153278365026e-02 1.663065635248586749e-01 -6.046518571006072040e-01 -3.936523574405517700e-01 9.152939332036568176e-01 -8.529265690594944882e-02
-7.039829300143474189e-02 -1.399281023777699806e-01 -8.279850471358285446e-01 -6.178112697931987807e-01 7.006480575517585185e-01 -3.569335153294845853e-01
1.176913581234526052e-02 4.710876516744745557e-02 -7.264517119906224174e-01 -7.997771371261335194e-01 5.092229821528597711e-01 -3.178812441426425717e-01
-4.754021919831996623e-02 -9.975758277379660754e-02 -8.075731446261409374e-01 -7.426504975967747058e-01 5.417937180285845589e-01 -3.936112365317151474e-01
-1.408414225710670487e-02 -2.317082612572858580e-03 -7.397540890609690667e-01 -7.719582762946537446e-01 4.995703811876056610e-01 -3.930774146402431501e-01
4.650897883920717540e-02 1.312211844729863075e-01 -6.591256665844655860e-01 -5.832604891381786283e-01 6.701248314041544640e-01 -4.590641699652092123e-01
1.203268050963647411e-02 -1.013512469486155670e-01 -9.120285309660577377e-01 -7.242845265079573824e-01 6.210271447323614247e-01 -2.995616967616431814e-01
5.920382096901086189e-02 5.567131180468213453e-02 -7.812715302016806085e-01 -6.732833213074793655e-01 5.944850345826628857e-01 -4.396329297339082731e-01
1.389530752869019663e-02 -1.458144943447245434e-02 -8.001516057199963283e-01 -6.289951734276755246e-01 5.520885134367367053e-01 -5.473238028223352813e-01
3.588684260804790582e-02 -1.694735802448532960e-02 -8.285927796841293658e-01 -6.554335016352814680e-01 5.505205067911371764e-01 -5.170436118322547792e-01
-3.606598993830109710e-03 5.565724197987419186e-02 -6.781451321571262403e-01 -7.086306117801668414e-01 5.984012225141178698e-01 -3.738430592396700947e-01
6.947870445310076748e-02 7.814772980794529311e-02 -7.643973040745671854e-01 -6.645440376729858656e-01 6.328943264454515161e-01 -3.972731976190232439e-01
5.729130994603236909e-02 1.476259172167043443e-01 -6.310267829031345199e-01 -7.098707101978647405e-01 6.892702555943766018e-01 1.448795691463832802e-01
-2.373302101775241757e-02 -3.278074714517100613e-02 -7.617249057386058508e-01 -7.564290700650412314e-01 5.311796676393015781e-01 -3.816585157534653217e-01
5.229878822297668629e-03 -8.558218890915026897e-03 -7.841688869022626074e-01 -6.051023072466471531e-01 5.705029644414159051e-01 -5.553175355851289741e-01
5.672466103570104196e-02 -2.921278364141076736e-02 -8.727069055705791722e-01 -6.746435152029147675e-01 6.129816782879101700e-01 -4.112293635892156907e-01
-1.911559112208589817e-02 -3.345755776094241213e-02 -7.714317814447437804e-01 -7.450561271914619699e-01 5.319977933023386507e-01 -4.023303558717665207e-01
-7.205419927502113020e-02 -1.131871733058142371e-01 -7.792164780643039412e-01 -7.461543650547607376e-01 5.453431157652388617e-01 -3.819090855127542650e-01
2.344109936924831591e-02 -2.477079896909877357e-02 -8.216162051765893981e-01 -6.301494732270053190e-01 5.557654611540634448e-01 -5.422512273660052839e-01
-2.089471218591680557e-02 -9.786941753078970407e-02 -8.543293190072744903e-01 -5.628256591294391598e-01 6.511646227112278806e-01 -5.091285805716044832e-01
-3.355669395325759641e-02 -1.356093400408891481e-01 -8.916095663275827032e-01 -5.442752746713092060e-01 6.841299279102569519e-01 -4.855210264437350154e-01
4.621160323514867524e-02 9.089161072631607441e-02 -7.133530292013958718e-01 -5.843180344637903811e-01 6.392050142784515554e-01 -4.999893842089622176e-01
1.167893587758284980e-02 8.526668914757505602e-02 -6.606403835189575968e-01 -7.594764037505308263e-01 5.744597503449874187e-01 -3.052729719115920282e-01
-2.285549816085197250e-02 -4.299433352898478916e-02 -7.771013941209725662e-01 -7.456892388424495310e-01 5.297333406856874483e-01 -4.041412461510824894e-01
4.389398600361879565e-02 -3.217626262025317929e-02 -8.563238565013960857e-01 -6.733327688742349881e-01 5.761967969249417454e-01 -4.632712311093725721e-01
4.779623989571982895e-02 1.336547534971899709e-01 -6.573008930515176207e-01 -6.517660730780154843e-01 6.338985094124504061e-01 -4.163816347404584173e-01
-7.347396509890410932e-02 -1.522931040838508832e-01 -8.474636919468806484e-01 -6.043095352444949331e-01 7.158973422021379651e-01 -3.497155716299997774e-01
-5.357783986442433283e-02 -7.518322061118815069e-02 -7.641081185298005396e-01 -7.374922178967973085e-01 5.310157658226404287e-01 -4.172858552472845095e-01
3.216493003510737664e-02 9.357302335367738422e-02 -6.955867136327493760e-01 -4.801657190600936986e-01 6.767444801186167647e-01 -5.580840356689001913e-01
-6.087921132699669613e-02 -4.638239117348891966e-02 -7.168712112906843181e-01 -6.959730394353371707e-01 5.614237696232875496e-01 -4.476883729572576631e-01
3.739933841210100335e-02 -6.638803494699865859e-02 -8.994358913711949510e-01 -7.116214725148154452e-01 6.341286065540716610e-01 -3.024496490420138239e-01
-3.827319675892452283e-02 -3.438886224174140388e-02 -7.376804169858006688e-01 -7.084179967722818994e-01 5.595400585587219089e-01 -4.301846867535494279e-01
-3.083517803974062874e-02 -1.946091086520990165e-02 -7.309962499517250745e-01 -7.296971176775828294e-01 5.385198021494010945e-01 -4.213532237280233628e-01
-3.367229908196552740e-02 1.738726411151201960e-03 -7.021292476640754732e-01 -7.093363058486272799e-01 5.216411265735700908e-01 -4.740596378854451953e-01
5.751209334612804314e-02 2.032504568252108124e-02 -8.192244582812717724e-01 -6.830364446631215225e-01 5.206748699568104488e-01 -5.122098154637623191e-01
2.250606059940338331e-03 5.366476201609009927e-02 -6.933897077209474347e-01 -7.426057863930622949e-01 5.796610608328458536e-01 -3.354544686983338408e-01
-2.183550728776249492e-02 -7.835597940503563619e-03 -7.321698862003789277e-01 -7.560984898568196000e-01 5.076691062918378128e-01 -4.130219753876101518e-01
7.439006717918947298e-02 7.496920094025487369e-02 -7.776830719824771032e-01 -6.749154271894239887e-01 6.213412530090957064e-01 -3.980253929723636674e-01
-1.166780747652276795e-02 4.340953068961007910e-02 -6.827371932643452324e-01 -6.991275473808712393e-01 6.061947362193212951e-01 -3.791419447557805023e-01
3.328140582403540243e-02 3.901893786641153633e-02 -7.659023596196999906e-01 -6.403653064581550369e-01 5.883404182442725228e-01 -4.937487483983203362e-01
-3.948776836871355916e-02 -1.374630399014960813e-01 -8.876516735636790223e-01 -4.880775551721440730e-01 7.026615406118175144e-01 -5.177326138869464689e-01
-4.283485651716412157e-02 -7.395401108928838403e-03 -6.984595616985249666e-01 -7.056126305631785778e-01 5.187990483901745442e-01 -4.826576042902055996e-01
7.077467015055498301e-02 1.573502781145182661e-01 -6.201824818506711523e-01 -7.026586599765816121e-01 6.435172114438123536e-01 3.035727361531245228e-01
2.001979492343054778e-02 -9.366009221239390836e-02 -9.153563847964748534e-01 -7.224060300932498846e-01 6.187730399792451541e-01 -3.086251005342148801e-01
5.044624145759258466e-02 -4.342153687831264847e-02 -8.838233163888662425e-01 -7.052528226692719171e-01 6.049492809059499043e-01 -3.696685321316910411e-01
3.770415965312109985e-02 -7.395281440562273371e-03 -8.211527568393607313e-01 -6.608454004843303808e-01 5.341015276062027750e-01 -5.272749897988958656e-01
2.617577567174469294e-02 -1.122983775549578518e-02 -8.110885023804056404e-01 -6.384201622861979120e-01 5.459529914888918700e-01 -5.425449543317076850e-01
-8.987804241776907802e-03 -5.336969300946534794e-02 -8.155511608990293482e-01 -5.484220723210867510e-01 6.050560528614242761e-01 -5.771831628580289530e-01
-1.825110912459517939e-02 3.306353080472067968e-02 -6.869921925147984831e-01 -6.970778128453898326e-01 5.949760354000228624e-01 -4.001075357180349790e-01
1.019315613630885839e-02 6.965989909421644449e-03 -7.735137933714089087e-01 -6.088445266201245598e-01 5.738554310205410403e-01 -5.477209934747302444e-01
1.051168367011147131e-01 1.707527592581569442e-01 -5.810794587371981290e-01 -4.111583857415904153e-01 8.663789561388505200e-01 2.834365646738706834e-01
6.761955054890539211e-03 7.834038505489628046e-02 -6.618002703589985769e-01 -7.425912086303614323e-01 5.852903406792377972e-01 -3.255664509320342348e-01
-1.351412695615009617e-02 2.365798171044198803e-02 -7.086446011975670034e-01 -7.274099791570680651e-01 5.333813463022003543e-01 -4.317164134470291570e-01
3.270943271074873426e-02 2.773422692077579486e-04 -8.074263053963081083e-01 -6.553811858827072179e-01 5.310401335116305965e-01 -5.370957808351561891e-01
7.155503043504481131e-02 8.890123995384073552e-02 -7.508336668874662223e-01 -6.596821259950990113e-01 6.341731515591201296e-01 -4.032913419404883237e-01
7.436419626000678740e-02 7.571576247752194455e-02 -7.764737768671795548e-01 -6.749154271894239887e-01 6.213412530090957064e-01 -3.980253929723636674e-01
5.280172044190085262e-03 7.164589090262558913e-02 -6.701527964942329829e-01 -7.409159431443820276e-01 5.698082726241748830e-01 -3.554744683426994678e-01
-7.534415639448188012e-03 -3.924673146280169972e-02 -8.020622849983994884e-01 -8.159547611599833328e-01 4.660470222305402310e-01 -3.420789394429315511e-01
6.057067734027005157e-02 -1.495394481648405077e-02 -8.593334962437924052e-01 -6.728525596615678728e-01 5.810777861704106151e-01 -4.578406266116750167e-01
-1.996414142468457345e-02 -1.350533130859225273e-01 -9.092843259454442828e-01 -6.555179860865858466e-01 6.406703096897955474e-01 -3.997971037901200675e-01
-4.866220160914630499e-02 -9.855193533512737747e-02 -8.037966950074232342e-01 -7.426504975967747058e-01 5.417937180285845589e-01 -3.936112365317151474e-01
-6.944367725289447846e-02 -1.845160878251617120e-01 -9.344403721094474147e-01 -3.532769309636102362e-01 8.700044442562643310e-01 -3.439297559433920903e-01
-4.031719611071155063e-02 -2.432584536473312783e-02 -7.214395964570294861e-01 -7.131461333231995381e-01 5.468629615796407606e-01 -4.385926285045312345e-01
-4.827451434539781205e-02 -1.370607953458101991e-01 -8.651036880540546870e-01 -7.271023719847226063e-01 6.046052300694526593e-01 -3.252301591594089492e-01
9.538219774381110141e-03 -8.587934203281047396e-02 -8.782678082493705629e-01 -6.747873301010572922e-01 6.301444115423754377e-01 -3.841615281844343310e-01
-6.663442768818292339e-02 -1.118183654405612987e-01 -7.878531345484587334e-01 -7.411941877707540760e-01 5.589132425669351978e-01 -3.718160342133811636e-01
-4.791499925299941287e-02 -1.857951831526657993e-02 -7.031378178990956851e-01 -7.032081862334841338e-01 5.291794041195122533e-01 -4.748340816221299776e-01
2.143076209179240951e-02 -8.745958466383971230e-02 -9.057032789586604293e-01 -7.212566739824065598e-01 6.276066453927982014e-01 -2.930848151894519527e-01
-2.722796582644823604e-02 -1.147851330160294253e-01 -8.695418747960697026e-01 -5.528963578958301373e-01 6.751829456660276563e-01 -4.882966386401531578e-01
6.659124746469322759e-03 4.320073704082415256e-02 -7.206831030761743362e-01 -7.657285796457261595e-01 5.469849802087672908e-01 -3.383299775954733968e-01
-5.377582176103505585e-02 -1.134238119040967829e-01 -8.153384386772566383e-01 -7.304672647431620369e-01 5.685169693901971355e-01 -3.784257267338322350e-01
-5.910833386004944040e-02 -9.241590023262664932e-02 -7.758309924111256306e-01 -7.548697578100452832e-01 5.202511241583734902e-01 -3.993875518287375859e-01
-6.776110907584849408e-03 1.878565967521765839e-03 -7.490684917414537347e-01 -7.856417212953429319e-01 4.920642697077779459e-01 -3.750197864607170417e-01
2.506571595566698188e-02 -4.175830222587107593e-02 -8.418220287150707248e-01 -6.391096820493750164e-01 5.794352467909288373e-01 -5.057604265727820847e-01
5.105135773671928834e-02 -2.682328388097498725e-02 -8.602232209528453133e-01 -6.818721195541836977e-01 5.777416321774055952e-01 -4.486257003601919480e-01
-4.789127240981737310e-02 -5.088389069091743544e-02 -7.434171634726375322e-01 -7.150818002750364277e-01 5.529145160195663156e-01 -4.277190162831924214e-01
1.519445895508090769e-02 7.082040237544828809e-02 -6.946436274635419128e-01 -7.911520693352562805e-01 5.335793515811311227e-01 -2.989506292898564954e-01
1.490279296488275160e-02 -9.191161817328771799e-02 -8.996030450481248275e-01 -7.153910685346833720e-01 6.276312825481696889e-01 -3.070742454647470421e-01
-7.167728510394011376e-02 -9.023137109036680203e-02 -7.507788735669090885e-01 -7.451623102243585262e-01 4.989112514689011957e-01 -4.425163212570038529e-01
6.448954080675264877e-02 3.000413803954002714e-02 -8.191815279302244734e-01 -6.986862848981311158e-01 5.047869140848399994e-01 -5.069789410458307444e-01
-1.907003422805480033e-02 -1.471801670228174430e-01 -9.313585861378927966e-01 -6.793622049207413971e-01 6.304283033255639879e-01 -3.755358157237198569e-01
3.176997875108436564e-02 -3.554193205807973377e-02 -8.434444134269983850e-01 -6.647260360330037310e-01 5.560776053210469971e-01 -4.989158184305840793e-01
5.511747707358814058e-02 -3.422505825578907486e-03 -8.392507980077824614e-01 -6.761043892468406868e-01 5.254630828807638210e-01 -5.164991804161936928e-01
-2.036002766804956635e-02 1.218687259090514910e-02 -7.112087804425070159e-01 -7.326186037280123520e-01 5.146274314491685598e-01 -4.454532391527186719e-01
4.955710957108559744e-02 -4.012246677573409054e-02 -8.767282227281399942e-01 -7.052528226692719171e-01 6.049492809059499043e-01 -3.696685321316910411e-01
-4.332866035044361658e-02 -7.090912975642837957e-02 -7.767952399037980626e-01 -7.357446653172056150e-01 5.379855526191157367e-01 -4.114016682396632874e-01
4.199873225892318540e-02 -1.073069362178791404e-02 -8.298901675694563274e-01 -6.594538530879449079e-01 5.328658575294945576e-01 -5.302589872192829956e-01
-7.188636405097881266e-02 -1.330146342948851090e-01 -8.125755416650471963e-01 -6.577783015560760838e-01 6.599892657019428288e-01 -3.629626360387719908e-01
-1.862373574630003109e-02 9.874806121728604488e-03 -7.167585563669435222e-01 -7.337918754615282424e-01 5.159847588578893030e-01 -4.419380184290765956e-01
