3.713345382618608859e-02 9.044320694502171187e-02 -9.254329447752672744e-01 -9.210245989332024319e-01 3.833625776393357887e-01 6.889718590521559660e-02
-1.493367010076556778e-03 -1.764325616611633896e-02 -9.649465363843601207e-01 -9.557405116465825801e-01 2.941811438065710105e-01 -4.186767988125392366e-03
-4.398125868446665226e-02 -1.656868497739023838e-01 -9.707056739730810513e-01 -8.924400436599675412e-01 3.979759669561249158e-01 2.125227004287607302e-01
7.897739805000207960e-03 2.488813759146061774e-02 -1.009572121565978087e+00 -9.738630956395099014e-01 2.185499860639436576e-01 6.185931249925732955e-02
1.524606879103464728e-02 4.643275309985352151e-02 -9.827154317773378889e-01 -9.591682522200029037e-01 2.646233359765851612e-01 9.985366287647297334e-02
4.856915156212403273e-02 1.192888765261473777e-01 -9.247466136513328161e-01 -9.249723517922888716e-01 3.718698899298503724e-01 7.835134576638305703e-02
-6.186961576952686170e-02 -1.574892304328876225e-01 -1.074604750936730468e+00 -9.194095784673967930e-01 3.462644805363118139e-01 1.865125640307427057e-01
-5.423947610624107324e-02 -1.785239772370969258e-01 -9.879647478138838812e-01 -8.455311348790680581e-01 5.214298339578963271e-01 1.148391405782695079e-01
-1.788580319173425220e-02 -1.120843827895121325e-01 -9.344625428787530774e-01 -9.489618157957049327e-01 2.302401063105397050e-01 2.155480586965004275e-01
4.867272888865076252e-02 1.155641958146244458e-01 -8.825035375422102257e-01 -9.056660521502886141e-01 4.237808455337325753e-01 -1.337149734418232629e-02
-1.811291013307255240e-02 -1.241205784599471035e-01 -9.228201623072352922e-01 -9.478448106451043964e-01 2.286797820748828758e-01 2.220265123883411462e-01
-2.983065082455795686e-02 -1.188316265752758644e-01 -9.800512536770146221e-01 -9.405610098586589807e-01 2.592908783404548334e-01 2.193472752123788450e-01
1.677607938730856993e-02 4.037084027155406207e-02 -9.428741731651969493e-01 -9.504149806495509889e-01 3.042111859037106569e-01 6.455167641488263053e-02
-3.237079955266983916e-02 -1.378098518032334907e-01 -9.676061727264030354e-01 -9.367998902779538506e-01 2.793035991056673772e-01 2.107023139451353055e-01
-1.286410860464329287e-02 -7.386619134465174930e-02 -9.537928123146236503e-01 -9.542406494898332259e-01 2.300433516078918827e-01 1.910623962014218746e-01
-2.231565912306284968e-02 -1.054843165755656176e-01 -9.618915567436645553e-01 -9.502104403758689921e-01 2.361874329815342732e-01 2.032624301298460723e-01
4.749712216984273983e-02 9.554803212356645370e-02 -8.673497825402374239e-01 -9.213631858023819676e-01 2.407117771762196656e-01 3.052011143111236224e-01
-2.302148282361049861e-02 -1.363810830462497126e-01 -9.300226942699254540e-01 -9.369733724687141496e-01 2.597582571889254788e-01 2.336804380062150466e-01
-3.545538526785140671e-02 -1.416768837327242458e-01 -9.756778337537799217e-01 -9.271151409016475942e-01 3.120312871401262345e-01 2.075909231074284100e-01
-3.914731365613065978e-02 -1.425993844854704651e-01 -9.900244632318367932e-01 -9.243073565486316090e-01 3.024254773815918673e-01 2.327976401525520267e-01
3.919825951870736791e-02 9.961371538632181333e-02 -9.411796381614571105e-01 -9.279842374867683930e-01 3.441541859440768736e-01 1.428395998078642593e-01
-4.452574994490243743e-02 -1.611972220817924628e-01 -9.832123351276645939e-01 -8.935829509151146377e-01 4.038597165001342471e-01 1.959766292757041672e-01
-4.106565562849119611e-02 -1.605729129453035697e-01 -9.684787656450624116e-01 -8.853583754656811911e-01 4.260376366045469654e-01 1.860980365000722836e-01
9.283785309244163564e-02 1.793355786027770460e-01 -8.436400139761556227e-01 -5.372152781686406753e-01 3.842803953557617502e-01 7.508184352074803725e-01
-5.005767145107301030e-02 -1.468759587667033129e-01 -1.021712807870338802e+00 -8.994493519130142278e-01 2.458845812834116185e-01 3.612916218656892497e-01
5.141440969309928749e-02 1.224676368703843665e-01 -9.012024182336563216e-01 -9.259581385465857073e-01 3.745808517747254429e-01 4.786137422873559810e-02
2.313020999095740174e-02 3.761718236083981537e-02 -9.002474784224384630e-01 -9.424211879930591840e-01 2.208118321560142705e-01 2.511661585517742101e-01
3.284091346242575676e-02 8.497369792886202977e-02 -9.454525262213475667e-01 -9.246653885618749680e-01 3.578864741643754677e-01 1.300430344382539349e-01
1.652430708645136540e-02 -2.320045089035923519e-02 -8.594199706048337717e-01 -9.698460465186106161e-01 2.162147232169465416e-01 1.124715053533124204e-01
-1.396093414754337285e-02 -3.144211805303188945e-02 -1.065439487657891870e+00 -9.276197187152461776e-01 3.060588355270832395e-01 2.141253059459663766e-01
-2.597454840625015859e-02 -5.825484707442966231e-02 -1.074656549627776903e+00 -9.005108350498468583e-01 3.365721548943801378e-01 2.753169455510885433e-01
1.141856338022191261e-02 3.814341209395962634e-02 -1.001591316372663298e+00 -9.747324601433825508e-01 2.088851217844794605e-01 7.914314272198318123e-02
4.770777385268062942e-02 8.614675061238925846e-02 -8.588194251426125581e-01 -9.239719601018180350e-01 2.534470811078105013e-01 2.864269436061055996e-01
2.798639331406649854e-03 2.591078625399805425e-03 -1.007283765854177782e+00 -9.688361477573667058e-01 2.420128304939396791e-01 5.278549682419914069e-02
-2.414700176480066504e-02 -5.797020193344862293e-02 -1.068708051139851678e+00 -9.090167630981570435e-01 3.312277876981749025e-01 2.529361126117061209e-01
-7.121683225488341373e-02 -2.030816987334743140e-01 -1.020700433028379983e+00 -8.907613975179435872e-01 4.520501776939953587e-01 4.684836751379375247e-02
-7.512044092892596059e-02 -2.052911481862778886e-01 -1.035815560451374573e+00 -8.231994167984757471e-01 4.993705398809332729e-01 2.701329007760339129e-01
5.694737989002324891e-02 1.350300863810625640e-01 -8.996674812241376440e-01 -9.102091974806826302e-01 4.111578823250470194e-01 4.968312211963449299e-02
-9.364556754166777214e-03 -2.615921981628168205e-02 -1.051162172024318053e+00 -9.462957353302441366e-01 2.809646912219941339e-01 1.599475651028242629e-01
1.476891734718940342e-02 3.572097635382419367e-02 -9.511749491420093960e-01 -9.544036416718998384e-01 2.928031826243906455e-01 5.813763848354464719e-02
-7.883584349209356301e-02 -1.944564159127649128e-01 -1.065364859645128837e+00 -7.383347604418515342e-01 6.044323741389460158e-01 2.992044227882181273e-01
-2.977408281078636892e-02 -1.253654685223955789e-01 -9.719594851775718025e-01 -9.401602298572037109e-01 2.620976661566867261e-01 2.177235761006783565e-01
-1.665532815976653036e-02 -7.934384911969645515e-02 -9.660148191924616823e-01 -9.522875700537105637e-01 2.347574745141197128e-01 1.950315668832912630e-01
2.417973956203498670e-02 5.950741516341451903e-02 -9.311512667720015513e-01 -9.362102679494687107e-01 3.474196875274436769e-01 5.300844182125745430e-02
-1.774579168213907127e-02 -6.070855208620620086e-02 -1.034706303211060829e+00 -9.377382633635733544e-01 3.094992262696216745e-01 1.576615944432092353e-01
-4.057960791785800853e-02 -1.300502618468795113e-01 -1.008808938072657480e+00 -9.186701714594287527e-01 2.714283763364270796e-01 2.870047954130292567e-01
-4.978789778952864148e-02 -1.419505919560760665e-01 -1.033588383059833138e+00 -9.074700980605756584e-01 4.164874083587102871e-01 5.510226678253989097e-02
1.510175045705586423e-02 3.691611724066742178e-02 -9.517302507343822215e-01 -9.544036416718998384e-01 2.928031826243906455e-01 5.813763848354464719e-02
-5.090102940179120749e-04 4.923781657830033839e-03 -1.056250455462592663e+00 -9.569224504503861528e-01 2.683652239829599218e-01 1.108130424661470381e-01
4.268314046736153278e-02 1.021512268693694214e-01 -9.075660619909338145e-01 -9.236123355916524558e-01 3.828002024934599179e-01 2.010618098742055632e-02
-2.878454347466563243e-02 -1.439440950694219623e-01 -9.435416390173508860e-01 -9.230502749972611110e-01 3.201513367395876219e-01 2.132634788503081358e-01
4.036937026436927117e-02 5.099696014338855193e-02 -8.441686556525106466e-01 -9.295614738831009527e-01 3.162471964225112564e-01 1.894813368835532030e-01
4.922885478090285351e-03 6.514281494794305592e-03 -9.802274243195687742e-01 -9.661852349464367107e-01 2.554055935476703953e-01 3.541291510256321801e-02
-7.982596994573869231e-03 -6.958248845149153650e-02 -9.345713394223478243e-01 -9.544092397431336305e-01 2.309542292327136648e-01 1.891114673742887164e-01
-6.891999124910547225e-02 -1.735253536946220476e-01 -1.075838134158609183e+00 -8.852959960136227435e-01 4.072962225860762286e-01 2.244120908270341719e-01
1.560505630940068819e-02 3.505351731137949095e-02 -9.293297062175442935e-01 -9.427401893278348766e-01 3.335257206568125743e-01 -1.236562360720715962e-03
-6.759208851546619212e-02 -1.906334623776509696e-01 -1.032676345683947616e+00 -9.117417307761627177e-01 3.157430922864302159e-01 2.627419190663909943e-01
-8.242568008609525232e-04 -3.491810143429414925e-02 -9.392289080849176575e-01 -9.551345723452914216e-01 1.989429282100719232e-01 2.194075204407984203e-01
-7.800194734993737278e-02 -1.947910635590733852e-01 -1.051904909903589980e+00 -8.230531301699659519e-01 5.625161559352491736e-01 -7.848005625158366305e-02
7.919344533097545311e-03 2.574358736546789733e-02 -1.012254312526382760e+00 -9.738630956395099014e-01 2.185499860639436576e-01 6.185931249925732955e-02
1.663352805464041878e-02 -1.634982223425019473e-03 -8.922071919223207859e-01 -9.664579044383867501e-01 2.023252023300899649e-01 1.581885945656332781e-01
-4.535560424770462840e-02 -1.288754876498546531e-01 -1.045607581943232223e+00 -9.175268919046312144e-01 3.841022430429401613e-01 1.030042208902583328e-01
-2.142401075471126685e-03 -1.531578710169370638e-02 -1.013357607481911282e+00 -9.653640248597491480e-01 2.533103619256038552e-01 6.249928037750147880e-02
-1.854602421257649974e-03 -5.470640617416284296e-02 -9.220386215660736351e-01 -9.521509099159762846e-01 2.364895178581175872e-01 1.936010141745484470e-01
1.733721044659754934e-02 -1.925275302694332696e-02 -8.599993110398926888e-01 -9.698460465186106161e-01 2.162147232169465416e-01 1.124715053533124204e-01
1.959260249828774156e-02 -7.002760756705547415e-03 -8.639351017289419454e-01 -9.682894416566684148e-01 2.180014244769888920e-01 1.220284233374378108e-01
6.315516257249934040e-02 1.451759873221735719e-01 -8.672620170167080200e-01 -9.188631141733607510e-01 3.852875886773210468e-01 8.511199341367221838e-02
-3.289949155955058241e-02 -9.842763528491495217e-02 -1.043293112766240816e+00 -9.206840392643175219e-01 3.604616036463554885e-01 1.496941286111062308e-01
2.775387358667459614e-02 9.006112642676146474e-02 -9.869244378336002876e-01 -9.347028672156677542e-01 3.136455826992595730e-01 1.672034642944090488e-01
9.734356763577406424e-02 1.854777792323041297e-01 -8.495501541545666946e-01 -6.299674786812158311e-01 7.566978063708335034e-01 1.747838826597007955e-01
-1.577514533094205237e-02 -1.026311919096804109e-01 -9.346110705021207776e-01 -9.543078638661308677e-01 2.211501229087237674e-01 2.009704557906924483e-01
8.522929234224556685e-03 3.262996007171750645e-02 -1.024438688230625560e+00 -9.789944815065771966e-01 1.954550727850479230e-01 5.802688775265871235e-02
4.687189288543588267e-02 1.011883006812545754e-01 -8.730477377894011459e-01 -9.143502495791681062e-01 2.211124390565635811e-01 3.392239826264801250e-01
3.504715893343874483e-02 4.169357807177153513e-02 -8.544222919908494029e-01 -9.314879111920315591e-01 3.132364043107394025e-01 1.849681764995937117e-01
-3.514511421859096985e-02 -1.480573523784647627e-01 -9.645307443829407301e-01 -9.180408655798819595e-01 3.413113030864268760e-01 2.017611546130385347e-01
-4.995260216832271387e-03 -2.895891344726599440e-02 -9.680278983593992859e-01 -9.537592127419338706e-01 3.004175562006873856e-01 -9.625800553384675218e-03
1.636648806484442258e-03 -6.707200887349901164e-02 -8.835434147507710279e-01 -9.569527247847595675e-01 2.474906984262146281e-01 1.516239978352002526e-01
2.431197530046455210e-02 7.276666629932246333e-02 -9.727932258572224988e-01 -9.434123636116517053e-01 3.014258740788148261e-01 1.382590128002477714e-01
-7.244958024911599126e-02 -2.045476888407768701e-01 -1.025587115715494768e+00 -8.844378411560903652e-01 4.563343224809483512e-01 9.761501553043988588e-02
6.640295487708241899e-03 1.038520059620427934e-02 -9.640382374022271605e-01 -9.604217423021191857e-01 2.755121931437813920e-01 4.102570343657044316e-02
1.945256953410933257e-02 -1.226106404617569208e-02 -8.553314705617447444e-01 -9.686553501614207917e-01 2.203069422970986568e-01 1.147678691069859563e-01
2.218526198149831097e-02 4.042129271764145076e-02 -9.061867311294959926e-01 -9.415679652416335532e-01 2.069464801030237722e-01 2.657497341554622694e-01
-2.856725979413619193e-02 -9.451318073851733281e-02 -1.019077242937963979e+00 -9.264584725122073650e-01 3.697649488707316912e-01 7.034615339144560664e-02
2.007472587829119484e-02 1.876365936809783197e-02 -8.957530325613701772e-01 -9.614792831236304016e-01 1.992802926983931466e-01 1.893276341850610722e-01
-8.351555040980360167e-02 -2.017979692595075203e-01 -1.057120069953289221e+00 -7.417966993994690172e-01 6.699666383782045820e-01 2.970454881430782332e-02
-1.957306708928994651e-02 -5.126807024740880070e-02 -1.060507719196206455e+00 -9.171654013234141756e-01 3.224556533041307849e-01 2.341580198657879641e-01
-7.028936758839296473e-02 -1.991706988299244696e-01 -1.028807105739945937e+00 -9.054116755977561493e-01 3.974641989447736390e-01 1.491707352279693088e-01
2.499206038643116135e-02 6.776716676151856023e-02 -9.550388591580082354e-01 -9.343644756396809470e-01 3.394390796994961601e-01 1.083703734207054487e-01
3.561906250055857370e-02 8.638406964954492562e-02 -9.220483577542379905e-01 -9.197759215547848255e-01 3.905558532144178807e-01 3.844970283375737791e-02
1.721359016142938458e-02 6.356413149135370366e-02 -1.004453122463805359e+00 -9.626050579860574441e-01 2.429631268784073206e-01 1.198349753499615700e-01
2.627609933192342345e-02 6.535531252174750505e-02 -9.326652974157219056e-01 -9.266850689616151771e-01 3.700270814170962819e-01 6.583875744234723992e-02
4.707503812822162043e-02 1.120505043530976713e-01 -8.965810082420865301e-01 -9.156423103071364977e-01 4.016375080569070111e-01 1.692547480124368883e-02
-1.109273128917208188e-02 -8.651749959781872279e-02 -9.297915298707662979e-01 -9.567118267968593992e-01 2.170884341530890105e-01 1.938429576331723581e-01
-2.711959328743705419e-02 -6.491266723459061805e-02 -1.070262662598207681e+00 -9.005108350498468583e-01 3.365721548943801378e-01 2.753169455510885433e-01
-5.135401148114851488e-02 -1.235616279272986062e-01 -1.081111698926616516e+00 -9.155058278390725279e-01 3.121329640928555693e-01 2.538150742554556860e-01
-5.855106001154340017e-02 -1.564583324874501691e-01 -1.059023729113248935e+00 -9.183898380638210179e-01 3.765960369732199720e-01 1.213899924918594581e-01
1.322395642754173664e-02 3.279177825431235649e-02 -9.607851097816227925e-01 -9.556036678828941922e-01 2.859496631532842947e-01 7.109444472870213305e-02
1.591418788153865088e-02 3.670851203394023821e-02 -9.368065246325644191e-01 -9.499082927708013546e-01 3.085067347781989544e-01 4.997829450626934539e-02
-1.631007035501227595e-02 -1.069175144342498635e-01 -9.325664143797959271e-01 -9.560023554941499135e-01 2.104319498977073044e-01 2.043964059172418968e-01
1.398395550842533759e-02 2.832191084617836224e-02 -9.266382459112815217e-01 -9.395757897665235614e-01 1.505594447995091401e-01 3.074559950078662451e-01
-7.255770500205666051e-02 -1.869038146692581781e-01 -1.053519967303055083e+00 -8.603191569595345367e-01 5.097022873987955283e-01 -7.384198593700212927e-03
7.637151701313818659e-03 1.886589255609776028e-02 -9.898913208150973420e-01 -9.680517112445276018e-01 2.449983324213127478e-01 5.340132458392605336e-02
-4.230528728897843017e-03 -1.921702038721307543e-02 -1.027218204783461930e+00 -9.581100260050543493e-01 2.762906436741455196e-01 7.542319462022710475e-02
-1.520660699937331425e-02 -4.078293391335580109e-02 -1.057041553465189132e+00 -9.358043646760311196e-01 2.938274700898015901e-01 1.947706571173305201e-01
-6.000644619404062186e-02 -1.841530368388391292e-01 -1.006760402645582531e+00 -8.713007157151260174e-01 4.763995053320101980e-01 1.178073601848602381e-01
1.974555295481309619e-02 6.767658690134245592e-02 -9.937251502615370713e-01 -9.537780822738350928e-01 2.684061728568902794e-01 1.351499025022302181e-01
-2.441845938295169639e-03 -7.315000941145310964e-02 -8.993381571555045806e-01 -9.597499715460332537e-01 2.371186881586806183e-01 1.505148492451652831e-01
-4.860546227363825994e-02 -1.222056418411507500e-01 -1.072777202549270559e+00 -9.147381374110955532e-01 3.217550215184371565e-01 2.443928110508774565e-01
-1.982380027497627345e-02 -7.159246574826119702e-02 -1.016950533052180417e+00 -9.404365462072409310e-01 3.331624199423357524e-01 6.768976655272951337e-02
5.149081730435966370e-02 9.577334331787291932e-02 -8.550154505751895728e-01 -9.166477571469769936e-01 2.636333619074968659e-01 3.004236006154764049e-01
-1.286102043706759644e-02 -5.363493387235830634e-02 -9.917015077188725547e-01 -9.494069023932439899e-01 3.140134081518883846e-01 4.702466257293674845e-03
1.815002367366437899e-02 7.145326311247679474e-02 -1.012485043253933625e+00 -9.639515913416517590e-01 2.362100245352657391e-01 1.224832799158582369e-01
1.660458404441023800e-02 -1.303516668286538137e-02 -8.767236182694216895e-01 -9.686701152964106720e-01 2.080744678057655783e-01 1.355847468522401456e-01
-1.766215839087861839e-02 -5.663666494647561639e-02 -1.042657434460677157e+00 -9.341038634522369488e-01 3.242964957856065422e-01 1.492707443030311387e-01
-4.629446111064922098e-02 -1.325341555475680333e-01 -1.040764210060200368e+00 -9.151951435243586008e-01 3.857425336460384435e-01 1.167070992089317277e-01
-7.029374030201854251e-02 -1.823182243490139853e-01 -1.047029869021286919e+00 -8.569995979138663733e-01 5.080609517504093287e-01 -8.617284074428389895e-02
2.844552607517588164e-02 2.908121356486440684e-02 -8.668900633251249710e-01 -9.370188168586169875e-01 2.970438400910204169e-01 1.837408335587326080e-01
2.039864585209356235e-02 6.934438074611291858e-02 -9.924283714634701825e-01 -9.537780822738350928e-01 2.684061728568902794e-01 1.351499025022302181e-01
-2.544107449493088549e-02 -5.856010911795912766e-02 -1.072538475348003173e+00 -9.005108350498468583e-01 3.365721548943801378e-01 2.753169455510885433e-01
-2.749735364504514792e-02 -1.470269917321552766e-01 -9.343348467348687736e-01 -9.171889577635572444e-01 3.150515883792534000e-01 2.439403870135267716e-01
2.026962300875707543e-02 1.114862412206452796e-02 -8.866517306342225346e-01 -9.649206655040408753e-01 2.073621062156125738e-01 1.610250483280898370e-01
2.197951092089686642e-03 -4.042956310057290066e-03 -9.764166111701343409e-01 -9.632136843901157874e-01 2.679458240742107478e-01 2.060178547627237317e-02
-7.994398622893304426e-03 -2.135444368731495221e-02 -1.051840760109307382e+00 -9.404444935192992627e-01 3.062912818295016604e-01 1.474781518885754095e-01
7.994447020806353180e-03 2.252842917954479829e-02 -9.994628599612326303e-01 -9.736853263916617207e-01 2.199875160655963557e-01 5.951787920324656117e-02
-1.948930805618747514e-02 -1.040316441466281883e-01 -9.504233234612871062e-01 -9.500569816383387378e-01 2.324202516385903416e-01 2.082607938823435589e-01
-7.084313578247493034e-05 -7.595568946399212928e-02 -8.798194709470342767e-01 -9.569527247847595675e-01 2.474906984262146281e-01 1.516239978352002526e-01
-2.091240713160510967e-02 -1.244494754954103277e-01 -9.346099523555646549e-01 -9.478986152414293764e-01 2.330267242013628615e-01 2.172251390409561667e-01
-3.039969588659077390e-02 -9.366433891616746110e-02 -1.038973469938087701e+00 -9.261250709090762534e-01 3.489772959585522583e-01 1.432033517034974057e-01
3.588169365310319749e-03 -3.471521001590618027e-04 -9.647719495257860434e-01 -9.609790403576450313e-01 2.754143304039625151e-01 2.581144322653269527e-02
5.491295456291680338e-02 1.232014030975701752e-01 -8.667090692618714121e-01 -9.030812264583978344e-01 2.487318369121171435e-01 3.501096567144642013e-01
3.215961280767903885e-02 9.369092754817612279e-02 -9.698574669195363374e-01 -9.260295019526060267e-01 3.376424647563684434e-01 1.687214494563538114e-01
-2.975199916903733047e-02 -1.438366322181232060e-01 -9.476711095463050682e-01 -9.250884494358264654e-01 2.983940586164985365e-01 2.348879445667488297e-01
-7.516325125803703308e-03 -2.299572121940309660e-02 -1.045784520286911157e+00 -9.462957353302441366e-01 2.809646912219941339e-01 1.599475651028242629e-01
1.123071066204383711e-01 1.945758628056837025e-01 -8.380368248631290262e-01 -4.354899653139599480e-01 2.441180626514995178e-01 8.664611137253215301e-01
-3.559163628538929841e-02 -1.585758758285977787e-01 -9.486602815775773134e-01 -9.001357188579615087e-01 3.648136285580519944e-01 2.380476928146305349e-01
2.077308571907147960e-02 -1.353747933768084319e-03 -8.646685008640939696e-01 -9.682351769697689070e-01 2.183150978715266699e-01 1.218981547016437239e-01
4.292380952732125637e-02 7.607215748021642354e-02 -8.661154707475341441e-01 -9.261375912462436188e-01 2.400543759939622879e-01 2.909348013675147060e-01
5.104138043099923361e-02 1.238551050381050678e-01 -9.173582597130488514e-01 -9.225761578287227094e-01 3.771453237872477993e-01 8.133042328307299451e-02
4.556788438343445727e-03 -3.537316413341699134e-02 -9.145117782551923646e-01 -9.491898786460288839e-01 2.363484879908880898e-01 2.077930857857360758e-01
2.242600171745673387e-02 -3.893845238198074491e-03 -8.470258387955718060e-01 -9.624416703292163477e-01 2.404421405851898952e-01 1.260698546232201511e-01
-4.852073961350824617e-03 -2.823946436338245145e-02 -9.843880587471220966e-01 -9.587824683036324513e-01 2.837131168063274922e-01 1.558992705670446399e-02
-3.936618727599527912e-02 -1.511684690805319697e-01 -9.781587969112908176e-01 -9.105610145845688397e-01 3.728037750417837470e-01 1.785944680927039341e-01
2.294831011241835889e-02 1.675420591105061807e-02 -8.785437495303300981e-01 -9.594118378738906161e-01 2.266255273226338296e-01 1.678386001883404866e-01
-5.701591337881896371e-02 -1.542604888909569483e-01 -1.053854486514656186e+00 -9.143437249019989999e-01 3.914768084133278259e-01 1.035444890221204478e-01
-5.653435793568485634e-02 -1.498302544561607719e-01 -1.062696659270240263e+00 -9.216592150355307211e-01 3.606608891241898096e-01 1.430664684551838095e-01
1.260315044004918505e-02 3.075570042403978632e-02 -9.612281369671400455e-01 -9.606651550450469035e-01 2.705913250920575774e-01 6.247235122196331814e-02
-3.600133967171148530e-02 -1.541425118991531229e-01 -9.580238194010264330e-01 -9.109930847804275089e-01 3.428646815427279226e-01 2.292060418768336327e-01
2.025010261626502064e-02 2.803383576251695236e-02 -9.035073226000276403e-01 -9.507561650642475382e-01 1.980652696828842652e-01 2.383964419570303861e-01
-4.644689788006623604e-02 -1.347929930210516047e-01 -1.031989395573423396e+00 -9.103134765032553366e-01 4.089741156949516787e-01 6.379300265773207856e-02
1.126901190656564092e-02 2.274068360293201446e-02 -9.399669203302144505e-01 -9.506941860891110485e-01 3.090874120959157256e-01 2.540740483033155847e-02
1.272533828446342427e-02 5.531372029963128878e-02 -1.027291292582464211e+00 -9.778429370374241980e-01 1.911122369662626996e-01 8.543596062417234405e-02
8.227484842675565472e-05 2.129576442423372021e-03 -1.043665497457304969e+00 -9.601975126004189676e-01 2.609150304531397957e-01 9.972002647214715798e-02
4.462728128626112373e-03 3.100733870989981576e-03 -9.679994891898451304e-01 -9.616935935082772113e-01 2.723165671815611644e-01 3.145026937224851965e-02
2.158998946905654401e-02 7.156649216985597195e-02 -9.884339253158024308e-01 -9.537780822738350928e-01 2.684061728568902794e-01 1.351499025022302181e-01
-2.135756747234499389e-02 -1.043139785830873717e-01 -9.587725860476049577e-01 -9.502104403758689921e-01 2.361874329815342732e-01 2.032624301298460723e-01
-2.508803405991397173e-02 -7.442432868767624721e-02 -1.049056622096890656e+00 -9.257677356568076998e-01 3.362944557004116652e-01 1.728008642398267125e-01
-9.398176892288018919e-03 -4.010522406350285757e-02 -1.015122377499958040e+00 -9.560173227581152400e-01 2.855368483314085215e-01 6.707895967717311669e-02
-5.496970258383248285e-03 -3.063933664263203058e-02 -9.717901060988326511e-01 -9.528948967634506273e-01 3.031933864989100336e-01 -8.067596017134196634e-03
-3.014454771724449714e-02 -1.403048699859338055e-01 -9.542838004397686813e-01 -9.306386805814967911e-01 3.020925455110614610e-01 2.065229772983581680e-01
3.833703504476871499e-02 9.234232342034377761e-02 -9.165776490764652173e-01 -9.245064791274405502e-01 3.797924399241870974e-01 3.233376915573230037e-02
-1.822124318119906772e-03 -7.010816645809871128e-02 -9.001786058154794823e-01 -9.597499715460332537e-01 2.371186881586806183e-01 1.505148492451652831e-01
-1.759497407847160702e-02 -7.864083060548977822e-02 -9.714490778435270757e-01 -9.522875700537105637e-01 2.347574745141197128e-01 1.950315668832912630e-01
3.157544737167523874e-02 8.750803693084470425e-02 -9.603007457620356124e-01 -9.264635584457816542e-01 3.440956692983884180e-01 1.525235891332027693e-01
-3.073723642762095018e-02 -1.448470375790517350e-01 -9.503105092270573984e-01 -9.306386805814967911e-01 3.020925455110614610e-01 2.065229772983581680e-01
1.823770416257355573e-02 2.550059857680988650e-03 -8.877591519372918238e-01 -9.664579044383867501e-01 2.023252023300899649e-01 1.581885945656332781e-01
-1.739176998467548141e-02 -5.544746388088122452e-02 -1.043548988154678669e+00 -9.341038634522369488e-01 3.242964957856065422e-01 1.492707443030311387e-01
1.524777446970017325e-02 -2.030518593446261830e-02 -8.749183380256556619e-01 -9.662424118773464965e-01 2.245587791538511679e-01 1.262891768695169892e-01
8.644948564148536435e-03 1.897668391855909104e-02 -9.717765390869314013e-01 -9.633724828131879914e-01 2.625505550178645620e-01 5.459547067445609525e-02
2.025706716535144794e-02 8.510601675614430303e-03 -8.833060587424454990e-01 -9.657747664884216432e-01 2.062038262569350355e-01 1.573501905026957193e-01
4.832798916129728978e-02 1.143735616961027574e-01 -8.766840014303578510e-01 -8.696621989661723617e-01 1.544777916130119222e-01 4.688542114428413399e-01
8.664386563228475280e-02 1.650179397612204779e-01 -8.367827572727770669e-01 -7.129190912967846572e-01 5.741667488465801439e-01 4.025902554502719388e-01
2.071161148570659083e-02 -8.849109590670015471e-03 -8.512545414283235745e-01 -9.686553501614207917e-01 2.203069422970986568e-01 1.147678691069859563e-01
4.874110200387288955e-02 9.910671358062406178e-02 -8.663507971886315051e-01 -9.207508489314187861e-01 2.339652019309440278e-01 3.122149235342288054e-01
-4.721319102197771289e-02 -1.326430062138856669e-01 -1.047925960535422751e+00 -9.164288486101130893e-01 3.701280065645699557e-01 1.521953487846474107e-01
-7.876881803815110467e-03 -1.391693026715781940e-02 -1.065062174304495901e+00 -9.328851252319853016e-01 3.205587676794316998e-01 1.642175982796825473e-01
-4.612361044012494755e-03 -9.198659531422175017e-02 -8.861668184563029627e-01 -9.662149354524709466e-01 2.083536933752267728e-01 1.517149859620976204e-01
-7.295981464582161624e-02 -1.853916884068489979e-01 -1.067610162596877244e+00 -8.126551899199941920e-01 5.378860287699778198e-01 2.242100852998383798e-01
8.590708889756038663e-03 -4.259638674533337138e-02 -8.821192713357486337e-01 -9.528058049329289902e-01 2.647504943387072318e-01 1.485539425041400019e-01
1.562602972235941357e-01 2.147621230727423669e-01 -8.261151227055377744e-01 -3.501351991681588838e-01 8.190185525588945525e-01 4.545480754197588902e-01
1.832307760849520573e-02 6.738330815773488358e-02 -1.003274155234277654e+00 -9.639515913416517590e-01 2.362100245352657391e-01 1.224832799158582369e-01
-7.288941442246595417e-03 -7.364065880588574475e-02 -9.261488178569869945e-01 -9.575452693209884902e-01 2.275285084267260616e-01 1.770249560206269557e-01
-8.713582764032246422e-03 -6.857024167043826446e-02 -9.394967004305183611e-01 -9.544092397431336305e-01 2.309542292327136648e-01 1.891114673742887164e-01
-4.177201832893957800e-02 -1.318530576851385527e-01 -1.010844045267190960e+00 -9.140103692361936094e-01 2.663195258606110283e-01 3.060375059924786978e-01
2.047135386724600534e-02 5.854187220072273184e-02 -9.672970820075119658e-01 -9.520341384707651233e-01 2.843898971633465611e-01 1.129308885011053309e-01
1.892583023836069689e-02 6.283872201571977234e-02 -9.897742535969989985e-01 -9.528967457551723585e-01 2.757430594842679161e-01 1.263073912146782107e-01
1.586002667816723694e-02 6.176476123666575779e-02 -1.011625773738743739e+00 -9.627343154880407816e-01 2.416548624830171244e-01 1.214313189423868594e-01
-6.528550575794811288e-03 -3.386159544670312022e-02 -9.710439035041469324e-01 -9.528948967634506273e-01 3.031933864989100336e-01 -8.067596017134196634e-03
-3.032241806927901684e-02 -9.218613476934986450e-02 -1.042075986441426627e+00 -9.261250709090762534e-01 3.489772959585522583e-01 1.432033517034974057e-01
-3.932192173990863709e-02 -9.659342049334820879e-02 -1.072192768414537589e+00 -9.057839180347178054e-01 3.256230024074817098e-01 2.711552214743666589e-01
9.548806799121595246e-03 3.810588309800126000e-02 -1.025568468436333092e+00 -9.797636480337911236e-01 1.872717517219223415e-01 7.065751905155161217e-02
1.454284686884356990e-02 -1.349740127500830694e-02 -8.896865167303847910e-01 -9.640530494166085207e-01 2.082123013036932813e-01 1.650737880354064824e-01
1.819902907574580050e-02 4.500798437907489041e-02 -9.440424882558077213e-01 -9.485763675817802110e-01 3.103757697022301865e-01 6.220736650191674433e-02
7.224539292554016390e-02 1.600652633648797507e-01 -8.618075617634113339e-01 -7.858039235414898682e-01 5.942057769813081647e-01 1.715566622105949568e-01
-4.448335570388619459e-02 -1.414916181116447069e-01 -1.010474616944595727e+00 -9.193652049709479801e-01 2.760346644128620075e-01 2.803078377983843628e-01
8.668413686084783243e-02 1.765922614731285922e-01 -8.507229564165278424e-01 -6.647899030483827021e-01 7.374354896469740295e-01 1.193452278645849018e-01
3.879934997211705820e-03 -4.452809172902626872e-02 -9.062082175414005736e-01 -9.502174664573473928e-01 2.533505522475075766e-01 1.813842995279993375e-01
-1.632424747891036282e-02 -6.391863232266156714e-02 -9.889810275448005505e-01 -9.405212642204450191e-01 3.396679597390951932e-01 -6.740079810835923960e-03
-3.202791875463479460e-02 -1.177791668882128967e-01 -9.903311662303331264e-01 -9.384546100492786591e-01 2.522266984188472061e-01 2.359759256406981920e-01
-6.627059245156274002e-03 -3.414139358927990864e-02 -9.861436818273527916e-01 -9.587824683036324513e-01 2.837131168063274922e-01 1.558992705670446399e-02
5.565912753201486540e-03 1.308277365529259863e-02 -1.002636822158089691e+00 -9.710864119118567395e-01 2.321818669105146227e-01 5.552261951766947895e-02
-3.912530232264284369e-02 -1.481202555253689768e-01 -9.820239789063759384e-01 -9.162012086388737764e-01 3.347310586483124850e-01 2.202963087862502278e-01
-4.701921523994157665e-02 -1.676170489525225515e-01 -9.810352540334651428e-01 -8.899889926327890777e-01 4.182163925128031812e-01 1.816993176268150989e-01
-3.096185432677631133e-02 -1.134610467711104909e-01 -9.909024779188325693e-01 -9.367817444674287897e-01 2.648251745556588488e-01 2.287085266318812371e-01
-1.612501788374340328e-02 -3.835067611229880241e-02 -1.064883097179461169e+00 -9.183354710330677850e-01 3.255853873904375750e-01 2.250646977211048227e-01
2.685017140443513722e-02 2.267748341968771342e-02 -8.652933949239218769e-01 -9.481310631218896612e-01 2.696379971383668916e-01 1.683533119441540105e-01
-4.623043952920796729e-02 -1.163880436163886173e-01 -1.071605420809991438e+00 -9.075853109898937010e-01 3.263553788067582451e-01 2.641610682884121819e-01
2.569586414436473426e-02 3.823018088092343392e-02 -8.907245763511463243e-01 -9.424640494694669357e-01 2.320813413065834219e-01 2.406237030613388450e-01
8.429803072140107725e-03 1.685447841616551784e-02 -9.649747846070836355e-01 -9.621486959133465078e-01 2.690465997520732344e-01 4.340292748299980768e-02
4.585639029419799617e-02 8.040685397920314947e-02 -8.597707171238424539e-01 -9.333970785861885888e-01 2.478222777910162600e-01 2.595265156342234647e-01
3.878343932747671530e-02 9.342192907558490023e-02 -9.164948382633832935e-01 -9.245064791274405502e-01 3.797924399241870974e-01 3.233376915573230037e-02
-7.880896732785778319e-03 -4.713280057843068083e-02 -9.591757483794637329e-01 -9.585806345824775532e-01 1.990186640542555285e-01 2.037516585491119803e-01
-4.527865047444556285e-02 -1.169300889158229745e-01 -1.067604693592058229e+00 -9.135791084263618078e-01 3.311310589456055165e-01 2.360623528825722406e-01
-5.021232405253538665e-03 -2.839130657550442347e-02 -9.624683152005094611e-01 -9.403921332004540057e-01 3.327196856846900141e-01 -7.042901797257081209e-02
1.638379505852557289e-02 4.682130066823420728e-02 -9.725783553928590841e-01 -9.570983302077898935e-01 2.771440973231193983e-01 8.458094130721047210e-02
-3.087669937004908216e-02 -7.806911321973000750e-02 -1.066499464072888648e+00 -9.066137490722959713e-01 3.264420297545799210e-01 2.673707373718858804e-01
2.802722338842257577e-02 8.855027048543333279e-02 -9.825622427163096528e-01 -9.347028672156676432e-01 3.136455826992595730e-01 1.672034642944090488e-01
-1.973405346517426856e-02 -1.222932280146156181e-01 -9.317811060978505866e-01 -9.478986152414293764e-01 2.330267242013628615e-01 2.172251390409561667e-01
1.685858890361644977e-02 -1.731890081803263634e-02 -8.675131395098074627e-01 -9.694230700558924552e-01 2.139297275604243598e-01 1.202205594286222395e-01
-3.042475889437460529e-02 -1.498564345791582042e-01 -9.417652349882806861e-01 -9.230502749972611110e-01 3.201513367395876219e-01 2.132634788503081358e-01
1.289702817641233748e-02 3.418246225331397770e-02 -9.712478676722392512e-01 -9.617019616524012937e-01 2.643265948276486976e-01 7.253129132135543999e-02
3.284768119387464214e-02 8.254214979944177188e-02 -9.371430074845673586e-01 -9.186081815960511765e-01 3.813054016370046040e-01 1.037554788299834829e-01
-4.705913653571084515e-02 -1.636440565452738360e-01 -9.902573236344319740e-01 -8.964548056839150014e-01 4.143320188427406237e-01 1.571552084021172746e-01
3.687697002473419583e-02 9.676284298579167220e-02 -9.493915093259915894e-01 -9.279842374867683930e-01 3.441541859440768736e-01 1.428395998078642593e-01
9.238964578682161422e-02 1.814309609389807565e-01 -8.502838253805330426e-01 -6.441817773161443439e-01 7.465138567831038907e-01 1.665740057891048065e-01
-5.321114134234873616e-02 -1.719021129342619969e-01 -1.002927993918862226e+00 -8.955973284940945689e-01 4.092332631247952435e-01 1.744521755280594444e-01
2.543526759561551623e-02 5.291981710622165047e-02 -9.044041284426570515e-01 -9.360645529992230873e-01 2.000529543317986492e-01 2.894165995265026159e-01
-2.340331503515093951e-03 -8.008333023024515052e-02 -8.881208957716122399e-01 -9.640594665301313038e-01 2.260668686283339168e-01 1.395819325780326692e-01
-2.179458097956936055e-02 -4.762584045666638094e-02 -1.073801251780218458e+00 -9.084572865656693752e-01 3.323033944394710448e-01 2.535346377317042044e-01
3.723601313417895797e-02 7.536502485482970970e-02 -8.836819462317132556e-01 -9.256312502354760996e-01 2.159138873163262973e-01 3.107860708774799474e-01
-7.242345550643482059e-03 -1.658174775715305291e-02 -1.056544339958345846e+00 -9.391757884695214331e-01 2.937814182987015243e-01 1.778800624439298150e-01
2.492450608712023022e-02 8.353484339489040955e-02 -9.907194819190650037e-01 -9.450640965325577403e-01 2.887567667348044376e-01 1.532102578483640898e-01
-2.930560086213514215e-02 -1.232011216652516283e-01 -9.725419768202063775e-01 -9.401602298572037109e-01 2.620976661566867261e-01 2.177235761006783565e-01
-3.397636542539128612e-02 -1.067873909054943282e-01 -1.025257308427398595e+00 -9.211689766290218628e-01 3.804816604794852841e-01 8.173996901769814416e-02
3.447321902773379382e-02 6.870222951137376632e-02 -8.871750860061310417e-01 -9.229511470435476372e-01 2.222101308145489895e-01 3.142989626683181381e-01
4.577790050943819633e-02 1.136539803791406927e-01 -9.307191384229871467e-01 -9.311747382110380222e-01 3.481240103990440593e-01 1.082740980165202427e-01
8.165861490269170700e-03 1.616143463261288452e-02 -9.665297482757605474e-01 -9.621486959133465078e-01 2.690465997520732344e-01 4.340292748299980768e-02
5.780616263261059012e-02 1.215941920416389738e-01 -8.576766627284421185e-01 -9.126156757428000033e-01 2.550033777995605599e-01 3.195401472418247790e-01
-1.909166619394633488e-02 -4.649801845567400060e-02 -1.065201773368999127e+00 -9.183354710330677850e-01 3.255853873904375750e-01 2.250646977211048227e-01
4.265660399704510747e-02 1.065226010751676861e-01 -9.346150833428997773e-01 -9.309030395003434766e-01 3.487416320949747739e-01 1.086223047663567309e-01
5.617511378040558438e-03 2.109535925839239531e-02 -1.032962105070763581e+00 -9.752777266521981403e-01 2.127853819698129756e-01 5.963000181185069970e-02
1.741310064765945118e-02 5.428368019044496617e-02 -9.827053205688600634e-01 -9.591682522200029037e-01 2.646233359765851612e-01 9.985366287647297334e-02
-7.392875764480272283e-02 -1.933808530443140161e-01 -1.045043655427080775e+00 -8.299335136370005195e-01 2.584118609877781858e-01 4.944023392369576997e-01
5.912522868199184684e-02 1.373349149025987759e-01 -8.757222421575456828e-01 -9.122518689792342705e-01 4.054915235721691658e-01 5.807884171550924818e-02
-9.037193001225355543e-03 -4.116734740678171939e-02 -9.698093257141212620e-01 -9.374468020898968357e-01 3.397218742426603710e-01 -7.604302343068518322e-02
3.590006242984972173e-02 8.630970021097962575e-02 -9.053592037737903109e-01 -9.161850223714498309e-01 4.006315325923200388e-01 -9.968945528733445804e-03
5.218499112342214058e-02 9.824260290353449554e-02 -8.550642694151424639e-01 -9.166477571469769936e-01 2.636333619074968659e-01 3.004236006154764049e-01
4.650441549451024559e-03 8.936603580410693026e-03 -1.001310086087352058e+00 -9.710864119118567395e-01 2.321818669105146227e-01 5.552261951766947895e-02
-8.035696980463825911e-02 -2.042582034255457368e-01 -1.046662449406739803e+00 -6.721359845487370199e-01 4.559826042697049386e-01 5.833635940630145233e-01
4.629738933516567428e-02 1.102517687935151702e-01 -8.942339540759043359e-01 -9.149101951312099690e-01 4.036484234831266837e-01 -2.699085874449314981e-03
-5.421701958370900298e-02 -1.666674827023508498e-01 -1.015911817778549331e+00 -9.112017512763611604e-01 3.064459678138473642e-01 2.753220610149630931e-01
2.568383750338570394e-03 -3.918892409881678113e-02 -9.193682599947993195e-01 -9.518346678275300121e-01 2.339807047767991921e-01 1.981509397247665782e-01
-1.327160119952290086e-02 -1.156527721015542243e-01 -9.093464970801653502e-01 -9.606776402588922403e-01 1.992521597827101310e-01 1.933831645426559720e-01
1.122427467624219216e-01 1.951876373794107777e-01 -8.399615885101547885e-01 -6.109634373889301084e-01 7.671134379402703152e-01 1.956033013662138165e-01
-2.993803950485449811e-02 -9.341675068100964430e-02 -1.036591201140629526e+00 -9.261250709090762534e-01 3.489772959585522583e-01 1.432033517034974057e-01
-4.517226470893374868e-02 -1.137909249433604747e-01 -1.071178407564894908e+00 -9.075853109898937010e-01 3.263553788067582451e-01 2.641610682884121819e-01
-1.646501442754756336e-02 -1.027465150071897038e-01 -9.377600099034402170e-01 -9.543078638661308677e-01 2.211501229087237674e-01 2.009704557906924483e-01
5.302365729599623628e-02 1.250067843780622578e-01 -8.879193596107950448e-01 -9.103614200694986058e-01 4.130050892114161543e-01 2.586273640812828539e-02
-2.469138904968065304e-02 -8.650121936581643689e-02 -9.991798857045139926e-01 -9.337810286157028905e-01 3.578416114372137691e-01 1.540039420993947160e-03
-3.833589228464370779e-02 -1.147491095687503543e-01 -1.036065007055863685e+00 -9.221567884762262857e-01 3.699457878483873863e-01 1.129910240702715479e-01
-5.429362770111931941e-02 -1.363601437008630235e-01 -1.075393090663533835e+00 -9.148467941710569651e-01 3.340451250796885874e-01 2.268682384236167804e-01
-1.151240031942052724e-02 -7.162962338283548891e-02 -9.497776695747922604e-01 -9.538112719009733675e-01 2.301706224613602747e-01 1.930428505549930118e-01
-1.532143728695907947e-04 -6.142361206093740426e-04 -1.038690636945000190e+00 -9.627106377686275307e-01 2.570028740816591162e-01 8.448520959842180378e-02
-3.099370762158021320e-02 -1.080556010269693029e-01 -9.969262747636278288e-01 -9.337493116008791505e-01 2.645872983707601156e-01 2.410514149009436446e-01
-8.005406238112215342e-03 -7.565107946490225166e-02 -9.273588928255026564e-01 -9.548403186319569524e-01 2.291166557981134388e-01 1.891706212674466314e-01
1.751840441388926445e-02 5.767759284777057571e-02 -9.895286534698120029e-01 -9.603972665876480130e-01 2.542003692597297748e-01 1.141019833271592621e-01
-4.833915671298424227e-02 -1.454508306683520713e-01 -1.018350270948810588e+00 -9.053283415266377698e-01 2.672279407677866092e-01 3.301057735054561126e-01
-1.468580011980335533e-02 -1.155737690183543109e-01 -9.161579294946158303e-01 -9.580876898039173417e-01 1.995004860606996999e-01 2.055906970359736019e-01
4.554882011554827956e-03 -2.668992139670569100e-02 -9.237578381527657978e-01 -9.512162482770780692e-01 2.143564835190764351e-01 2.218985060495365647e-01
-5.237687664923791619e-02 -1.672717037749935631e-01 -1.008073407075897654e+00 -9.104181887965006048e-01 3.408437486462911337e-01 2.344445787755458921e-01
-6.626317880960580498e-02 -1.746573498807471592e-01 -1.055280373107121639e+00 -9.055191577986085871e-01 4.239358516344607919e-01 1.770447849170160223e-02
-3.551153566584976454e-03 -6.894961439897955013e-02 -9.121163046527318574e-01 -9.560075433856504157e-01 2.359238190166300375e-01 1.743259263860147401e-01
-1.312184878062112176e-02 -3.386532589741429733e-02 -1.057848858468698694e+00 -9.304343035203039847e-01 3.185498494960077864e-01 1.811573907373294490e-01
9.060008521120210823e-03 -1.601864529221128444e-02 -9.144699857898572759e-01 -9.536911353845938244e-01 1.998496930241324687e-01 2.247961709794104312e-01
-7.596578039347453778e-03 -1.856216841345410123e-02 -1.055103083304208988e+00 -9.404444935192992627e-01 3.062912818295016604e-01 1.474781518885754095e-01
5.015506842970852280e-02 1.048214161411952089e-01 -8.664115586169498506e-01 -9.178853804833712049e-01 2.275839329619074036e-01 3.251030325181343827e-01
-5.550452301829654489e-02 -1.678918948327198790e-01 -1.018807984623728791e+00 -9.096683067195137085e-01 3.094551717664251189e-01 2.770217832898076438e-01
1.022365126378771416e-02 4.008921408812182036e-02 -1.021463500929896018e+00 -9.770904699318865294e-01 1.999206498122028386e-01 7.297908842231393134e-02
4.442295819270344198e-02 6.430979816081232314e-02 -8.463020543284702768e-01 -9.294745829059656295e-01 3.048472596964266756e-01 2.077141015611611852e-01
-6.591761709526718083e-02 -1.939908850145770636e-01 -1.011211656585178087e+00 -8.734429572794440988e-01 4.851175766899070707e-01 4.193253111191268256e-02
2.768637845597618843e-02 8.897893108144414032e-02 -9.852717334554004225e-01 -9.347028672156676432e-01 3.136455826992595730e-01 1.672034642944090488e-01
5.226861115748610009e-02 1.258482690129961723e-01 -9.116471477566232551e-01 -9.183018385300413255e-01 3.916833791940830811e-01 5.749664177541402577e-02
2.337207352117950943e-02 7.964655687166988240e-02 -9.929672376542956203e-01 -9.450640965325577403e-01 2.887567667348044376e-01 1.532102578483640898e-01
-4.942427762012186615e-02 -1.410401258346985764e-01 -1.034425921171444829e+00 -9.103134765032553366e-01 4.089741156949516787e-01 6.379300265773207856e-02
-5.950204174811827423e-02 -1.676778115698418226e-01 -1.030174983116164400e+00 -8.932054833666055460e-01 2.711018447435378786e-01 3.587307545506509543e-01
-4.221320627389806013e-02 -1.551015246012248661e-01 -9.842586679329108357e-01 -9.162012086388737764e-01 3.347310586483124850e-01 2.202963087862502278e-01
-2.917864110950658257e-02 -9.264977854554121151e-02 -1.033000409226407790e+00 -9.257543374840889738e-01 3.644706386162707146e-01 1.006978659954788080e-01
-3.469235145575585988e-02 -1.348030875663245032e-01 -9.814375334817289076e-01 -9.324879320780810055e-01 2.815314353531425673e-01 2.262881071482619744e-01
7.976236113534134614e-03 1.340012369670953545e-02 -9.520413911733666135e-01 -9.594817635616672558e-01 2.797851425955629190e-01 3.339190583619557062e-02
-2.837227931345100151e-02 -6.527574239031060099e-02 -1.073896590588092392e+00 -8.994571398275403862e-01 3.385060162648054760e-01 2.763883690855891140e-01
1.081383159890944926e-02 -3.476495583692688907e-02 -8.813371178785148752e-01 -9.578861081519687293e-01 2.502962164233052400e-01 1.407338191539365957e-01
4.575614523872277573e-03 1.012191547084984565e-02 -1.008011796152141981e+00 -9.722624779274445794e-01 2.293794540624177758e-01 4.572461118929947027e-02
-1.045531589315659010e-02 -3.210971611866625386e-02 -1.047066537840848577e+00 -9.468176881669773115e-01 2.883258072089224244e-01 1.428443008014810833e-01
-8.562075464736623037e-03 -3.853809213920795368e-02 -1.008952598557146141e+00 -9.537452082171546941e-01 2.979144396419247665e-01 4.021273996700513303e-02
-6.570782762682218781e-02 -1.732300132626109490e-01 -1.057801855119444578e+00 -9.068671934071804719e-01 4.122586886993342969e-01 8.737658218132197951e-02
5.691037282001660397e-02 1.103346797408846225e-01 -8.511102650429879235e-01 -9.158424518758078170e-01 2.571620171233632290e-01 3.083833657821893337e-01
1.983415011497197122e-02 4.680498839061159044e-02 -9.242967124348022701e-01 -9.419999581770824859e-01 3.351959911123765234e-01 1.672502127253049434e-02
-3.223068888647702412e-02 -1.222943072076864701e-01 -9.861645219157425535e-01 -9.389840691089244018e-01 2.588111885309882787e-01 2.265517306286224108e-01
-3.073645682254864606e-02 -1.322446245867231196e-01 -9.677169256684144960e-01 -9.367998902779538506e-01 2.793035991056673772e-01 2.107023139451353055e-01
1.034484863801724865e-02 2.851824253040093071e-02 -9.854622594329101037e-01 -9.674567938294211800e-01 2.470825128846980967e-01 5.456724200360369564e-02
-1.320479241014327343e-02 -1.053687469533702570e-01 -9.195842022326984333e-01 -9.583723007962019480e-01 2.072771680392397897e-01 1.963637152740470571e-01
5.970954353244287138e-02 1.402664445310106422e-01 -8.910178930286284382e-01 -9.140564849089549693e-01 4.028707564650733097e-01 4.686038818816149615e-02
4.409673163430025827e-02 1.077171629229696920e-01 -9.249305233055492570e-01 -9.302577486732098722e-01 3.577410829167148032e-01 8.149747620035281692e-02
-2.306241932684673784e-02 -7.859702400119369936e-02 -1.025698399221395940e+00 -9.333026755726636647e-01 3.491213303418995162e-01 8.402626059280225712e-02
-2.362485741299649028e-02 -5.025110557790828103e-02 -1.076755637001788557e+00 -9.005108350498468583e-01 3.365721548943801378e-01 2.753169455510885433e-01
1.185040658589293049e-02 4.919968920677041807e-02 -1.023628661824707020e+00 -9.778429370374241980e-01 1.911122369662626996e-01 8.543596062417234405e-02
-5.272937304736666914e-02 -1.518652527513731365e-01 -1.024900206383649870e+00 -8.946036690228654775e-01 2.554051330787691643e-01 3.666776423070320368e-01
-1.748599405767901557e-02 -1.022554957656347102e-01 -9.431040526066444274e-01 -9.542530996388195463e-01 2.199546272653404577e-01 2.025363764222860852e-01
3.053704074625555875e-02 4.376608423916286683e-02 -8.775280952857936745e-01 -9.333576729983698028e-01 2.659201266933270968e-01 2.411015148738658576e-01
4.053448154954766153e-02 6.362656636562341594e-02 -8.617903303885409150e-01 -9.312854526174936254e-01 2.790945203888420267e-01 2.341231608191554903e-01
-2.198465557292954634e-02 -6.172734207583980420e-02 -1.055223728339562683e+00 -9.187380941313292304e-01 3.328826012988253535e-01 2.123899436048234668e-01
-8.289192030663748365e-03 -3.920872253861625717e-02 -9.926766942746623190e-01 -9.558245848247374221e-01 2.934572594503452869e-01 1.679880711571990481e-02
2.961165061463408299e-02 6.395889248656243253e-02 -8.986929819370699235e-01 -9.332560301163538297e-01 2.072033025457297728e-01 2.934279701487336744e-01
-5.550453411825629485e-02 -1.458035070537972711e-01 -1.065540544780461119e+00 -9.129180686905690179e-01 3.514803869309369166e-01 2.074659910953132458e-01
