5.485694055391478023e-03 6.962442391747274140e-02 -8.529223836943374826e-01 1.169524283502641898e-01 7.420452342491077324e-01 -6.600689356659373841e-01
9.819634374541591493e-02 -2.957992262915663806e-02 -9.721527213945303503e-01 -1.767777656896998006e-01 7.091446032955043277e-01 -6.825419790566874534e-01
-4.166499846815693159e-02 -1.017980133169766599e-01 -1.015568931177016188e+00 -2.652186170366826468e-01 7.312892188706163754e-01 -6.283909320962179912e-01
-5.626811257330701505e-02 -1.068601456946106365e-01 -1.015748311397078218e+00 -2.415747524797462464e-01 7.601231197779960702e-01 -6.032035160236681737e-01
-4.466524173484549137e-02 -9.495653611925304605e-02 -1.006320654398025649e+00 -2.671361397780934732e-01 7.317162252877540407e-01 -6.270802568053785997e-01
8.503698088348619899e-02 -2.661152952014955372e-02 -9.658708425049890023e-01 -1.715937043209327939e-01 7.009275890241331020e-01 -6.922832625322069555e-01
8.579539719759951902e-03 1.321895855050798374e-01 -7.538111490312096041e-01 -2.068828009897580589e-01 9.562866576265071084e-01 -2.066768857423484929e-01
-6.003220310666245590e-02 -1.312358475612343811e-01 -1.049454198429386587e+00 -1.001007224712050780e-01 8.500981799085176593e-01 -5.170231424965119338e-01
-9.318623563695015155e-02 -4.632879465824817772e-02 -9.360109685622755027e-01 -2.426983612227360809e-01 6.713361599225288190e-01 -7.002894157705592537e-01
-7.849158217288010331e-02 -4.745136029794778942e-02 -9.421084167819937516e-01 -2.436485667923165843e-01 6.840652537436318070e-01 -6.875246210287385695e-01
2.280574236924068701e-02 -1.413045845421589675e-01 -1.088014392189817547e+00 -2.095581713228968912e-01 7.775471592376390628e-01 -5.928792355895770028e-01
-1.609612832452315262e-02 -1.220499610801532298e-01 -1.054647972290504665e+00 -3.654258366071004294e-01 7.563631731400274338e-01 -5.425667776942756371e-01
-9.626528404258860583e-02 -3.326301836935124934e-02 -9.217398512258424548e-01 -2.045869376803144124e-01 7.129872321372660027e-01 -6.706663788649552815e-01
-3.565281296500885655e-02 -7.779812276892301981e-02 -9.908684412817388987e-01 -2.667043421943023351e-01 7.119546147724212792e-01 -6.496071277002414268e-01
2.891531102187681543e-02 -1.278100073283300053e-01 -1.072227301652229681e+00 -2.351337506800874333e-01 7.814125352233253219e-01 -5.780195231019190638e-01
-5.593919895771072050e-03 -1.473956280454800233e-02 -9.376903593716381380e-01 -3.403835731042740842e-01 6.686333724097754949e-01 -6.611115159038585265e-01
4.726398180806517905e-03 1.267929309981358499e-01 -7.685395132477599311e-01 -3.697933351619713260e-01 8.659567893543566042e-01 -3.367071847182359634e-01
-3.803610145573474433e-02 -7.967834720336469667e-02 -9.919505534301576999e-01 -2.677172179132000784e-01 7.117318517763534524e-01 -6.494345713001573595e-01
-1.611398597177494951e-02 -4.833796116268996440e-02 -9.671807245749834969e-01 -2.783932020132053320e-01 6.898819132924104425e-01 -6.682515774652818541e-01
-5.493773359496732789e-02 2.768921375329860823e-02 -8.728003183666515064e-01 -2.219251602674731649e-01 7.260146085674007432e-01 -6.508855593627655978e-01
-5.826770875487634338e-02 -2.889772279649322623e-02 -9.295173482647168806e-01 -2.425557947256036795e-01 7.172437383000167532e-01 -6.532442929826849376e-01
6.608542665876630806e-02 1.897672686671617731e-02 -9.195361323852493385e-01 -1.848406093577185938e-01 6.990531792623282392e-01 -6.907666767407778519e-01
6.408320181729031118e-02 -7.380264783590385902e-02 -1.013449730535097570e+00 -2.470662246498172565e-01 7.776097602530767094e-01 -5.781706853485730768e-01
-3.361672929139523924e-02 -9.585075510019171185e-02 -1.012073470114196239e+00 -2.699425465284664982e-01 7.301593498152227912e-01 -6.276928750998675977e-01
-1.864134961980997568e-02 -1.524834742175054658e-01 -1.097700974475982028e+00 2.299531046080700303e-01 7.942957857208380323e-01 -5.623306629263838952e-01
-3.140755855348598136e-02 -8.905761432096340191e-02 -1.005210523270480216e+00 -2.710490287938062126e-01 7.191556422001210702e-01 -6.398027713926111026e-01
4.125799720645793173e-02 -1.081570551661727719e-01 -1.050676131772850130e+00 -2.497246289267430475e-01 7.832096582064497214e-01 -5.694034079626999478e-01
-7.928320620937466534e-02 -6.783056112833896201e-02 -9.620724383920702394e-01 -2.793402691172129915e-01 6.845820148095842494e-01 -6.732878129364686659e-01
1.373002860818676660e-02 -1.341025615700642271e-01 -1.075519387245115643e+00 -1.736531733433913371e-01 7.897625340896725632e-01 -5.883193989118742362e-01
-8.467599269801825979e-02 1.136839784828325844e-02 -8.799639931220453182e-01 -2.055887414233701360e-01 6.768497922634399977e-01 -7.068292779115002977e-01
8.099009156448216951e-02 -5.919166157687979352e-02 -1.001322896754858416e+00 -2.404009922003304267e-01 7.604075393911089442e-01 -6.033139622006573610e-01
2.498839579532447994e-02 6.561545087386021213e-02 -8.574082320531367651e-01 -4.980131143524736681e-02 7.584581046004487126e-01 -6.498162301337389035e-01
6.396971201607924706e-02 5.815260975307982166e-02 -8.737922644529865224e-01 -1.799696901996300502e-01 7.735660188423436612e-01 -6.076236706234017237e-01
5.019623120917610093e-02 -9.469533100808588677e-02 -1.035971796631396158e+00 -2.492351384292956495e-01 7.865090200075049998e-01 -5.650534551871743139e-01
-8.003599906260297492e-02 -1.129325077165850011e-01 -1.015082736181833312e+00 -2.267855609613633472e-01 8.032459012034962598e-01 -5.507851954611916456e-01
6.972128795280868249e-03 1.067591566825485810e-01 -8.066312231854827486e-01 -4.850795063392234208e-01 7.235021617945470718e-01 -4.911644270591189465e-01
1.917268052779507251e-02 -4.884859067297715740e-02 -9.752532875587178740e-01 -8.371239391379262096e-02 7.075822521850442248e-01 -7.016548948720893186e-01
-1.636535474308953297e-02 -4.142125045682413381e-02 -9.598596358149196206e-01 -2.886306010854799986e-01 6.920782755843102318e-01 -6.616041388785911526e-01
1.304879114644117745e-02 1.093222771390051501e-01 -8.041379965922740292e-01 -1.711716546257000329e-02 7.918678452181519001e-01 -6.104525520923703708e-01
4.943752994360166297e-02 8.646673916427900786e-02 -8.355342811698222016e-01 -9.236776276667575669e-02 7.717118895525049149e-01 -6.292288581468443720e-01
-5.289392464493140184e-02 -5.736212687828889933e-02 -9.619224796810916800e-01 -2.616852202382671244e-01 7.028111370616765274e-01 -6.614962971407498671e-01
5.943016120991389400e-02 6.559801207532862943e-03 -9.298633302799595990e-01 -1.675291572846593358e-01 6.683628880004351958e-01 -7.247241070940095842e-01
-4.739060224668813215e-02 4.660945207836930670e-02 -8.532914485875937594e-01 -2.302555588359635752e-01 7.595511662850921164e-01 -6.083291900115385120e-01
-3.750395082225859572e-02 5.767848893204033378e-02 -8.432999901957783928e-01 -2.427618412688668792e-01 7.548805844707917601e-01 -6.092798959532351732e-01
8.168992937646123165e-02 -6.297063152155302213e-02 -1.006401738396187850e+00 -2.383888376693462097e-01 7.755692186826523837e-01 -5.845195883002026749e-01
-1.985615681780531633e-02 6.966198118177824306e-02 -8.370878098176095516e-01 -3.369003790429244694e-01 7.314981976948111697e-01 -5.927972008789994529e-01
6.647332077449670529e-02 -3.609822847261259359e-03 -9.407505747701847554e-01 -1.625055596140655423e-01 6.602558557955806595e-01 -7.332490354457786852e-01
3.579650247324043383e-02 1.422733922963175246e-01 -6.855699686073968291e-01 -7.959806869110638838e-02 9.883240404374497023e-01 1.299220479904797665e-01
-3.679438382948491820e-02 -1.226374690626049757e-01 -1.043961925111194677e+00 -2.478767937665715959e-01 7.754470090890348555e-01 -5.807228523201707349e-01
-8.801259468472835690e-02 -2.816052854233971892e-02 -9.188404841888909713e-01 -2.094695675762589804e-01 7.163786365261416433e-01 -6.655254686248762708e-01
-2.152972889831053158e-02 2.687349946139128143e-02 -8.867213723217143295e-01 -2.977676836852276021e-01 6.942430290789418645e-01 -6.552564559987408277e-01
-2.395004583813032523e-02 -8.352940704478574452e-02 -1.002067926145878696e+00 -2.666908742864038673e-01 7.224581901118536376e-01 -6.379107626562342537e-01
-2.113092268266895252e-02 9.341562271242212154e-03 -9.048603482391026631e-01 -3.318617569252122479e-01 6.725044687158659995e-01 -6.615175839293332416e-01
5.801272747335310676e-02 -9.683608478849953238e-02 -1.042835668668539828e+00 -2.708178306286618264e-01 7.887756054535164374e-01 -5.518068021101445453e-01
3.212657554046633585e-02 -8.620752325706049213e-02 -1.018362702910155404e+00 -1.518687123198982913e-01 7.740719969790060828e-01 -6.146124288616604536e-01
-7.145791097741170661e-02 -1.224040119143891964e-01 -1.032428177541058201e+00 -1.373221878497578041e-01 8.475363615091519032e-01 -5.126643469600591363e-01
1.279815319401786562e-02 -7.798007710787625835e-02 -1.005192364218249201e+00 -8.303729599383065374e-02 7.538863975794377614e-01 -6.517362250318229355e-01
-6.203040572935985403e-02 -7.467581195560339669e-02 -9.764778957948175853e-01 -2.754568160632693274e-01 6.994616294858297945e-01 -6.594520235478195103e-01
-7.830448654177398285e-03 9.877185967415992585e-02 -8.074024220528591700e-01 -3.502484043479940357e-01 7.469656826667495642e-01 -5.651268213152520481e-01
-5.122561604867414270e-02 -1.064888992433180859e-01 -1.017269707116406741e+00 -2.512629892579998359e-01 7.500863777771937801e-01 -6.117494062949495603e-01
7.918203255049138800e-02 3.882336294277098643e-02 -9.021297885669877781e-01 -1.948246652027275649e-01 7.359235172219440457e-01 -6.484288138480029939e-01
-3.980892302810669359e-02 -1.010554084549371116e-02 -9.163458328470630576e-01 -2.808096551031744048e-01 6.962699471103400706e-01 -6.605710395951375213e-01
-4.570437986256193491e-02 -5.339560502851856821e-02 -9.605602680606961652e-01 -2.626270722417850534e-01 7.021007938040045859e-01 -6.618772516603776968e-01
7.741163888783639258e-02 2.188561332874571635e-02 -9.196808855386247039e-01 -1.946545919129830382e-01 6.969965609187152022e-01 -6.901488128763778596e-01
1.764187943688527022e-02 -4.838530652711831720e-02 -9.746034543336000722e-01 -8.371239391379262096e-02 7.075822521850442248e-01 -7.016548948720893186e-01
-4.454241020074687502e-02 -1.499207638404183029e-01 -1.080116912852453925e+00 -6.852451705684420302e-02 8.139438359901557396e-01 -5.768880501585699205e-01
-4.336961527171760526e-03 1.625493525557023672e-03 -9.217143045567199877e-01 -3.738975114185242310e-01 6.634938109055095179e-01 -6.480560267794125417e-01
1.676320113831474001e-02 7.272853363186641829e-02 -8.488159635127270342e-01 -1.369423748114096014e-02 7.589157176875869215e-01 -6.510448535289599103e-01
-2.005950023848558639e-02 -4.429992748568728489e-02 -9.613050663623083913e-01 -2.691459227146871247e-01 6.956113217745512056e-01 -6.660971110169460196e-01
6.531455720806189635e-02 -3.681575853633661105e-02 -9.714769604373468814e-01 -1.593007305631873871e-01 7.138147550128810526e-01 -6.819763725877425742e-01
5.422334081771657682e-02 5.541063685184552390e-02 -8.746185315784671399e-01 -1.693265452323731990e-01 7.723910476313801121e-01 -6.121605921803265904e-01
6.941033460611259476e-02 4.462429647327111754e-02 -8.923591239309107692e-01 -1.919094996014977794e-01 7.557181795390559564e-01 -6.261475681314095931e-01
3.821986198179398719e-02 -7.163179745707029533e-02 -1.002414073175153852e+00 -1.457076006131463042e-01 7.490358402509574853e-01 -6.463084442764939208e-01
-6.309481541149021544e-02 4.250156726712420868e-02 -8.529848873978802537e-01 -1.990356403547267616e-01 7.633365115679279223e-01 -6.145747993335639592e-01
5.675258762030831877e-02 8.510155600308776103e-02 -8.383525258507144029e-01 -9.700660447034038791e-02 7.782690748650571422e-01 -6.203925900571534147e-01
-4.049777967623183900e-02 -9.338687539207132793e-02 -1.006264415192783090e+00 -2.671361397780934732e-01 7.317162252877540407e-01 -6.270802568053785997e-01
-5.522922490722202010e-02 -9.783517818607595506e-02 -1.005226871864225213e+00 -2.522315510311711750e-01 7.418089297442671537e-01 -6.213684546354719673e-01
7.691275237027563397e-03 -1.365484690715148240e-02 -9.398707855221986041e-01 -7.321072608029143003e-02 6.906887248527490142e-01 -7.194367761993266663e-01
-8.677312671105669173e-02 -1.967481659340861860e-02 -9.101509923453190432e-01 -2.023241739637264003e-01 7.165055076303677994e-01 -6.675962748287654902e-01
-7.021795085528634295e-02 4.045807343494062930e-02 -8.532161295982345628e-01 -1.990356403547267616e-01 7.633365115679279223e-01 -6.145747993335639592e-01
-2.943084395413912702e-02 -1.658467391980503747e-01 -1.126123571280447599e+00 9.778057675109898261e-02 9.171643755239841100e-01 -3.863268914791240238e-01
-1.798895758300582751e-02 -4.609561401592890406e-02 -9.640409941911219915e-01 -2.886306010854799986e-01 6.920782755843102318e-01 -6.616041388785911526e-01
-6.138715683158271069e-02 -9.939861911872596711e-02 -1.004487809819825772e+00 -2.644704264692583351e-01 7.382931884350149021e-01 -6.204664063699407706e-01
6.296351608887991620e-03 3.642902270919790020e-02 -8.893896628673263471e-01 -3.869072755221739102e-02 7.254531147939803359e-01 -6.871832403640183440e-01
-1.241682783330875367e-02 -1.315491970474305661e-01 -1.068950574280012944e+00 1.116026221060685379e-02 7.927078024710756399e-01 -6.094996213689298781e-01
-2.586159889847955765e-02 -1.471114042093062957e-01 -1.083426307752813011e+00 -3.786203314599398961e-01 7.615822916828999256e-01 -5.259648824780869258e-01
-5.708207582671036978e-02 -1.364152215062817974e-01 -1.058365389192255313e+00 -5.573321796355568819e-02 8.468908546633248102e-01 -5.288380552712240723e-01
4.990061700000078537e-02 3.451340712425812751e-02 -8.989016839216229515e-01 -1.666710317034546529e-01 7.380962042166371306e-01 -6.537849497441025060e-01
-3.250519873984848013e-02 -5.052708059028993698e-02 -9.627641918622948936e-01 -2.644024719850603944e-01 7.028628436503104870e-01 -6.603598684232625526e-01
2.170067418105650972e-02 -6.232647696362583756e-02 -9.893042162965703934e-01 -1.073404194088908026e-01 7.215470026633630241e-01 -6.839941208143826001e-01
-8.962705478494074895e-02 -9.002177409347995873e-02 -9.810915296081498260e-01 -2.832476332628860449e-01 7.138932339238105440e-01 -6.404117650455659616e-01
-4.183864906930339495e-02 -1.388461002516012677e-01 -1.064551999257429271e+00 -1.514356494248367269e-01 8.102946252985080422e-01 -5.661182423271911013e-01
1.105943823758438575e-02 -9.988470715649012954e-02 -1.030937710295414478e+00 -9.261975105332054259e-02 7.746781241034725873e-01 -6.255360786959820452e-01
7.814984737702963813e-02 3.379836736555342364e-02 -9.074766124919617649e-01 -1.967957824817742896e-01 7.157972135705034100e-01 -6.700043052414582645e-01
2.824089986052373200e-02 1.039754622418583713e-02 -9.196496984395777785e-01 -1.322743317638454819e-01 6.989779301791455568e-01 -7.028039230673843729e-01
2.681869626711558957e-02 1.039506051314630780e-01 -8.117612912104578138e-01 -4.187960019430431169e-02 7.784721214602483563e-01 -6.262804924287085351e-01
2.362868846355831165e-02 -3.291265737760599389e-03 -9.321876314169272870e-01 -1.154575944160944612e-01 6.834843057692112644e-01 -7.207764893910095783e-01
-6.822817029539683664e-02 -1.192808565482403327e-01 -1.028511513915100206e+00 -1.501643187997611373e-01 8.288370671782393506e-01 -5.389617736266448800e-01
-1.824683353107124824e-03 -8.274649856031733586e-02 -1.009254908664566797e+00 -3.670789520348044510e-02 7.478687974639411928e-01 -6.628308926185990657e-01
-1.683076907277251955e-02 3.879214718196878024e-03 -9.126118662167588269e-01 -3.329458604344887607e-01 6.738185371497320553e-01 -6.596329532497091641e-01
-3.260021549948620423e-02 -1.616674051955827585e-01 -1.102916044082678404e+00 -3.021328362192864936e-01 9.077515533277068505e-01 -2.910375692401669379e-01
4.264702044196644337e-02 -1.145753927766744173e-01 -1.060273811404397470e+00 -2.558834488010066632e-01 7.771826655825117003e-01 -5.749006565901317867e-01
6.642799930437091882e-02 -1.254342834052151780e-02 -9.487965167658499732e-01 -1.624367745491168968e-01 6.613154842631049357e-01 -7.323087631238167639e-01
6.012893827826765181e-02 -3.836144214996248768e-03 -9.395599052562111364e-01 -1.597883253841350104e-01 6.605631636493681791e-01 -7.335693545265314919e-01
-1.783136111708438429e-02 -1.346355242743424996e-01 -1.071529366770665792e+00 -4.408953737191547706e-01 7.458951762644172589e-01 -4.992510945992215121e-01
-4.050114218762199819e-02 -1.845941633308504498e-02 -9.250401622678726676e-01 -2.733308007283337671e-01 7.074693678734768065e-01 -6.517494663549107115e-01
-5.996587400916991717e-02 4.729408255917331300e-02 -8.480931044884807424e-01 -2.040455064610809388e-01 7.610794296410652304e-01 -6.157300813426868080e-01
-6.966494221118470047e-03 -8.049842401392170999e-02 -1.006682339583535146e+00 -3.483077232961214187e-01 7.188594896340333440e-01 -6.016001695938669735e-01
-9.032676882565725263e-02 -5.778968756080794973e-03 -8.947474893740320345e-01 -2.051400314765115807e-01 6.829322907654550301e-01 -7.010856250955824764e-01
7.857339774946359157e-02 6.227825242439349179e-02 -8.729860959202762061e-01 -1.893220329851042771e-01 7.761076437871343714e-01 -6.015098445425226537e-01
4.032880958955770145e-02 -1.242857512378835738e-01 -1.072321798419181071e+00 -2.686552764324526832e-01 7.728430525570740839e-01 -5.749243068085276853e-01
-5.743218667531214267e-02 2.162840096585863861e-02 -8.781584075790245247e-01 -2.247288607171705199e-01 6.951160815351830058e-01 -6.828693669743397532e-01
7.468352615665557748e-02 -6.389496787994214388e-02 -1.004788485708713486e+00 -2.293715321326824097e-01 7.656983383777095087e-01 -6.009116031936148072e-01
5.658135395735421069e-02 6.532234678719993359e-02 -8.627244773703024450e-01 -1.479508142987508990e-01 7.788863758920516744e-01 -6.094641662953467209e-01
-2.375439070368140851e-02 -3.879312528606041616e-02 -9.540068035144771974e-01 -2.778123143534975137e-01 6.919224147890126186e-01 -6.663810395757783223e-01
4.332366441285696174e-02 5.781431347085860123e-02 -8.691485006498803623e-01 -1.086167336711087450e-01 7.806947018860256327e-01 -6.154008349146994350e-01
-7.190204595806234597e-03 6.231260493397052999e-03 -9.153306798039136938e-01 -3.728053440622695613e-01 6.666440687266552700e-01 -6.454470242166920890e-01
9.084345723047509980e-02 -3.973170316036634536e-02 -9.811528873991578470e-01 -1.944243733351008752e-01 7.370412997322397519e-01 -6.472783678930296158e-01
-8.040478507175818912e-02 -4.592419720445322685e-03 -8.964948699574027957e-01 -2.051400314765116084e-01 6.829322907654551411e-01 -7.010856250955825875e-01
1.194047497586248757e-02 -1.138818837728324401e-01 -1.048801693892497777e+00 -1.176720474570252528e-01 7.804287253443230599e-01 -6.140718963645108719e-01
-2.296530366458634717e-02 3.965866158919956891e-02 -8.719969774641510574e-01 -3.004068263164138552e-01 7.255636568290330102e-01 -6.191228622748327082e-01
7.077888485513966765e-02 5.796883283252107083e-02 -8.760718517677958950e-01 -1.857495802986801614e-01 7.749961553548418980e-01 -6.040513658655843887e-01
-2.960712832546032874e-02 3.992223169834288599e-02 -8.686062177867207579e-01 -2.755965685302809720e-01 7.345321060086911213e-01 -6.200879910599552680e-01
-3.904230879991301556e-02 -1.043447976605391125e-01 -1.019782981951763423e+00 -2.634993487201039986e-01 7.467748303134874588e-01 -6.106516568669432266e-01
8.057886291248905763e-02 -7.464851711274618495e-02 -1.022092495737494611e+00 -2.720479755358226059e-01 7.928223444722721780e-01 -5.453646753433434302e-01
-1.194897482017255206e-03 -1.156185814017385433e-01 -1.048988597170174675e+00 -5.959429287463664793e-02 7.860009893915017587e-01 -6.153462155017712654e-01
-7.692058785082041272e-02 -1.252647948964162594e-02 -9.056158461103823720e-01 -2.108038273284495168e-01 7.050435591475585628e-01 -6.771080608648964994e-01
6.897877892980232295e-02 -2.950650880851525201e-02 -9.651091770297810513e-01 -1.520290408720289532e-01 6.942119453370436677e-01 -7.035317659373231391e-01
7.088008480051871674e-02 2.248860229059358382e-02 -9.172651193203849029e-01 -1.848406093577185938e-01 6.990531792623282392e-01 -6.907666767407778519e-01
7.950636312733745659e-02 2.401201144523806147e-02 -9.181338650807541191e-01 -1.977960164026085765e-01 6.941382814059923190e-01 -6.921335002598807407e-01
-4.678964004631425144e-02 6.060164538336058893e-02 -8.360224528195198124e-01 -2.429152133662528246e-01 7.660510259516621900e-01 -5.951117750083878555e-01
-4.937788819985751421e-03 -1.055036806333140842e-01 -1.035940499966238493e+00 -3.823530869601805826e-02 7.713000024176810410e-01 -6.353222547962614764e-01
4.506680659004021205e-02 1.183547807885587839e-02 -9.215501343187917360e-01 -1.511261594534631936e-01 6.920639432891945164e-01 -7.058387792745997036e-01
6.963495078112741377e-02 -5.690184931937287277e-02 -9.944666005228267602e-01 -2.315332749843484750e-01 7.478670792301921333e-01 -6.221633020186290164e-01
6.504979765657280255e-02 -3.099987578431501190e-02 -9.657013797250659781e-01 -1.613961103468300462e-01 6.877491565752000824e-01 -7.077799044865675793e-01
5.113679715095529113e-03 9.133691969291507506e-02 -8.264172690884497019e-01 -5.184252657612695714e-01 6.817663813544904139e-01 -5.161684270421436072e-01
-3.039007907447835097e-02 -7.247549637800437816e-02 -9.871518060668941219e-01 -2.629162130215134674e-01 7.144876484747902934e-01 -6.483690809310626024e-01
2.901673881960908224e-02 -9.887505636227988948e-02 -1.033601203760069032e+00 -1.581164097227377718e-01 7.799957478145358447e-01 -6.054798381181939471e-01
-8.691683104166711415e-02 -8.039919584185517554e-02 -9.716967305298798152e-01 -2.905229069243841500e-01 6.851455700615640687e-01 -6.679610680101201181e-01
-2.232814695375570646e-02 -5.819244992384742937e-02 -9.749978304908482052e-01 -2.638888345950570202e-01 7.031711565450673440e-01 -6.602370843713151194e-01
-1.885169042241761558e-02 9.656328698174831970e-02 -8.036195771626666318e-01 -3.453455505143344095e-01 7.502737100015232086e-01 -5.637604197001609974e-01
4.843670376763338503e-02 5.675756489640117891e-02 -8.716308999473089125e-01 -1.312413384680663209e-01 7.825487340697999672e-01 -6.085993673040287488e-01
4.052511916592745067e-02 2.446686074183977710e-02 -9.077460933905143747e-01 -1.488252675481635257e-01 7.240914909912034014e-01 -6.734556796206812024e-01
4.081305998177287009e-02 -7.372593588507782292e-02 -1.005425690016544582e+00 -1.457076006131463042e-01 7.490358402509574853e-01 -6.463084442764939208e-01
-3.983689504896790329e-02 5.446134166586874548e-02 -8.464205389480474739e-01 -2.418028635773731005e-01 7.625118419967992223e-01 -6.000892150175929363e-01
-3.764261864857895018e-02 7.068397122537586896e-02 -8.271262581587004448e-01 -2.699448160659151386e-01 7.565447106476402839e-01 -5.956256350008933831e-01
7.243646979910223216e-02 -4.126445894812314635e-02 -9.778022592152012527e-01 -1.705396149654818116e-01 7.135506114898214625e-01 -6.795305471941103237e-01
7.875230900816074242e-02 -4.779037276917513094e-02 -9.868280018819109989e-01 -1.863422835750961348e-01 7.444669455682688675e-01 -6.411283181300532208e-01
2.612707840946197277e-02 1.295349203679774519e-01 -7.721857404262445490e-01 3.967802282952351961e-02 8.783286436538287889e-01 -4.764078591307714383e-01
6.920130213011302205e-03 -6.906559330429720700e-02 -9.947816347325174613e-01 -5.929263206552375792e-02 7.366538655885186415e-01 -6.736656931269655590e-01
-2.071744378157147279e-02 -4.710483801861847786e-02 -9.639684087968147796e-01 -2.691459227146871247e-01 6.956113217745512056e-01 -6.660971110169460196e-01
3.519480147630769939e-02 1.411573631149843078e-01 -6.775900615517334025e-01 -4.452933647441277842e-01 8.680310477939801039e-01 2.196267729138190183e-01
-9.552553541970706941e-02 -3.727827335245134655e-02 -9.261045592401245807e-01 -2.109896548593957200e-01 6.991870240810442727e-01 -6.830965311718442123e-01
6.783925814428055923e-03 9.401629191731634971e-02 -8.243802432488057663e-01 1.258734688507014976e-01 7.701955573271067612e-01 -6.252636830274718172e-01
1.851163314821804157e-02 3.707982688241527602e-02 -8.901062882961510159e-01 -1.128512383667233943e-01 7.307626317061329813e-01 -6.732388685310910503e-01
-3.744623778940158604e-02 -6.753820195488373368e-02 -9.789809317610880246e-01 -2.623963128579990811e-01 7.074727563975587996e-01 -6.562244082276789126e-01
5.809590921191042784e-02 7.667513670850094332e-02 -8.491963070773299593e-01 -1.215039378452161256e-01 7.770888926640944216e-01 -6.175513306488759069e-01
-3.639262058662869059e-02 -1.344802700652547867e-01 -1.060269889807437638e+00 -2.303111361783476418e-01 7.869672447342036525e-01 -5.723978828295007704e-01
1.348307757937368401e-02 1.101156593795481892e-01 -8.031249383985007428e-01 -2.881220022631870298e-02 7.892953820409769339e-01 -6.133373109528773570e-01
-2.178480995850179056e-02 8.914637156775473414e-02 -8.116844211426629263e-01 -3.257912151987301663e-01 7.454640938594190303e-01 -5.815009620505282584e-01
1.814846991709065729e-02 7.308371629115710533e-02 -8.484310691359483458e-01 -1.369423748114096014e-02 7.589157176875869215e-01 -6.510448535289599103e-01
7.518851349782878883e-03 -1.294256976096926359e-01 -1.067975299106369347e+00 -1.252031062157472618e-01 7.870906599623536115e-01 -6.039970821071530827e-01
3.122436705055879613e-02 5.735064399899034854e-02 -8.679541020101196880e-01 -6.582272636677043154e-02 7.678757889828369265e-01 -6.372080832723572286e-01
3.035798584931513524e-04 -1.054334728979118008e-01 -1.036328059143561964e+00 -6.683792133225414933e-02 7.727529686914931251e-01 -6.311779001600640315e-01
1.155131388454448162e-02 -1.481164226355603797e-01 -1.093565457263713903e+00 -1.828797664729277794e-01 7.954377446502856053e-01 -5.777835108416251586e-01
9.858185335553924789e-02 -2.424454888431236410e-02 -9.667142064907087162e-01 -1.648791941374503911e-01 7.012166870490685877e-01 -6.936209405320126198e-01
3.386951342845544947e-03 -3.545282350955131223e-02 -9.605429698302954122e-01 -5.807058319185626205e-02 6.960123618409694846e-01 -7.156777204386854940e-01
-3.641608404015595629e-02 5.407867488475940482e-02 -8.482287627925277906e-01 -2.699131948638546774e-01 7.560736728023873532e-01 -5.962377617473547664e-01
-2.595604863305977714e-02 1.757811738176464147e-02 -8.942744129212631954e-01 -3.058506375226234808e-01 6.781025010425324462e-01 -6.683056079421055840e-01
-4.957737679798364383e-02 -9.905116386866105738e-02 -1.009011318062781770e+00 -2.661239351695033339e-01 7.319862226503746072e-01 -6.271955205356096741e-01
-1.202327195898308249e-02 7.067953202037583794e-03 -9.118476134000073063e-01 -3.516350759863013931e-01 6.708525482302165610e-01 -6.529239097085761667e-01
7.072118279491049209e-02 -8.596751127427634809e-02 -1.033668758548780930e+00 -2.718090230046551481e-01 7.942563268135141019e-01 -5.433937268040175406e-01
-2.278236689124893063e-02 -1.308924139139714116e-01 -1.062457682644691204e+00 -3.740952547393283645e-01 7.534816371204765550e-01 -5.406645567297374555e-01
1.801951687382186487e-02 1.245424228635947234e-01 -7.822398347197238033e-01 2.486904915511133074e-02 8.857232627598448094e-01 -4.635470118555135022e-01
8.059615824535094897e-02 -6.052426335813750752e-02 -1.002845517708869760e+00 -2.404009922003304267e-01 7.604075393911089442e-01 -6.033139622006573610e-01
-4.157392884041050812e-02 -1.065979625817491810e-01 -1.021446003100412225e+00 -2.634993487201039986e-01 7.467748303134874588e-01 -6.106516568669432266e-01
2.490337965272419740e-02 -7.049914603768961396e-02 -9.985862081551237779e-01 -1.055987251127846749e-01 7.397796838404113728e-01 -6.645110447776889639e-01
-1.188742688314086901e-02 -1.145553065047985875e-01 -1.047247266618365424e+00 1.555660469108389142e-02 7.875141732401059746e-01 -6.161001696124077665e-01
-4.293874352675278454e-04 -1.149977672287590402e-01 -1.048269748962251668e+00 -5.959429287463664793e-02 7.860009893915017587e-01 -6.153462155017712654e-01
-1.939267467320787697e-02 -8.285054526053978186e-02 -1.003257085109128699e+00 -2.736886895472667725e-01 7.247202485265483718e-01 -6.323567526242744874e-01
-1.793576112294717473e-02 6.495786377306825288e-02 -8.437847020731025216e-01 -3.107213458149529761e-01 7.304956542099878547e-01 -6.081351366557158356e-01
-7.954809184095534835e-02 -4.959454051653262169e-02 -9.438664019023044194e-01 -2.436485667923165843e-01 6.840652537436318070e-01 -6.875246210287385695e-01
9.376696096937689462e-02 1.046581582222092313e-02 -9.350622754435733430e-01 -1.965148917313512267e-01 6.476331296421565797e-01 -7.361747256716444365e-01
-4.108534434906496724e-03 -4.807034545253301844e-02 -9.724790622867680590e-01 -3.723890054596015742e-01 6.741702244977382241e-01 -6.378251617908140547e-01
-4.968319543740905286e-02 -1.313280083080023419e-01 -1.051587692828353848e+00 -1.326538097500687685e-01 8.201445161453897459e-01 -5.565662039644854175e-01
-1.561259760291369356e-02 -3.057513043509633294e-02 -9.489566954945676258e-01 -3.021801333769950637e-01 6.878440556465895694e-01 -6.599679705136551888e-01
-2.864396729810281955e-02 -1.136813737265159052e-01 -1.036117163187312951e+00 -2.784417451339956662e-01 7.579050184985223204e-01 -5.899577760327339160e-01
8.631129923473597476e-02 2.169565870003442934e-02 -9.224048242614213411e-01 -1.998064969508624167e-01 6.936650777234657506e-01 -6.920304355468213098e-01
-7.664123996685631712e-02 3.204776012762521401e-03 -8.900627626311389262e-01 -2.130547888032690851e-01 6.735148104634746113e-01 -7.078032615454271648e-01
2.379561409791444010e-02 5.766975122245569102e-02 -8.668548501031314579e-01 -4.200497447176070043e-02 7.700705438306433281e-01 -6.365743787209818816e-01
-9.568926100484962532e-03 -6.932291620434555268e-02 -9.923861078527499435e-01 -2.925728089046117364e-01 7.147625062176038435e-01 -6.352288652093790455e-01
8.076376687329004170e-03 -1.430062938388429461e-01 -1.085656899930583341e+00 -1.303883050989348702e-01 7.871403508774360569e-01 -6.028341048032815896e-01
-7.301315880714365214e-02 3.619321585606549707e-02 -8.574106478723841906e-01 -2.007724776800275113e-01 7.485337154848847874e-01 -6.319712722811190453e-01
-1.968834295452218108e-02 -5.483008408485855883e-02 -9.725082965788478528e-01 -2.687434010940493168e-01 7.001469551561789739e-01 -6.614916670328768733e-01
-8.041997588025785737e-02 -4.668463727234779814e-02 -9.406621573846442041e-01 -2.436485667923165843e-01 6.840652537436318070e-01 -6.875246210287385695e-01
-1.212121300972473885e-02 -9.091456549038111346e-02 -1.016184031746425243e+00 -3.283282206339082632e-01 7.326889042898222515e-01 -5.961271249204748157e-01
6.950739491503821199e-02 1.722790140750624435e-02 -9.221952198839856729e-01 -1.860925407355500105e-01 6.831395815210558053e-01 -7.061797777066576298e-01
-1.047574986800899575e-02 4.321707076909089146e-02 -8.741356390919122754e-01 -3.347959237113608544e-01 7.134587196213977300e-01 -6.155390685102388737e-01
4.608194725402834507e-02 5.978583394417981423e-02 -8.672705643318353586e-01 -1.329094545910944614e-01 7.689466346262248120e-01 -6.253448248584944080e-01
-2.253840917894597839e-02 3.898238242229664502e-02 -8.729763851796942253e-01 -3.014282276204638400e-01 7.159720112761771560e-01 -6.297023921367391752e-01
-4.884949729688594679e-03 1.026755848616665162e-01 -8.040705038569151419e-01 -3.511821016007626861e-01 7.468069918513273731e-01 -5.647569817516583379e-01
-5.241425893022580440e-02 -2.273531982623832812e-02 -9.249359515725835701e-01 -2.445342621663350313e-01 7.156908373672575818e-01 -6.542091561078305917e-01
2.240673065578904083e-02 -3.940265159628866115e-02 -9.663825432111979863e-01 -8.839497041724805881e-02 6.957692587451799193e-01 -7.128053505622111707e-01
3.009434754716740212e-02 4.878213954153150234e-02 -8.783384000118794610e-01 -1.022729588574744358e-01 7.606107604992187188e-01 -6.411017960506250057e-01
7.725566073096724884e-02 -3.168907813723904898e-02 -9.690978235280367503e-01 -1.610313271642643818e-01 6.938532900982252727e-01 -7.018807046012759399e-01
-2.858583718730866099e-02 -1.451978656365478237e-01 -1.078951664579097747e+00 -2.985545382236418077e-01 7.782275910211751135e-01 -5.524735326506120536e-01
-5.363322189451815575e-03 3.689313464339609785e-03 -9.190091596599705426e-01 -3.738975114185242310e-01 6.634938109055095179e-01 -6.480560267794125417e-01
3.093123404633732129e-02 9.185212970315596859e-02 -8.269565383566387373e-01 -4.859022738400878977e-02 7.702376092966094490e-01 -6.359033063507487649e-01
3.395329680770048375e-02 -3.988178137406164780e-02 -9.684803298735992216e-01 -1.029391841819516512e-01 6.953849962019954534e-01 -7.112265682728007299e-01
1.242799595259690311e-02 8.848817665284873513e-02 -8.303545821228406343e-01 1.615398945467461794e-02 7.706012784323842402e-01 -6.371127987280382765e-01
5.919327983974514290e-02 7.159730446249192026e-02 -8.556887581316974245e-01 -1.477181055102451679e-01 7.764669409501689934e-01 -6.125997477276259318e-01
5.541021066635276604e-02 1.316060380992503491e-02 -9.226040039060945386e-01 -1.708585035298708643e-01 6.893794135616077012e-01 -7.039626381626989948e-01
-2.777214587104222601e-02 -1.634117469510197318e-01 -1.119284890273894550e+00 -4.784742585910087276e-02 9.494126513386745847e-01 -3.103646908343901112e-01
-1.902526568978013879e-02 2.446167442217738949e-02 -8.904187810834545136e-01 -3.201039461071624737e-01 6.792948877895400583e-01 -6.603725608394240831e-01
-5.028397841430168325e-02 -7.123874783339413652e-02 -9.777385799812751133e-01 -2.710639729013411547e-01 7.038528111634592133e-01 -6.565938948941244524e-01
-3.688553365163108749e-02 6.718427140812444076e-02 -8.318806680464365666e-01 -2.451997557860157440e-01 7.476170669273572988e-01 -6.172080694558470526e-01
-2.195028249387310365e-02 -1.202597225394117508e-01 -1.048349258870275191e+00 -3.338926853955454521e-01 7.576303770705540286e-01 -5.608135932547296809e-01
-5.733073666553561987e-02 3.645725665657651229e-03 -8.956655967107114424e-01 -2.291421899953520747e-01 6.738224170487102649e-01 -7.024650931162117473e-01
1.030180825980474800e-02 1.045524621996744424e-01 -8.104089902482730645e-01 9.656743069096837551e-02 7.844650581983100279e-01 -6.126086057146659103e-01
9.593423828711605816e-02 -2.382331920951078971e-02 -9.656866938437864700e-01 -1.671859261949935338e-01 6.700190929107449067e-01 -7.232726188771317899e-01
-6.706142272489905298e-02 -1.111208126173653388e-01 -1.017332628228218461e+00 -1.987678458231751655e-01 7.839201986260515564e-01 -5.881840406309121194e-01
-6.649331964834834241e-02 -5.430559735585844400e-02 -9.533722565601114862e-01 -2.619479335437154832e-01 6.963643886674283356e-01 -6.681765622258956094e-01
-4.333575105631011504e-02 -3.017607218934795568e-02 -9.366450653774388568e-01 -2.660900895763389506e-01 7.110636078618416400e-01 -6.508337804722161835e-01
-3.398792643975055011e-02 -3.545026257087745269e-02 -9.461453292201716936e-01 -2.756616899348282024e-01 6.978978950482779275e-01 -6.610213013129436765e-01
-6.414802390156346124e-02 2.429320154133672235e-02 -8.733475833533699273e-01 -2.110610051615732785e-01 6.946514391420846035e-01 -6.876864330478075216e-01
1.151034016024461183e-02 6.472393671892956446e-02 -8.580762724222181781e-01 -2.203525651259568077e-02 7.535890982925437243e-01 -6.569763453923246344e-01
4.258102623997466613e-02 6.108390023940834385e-02 -8.649303367428197165e-01 -1.329094545910944614e-01 7.689466346262248120e-01 -6.253448248584944080e-01
-5.723347125153788184e-02 -5.671741903780020549e-02 -9.595207987241498593e-01 -2.616852202382671244e-01 7.028111370616765274e-01 -6.614962971407498671e-01
-6.376892321726780610e-02 7.276580913777000621e-03 -8.900826690126151242e-01 -2.291421899953520747e-01 6.738224170487102649e-01 -7.024650931162117473e-01
2.156980561220950623e-02 -1.447604357928773955e-01 -1.092294425152193105e+00 -1.967090656110360991e-01 7.956084510536596266e-01 -5.729858079555109063e-01
-3.934783344966073793e-03 -1.434117801167184292e-01 -1.084539238912823889e+00 -4.021180552732901009e-02 7.785839623403245646e-01 -6.262507678898864283e-01
-8.732015516082469384e-03 4.681147116157794580e-02 -8.709215962018990176e-01 -3.417738832460844312e-01 7.121015959308620857e-01 -6.132714976285877917e-01
-8.184578195275757362e-02 -5.903893253919555856e-02 -9.523730612177294663e-01 -2.635321141818660062e-01 6.736374296032284770e-01 -6.904805849786014305e-01
-1.912663587823802344e-02 -1.364536291843417015e-01 -1.073101792031051938e+00 -4.408953737191547706e-01 7.458951762644172589e-01 -4.992510945992215121e-01
-9.992031212111203778e-03 2.770694452730491225e-02 -8.914987501600589725e-01 -3.378285661791571304e-01 6.894838140226424716e-01 -6.406901982035663190e-01
5.473378875751749167e-02 -3.140455652556002619e-02 -9.639663328149570276e-01 -1.446452755292618741e-01 6.847749481851609366e-01 -7.142555667301966338e-01
7.095878020753097759e-02 -8.973151674311442838e-02 -1.039269706021089590e+00 -2.827889123411594929e-01 7.908168443388136071e-01 -5.428067333470585343e-01
-1.917388999660180407e-02 -7.745917327401788399e-02 -9.972474187591942041e-01 -2.686626367463629816e-01 7.156196874045307466e-01 -6.447548763798017779e-01
2.491066066434549989e-02 1.423926866984790429e-01 -7.187588276101856133e-01 -1.433949042667085894e-01 9.742303414083590685e-01 -1.741067009327714743e-01
2.456702352508667239e-02 -2.636595136442057910e-02 -9.541833015846606925e-01 -9.449303663564148636e-02 6.832274843256477270e-01 -7.240657916856879650e-01
4.579631955654129422e-02 -9.996859007947844766e-02 -1.041371026043514281e+00 -2.492351384292956495e-01 7.865090200075049998e-01 -5.650534551871743139e-01
-8.323415367759821881e-02 -6.496762775382826371e-02 -9.576849193122026760e-01 -2.632019256767317295e-01 6.782318409131138370e-01 -6.860949761451898832e-01
-4.811702427746723798e-02 -1.347129150300842571e-01 -1.056948908144001331e+00 -1.326538097500687685e-01 8.201445161453897459e-01 -5.565662039644854175e-01
4.884863314911582627e-02 8.766730916647845484e-02 -8.339754060298082416e-01 -9.236776276667575669e-02 7.717118895525049149e-01 -6.292288581468443720e-01
-4.332226038316024097e-02 -1.410194040064037535e-01 -1.067356738252195125e+00 -1.343434288903191387e-01 8.186543194703121973e-01 -5.583519932144882514e-01
-9.093521882297854464e-02 -4.590892940356046392e-02 -9.363538499213597266e-01 -2.229733612375438268e-01 6.876351397360517259e-01 -6.909709073315695171e-01
-3.821026381871796274e-02 -3.348470886687816579e-03 -9.099393683437027036e-01 -2.851825553580105144e-01 6.926967289538729089e-01 -6.624516222457906833e-01
-8.371023351041584348e-02 -2.560975790334696703e-02 -9.174489463719747162e-01 -2.094695675762589804e-01 7.163786365261416433e-01 -6.655254686248762708e-01
-2.706421051886442886e-02 -7.917209549927969880e-02 -9.958784061310761437e-01 -2.622612117296096446e-01 7.146160036075931421e-01 -6.484928867844497180e-01
4.472455900475146018e-02 6.515522856010877439e-02 -8.603071126352516140e-01 -1.176787961782350539e-01 7.803618022903272555e-01 -6.141556467673594533e-01
-9.777142224745977855e-03 8.995782843603447598e-02 -8.177399415740695954e-01 -3.554561667005378123e-01 7.411318694159250153e-01 -5.695388184229550621e-01
-1.832740547459559000e-02 5.425590033309191790e-02 -8.567311307355558458e-01 -3.243698581918560975e-01 7.372877229499253948e-01 -5.926137094970965746e-01
3.435244894697226520e-03 -8.444436283896055578e-03 -9.344287621307905134e-01 -4.165878573942858459e-02 6.947543069249352277e-01 -7.180396915073493647e-01
-2.008979192768135802e-02 -1.388522290630099798e-01 -1.075836174839388981e+00 -4.402230545044443222e-01 7.503012991975682722e-01 -4.932054568891329760e-01
-5.206100098702010071e-02 -8.757616564887941990e-02 -9.948451384851220158e-01 -2.741219803163709723e-01 7.218081197610812794e-01 -6.354920756031530171e-01
2.598807543484940932e-02 -8.979183122029814335e-02 -1.021328199348647381e+00 -1.592471118971550692e-01 7.710504389393805225e-01 -6.165400051609009058e-01
-5.509325369910356152e-02 -7.293208936583454871e-02 -9.775406170101612613e-01 -2.773473271274692342e-01 6.989830015742141134e-01 -6.591670680833126017e-01
-5.894454895372665953e-02 3.465870030582412359e-02 -8.637258225460919814e-01 -2.064618753340039525e-01 7.465761757223439155e-01 -6.324535618346740495e-01
1.718109764443753393e-02 1.080454805552865799e-01 -8.059926959762857557e-01 -3.216810302166955848e-02 7.866185734041294397e-01 -6.166007080142216212e-01
-2.554325453753287720e-02 7.441780687322203935e-02 -8.282628941966907465e-01 -3.262131444871844144e-01 7.398863621747006070e-01 -5.883478184132842070e-01
4.263717836701480524e-02 -3.432508645368966688e-02 -9.645298406910293165e-01 -1.215528223135631525e-01 6.855672539824002598e-01 -7.177899773991265331e-01
-3.923461154460020084e-02 -9.603106985388540351e-02 -1.009883426280013152e+00 -2.652186170366826468e-01 7.312892188706163754e-01 -6.283909320962179912e-01
-2.454153772011725271e-02 -1.290805114086000238e-01 -1.058896179582708541e+00 -3.194479319222643943e-01 7.687210430417498186e-01 -5.540947362819759192e-01
-1.311773051449558782e-02 3.729749898487035292e-04 -9.181590913193039549e-01 -3.513709785204099378e-01 6.740396366728796940e-01 -6.497761180956883598e-01
1.816108424253822656e-02 -3.501004444906623964e-02 -9.616097481202463548e-01 -8.878136805391050046e-02 6.908068378305376456e-01 -7.175679629784551539e-01
4.061867585256045271e-03 -1.067016994037098543e-01 -1.038372212317473675e+00 -9.187727553870247976e-02 7.804975019204231090e-01 -6.183706135769752033e-01
-1.238884499517498711e-02 -1.948114695417007755e-02 -9.389950108368460002e-01 -3.176406722718318476e-01 6.843389366364167614e-01 -6.563418492843781094e-01
3.430944820093134034e-02 -5.903525593575370545e-02 -9.877967764975599252e-01 -1.384598621341265323e-01 7.242045045831034811e-01 -6.755417841402118206e-01
3.047375148662110830e-02 1.347921099445038851e-01 -7.571493319693278767e-01 7.706631334017222112e-02 9.671614135063761886e-01 -2.421974062051515109e-01
9.397698633981335647e-03 -3.076181515944695702e-02 -9.565039614014020364e-01 -8.063185925366812834e-02 6.909339886904652950e-01 -7.184070757903074922e-01
-5.981862456304500031e-02 -4.592333935649509091e-02 -9.472019709213772565e-01 -2.453407242144632072e-01 7.035626858549841600e-01 -6.669388848421147209e-01
-6.862927440171857907e-02 2.159749644545274835e-02 -8.746943619573942508e-01 -2.111965692066591349e-01 6.945641034246464729e-01 -6.877330262458346555e-01
3.539805821125669664e-03 -1.165343908813969848e-01 -1.050766880762189048e+00 -8.678863811760156866e-02 7.846728855122698798e-01 -6.138046880201717403e-01
6.013659029081948326e-02 -5.698693602076480846e-02 -9.915682047240409469e-01 -1.917133239350175822e-01 7.375862570726475775e-01 -6.474662267665776128e-01
-7.667791758036837657e-02 1.390535169651069963e-02 -8.798609661391751935e-01 -2.055887414233701360e-01 6.768497922634399977e-01 -7.068292779115002977e-01
2.679179659902036423e-02 -1.109694079853915105e-01 -1.048797138513915872e+00 -2.060547795574494689e-01 7.848312247125194263e-01 -5.844496355870005821e-01
4.392523040906710918e-02 -9.029621364637283043e-02 -1.027302845131097486e+00 -2.091406109225023291e-01 7.796409488393660769e-01 -5.902712899640433220e-01
8.241135187331689871e-02 3.074379005664347464e-02 -9.119845874553424991e-01 -1.959668850296093778e-01 7.153906959585378811e-01 -6.706810956838955562e-01
8.963615027321487905e-02 -5.557358195240528348e-02 -9.999298205120922267e-01 -2.143053735814140215e-01 7.738374289736007494e-01 -5.960275500122944603e-01
-7.111713741569418261e-03 1.971681716727301942e-02 -9.014081694431239633e-01 -3.448659647869768419e-01 6.756523661101574429e-01 -6.515837217896818245e-01
7.455845198799729290e-02 3.045942929377973979e-02 -9.099888815760648342e-01 -1.967957824817742896e-01 7.157972135705034100e-01 -6.700043052414582645e-01
8.989849936856829371e-02 -4.635351884007139767e-02 -9.886462821439170323e-01 -1.921510856077972285e-01 7.580919605531861727e-01 -6.231970311581813693e-01
-5.009062197199463939e-02 -1.319738986800809144e-01 -1.052442356229216225e+00 -1.326538097500687685e-01 8.201445161453897459e-01 -5.565662039644854175e-01
-3.163689575164131684e-02 -1.219330637129648065e-01 -1.045441833036684365e+00 -2.809048931433369423e-01 7.678168885848394298e-01 -5.758034965263990612e-01
3.939279884809052806e-02 -1.986369055215550863e-02 -9.503252882781799693e-01 -1.217338988415818668e-01 6.782519348353188704e-01 -7.246759073992828926e-01
-3.027240243915522641e-02 -4.642028252551576306e-02 -9.593137824082408338e-01 -2.686016430533645916e-01 6.998639537333443128e-01 -6.618486259060785137e-01
8.991136971717243742e-02 4.472501800343887945e-02 -8.986276728078420595e-01 -1.983826198282614139e-01 7.543132987055526373e-01 -6.258240835458661611e-01
-6.138922288613731654e-02 -1.266130041770612835e-01 -1.041598244503867399e+00 -1.001665836211195343e-01 8.497521014282772844e-01 -5.175790003892158930e-01
-4.553937496368565263e-02 -2.231556148441007220e-02 -9.271534788993177623e-01 -2.729124854481153606e-01 7.116979604455427877e-01 -6.473057920211953142e-01
-4.675977297207550842e-02 -1.193071427272669599e-01 -1.035587792907630256e+00 -2.067975509610844309e-01 7.778791387875043650e-01 -5.934128565810722344e-01
4.667977809463660921e-02 6.449959868275542685e-02 -8.615148135582885169e-01 -1.176787961782350539e-01 7.803618022903272555e-01 -6.141556467673594533e-01
4.220736161732098479e-02 -1.139195508554892849e-01 -1.059169843922140641e+00 -2.689608967181262300e-01 7.841298169412478369e-01 -5.592856749642944880e-01
-6.007343440114536887e-02 -1.411441935891312172e-01 -1.066184600091911294e+00 1.814861681396937650e-03 8.621715306884657481e-01 -5.066132232259494828e-01
-8.544119161444736765e-02 -9.459201791425850270e-02 -9.883283477000981421e-01 -2.624985277335308287e-01 7.485345772140780118e-01 -6.089257012581011930e-01
2.026341794947528890e-02 -2.725563788238065735e-02 -9.544611734638367428e-01 -9.449303663564148636e-02 6.832274843256477270e-01 -7.240657916856879650e-01
-8.824965988912920889e-02 -2.935602130012165620e-02 -9.200527105633532488e-01 -2.094695675762589804e-01 7.163786365261416433e-01 -6.655254686248762708e-01
-6.235754003370360538e-02 -1.352643483826841686e-01 -1.055925270397330751e+00 -3.534003519497938561e-02 8.639740987549214823e-01 -5.022945735253753208e-01
-8.514771176039725997e-02 -1.001583581160044902e-02 -9.004980836743965433e-01 -2.033347974244740231e-01 7.052491075749371952e-01 -6.791749821813986010e-01
-2.431556689697278797e-02 -1.541045758079722383e-01 -1.095492130130870434e+00 -4.803387949275109703e-01 7.686692161411152746e-01 -4.224006134519574518e-01
-1.533406344009618366e-02 -1.414112637667508110e-01 -1.082122058110422946e+00 1.522880471350641918e-01 7.782813360625416843e-01 -6.091687062189700130e-01
-4.076851092606297022e-02 5.719936126045774283e-02 -8.425928825957516022e-01 -2.427618412688668792e-01 7.548805844707917601e-01 -6.092798959532351732e-01
2.205781993010643219e-02 -1.230450638981686051e-01 -1.063365784085557708e+00 -1.925280442516629775e-01 7.887901305187701162e-01 -5.837320294217299699e-01
-1.439571551537804917e-02 -2.635961333234246654e-02 -9.451202959991199526e-01 -3.021801333769950637e-01 6.878440556465895694e-01 -6.599679705136551888e-01
-4.515717542118762029e-02 8.734953392648648132e-03 -8.950402187424882916e-01 -2.506438965394297558e-01 6.756196575124517878e-01 -6.933366538055585337e-01
2.168433043535484064e-02 -7.086966179536281774e-02 -9.984871466513647320e-01 -1.055987251127846749e-01 7.397796838404113728e-01 -6.645110447776889639e-01
-2.419691144998047279e-03 -1.478874517781442466e-01 -1.090377778590245095e+00 -7.736109668873056289e-02 7.949034278708254631e-01 -6.017838491338304285e-01
-6.715459397800165042e-02 1.569515565849935457e-02 -8.809780350362876877e-01 -2.125171404664257246e-01 6.774029991790151417e-01 -7.042454413847835104e-01
-8.853440113266920763e-02 1.010557753328802369e-03 -8.886949684890184109e-01 -2.058414564529740531e-01 6.733132752545291089e-01 -7.101257129349261010e-01
8.027294003719512294e-02 -4.702351945900290486e-02 -9.863795127496011172e-01 -1.863422835750961348e-01 7.444669455682688675e-01 -6.411283181300532208e-01
-3.397125182290993556e-02 -5.247026712335026849e-02 -9.642454532167781256e-01 -2.644024719850603944e-01 7.028628436503104870e-01 -6.603598684232625526e-01
6.681713305071919351e-02 2.482094311054866987e-03 -9.353544057068499118e-01 -1.718469180421529907e-01 6.677588405807928229e-01 -7.242698168401118242e-01
