2.716929529971631382e-02 -1.297005285435132160e-01 -8.492614640963547235e-01 -2.952146919837947969e-01 -1.027496715255809406e-01 9.498898834277047509e-01
-9.219302773691159802e-02 -3.019986927259987394e-02 -8.879439427205040314e-01 -3.872182264427908027e-01 -1.129836489801645805e-01 9.150392014409146624e-01
-2.147605444837982769e-02 -2.055364517217159737e-01 -8.657273091816829469e-01 1.054983168219751216e-01 -5.560495932007356035e-02 9.928636329560788232e-01
-7.590763850735135487e-02 -1.217161248127722820e-03 -8.751830030870589860e-01 -4.072602951804394356e-01 -2.143834418322859980e-01 8.877943409583576306e-01
3.484302042815286965e-02 2.004340095189602600e-01 -8.091693255369094562e-01 3.442746380301362624e-02 1.418938641775156495e-01 9.892830136239401106e-01
6.289704962071816785e-02 1.013012505155629212e-01 -8.054364699479470424e-01 -3.117769858904481661e-01 -8.044074405719696397e-02 9.467441036333903437e-01
6.936653358907572675e-02 -1.438172623576501434e-02 -8.185694050912677433e-01 -3.416641802275715012e-01 -1.277341918625738981e-01 9.311012641912997934e-01
1.926799325594413803e-02 2.097287502524457226e-01 -8.189309540642599750e-01 -4.774802930592840222e-01 3.064314121306337402e-01 8.234757794857393565e-01
-7.964564846619585567e-03 7.227458724726854022e-02 -8.320048464849776337e-01 -4.609696533273127672e-01 -4.829961819317407645e-02 8.861005166422659673e-01
-5.843788144005138130e-02 3.660699958384740910e-02 -8.589521710676317756e-01 -3.845759047685187726e-01 -1.498949857435483146e-01 9.108418450644527598e-01
2.660545364242636671e-02 2.034894178605205772e-01 -8.126357047352481544e-01 -5.971858352982700735e-01 1.652866009832626715e-01 7.848881561436044096e-01
4.895494749687840513e-02 1.555127797582255833e-01 -8.050305635795647063e-01 -2.035702781630657487e-01 -6.398592595636398705e-02 9.769672170181140647e-01
5.298325863674550884e-02 -1.517742687042103744e-01 -8.418458447695176261e-01 -3.470159004029706451e-01 2.425404556845158020e-03 9.378561095819821780e-01
2.411413598957495158e-02 5.832477174822620070e-02 -8.204237388470025927e-01 -2.432022697808753908e-01 -1.358166667162768459e-01 9.604199545071469002e-01
-4.217502660940842391e-02 -1.978208259417439385e-01 -8.776278638300968327e-01 -4.099784891239637297e-01 -1.644076969989214168e-02 9.119470047910168686e-01
5.156696006801206322e-02 7.928806779400790483e-02 -8.106785431570585621e-01 -2.965536237501006367e-01 -6.765537571827708041e-02 9.526167636448051868e-01
-2.346722576614990868e-02 7.734312646191689178e-02 -8.393420631994485959e-01 -4.230463543214132982e-01 -4.703499219390597230e-02 9.048864523268543847e-01
2.984070571839508162e-02 -1.179165844545867481e-01 -8.470452967275275968e-01 -2.964758441258024679e-01 -1.204543891633773761e-01 9.474137501541607387e-01
2.113410544911066818e-03 1.570257170342030661e-01 -8.226331286454093839e-01 -4.879097215744812588e-01 -1.999530534822644909e-02 8.726650510689329954e-01
-4.040090257568230286e-02 -1.966093780861064844e-01 -8.767115707744860265e-01 -4.348473266872661669e-01 -9.230492579325838901e-03 9.004568842980107402e-01
2.020061439917431728e-02 -8.542428465712829933e-02 -8.456199603750598204e-01 -3.046735957172406195e-01 -1.379194042516191376e-01 9.424182924814256124e-01
-2.255930867183000930e-03 -8.866608641916895461e-02 -8.532106219178593465e-01 -2.749197146700001482e-01 -1.444269695172413770e-01 9.505577315249356118e-01
5.674143757286999323e-02 -2.626374771218404833e-02 -8.247538450203099059e-01 -3.234769284769974940e-01 -1.253080095675896399e-01 9.379022227723401439e-01
6.485349825895792356e-03 1.409142090771224320e-01 -8.205610540865425628e-01 -5.010018594297432903e-01 -3.639326470479144204e-02 8.646806735044255676e-01
-5.220330151390748658e-02 -2.029192406097225232e-01 -8.818008136952426579e-01 -3.440987388074801534e-01 5.227499788762855412e-03 9.389189161994022648e-01
-1.573151941262645667e-02 -5.448741322926253794e-02 -8.550835067086023367e-01 -4.913484866341276680e-01 -1.345929624080196563e-01 8.605006677234982027e-01
-2.934768648760867349e-02 7.934434569082614297e-02 -8.419780383547755820e-01 -4.032121903465135659e-01 -4.251124130126314460e-02 9.141185502542833463e-01
3.405590326112373917e-02 1.040175507340949657e-01 -8.128172877344009839e-01 -2.049293262340208255e-01 -1.000168058040685620e-01 9.736532287246941753e-01
-7.514172895029254395e-02 -1.125691447128128325e-01 -8.867685289026999707e-01 -2.802017751679042323e-01 -1.291205387388725395e-02 9.598542827208269568e-01
5.732013528052618554e-04 1.617842615340881196e-01 -8.234057919717587826e-01 -4.907866148156908581e-01 -1.215506331514219947e-02 8.711950144218912895e-01
-3.227049352840875851e-02 8.085734042794798238e-02 -8.431789192213808848e-01 -3.940023572845525734e-01 -3.773085503045942729e-02 9.183346476273702708e-01
4.459415259754778704e-02 1.134936577918469330e-01 -8.094917637924750053e-01 -2.198901792310020142e-01 -9.601527826021508116e-02 9.707880177558698698e-01
7.694901760515705791e-02 -2.507743190752769261e-02 -8.171576204984650760e-01 -3.553028328486151355e-01 -1.268598406283209246e-01 9.261028440759190294e-01
-4.122462476479338972e-02 -1.481733385068431108e-01 -8.760466941593720858e-01 -3.834631941307587444e-01 -2.447005897947758177e-02 9.232319291275496997e-01
-1.335050469195482245e-02 9.924617830317834788e-02 -8.336787397330338578e-01 -4.624055783230277550e-01 -3.356313505951778742e-02 8.860330677241808894e-01
8.137653490236146370e-02 4.161474591596096145e-02 -8.038052562943388546e-01 -3.669936618517558591e-01 -1.575016246482155713e-01 9.167927194267042612e-01
5.348554790374242945e-02 5.090571583022998614e-02 -8.128353466956416140e-01 -3.208417866212613934e-01 -1.138648872726291950e-01 9.402634393637077093e-01
-4.626358527243215613e-02 1.032711151909056213e-01 -8.479104758564608435e-01 -3.689832271426333188e-01 -3.914944844594703960e-02 9.286111666213077154e-01
-6.129513912084747634e-02 -3.677830387038957816e-02 -8.754297914246669254e-01 -4.052894929941213142e-01 -1.278348799268347324e-01 9.052064241611743611e-01
-8.650268523039060520e-02 -1.922079364162548572e-03 -8.802392501659073165e-01 -4.101259326129430005e-01 -2.137200339750548739e-01 8.866343476744317220e-01
3.267345389983847270e-02 -1.761453270476310562e-01 -8.485393775096711222e-01 -4.097447812786659260e-01 9.347406979032027441e-02 9.073983758480794748e-01
5.765660342030087815e-02 -8.255541183597117638e-02 -8.331944466006901973e-01 -2.967904394507486221e-01 -1.687501656483399171e-01 9.399142602622271303e-01
7.353647971599429345e-02 -1.220743684712135603e-02 -8.167100067277895947e-01 -3.561782831613389266e-01 -1.260411775950494584e-01 9.258783139023691877e-01
-8.855767423979088449e-03 -8.029802137572700227e-02 -8.545012653384539414e-01 -5.413907665581461082e-01 -9.375844534593751056e-02 8.355270144117997733e-01
-7.727047083821569906e-02 -1.420517202901894031e-02 -8.786658711328300120e-01 -4.113869911877440777e-01 -1.866723898913999202e-01 8.921402145031510633e-01
8.016201325762141797e-03 1.674826980468339666e-01 -8.190806262808766336e-01 -4.923838574524311285e-01 -2.271811573734153905e-02 8.700816192390279369e-01
-3.035946783490890699e-02 4.260829511350327364e-03 -8.522182622401223151e-01 -4.485507915087367237e-01 -1.723428886533876769e-01 8.769835324380339525e-01
2.999041967824416649e-02 2.004106051076476047e-01 -8.088049670398429480e-01 -8.559850898043536160e-01 1.388675345772735215e-01 4.980013392281819051e-01
-2.389068683704805712e-02 -1.053018900422101473e-01 -8.656420843058472148e-01 -4.596266682014188421e-01 -6.533863838752100583e-02 8.857054748683265144e-01
-6.686466822255407449e-02 6.553040260583237187e-02 -8.582036485411402849e-01 -3.603673283934867855e-01 -1.007785410250015695e-01 9.273505670971539105e-01
-3.612026270730610972e-02 8.774857907137396940e-02 -8.444865324811118290e-01 -3.785152309549954519e-01 -4.232506629696251854e-02 9.246268483545371231e-01
2.878300407269589883e-02 1.338713572704726962e-01 -8.105955590577137437e-01 -1.676955405061065496e-01 -9.256713564411853112e-02 9.814833320505286229e-01
3.989634093591921254e-02 1.242609457238458143e-01 -8.094363410193102792e-01 -2.085945125742893758e-01 -1.020704903022594534e-01 9.726612690620261015e-01
5.443914695373292673e-02 -8.182973945266804050e-02 -8.340801156653401272e-01 -2.967904394507486221e-01 -1.687501656483399171e-01 9.399142602622271303e-01
2.870768160879153333e-02 -1.645597238263568629e-01 -8.506706214959052215e-01 -3.649111224468885584e-01 -6.626437644104661746e-03 9.310187769528071033e-01
2.050472368113467024e-03 8.960901651451340377e-02 -8.255638233469210219e-01 -4.947300464462250913e-01 -2.964950825605676063e-02 8.685407807371453570e-01
-2.194363828105771325e-02 7.306975347690523870e-02 -8.388541907782005591e-01 -4.236261128566981560e-01 -5.103812848762648291e-02 9.043981567575228864e-01
-1.638935807192041724e-02 5.380233506434370372e-02 -8.377849908375325505e-01 -4.371327646537198075e-01 -9.281731406779838989e-02 8.945948201702461633e-01
6.506744383465301595e-02 -8.369959473898340441e-02 -8.310716376161262353e-01 -2.941644887705491263e-01 -1.695248694477944351e-01 9.406001127923968586e-01
-3.826172035109528385e-02 -1.435897029980941209e-01 -8.745837924954621423e-01 -4.196069348292389978e-01 -2.308904550343929621e-02 9.074122085474444210e-01
-6.662863289925491372e-02 -2.376466816394620565e-03 -8.711287443116939588e-01 -4.205246240422542692e-01 -2.041612257848565426e-01 8.840120103596702528e-01
-7.717497089290635548e-02 -1.216304863899092120e-01 -8.874964954995412381e-01 -2.695611144723594199e-01 -1.273200975436578064e-02 9.628991128316790604e-01
-2.969123701004591429e-02 1.422491270883817840e-02 -8.500158395779282561e-01 -4.410819315383764927e-01 -1.639133592834789710e-01 8.823713165775393108e-01
5.010672932763069604e-02 1.530563106004909635e-01 -8.049514523333711757e-01 -2.035702781630657487e-01 -6.398592595636398705e-02 9.769672170181140647e-01
-8.063752523050243814e-02 -2.904373298732436035e-02 -8.828118731935701291e-01 -3.967429435810300165e-01 -1.465291897197989468e-01 9.061590551766941504e-01
-2.382149162524052936e-04 -1.197221571452810884e-01 -8.564969200661612936e-01 -2.740918092418508922e-01 -9.152946614928544888e-02 9.573379951370131202e-01
7.384855334213394351e-02 7.559929503148904439e-02 -8.033228609187361702e-01 -3.457790496871985253e-01 -6.021037826335554760e-02 9.363821651157189230e-01
-3.589796254896281125e-02 -1.212841546441292689e-01 -8.726499247126446868e-01 -4.251830142613189367e-01 -4.680248020765640643e-02 9.038965273913109888e-01
-5.977915924095674599e-02 -1.375041305626672171e-02 -8.704055525694437412e-01 -4.187966867331406884e-01 -1.844871719736770055e-01 8.891421812952631232e-01
-3.903236412320851279e-02 2.317890251605268098e-02 -8.528416207242992542e-01 -4.178676317891718006e-01 -1.568875993984352457e-01 8.948591640352717702e-01
-1.115728739785910167e-02 -4.204617317406725285e-02 -8.504872279562510906e-01 -4.875125372407103086e-01 -1.436012257745152565e-01 8.612259947244867986e-01
-2.541504126469302724e-02 -3.656553555741152983e-02 -8.574310759691573525e-01 -4.704704183464112344e-01 -1.553831177041567757e-01 8.686274645631976155e-01
2.148518083824442482e-02 2.024158133940229948e-02 -8.276438002870240007e-01 -2.414491078762134868e-01 -1.782238446889216621e-01 9.539070130207031317e-01
-4.614347058838017554e-04 -1.035817595876942915e-02 -8.389199459786333968e-01 -5.095520855730746312e-01 -1.363762981328448531e-01 8.495635216955301772e-01
7.513749558750865143e-02 -7.384709388140017761e-02 -8.259079406874740847e-01 -3.126905115684879832e-01 -1.850793308892294819e-01 9.316492286545579038e-01
1.491604405282392215e-02 6.272794095884652588e-02 -8.218689817799260666e-01 -2.054960207610564138e-01 -1.495200916562446913e-01 9.671686138634150165e-01
4.205187679065246903e-02 7.581234646211028327e-02 -8.137299009265397398e-01 -2.613541298966002846e-01 -8.745329518037084360e-02 9.612730829208139260e-01
-8.148780991829074338e-02 -1.310005137168722411e-01 -8.887218601590047840e-01 -2.524664988999947846e-01 -9.369559287562138558e-03 9.675602711417701229e-01
-2.417833488708507131e-02 -3.080195836237991161e-02 -8.557302359418615945e-01 -4.704704183464112344e-01 -1.553831177041567757e-01 8.686274645631976155e-01
-4.823197536842527278e-02 -9.826421679151280120e-02 -8.769470780461360304e-01 -3.968431225915630134e-01 -5.434777676727041429e-02 9.162760802357731160e-01
4.691763361461595951e-04 -1.775214008458314840e-01 -8.606759280966899128e-01 -2.625574784189765865e-01 -3.709378253290763344e-02 9.642031019570876937e-01
2.681009220279186381e-02 3.042265561315766337e-02 -8.243730553954938811e-01 -2.469795193160912172e-01 -1.762153467123665773e-01 9.528637198578990830e-01
-3.080444141450005766e-02 -8.928373983454242213e-02 -8.679112692025350295e-01 -4.479475615340098860e-01 -8.527088861755444116e-02 8.899841895618748611e-01
1.250667880290377842e-02 -2.169029744677255234e-01 -8.542625110004486988e-01 -4.987161558219544988e-01 3.966582079857115112e-02 8.658572737943290853e-01
6.152092130864315195e-02 2.957940531118373115e-02 -8.136650824164084472e-01 -3.475187103286883072e-01 -1.789388362115447717e-01 9.204410023824141085e-01
-1.239379137165367607e-02 -4.468124373859427845e-02 -8.516265462753122018e-01 -4.875125372407103086e-01 -1.436012257745152565e-01 8.612259947244867986e-01
-6.330265220090174061e-02 -8.789873666219730208e-02 -8.821029091639864816e-01 -3.273862325596164080e-01 -6.759725300480323718e-02 9.424695571298978836e-01
5.259843520983181232e-03 -1.711631007339196320e-01 -8.590564153311242013e-01 -2.643758523854672915e-01 -4.884867263105216462e-02 9.631818186913837510e-01
-5.660294330634683957e-02 -1.896594263689063975e-01 -8.831098923834611591e-01 -3.325236038068858924e-01 -2.850296736460145031e-02 9.426641150286212412e-01
-4.642322235851755602e-02 -1.923483824225452887e-01 -8.793357703280283433e-01 -3.923350143195005191e-01 -3.197737248147063810e-02 9.192663836930503596e-01
3.793029749462913103e-02 -1.451220696416593015e-01 -8.470819640651956473e-01 -3.347152077416823968e-01 -3.019820322348448771e-02 9.418353349861724455e-01
3.269110860668575369e-02 9.611690030969517740e-02 -8.139966231414823561e-01 -1.925888422289322999e-01 -1.099615086410113685e-01 9.750989716261174722e-01
-5.495717693046854070e-03 -1.496321060513315371e-01 -8.605721013408241804e-01 -2.343403105008405041e-01 -6.607853572938657272e-02 9.699063078412418770e-01
2.534436129875896476e-02 2.079332848724378680e-01 -8.146820720529500681e-01 -5.488178671242250894e-01 2.256635009856057528e-01 8.049067853162474862e-01
-1.751840658893805830e-02 -9.717957786537516351e-02 -8.614518522513161525e-01 -4.879276556651772623e-01 -8.368865942086886611e-02 8.688629415054033300e-01
5.212254390232769208e-02 -5.778876458477163330e-02 -8.309072108192104844e-01 -3.180713522148367334e-01 -1.518774143485330796e-01 9.358225611252537490e-01
-6.013533784797631815e-02 9.179672981881437099e-02 -8.536834577857864703e-01 -3.533790279359722564e-01 -3.969453633002903437e-02 9.346376872353112653e-01
5.483171872585997780e-02 -5.987231452749566113e-02 -8.303300298040385830e-01 -3.091831297687883118e-01 -1.541243831223811367e-01 9.384303206916975171e-01
4.933621498808784395e-02 -8.100746031979867701e-02 -8.355898511007023854e-01 -2.994233807267501213e-01 -1.556721008940533946e-01 9.413351348363636628e-01
4.759809602356053493e-02 -1.247361874851958957e-01 -8.423434367654035748e-01 -2.845175564322350303e-01 -1.094914784203701447e-01 9.523976985667026440e-01
-2.630708727238121811e-02 -3.586413011301618770e-02 -8.577887605996482590e-01 -4.704704183464112344e-01 -1.553831177041567757e-01 8.686274645631976155e-01
-2.290749769071074443e-02 -8.535524157665826117e-02 -8.633242315869539274e-01 -4.737945039651694223e-01 -1.080702102605702042e-01 8.739791746183860344e-01
4.146450039466984677e-02 -1.271242543149092852e-01 -8.445239483583347750e-01 -2.949714785843416953e-01 -9.344055105212568935e-02 9.509262275491419114e-01
-5.139047924146127738e-02 7.691338873035342971e-02 -8.511731665934972879e-01 -3.630465588644729014e-01 -6.724344164838659543e-02 9.293414419103156465e-01
-3.596419466002315907e-02 -2.137312548616549790e-01 -8.746317153411282685e-01 -4.761392655576563993e-01 1.551496636679976573e-02 8.792330098516846215e-01
5.709225974344302179e-02 1.235616652386362438e-02 -8.186169201427250242e-01 -3.221682273832327525e-01 -1.737951508864424288e-01 9.305927566842030485e-01
5.651110874396334666e-02 1.252892849542396603e-01 -8.054643493268035526e-01 -2.539785289190567563e-01 -6.674157944906555784e-02 9.649043830456754955e-01
-1.994183794769361501e-03 2.497073848398046955e-02 -8.342533242575372876e-01 -4.751283220195519075e-01 -1.225063278212630141e-01 8.713468180114243289e-01
-7.707514904023932134e-02 -2.397492690076294050e-02 -8.804317068059929197e-01 -4.082474094456299274e-01 -1.553478153995718203e-01 8.995560621392714173e-01
-1.881669799797155984e-02 8.557722621336090463e-03 -8.456315587860177008e-01 -4.509425374468168379e-01 -1.509897619154441650e-01 8.796891040121752603e-01
8.994877000865381111e-02 2.094192902921773389e-02 -8.042007608101248151e-01 -3.693630325736356190e-01 -1.807098548118295234e-01 9.115453354287404997e-01
5.323845928984053538e-02 8.994591582282742553e-03 -8.205788927369663810e-01 -3.221682273832327525e-01 -1.737951508864424288e-01 9.305927566842030485e-01
-6.445690293261421844e-02 -2.235892081291833769e-02 -8.743644363772086203e-01 -4.165714700625316458e-01 -1.540804288685715673e-01 8.959505744010761719e-01
-2.458126477631520507e-02 3.439036632268979710e-02 -8.441905723586929922e-01 -4.298299268947712304e-01 -1.308251855499828198e-01 8.933817799638900103e-01
3.452312630299460283e-02 1.091288394995995059e-01 -8.121453201847592673e-01 -2.062965703256999517e-01 -1.102824414437289513e-01 9.722548576279080867e-01
9.851696733873545331e-03 -1.049719154853343689e-01 -8.516776479128602695e-01 -2.986344757705128861e-01 -1.262608017828627527e-01 9.459786783085651907e-01
-3.623122450116276344e-02 6.129125964571998514e-02 -8.461727480893098674e-01 -3.919196287821528624e-01 -9.377769474472504030e-02 9.152074893397806887e-01
5.452790906267508675e-02 -4.872381070141741655e-02 -8.286852458590622250e-01 -3.242154320263152534e-01 -1.446133141199865413e-01 9.348643447127629180e-01
5.255038426429265580e-02 -1.474773807161161021e-01 -8.420171247560566119e-01 -3.470159004029706451e-01 2.425404556845158020e-03 9.378561095819821780e-01
-5.799405609113552490e-02 6.309492627878694748e-02 -8.549811874666800593e-01 -3.655008957417938964e-01 -9.822741212788808907e-02 9.256135644633802784e-01
7.768568420380587980e-02 -3.709100731136225071e-02 -8.185239109554581782e-01 -3.526464593649312751e-01 -1.407116220148181829e-01 9.251165948826866048e-01
6.652468254803341197e-02 6.658301298756039155e-02 -8.066251840402882678e-01 -3.363881043375094304e-01 -8.146650015849160598e-02 9.381930785356196179e-01
2.261083229438506925e-02 4.215135568549022160e-02 -8.233690263027518830e-01 -2.462332907919871638e-01 -1.693723936708968481e-01 9.542966827815863029e-01
2.846067281150805109e-02 9.897901320646092238e-02 -8.145030620299448243e-01 -1.819654429400447138e-01 -1.178717239377096715e-01 9.762145431571821463e-01
2.686680803146299437e-02 1.445198418323988786e-02 -8.273664766787710567e-01 -2.403126706656362466e-01 -1.793647762609902885e-01 9.539801346749282596e-01
-1.312117067006829223e-02 5.063247471060252497e-02 -8.364972734550981670e-01 -4.438307837146542867e-01 -9.915411681663136023e-02 8.906080487765365428e-01
3.932731009022997701e-03 -2.860107419464919323e-02 -8.410344631733118748e-01 -2.488840946028594014e-01 -1.823109109153737140e-01 9.512199741463179814e-01
-6.114511311126760718e-02 4.646697925203997076e-02 -8.584432277124400823e-01 -3.732421839250006923e-01 -1.571972396946064721e-01 9.143190362074347100e-01
-3.430647031774788913e-02 -1.710930938415818336e-01 -8.733548686381997772e-01 -4.332034554382905300e-01 -1.746009349696919788e-02 9.011270228615954059e-01
2.450567190600728973e-02 -6.646495586459938432e-02 -8.413573407123695613e-01 -3.049015406908341941e-01 -1.434184734817170737e-01 9.415233358491595927e-01
-5.109701671788522553e-02 -2.555239491288079437e-02 -8.685879327572897379e-01 -4.297884222751293670e-01 -1.602169549112723301e-01 8.886013951357574214e-01
-5.772479166239903592e-02 -9.797347276985739553e-03 -8.686083404513996742e-01 -4.132304068983732037e-01 -1.983061678588242116e-01 8.887717899459639526e-01
6.792065880991018934e-02 -5.051204715947811563e-02 -8.242022109751190317e-01 -3.446942674574100529e-01 -1.521855023768633186e-01 9.262966235760018430e-01
3.098393905114223829e-02 -1.905733320993255597e-01 -8.474733976261885626e-01 -4.151830670760803810e-01 1.268112831944782359e-01 9.008562145358540718e-01
5.649053432525617119e-02 -1.063303455039188265e-02 -8.226766411843386972e-01 -3.190818152528282492e-01 -1.312437177409716549e-01 9.385956966279400682e-01
5.103389889802577989e-02 -6.399743526003949523e-02 -8.322848476606981016e-01 -3.180713522148367334e-01 -1.518774143485330796e-01 9.358225611252537490e-01
-5.019694738944598111e-02 -1.091301817079358416e-01 -8.784367491963671615e-01 -3.945571620658309686e-01 -3.870698225447576774e-02 9.180557801066934198e-01
2.169625979189713800e-03 2.011022816308433506e-02 -8.326410495492959640e-01 -5.037491753195515454e-01 -1.250182663649276882e-01 8.547556384370796900e-01
5.478826640903613349e-02 -9.662883049510051503e-02 -8.364335613719519058e-01 -2.876042018622072538e-01 -1.580662872071710856e-01 9.446157271185690041e-01
-5.553186309757052186e-02 -1.424845004592379116e-01 -8.814435013599689617e-01 -3.329571439896740204e-01 -2.609034429145704048e-02 9.425809430499816344e-01
3.082142306744935917e-02 1.465038922443882008e-01 -8.092420117741002672e-01 -1.658573179283965582e-01 -7.354446954799978564e-02 9.834035596277360680e-01
-2.295074722360640820e-02 1.396940669670089161e-02 -8.467318799882435076e-01 -4.352004019521322209e-01 -1.594730288379125893e-01 8.860976036611120099e-01
2.975034201362597094e-02 1.362986825654228240e-01 -8.102019356061304078e-01 -1.668984073641617549e-01 -9.227035590511281637e-02 9.816471377437262502e-01
5.282165540668441565e-03 -9.707079064507989630e-02 -8.520643204138532711e-01 -2.973353037707017199e-01 -1.265324934885419528e-01 9.463515442070966621e-01
2.591340539476139765e-02 -2.609169602327435916e-02 -8.345698987932171908e-01 -2.847228729237595846e-01 -1.508048779347748447e-01 9.466735310681916316e-01
4.034707310781297102e-02 -1.691356228359239267e-01 -8.458965030432450405e-01 -3.761298742083648561e-01 8.636264603940491114e-02 9.225333658448738872e-01
5.157933817251002945e-02 -3.417082512356420937e-02 -8.276039428366386286e-01 -3.239080125319541148e-01 -1.289542453046426396e-01 9.372589834381473972e-01
-4.185333053114519142e-02 -1.089171049730223856e-01 -8.748163222745665157e-01 -3.968431225915630134e-01 -5.434777676727041429e-02 9.162760802357731160e-01
-5.593022689995123115e-02 -1.224162497556770951e-01 -8.810364490718201047e-01 -3.362159649299120145e-01 -2.719989133110295096e-02 9.413920494872602962e-01
6.235342801395476336e-02 -4.640001184012566143e-02 -8.255444084153557016e-01 -3.373258112673187537e-01 -1.539364090278647068e-01 9.287167916154261960e-01
-7.165459071485200115e-02 -3.243633973139384979e-02 -8.794274784264832778e-01 -3.967429435810300165e-01 -1.465291897197989468e-01 9.061590551766941504e-01
3.646712882407784212e-02 -7.481533838049167495e-02 -8.387571352380838174e-01 -3.069940978285294886e-01 -1.453482922227576635e-01 9.405469142187300458e-01
8.397795636360533278e-04 6.913038912194036101e-02 -8.275167900673835453e-01 -4.790068983387338331e-01 -5.859849799022422145e-02 8.758530740810331894e-01
-3.698927526899464802e-02 -6.229748938226873506e-02 -8.677498547271982332e-01 -4.592324272416227204e-01 -1.291329338008725403e-01 8.788801187748798149e-01
2.166239548557442537e-02 9.603802145972500925e-02 -8.160553249651228969e-01 -1.682525936290661661e-01 -1.163258612361213890e-01 9.788561481365722905e-01
2.185764224141868370e-02 4.820936836347327475e-02 -8.225498732184002293e-01 -2.333731945034083211e-01 -1.577893155639014111e-01 9.594996008238616536e-01
-4.651251322978919127e-03 -1.882927441591790152e-01 -8.624582395908553245e-01 -2.568382427967597637e-01 -3.615707413127640379e-02 9.657778124534328601e-01
1.256423421009281519e-02 -3.981788881435525951e-02 -8.407381445233371720e-01 -2.697248496358074510e-01 -1.639376678425915335e-01 9.488798377830951480e-01
-5.759219623391016035e-02 6.137997238163878794e-02 -8.550044967031532606e-01 -3.655008957417938964e-01 -9.822741212788808907e-02 9.256135644633802784e-01
-5.908348657881461879e-02 -1.233829838768517317e-01 -8.821868432656775338e-01 -3.327589804460189260e-01 -2.481200832891797270e-02 9.426854327797855593e-01
-3.773905333939707625e-03 -1.295684316760816468e-01 -8.584524620145559393e-01 -2.588097822698665063e-01 -1.018572349636864410e-01 9.605428674905543973e-01
3.655175517953138803e-02 -1.341294661248900177e-01 -8.467362025909275225e-01 -2.949714785843416953e-01 -9.344055105212568935e-02 9.509262275491419114e-01
-5.368792703989090642e-02 -8.583005891392427034e-02 -8.782219561685820075e-01 -3.634019592499057594e-01 -7.856155550302115764e-02 9.283141160244604562e-01
6.824656078345665844e-02 -3.442137450735120729e-02 -8.216829119774927692e-01 -3.404135935983938488e-01 -1.272652616734835374e-01 9.316233887492345600e-01
-4.768419577670925114e-02 -1.001234037628840889e-01 -8.768201077064214921e-01 -3.968431225915630134e-01 -5.434777676727041429e-02 9.162760802357731160e-01
4.419638256078384925e-02 1.189498480296353744e-01 -8.090422198227688044e-01 -2.198901792310020142e-01 -9.601527826021508116e-02 9.707880177558698698e-01
6.930141983569151898e-02 -1.359294273850239021e-04 -8.164534238637148889e-01 -3.423231342201582539e-01 -1.441107185550431213e-01 9.284648472479917203e-01
-1.629833220875814143e-02 -4.238007443196949858e-02 -8.534530841257099709e-01 -4.875125372407103086e-01 -1.436012257745152565e-01 8.612259947244867986e-01
-5.554002298196763360e-02 -2.012519010177199752e-01 -8.830209070918274561e-01 -3.308322192908764725e-01 5.705374449331035956e-03 9.436723432322612348e-01
5.839999493376060724e-02 5.531190743583149633e-02 -8.106248273998509779e-01 -3.208417866212613934e-01 -1.138648872726291950e-01 9.402634393637077093e-01
-4.095000436315749531e-02 -1.924552922408518107e-01 -8.769289415520613584e-01 -4.355264134143458366e-01 -1.378000573949093172e-02 9.000704720521920388e-01
-7.648464598901094647e-02 3.017117171905669536e-03 -8.744252071505196344e-01 -4.072602951804394356e-01 -2.143834418322859980e-01 8.877943409583576306e-01
-2.029791960597270364e-02 -1.367177122206560957e-01 -8.653833735390169535e-01 -4.733219678102971173e-01 -3.063844982722865179e-02 8.803565187924561330e-01
-7.677430637870205632e-02 4.698530467659783882e-02 -8.647071322363971690e-01 -3.685483838165136694e-01 -1.628143393608598999e-01 9.152396296515589169e-01
7.039178360880525565e-02 1.100590383364708977e-02 -8.139955173501882690e-01 -3.457654548629021662e-01 -1.730951401648537225e-01 9.222170691733914127e-01
4.042028097308791867e-02 8.615304827597082549e-02 -8.132293773952558036e-01 -2.315800629809418032e-01 -8.827414860487343973e-02 9.688025336041538038e-01
-7.199445409703275622e-02 -6.478341733234625754e-02 -8.835344232004638254e-01 -3.255500118659288011e-01 -8.054757100577063234e-02 9.420877233990282429e-01
-2.143529902749159721e-02 -1.311037537523605523e-01 -8.657995045873561057e-01 -4.733219678102971173e-01 -3.063844982722865179e-02 8.803565187924561330e-01
9.184537397243534504e-03 1.088477414056188836e-01 -8.202390206206428003e-01 -5.428193108126886379e-01 -4.214092383940295367e-02 8.387915941083335936e-01
-3.709084344531806549e-02 7.964638682374804157e-02 -8.452811187701686491e-01 -3.789863817558619119e-01 -4.552676737555101660e-02 9.242816864440908109e-01
-4.548711916466383759e-02 -9.095931272786804411e-02 -8.751662172796008665e-01 -4.084664963020205319e-01 -7.618024778888184134e-02 9.095887484163245329e-01
2.424747314788391547e-02 2.114783388230158656e-01 -8.166331255808875200e-01 -4.938913610583068325e-01 3.049627138290517681e-01 8.142905296305448237e-01
9.415248393338496516e-03 -9.364515472116780037e-02 -8.502940436657019374e-01 -3.041814870382231750e-01 -1.283291214486471654e-01 9.439307493303910057e-01
-3.181520057927247902e-02 -1.895516757065756064e-01 -8.722355295959751675e-01 -4.961282399509757690e-01 -5.287601295333290222e-03 8.682331546282304746e-01
7.493792259140326373e-02 -7.930183374933350016e-02 -8.270434969679278936e-01 -2.944552024512537836e-01 -1.844670097064071146e-01 9.376929433878488096e-01
-4.020755658447067865e-02 -1.626174655423257703e-02 -8.613095618388316721e-01 -4.440341455678009641e-01 -1.770183188738025659e-01 8.783496982141939524e-01
-5.210185540509470331e-02 -1.089055778877852931e-01 -8.791375749045294841e-01 -3.459584861116402066e-01 -3.792503634670414681e-02 9.374830225158442554e-01
-1.276015064449578275e-02 -1.836146149928453986e-01 -8.639433580385244005e-01 -1.693276363079712077e-01 -5.192309043470282742e-02 9.841911116556910644e-01
6.691066719570504598e-03 -1.485990355388423501e-01 -8.572950553277042252e-01 -2.737301876788859611e-01 -6.212448263769983908e-02 9.597980688719267572e-01
-4.913775883567186170e-02 3.794931416703133890e-03 -8.615223889247070055e-01 -4.234780819626620674e-01 -1.871990475616003846e-01 8.863536713351248819e-01
1.996203122960196752e-02 -2.009526001181066723e-01 -8.516910615668997764e-01 -4.915999308742934892e-01 1.353172400428485911e-01 8.602434263111670143e-01
7.070738556094555149e-02 -7.726799917373945725e-02 -8.280504452497537971e-01 -3.120509488224952888e-01 -1.789123810928039127e-01 9.330672886939523902e-01
-4.317793447436862192e-02 -1.150553333115035895e-02 -8.618534381544258327e-01 -4.439981295835890851e-01 -1.766280916235992704e-01 8.784464572048087394e-01
-7.100788046392854380e-02 -1.941982009001838854e-03 -8.730828478260396208e-01 -4.130758291960073270e-01 -2.058746381804308634e-01 8.871211826397269462e-01
1.717459491258808285e-02 4.568832682630570574e-02 -8.240942310361246692e-01 -2.312066355908782567e-01 -1.568537712494712244e-01 9.601772680622914224e-01
2.528177651805981960e-02 1.240310082729560726e-01 -8.120917654378763118e-01 -1.486960255813907783e-01 -1.090843195196190274e-01 9.828479552866963287e-01
3.113357484058451932e-03 -1.484587718967053938e-01 -8.582858415312202283e-01 -2.553191125135326200e-01 -6.718334464551628527e-02 9.645198541178631180e-01
6.041872237466507783e-02 2.857882632306682491e-01 -8.517958918898493881e-01 -1.286920592994975632e-01 7.006291204304536668e-01 7.018241870141719296e-01
-9.044555381538989247e-02 -1.489352420466570626e-02 -8.848327855122425367e-01 -4.072363582898615997e-01 -1.874465348551560551e-01 8.938804981973855757e-01
1.665548585189580849e-02 -9.607435008429041079e-02 -8.482925344168974480e-01 -3.035457514973734505e-01 -1.284800371908193517e-01 9.441148536016900072e-01
1.310533880822295147e-02 1.536324559690400160e-01 -8.164607359998294900e-01 -4.985818124819320074e-01 -9.202285900744670843e-03 8.667938014294014337e-01
-1.954998188421975397e-02 1.088551153853821105e-02 -8.455898193266209173e-01 -4.467406250339817086e-01 -1.565958903607934660e-01 8.808521675436564724e-01
2.327517713761041718e-02 -1.098461795100812849e-01 -8.480728658472527215e-01 -2.963823119787557525e-01 -1.205634463759784891e-01 9.474291427563720225e-01
2.860713717677533519e-02 2.098732209371927948e-01 -8.131378537712312671e-01 -5.276100288026025487e-01 3.276464492677400031e-01 7.837572722400472092e-01
6.612774737862088525e-02 8.661290502322782636e-02 -8.054065416073308281e-01 -3.288546139039136840e-01 -6.064537041318282529e-02 9.424313141877000977e-01
1.405532183037638827e-02 -6.813856256072166329e-02 -8.449899542629171201e-01 -3.013154481250640004e-01 -1.485267527947344013e-01 9.418857703699762274e-01
-4.090207656600514108e-02 -2.329428920462326136e-01 -8.743638989047417542e-01 -2.752321625187660326e-01 3.182934790351227838e-01 9.071584855574915673e-01
-1.543352941407350083e-02 3.625269654265063759e-04 -8.453584146346382333e-01 -4.577249745119127966e-01 -1.570392305670647859e-01 8.751151511492492041e-01
1.384477172734005154e-02 -4.236601734984791340e-02 -8.408143833233399089e-01 -2.697248496358074510e-01 -1.639376678425915335e-01 9.488798377830951480e-01
-8.109185116793900250e-02 2.987621995844025671e-02 -8.698338671374286069e-01 -3.805254270491025270e-01 -1.863296514822466721e-01 9.058044272068903613e-01
4.648986281851154312e-02 1.020390237126015121e-01 -8.101934917369927325e-01 -2.326151090514882724e-01 -8.886027418909712983e-02 9.685009358343453778e-01
-5.986697032750548653e-02 -5.960171513495447077e-02 -8.781231012935661884e-01 -3.968559524815614137e-01 -1.190022154653559566e-01 9.101339603016083135e-01
1.711370429986757216e-02 1.097525413472121569e-01 -8.146424046437948929e-01 -9.386484396644047268e-02 -1.345550611680373654e-01 9.864503670135774671e-01
8.081084715568062626e-02 8.136742138344045527e-02 -8.004492877562207065e-01 -3.463782773405536530e-01 -4.526989131892505264e-02 9.370019882191088501e-01
-2.561461410219709536e-02 -1.639434968739389431e-01 -8.688014849438013831e-01 -4.741102392392795295e-01 -8.497692670702486004e-03 8.804244830010961032e-01
7.800675753937164059e-02 -2.780605889170572123e-02 -8.171255886232945409e-01 -3.553028328486151355e-01 -1.268598406283209246e-01 9.261028440759190294e-01
7.666455812379494375e-03 6.503228059460186561e-02 -8.239443275063713656e-01 -5.368788014538357078e-01 -7.489282948677965235e-02 8.403286360948061251e-01
-4.276551958764829992e-02 6.755949176298232939e-02 -8.483775876074342026e-01 -3.734642541624115242e-01 -6.297431631175152977e-02 9.255045577132405832e-01
5.104996493429853066e-02 -3.898044358206727289e-02 -8.284505912336619371e-01 -3.226131255406625709e-01 -1.307121776765376997e-01 9.374620514111180469e-01
8.997399716389992141e-03 5.026575430105597458e-02 -8.249560205646313538e-01 -1.282982735126285412e-01 -1.720900112680279481e-01 9.766906270848761951e-01
5.106715241300780958e-03 -2.034923382319596685e-01 -8.592429244071525529e-01 -3.963693505552567387e-01 1.707911985147522391e-02 9.179322641706756380e-01
-2.651926206553514506e-02 1.644721656631980417e-02 -8.480385929778768705e-01 -4.352004019521322209e-01 -1.594730288379125893e-01 8.860976036611120099e-01
8.628732287326927597e-02 -5.888285182994631994e-02 -8.189605039370594364e-01 -3.340666821221520699e-01 -1.885620303732739034e-01 9.234954318227056591e-01
-7.510959489825880589e-03 1.321865187669654385e-01 -8.287937569648252678e-01 -4.760913532442808682e-01 -4.057026270805878104e-02 8.784594908986005368e-01
-6.079501275643980213e-02 8.843705454217674899e-02 -8.541100377984607306e-01 -3.548411763507888783e-01 -4.962179589796038987e-02 9.336088136569028473e-01
-1.444284388285397083e-02 -6.117033353856606709e-02 -8.553576053514323485e-01 -4.900267449661626640e-01 -1.222878356481377354e-01 8.630871766341807749e-01
3.344805174350445193e-02 -1.857315254075918298e-01 -8.470193161211966304e-01 -4.151830670760803810e-01 1.268112831944782359e-01 9.008562145358540718e-01
-2.788011396630233479e-02 7.433911508930887702e-02 -8.415632412768452308e-01 -4.236261128566981560e-01 -5.103812848762648291e-02 9.043981567575228864e-01
3.576200893920508661e-02 1.527481045978736907e-01 -8.079293768567694656e-01 -1.906358762765721082e-01 -6.555171084460291453e-02 9.794697217788863597e-01
-2.345912906399793066e-02 -1.386510585963353082e-01 -8.671480238154750664e-01 -4.723638509900169313e-01 -3.030050535707506237e-02 8.808826662234801042e-01
6.880275264886541453e-02 5.301835554416839402e-02 -8.071219906608275707e-01 -3.416954496118080331e-01 -1.129740331148350180e-01 9.329957596668660980e-01
-7.168305449171784305e-02 3.246178627797127823e-03 -8.721672466507209842e-01 -4.072602951804394356e-01 -2.143834418322859980e-01 8.877943409583576306e-01
6.936136965462098847e-02 4.628529814408554460e-02 -8.077326941445626129e-01 -3.416954496118080331e-01 -1.129740331148350180e-01 9.329957596668660980e-01
-6.195651039659167553e-02 -3.121442487166783963e-02 -8.747829637731088237e-01 -4.091939547593456128e-01 -1.635771991009299098e-01 8.976651977896331625e-01
-2.033120194102969874e-02 -2.693541741079885296e-02 -8.529286161047974213e-01 -4.710673759911213065e-01 -1.615195064618059617e-01 8.671833579521542879e-01
2.450587978271998035e-02 1.313509216104510047e-01 -8.114397983398821124e-01 -9.914377933251500297e-02 -9.864002302116893495e-02 9.901720339809888527e-01
1.532317436853869105e-02 4.530329075902962688e-02 -8.245904675106889847e-01 -2.061204614502976373e-01 -1.603750743059715878e-01 9.652948725197240121e-01
3.236488587250711813e-02 -1.638339400882107555e-01 -8.493299382938916953e-01 -3.409865658475205175e-01 4.507907575170631842e-03 9.400573603141503254e-01
-7.069466196147323155e-03 -1.277800197286131645e-01 -8.591320795166613733e-01 -2.288007091642043911e-01 -9.471109602529390048e-02 9.688550169017264846e-01
2.776372011986685470e-02 -1.315598914259583918e-01 -8.492778512434350224e-01 -2.952146919837947969e-01 -1.027496715255809406e-01 9.498898834277047509e-01
-5.596239319061108858e-02 -3.028530998755113099e-02 -8.717945175485161124e-01 -4.297884222751293670e-01 -1.602169549112723301e-01 8.886013951357574214e-01
1.217949385565027243e-02 -1.238666608904561428e-01 -8.532569356608469269e-01 -2.918165537722678393e-01 -1.052009389888357849e-01 9.506712688307901171e-01
-1.304587722926243802e-02 -3.689783514877777171e-02 -8.506952475969842276e-01 -4.817834149595932591e-01 -1.490580313145961622e-01 8.635197996401062781e-01
-4.152475189817812773e-02 5.174430420818409287e-02 -8.495130135635172719e-01 -3.948026246346092449e-01 -1.170544891310335706e-01 9.112788454451780096e-01
6.171896695151996709e-02 -1.072360827541087719e-01 -8.359603797860059027e-01 -2.844036437515975457e-01 -1.315094731020985119e-01 9.496419461593000877e-01
2.271752803799576004e-02 -4.491484450898069331e-02 -8.385368028702646637e-01 -2.824666269533520624e-01 -1.536587201011360981e-01 9.468904912366986615e-01
-1.218800971560951574e-02 -2.306907909282007174e-01 -8.649410561507854256e-01 -1.478769669497404238e-01 1.551434438078880818e-01 9.767614419545717075e-01
7.510026098369840253e-02 7.887484449839540779e-02 -8.026715358452287674e-01 -3.365008414939830717e-01 -5.227140696960546479e-02 9.402312926547699012e-01
5.256176680757675829e-02 7.606334436218857575e-02 -8.106059899121764722e-01 -3.071002826671013208e-01 -7.653397007971474153e-02 9.485947331761988011e-01
-5.026920519810476606e-02 -5.410151763728766189e-02 -8.730836729456799006e-01 -4.114442563226435312e-01 -1.295220980581978099e-01 9.021849311830193452e-01
6.357258234435253508e-02 -1.370343585231418304e-01 -8.382148995954993298e-01 -2.883755857261126043e-01 -4.029703221760357751e-02 9.566690497510489388e-01
-6.553413673804778239e-02 4.147209275021506575e-02 -8.610872048281206226e-01 -3.756288241083748369e-01 -1.531729924175410373e-01 9.140246281653550131e-01
3.587052674866534480e-02 2.377086873106901976e-01 -8.238303784263797391e-01 -4.109793064202872381e-01 4.501858295794027298e-01 7.927349674009622760e-01
-2.015581628512764373e-02 -1.668874927155291066e-01 -8.657240919156146131e-01 -4.999603199547039689e-01 2.187348529518642459e-03 8.660455495972486650e-01
6.094498771446992674e-02 -8.049336893156779082e-02 -8.317858807799396459e-01 -2.967904394507486221e-01 -1.687501656483399171e-01 9.399142602622271303e-01
2.482718586771587646e-02 -2.091308877794100657e-02 -8.340541232168838803e-01 -2.688461588857811169e-01 -1.533550993459772693e-01 9.508963962267112935e-01
-1.094594439432262922e-02 -1.093515331501681148e-01 -8.584424647263527719e-01 -5.735167754546661723e-01 -4.852066361444179465e-02 8.177556196532654864e-01
9.336401226003768206e-02 1.170656716046176993e-02 -8.046901329234236178e-01 -3.698170632227129606e-01 -1.853963754949197462e-01 9.104194218615256906e-01
-5.456196913602042592e-02 -5.069047787371258607e-02 -8.745516957351201492e-01 -4.114442563226435312e-01 -1.295220980581978099e-01 9.021849311830193452e-01
2.034799842361989519e-02 1.779094848620391411e-01 -8.119367413391780364e-01 -4.569589985293456835e-01 -5.429995265972149820e-02 8.878288060229907463e-01
2.305249511720558475e-02 -1.215017065854636646e-01 -8.496253565631005644e-01 -2.964758441258024679e-01 -1.204543891633773761e-01 9.474137501541607387e-01
1.611808786902156621e-02 -1.734758240220901360e-01 -8.553927651017114719e-01 -3.609951917111821618e-01 -5.551315751719168926e-03 9.325511538006006074e-01
4.419366912871797864e-02 -1.560940086031851748e-01 -8.450764049950502121e-01 -3.409865658475205175e-01 4.507907575170631842e-03 9.400573603141503254e-01
2.615426705886223294e-02 -1.876203281375824483e-01 -8.502962259133518552e-01 -4.096181939032632613e-01 9.411980159192231965e-02 9.073887800561157846e-01
-1.287709689002294010e-02 -8.541848182218775287e-02 -8.575863428211154549e-01 -5.125714185356974317e-01 -1.003354212226164471e-01 8.527621849896858119e-01
-7.993681593082800629e-03 6.735010948424814681e-02 -8.323933287065703457e-01 -4.646979394398652041e-01 -7.546023064198865982e-02 8.822480255981315356e-01
-3.893054519464783647e-02 -1.314315638074964876e-01 -8.745000933931400544e-01 -4.229315276894923814e-01 -3.138633166717018363e-02 9.056179222336042667e-01
-3.781418431921846485e-02 -1.856816705299625947e-01 -8.753053538621203833e-01 -4.488896234978401734e-01 -1.509702518602793614e-02 8.934596721433484268e-01
-4.482012082003057618e-02 -1.635502959421024360e-01 -8.779612769943121453e-01 -3.994780635409306835e-01 -2.678172643893799582e-02 9.163514696220758093e-01
-1.161351189492848893e-02 -1.982777103210091874e-01 -8.643763685030813049e-01 -1.897596078571505140e-01 -4.692309729918718586e-02 9.807086795607304897e-01
5.290198279073242416e-02 -7.470859022529965920e-02 -8.333974896451307179e-01 -3.090554796451919217e-01 -1.529884507403725946e-01 9.386582149224182992e-01
1.199598736731646680e-03 -1.648172101391365829e-01 -8.598667909388004738e-01 -2.674053601603461061e-01 -4.607922103184420443e-02 9.624817290456032515e-01
-1.182839252395385433e-02 -2.237144719590514752e-01 -8.651832062903933585e-01 -2.252405037080753014e-01 2.251787479970158122e-03 9.743005927035442992e-01
-3.592192385585819825e-02 -1.554507677337574612e-01 -8.738189668328356641e-01 -4.225964856734230612e-01 -1.527648357834320014e-02 9.061891851848337121e-01
-5.455734618229746841e-02 -1.077213832645881053e-01 -8.799910643587055548e-01 -3.485186469539032772e-01 -5.523354602780417705e-02 9.356730241481876487e-01
-2.205164747434659733e-02 9.114515608405837632e-02 -8.382345413271604651e-01 -4.027484442693288202e-01 -3.938230605006452084e-02 9.144630799593904680e-01
-6.027438623966239334e-02 -1.159217422986991153e-01 -8.823522516507906754e-01 -3.076902144816260898e-01 -2.981040070351356763e-02 9.510194908213746023e-01
-7.081068378034553745e-02 -1.070566544793617736e-02 -8.749549346487215384e-01 -4.113471443479378431e-01 -1.867274040982291328e-01 8.921470749800916034e-01
-5.481461925253609119e-02 -1.292377365289722746e-01 -8.808340741199580659e-01 -3.327589804460189260e-01 -2.481200832891797270e-02 9.426854327797855593e-01
4.457669746288767804e-02 -7.305025279882067235e-02 -8.358330253026023948e-01 -3.078589484605537829e-01 -1.451237933168466887e-01 9.402988633759435944e-01
-8.066877680587507260e-02 -1.408838693104171556e-02 -8.802084742925744276e-01 -4.113869911877440777e-01 -1.866723898913999202e-01 8.921402145031510633e-01
-7.990255544713434355e-02 -3.922176248396455622e-02 -8.838950869481584371e-01 -3.749140313029911686e-01 -1.141354945754888689e-01 9.200068249802001441e-01
2.850887699581992462e-03 1.182672665103893794e-01 -8.236972149311728719e-01 -5.026172655553141633e-01 -4.921534035040021904e-02 8.631070238619850121e-01
-3.748108177253647866e-02 -1.217118438440239481e-01 -8.734167517749495957e-01 -4.251830142613189367e-01 -4.680248020765640643e-02 9.038965273913109888e-01
3.367582329702002719e-02 -6.665738606577772951e-02 -8.384069117727586118e-01 -3.070774573323414858e-01 -1.460801011267046090e-01 9.404063160427601487e-01
8.641501124039215748e-03 -1.964874540024062477e-01 -8.579694034167039129e-01 -3.933159669816019277e-01 3.517102515693328046e-02 9.187304006653627120e-01
-3.027762439499721153e-02 4.455756863010582047e-02 -8.454275270354176808e-01 -4.125080615231116465e-01 -1.125270356805009309e-01 9.039771929752454804e-01
-5.058489777859647568e-02 6.463342709575856104e-02 -8.518533724701878862e-01 -3.775818128004191365e-01 -9.348775333757750050e-02 9.212448179600476461e-01
3.256914268169426585e-02 -1.014080363238154849e-02 -8.301245530359454561e-01 -2.734189844043980466e-01 -1.476349119178310410e-01 9.504977599922483922e-01
4.442496974160854706e-02 6.802789022550499720e-02 -8.137479525817571391e-01 -2.745073978251059144e-01 -9.020298145449118232e-02 9.573448232878316588e-01
3.003683745139684724e-02 -7.974712184905259627e-02 -8.415920316732372619e-01 -3.038751417761392792e-01 -1.436632464477919091e-01 9.418178007611729408e-01
1.427263391322494863e-02 -2.096955872827299117e-01 -8.538823160864343897e-01 -5.009473750116493207e-01 8.935157334533641582e-02 8.608530791079572753e-01
-5.346424270270538209e-02 -5.899286080907422541e-02 -8.752430050211794654e-01 -4.114442563226435312e-01 -1.295220980581978099e-01 9.021849311830193452e-01
3.129568057130153319e-02 5.390260996784371206e-02 -8.191662217656479061e-01 -2.695515833249068072e-01 -1.280238396732746031e-01 9.544379709558644675e-01
2.623347986653536829e-02 -1.007204596635545291e-01 -8.458752995936408281e-01 -2.993654528056460817e-01 -1.321711058372578018e-01 9.449397464644119227e-01
8.294876993229130524e-02 -3.917935310054272702e-02 -8.168460703785439536e-01 -3.474398620862848008e-01 -1.417595551514657659e-01 9.269249002787238734e-01
-1.818584405321720110e-02 -2.425990816105545178e-01 -8.628493801302129507e-01 -9.039707281043420431e-03 3.312144140685660543e-01 9.435122127484569798e-01
4.692609038662248766e-02 -2.300147986672078718e-02 -8.276584105986337647e-01 -2.940247305917496612e-01 -1.319082038393227241e-01 9.466518280552427278e-01
4.958842847310630797e-02 -7.204824077454587139e-02 -8.340375089083535975e-01 -3.078589484605537829e-01 -1.451237933168466887e-01 9.402988633759435944e-01
2.762839377666531648e-02 2.080427970975333163e-01 -8.131172067223669808e-01 -5.704131171265208744e-01 2.324230959674886132e-01 7.877870145355871934e-01
-5.339391017438877007e-02 -7.259300855555905763e-02 -8.768893951415114296e-01 -3.953206715871983579e-01 -1.064587606418661708e-01 9.123530560580397353e-01
-1.735961800604588628e-02 5.541680612019406725e-03 -8.454023097445227952e-01 -4.509425374468168379e-01 -1.509897619154441650e-01 8.796891040121752603e-01
-6.482773800912325010e-03 -1.137936786917985166e-01 -8.575465227223785236e-01 -2.627866719724363809e-01 -1.083221653710823851e-01 9.587541256875876661e-01
6.297188321132850264e-02 6.078880885974423387e-02 -8.084021668422345375e-01 -3.363881043375094304e-01 -8.146650015849160598e-02 9.381930785356196179e-01
1.954581853430985977e-02 -1.146997868134008031e-01 -8.498541624788636950e-01 -2.938873398808813930e-01 -1.212676469241854987e-01 9.481162319395287641e-01
-1.320883561995624123e-02 -9.499339439774358296e-02 -8.587346380281656311e-01 -5.101664020822060941e-01 -8.032697009652416120e-02 8.563164251966729479e-01
1.953593405092115057e-02 5.421218161337430091e-02 -8.221274078659490669e-01 -2.333731945034083211e-01 -1.577893155639014111e-01 9.594996008238616536e-01
-6.036034404599216474e-02 -1.657540878853036581e-01 -8.836303680566249819e-01 -3.099086905893250199e-01 -2.787979506814499200e-02 9.503574698628765027e-01
-7.813208900280066427e-02 -8.794398519098424460e-02 -8.871083937656593088e-01 -2.996342239275380237e-01 -3.673031206060491105e-02 9.533468498019346260e-01
3.524665519180131268e-02 3.327617525716776046e-04 -8.276353712207532576e-01 -2.654391855047927851e-01 -1.603333127842768713e-01 9.507025126769000911e-01
-4.309872365276747747e-02 2.271342526823906874e-02 -8.547853588701488370e-01 -4.049488523605643819e-01 -1.658218456721577416e-01 8.991771474352208138e-01
