-6.895812171827933601e-02 6.557413709349158015e-02 -8.198820149992155359e-01 7.435316117966338512e-01 1.053619061938553952e-01 6.603480983407896687e-01
-2.136207512172727530e-02 1.129594133593913863e-01 -8.766473872011398827e-01 8.489748834351181772e-01 1.279987054425096860e-01 5.126967707147852549e-01
-8.488498933539650668e-03 6.545744287971076714e-02 -8.864428846845199272e-01 8.416296761233723611e-01 8.692144038102346537e-02 5.330142131975053044e-01
2.795254424721639597e-02 -6.898409594122068000e-02 -9.295894173019447759e-01 8.128035957722332672e-01 5.311318454074484552e-02 5.801114585385026556e-01
7.313429094602214714e-03 4.079598073703694094e-02 -9.086081463191656438e-01 8.437341255852837119e-01 3.139672200329075846e-02 5.358423006541057632e-01
-3.264854847598541027e-02 8.501460244064874827e-02 -8.578181894376675221e-01 6.332691701182456834e-01 1.519111355412655108e-02 7.737825199930106201e-01
-6.012681236456238892e-02 -1.965788079607429586e-02 -8.234764633782296617e-01 7.855888515502599256e-01 -3.156290801295621312e-02 6.179433138708675388e-01
-6.408387609270990715e-02 1.335261365598307270e-01 -8.323030184755714211e-01 6.545501925460032178e-01 5.828423603663707847e-02 7.537685276446712823e-01
-2.105555212851285482e-02 -9.269339875161078379e-02 -8.742400836308110712e-01 7.529955445093208244e-01 3.194962222618409620e-02 6.572495200368853041e-01
-6.512430003240246568e-02 1.166867768991678017e-01 -8.299528523045346384e-01 6.709296192381180024e-01 6.851989830517819791e-02 7.383484743434104436e-01
5.041207794941326287e-02 -6.411470865881553627e-02 -9.620960808778982187e-01 8.219836628829491065e-01 6.642661077237031753e-02 5.656238709025870337e-01
-5.096873706105749940e-02 8.692673028264441548e-02 -8.415575019873786644e-01 6.747650868844358163e-01 4.809357152449394296e-02 7.364639067190315025e-01
5.573544984009076719e-02 -1.545811541912145426e-01 -9.534634006059022893e-01 7.725307051557711580e-01 1.479296331833029610e-01 6.175055734305402444e-01
-4.602011209370521910e-02 -1.044656682048896862e-01 -8.429656310289351806e-01 7.774390064971525849e-01 7.943725700991598193e-02 6.239217205511131681e-01
-4.780617523655366491e-02 1.233679987481419160e-01 -8.459580740864169890e-01 6.477297372298820299e-01 3.038858786349188379e-02 7.612638972365436407e-01
-6.331512344180553753e-02 1.172411885710205326e-01 -8.316846651754439268e-01 6.923906241062780520e-01 6.204924164246650165e-02 7.188498558539979655e-01
-4.110331020519429612e-02 -8.990782927694258853e-02 -8.506704002380681695e-01 7.598191213965840296e-01 6.394141739201975039e-02 6.469825329187974816e-01
-4.985124648971991923e-02 -5.757244883764680438e-02 -8.403448815272900330e-01 7.669988425381640829e-01 -4.932674410246876834e-02 6.397496759368980213e-01
5.849503188769675927e-02 -1.103950088197437063e-01 -9.663802593636906524e-01 7.833312434044221728e-01 1.172873325020541285e-01 6.104390589903587738e-01
-3.200080972442846672e-02 -2.264523247587442792e-03 -8.567502880853600233e-01 7.515564473380788035e-01 -2.329967401319534004e-02 6.592571817245865828e-01
4.945595880556383911e-02 1.945810178540605812e-02 -9.645361974847288522e-01 7.803873374896683757e-01 2.823529063342114162e-02 6.246586042380533055e-01
-4.955082507680398998e-03 -1.572941450151315798e-02 -8.869744670793217045e-01 7.049125161475474632e-01 -5.947086843871817602e-02 7.067966895689864470e-01
-5.429984769604153522e-02 -7.012875451771230506e-02 -8.357012309826953311e-01 7.607721461538767826e-01 -7.345582560174776163e-03 6.489774911761395648e-01
-5.937873110648748259e-02 1.040195216380568194e-01 -8.343407602269323764e-01 7.101976248646777456e-01 3.963740172117170141e-02 7.028856308257872554e-01
-5.613517450909136230e-02 2.175612379644545347e-02 -8.285990377316392319e-01 7.590096714688894242e-01 5.330350684923780558e-02 6.488937160847388919e-01
-4.923083120845998806e-02 8.542289095191685222e-02 -8.430629581557822494e-01 6.889661920223476566e-01 3.848328708528797604e-02 7.237711122069855341e-01
2.021875909808193775e-02 -1.119123375034049850e-01 -9.156922634628663626e-01 6.651690119139324064e-01 8.618943316637742505e-03 7.466430870272272591e-01
5.367909877746639830e-02 -9.413589039040913542e-02 -9.628612261472109246e-01 8.032528875680902125e-01 9.785043801460234503e-02 5.875458198250378405e-01
-1.664078746646947132e-02 5.632100444911151277e-02 -8.717174917832577474e-01 6.287085863891550552e-01 -3.651857114670161580e-02 7.767830503827654054e-01
5.029507823855924355e-03 -1.373255712767826840e-02 -8.997582732452253929e-01 8.660904437710549297e-01 5.802894587752658456e-02 4.965077891119134557e-01
-4.781017756282947284e-02 -1.120188144163218776e-02 -8.384472793297523818e-01 7.755093943500697140e-01 -2.877717531641834497e-02 6.306798343498833948e-01
3.459352734391129419e-02 -9.726573418527330317e-02 -9.358025960095601725e-01 8.099915412366315293e-01 7.598735404938011806e-02 5.814977430305989792e-01
-3.995408421467105259e-02 1.098696303347658325e-02 -8.473250993079691762e-01 7.502192824740641086e-01 -5.265370552284099649e-03 6.611681360115956307e-01
-6.357007139703868548e-02 8.099794347617812751e-02 -8.279672930689210286e-01 7.458752180171350776e-01 7.518055988131100431e-02 6.618293152798717660e-01
1.248903810247238740e-02 -3.101513785863754813e-02 -9.101880083295031953e-01 8.379894493762622965e-01 4.815295034132292817e-02 5.435577026475613138e-01
-2.283370803395435786e-02 -5.837086332812295962e-03 -8.672410846724851741e-01 7.444708932464555451e-01 -3.827112247419799107e-02 6.665571320550023326e-01
2.861750331011368373e-02 -9.073132317311653761e-02 -9.282816259173882756e-01 8.125089198683171920e-01 6.689861777193455150e-02 5.790974271006783525e-01
-3.753331061614269271e-02 9.743782089441035965e-02 -8.539665377775134125e-01 6.439051698007312030e-01 1.227499246243829965e-02 7.650068345210641052e-01
1.504377439019676660e-02 -1.775589234352464574e-01 -9.024816818461285362e-01 7.664363240415261735e-01 1.499075601635516952e-01 6.245823281165776564e-01
-5.302441460416912333e-02 6.707326321638622246e-02 -8.375270235749321390e-01 7.124559381441596395e-01 9.512623866988617616e-02 6.952391925946388440e-01
-2.372490585242475677e-02 2.579165394781684009e-02 -8.651023025087907214e-01 7.271929105421109929e-01 -2.088632940228403369e-03 6.864299734639611739e-01
-8.585914008159644230e-04 7.256233239472412166e-02 -8.989412640624014905e-01 8.141433800447313018e-01 7.446604860878996979e-02 5.758692250276390423e-01
6.763547589826200690e-02 -1.037214983468966872e-01 -9.789173409217033495e-01 7.556310392406772047e-01 1.777845237853998839e-01 6.304081183157883572e-01
5.886100534557096170e-02 -1.552525916121628713e-01 -9.571624300567862509e-01 7.300575160795911289e-01 1.491261492938349698e-01 6.669163476872423946e-01
-7.893380814620308897e-03 8.243562270770141143e-02 -8.904601125147435514e-01 8.275457585447759667e-01 1.160732030407862908e-01 5.492677207431762021e-01
7.298354830356225398e-02 -1.346776464090948811e-01 -9.764645650092731444e-01 6.872069594925325209e-01 1.940489888960414411e-01 7.000654146102726072e-01
-6.761912140944989491e-02 4.304363330160824314e-02 -8.176625712908056620e-01 7.571485829788937583e-01 1.026738206554133337e-01 6.451233291744095100e-01
1.839512648816615456e-02 -4.967451525718170890e-02 -9.175930269533931760e-01 8.301985558516740138e-01 4.625839005074647292e-02 5.555452449726376862e-01
-5.647967678923421220e-02 -4.209516035611202134e-02 -8.307109480280603364e-01 7.762377693928820266e-01 -7.242130625967811708e-02 6.262667800287711195e-01
4.691334041386411441e-02 -9.724086032433345780e-03 -9.599189343514512585e-01 7.964606563391247729e-01 1.910948324704434681e-02 6.043883276122080650e-01
5.957449721261426356e-02 -1.318221081046438981e-01 -9.631509365550335877e-01 7.322852393832420814e-01 1.354279880384370305e-01 6.673961254287359424e-01
4.253408860748891795e-02 -1.978602487528023091e-01 -9.287452518584254912e-01 6.544026671773993664e-01 5.319184788031824929e-02 7.542730119195457661e-01
-2.221268495112456789e-02 1.290978907245290963e-01 -8.794294634339122618e-01 8.384154724387499202e-01 1.338566123321834889e-01 5.283388145028332650e-01
2.867270620726182842e-02 4.362463278617956242e-02 -9.389138274953634511e-01 8.020895627476521961e-01 -5.391714929090542490e-04 5.972035185976232174e-01
-6.851982167997034204e-03 -1.016480534763423982e-01 -8.895431367861696970e-01 7.306911695213288427e-01 3.922538030808666448e-02 6.815803579353200137e-01
-2.985925350835428108e-02 5.542307727120851513e-02 -8.593168491532291453e-01 6.977301642800476378e-01 1.920554750026194982e-02 7.161031802742906516e-01
-6.206390582193579281e-02 9.375028704876429975e-02 -8.309131042981080517e-01 7.355815470918941612e-01 6.009951558029096724e-02 6.747650226596736411e-01
-3.973535354120153601e-02 -3.820798714574457494e-02 -8.506517090526538594e-01 7.565862499704201216e-01 -6.743367313821624354e-02 6.504075230828633147e-01
-6.954294151030480930e-02 1.884580195471008968e-01 -8.377636165488051567e-01 5.362660844368887236e-01 1.900224909862326950e-01 8.223807753116040287e-01
1.823425920947098836e-02 5.794198381813741444e-02 -9.246283660226944923e-01 8.024545126418470842e-01 -6.631673491674002115e-03 5.966764416729015696e-01
-5.192914253747268200e-02 -1.930336354375059710e-02 -8.339340408462624366e-01 7.868667612761336416e-01 -5.295711451992882179e-02 6.148465207029567559e-01
7.654504054888042197e-02 -1.690473636790340017e-01 -9.702398286759063017e-01 5.802135167962698681e-01 1.794797148094277872e-01 7.944427650239075378e-01
5.568570780283794291e-02 -1.087392495224323019e-01 -9.630933927916368598e-01 7.833312434044221728e-01 1.172873325020541285e-01 6.104390589903587738e-01
-5.105596385851419831e-03 4.174770421777998335e-03 -8.852467505779509915e-01 6.871117018299013335e-01 -5.596066247357722734e-02 7.243934797221295296e-01
4.688482596255143936e-02 -1.070239015730893445e-01 -9.515273589794198683e-01 8.069655825490336110e-01 8.973576628474239092e-02 5.837414160658715989e-01
-7.202606415706520882e-02 4.789615214095924167e-02 -8.133265851827340409e-01 7.524971857058593283e-01 1.134401962917226669e-01 6.487521155033385556e-01
-7.872263400987298057e-03 -1.671138594517664333e-01 -8.751848536314790206e-01 7.937638605483484655e-01 1.835144099474574908e-01 5.798805006456232425e-01
-5.284672593592345223e-03 6.455755628558251802e-02 -8.912495555607762299e-01 8.271315854719496485e-01 8.043997537720563862e-02 5.562218538281048508e-01
3.361905295075298065e-03 -1.524618592956316909e-01 -8.940760851131127618e-01 7.575810930866421211e-01 1.373694778122868942e-01 6.381226480569609505e-01
4.392465886289243643e-02 -9.438722707474687945e-02 -9.492320390836662680e-01 8.116956089832725318e-01 7.319373035526788307e-02 5.794764155631830782e-01
1.420144020573477391e-02 4.960643410112357266e-02 -9.190124284115136488e-01 8.154950614375903184e-01 1.922492863723373677e-03 5.787608390277367842e-01
1.244896435482031362e-02 5.921863143942222851e-02 -9.166521077857524569e-01 8.134347197513122074e-01 3.835121108975043762e-03 5.816435751808695098e-01
-4.727813826214945225e-02 1.574408072320758467e-01 -8.485961386111737781e-01 6.081841981160688304e-01 5.842283589805203486e-02 7.916430719759656176e-01
-2.584345721014575520e-02 1.406435854231466720e-01 -8.767245268566884464e-01 8.363593700020305333e-01 1.532075694394540444e-01 5.263368169492436133e-01
-2.872669722982194168e-02 -9.183493336761926196e-02 -8.653907389624287960e-01 7.608423538440618472e-01 2.347521576139996458e-02 6.485120097900910485e-01
6.741446073834313213e-02 -1.667249668933223072e-01 -9.633354183836760898e-01 6.675434880527026937e-01 1.514542530079242832e-01 7.290043215264522258e-01
6.268417669610017173e-02 -8.420640956762766305e-02 -9.768209341923764777e-01 8.024894110301314942e-01 9.902090261126109128e-02 5.883923912072317464e-01
-3.474449387879760976e-03 -1.234004716977897403e-01 -8.913874215568013959e-01 7.332385890003060291e-01 7.672837665531999363e-02 6.756285427782636743e-01
5.088671631535851558e-02 1.716819026826322701e-03 -9.655706048978425216e-01 7.918272693592119937e-01 2.698237172016620250e-02 6.101487745750940883e-01
-6.650778126777021071e-02 -1.100863925105319968e-02 -8.148507374267607295e-01 7.831295628709088463e-01 -7.001377133048465942e-04 6.218581812317030000e-01
1.876517022833301684e-02 -7.942917198926534306e-02 -9.154057619980691118e-01 8.472232339009391211e-01 7.536556770724055221e-02 5.258638827135782012e-01
4.077568027849259175e-02 -8.604534641046608645e-02 -9.458735383181083867e-01 8.117776511769022596e-01 7.314587654867861499e-02 5.793675222116244639e-01
-6.663269308155838830e-03 4.364930105788032699e-02 -8.863704841927285694e-01 8.567092638286146755e-01 6.054344749181420765e-02 5.122340561072048493e-01
-1.842806666640514623e-02 -3.976494999243214423e-02 -8.748072019774153496e-01 7.293059957694284501e-01 -5.677446228162640052e-02 6.818280024811202988e-01
1.106642207407773290e-02 -9.013449411865778749e-02 -9.074022443219483813e-01 6.827086448691739307e-01 -1.698400908541387823e-03 7.306887310306967587e-01
7.309070530692381509e-03 -1.280771998559052660e-01 -9.022942288184051529e-01 7.081979814096346360e-01 6.805056507713591607e-02 7.027266465134230922e-01
-1.326282824575164554e-01 2.616818931104107904e-01 -8.579487176185360831e-01 2.679017422521336456e-01 7.677160554031686734e-01 5.821002617886972264e-01
-5.323245897688700518e-02 1.882160494096482006e-01 -8.541379223218119598e-01 7.199062730837516577e-01 4.243102651220304611e-01 5.492683832943010547e-01
-1.873037111300456664e-02 -6.534907416726722096e-02 -8.763561146694005544e-01 7.351276412545780792e-01 -3.488363777889846168e-02 6.770306365880286448e-01
-3.266312756061495737e-02 -1.784041066922890592e-02 -8.570113732379970317e-01 7.526079260620547329e-01 -5.106781388877168482e-02 6.564856342778528919e-01
1.169609340746440192e-02 -5.544653714600942737e-03 -9.113955937011838371e-01 8.446972358864290875e-01 5.276054922616278675e-02 5.326376856092518430e-01
-3.331106264528365529e-02 1.390569967366630244e-01 -8.640335150329926384e-01 8.463503389555198098e-01 1.716836482729001689e-01 5.041982037508501158e-01
6.929014908047541332e-02 -1.474614147862224056e-01 -9.695350879732262950e-01 6.578597167166578830e-01 1.937474776839415713e-01 7.277929018701606578e-01
4.567869818149792455e-02 -1.919445608741540965e-01 -9.320490113737204263e-01 6.466111972542772923e-01 6.419001756074448062e-02 7.601142027557052927e-01
-4.753116449219052519e-02 -3.746764038609817771e-02 -8.412132091447308557e-01 7.687132977448813964e-01 -6.101534390747041098e-02 6.366765220094442457e-01
3.943167567093575770e-02 -1.806404965243447736e-01 -9.276982008418309666e-01 6.642137011587903039e-01 6.996337111387652963e-02 7.442615708844058098e-01
-3.024036412691494952e-02 -8.056691104903181133e-02 -8.639732793434816704e-01 7.467168860901345351e-01 -1.291644239716945725e-02 6.650165844124896752e-01
5.030004532818856816e-02 1.590014277830992945e-02 -9.654234654661056902e-01 7.820689031589552753e-01 3.550159479362784143e-02 6.221799317551617303e-01
1.416057714097423460e-02 9.240814470789403962e-03 -9.167407706819736823e-01 8.314313117508772555e-01 6.091991431969095983e-02 5.522777723931112659e-01
3.390632205921222803e-02 -7.773756530455742941e-02 -9.370910135165985144e-01 8.107633836798180393e-01 6.233969189351732526e-02 5.820451000555486587e-01
-3.399397066902407061e-02 -2.501510173083832528e-02 -8.561418995235234863e-01 7.490460531424790735e-01 -6.181624764199006999e-02 6.596277448676177713e-01
-7.751902132960980518e-02 1.965635634355581973e-01 -8.359022109707779924e-01 4.311010386938891048e-01 3.726634233070842406e-01 8.217504897267146058e-01
-1.240751025107161669e-02 1.252094856246266930e-01 -8.930740475760106101e-01 8.122943310765724512e-01 1.145078704667752134e-01 5.718967278294466716e-01
1.759761142989607965e-02 7.065725126242164422e-02 -9.238201521848058428e-01 7.965897502032744937e-01 1.411976244057328370e-02 6.043553608430279889e-01
4.090782708519370703e-02 -1.477802301691925335e-01 -9.340452100224561072e-01 8.441991391728109750e-01 1.761737676924568230e-01 5.062515353032809307e-01
4.789726051925629474e-02 -3.202748267063725007e-02 -9.606049111982192246e-01 8.101070913543150231e-01 1.888817442692899626e-02 5.859775912134096432e-01
5.830661649589228418e-02 -4.299498873258159048e-02 -9.753501261390751242e-01 8.291741043975064951e-01 2.791228142794555112e-02 5.582931211667222504e-01
4.110711094285121603e-02 -4.471584091135972355e-02 -9.501387964307600464e-01 8.211767165011807368e-01 4.015360373064105065e-02 5.692595966549724995e-01
6.285172831454350142e-03 7.299517697285742845e-02 -9.089378998992027059e-01 7.971495747239616403e-01 6.616274183444237345e-02 6.001458548639292401e-01
-4.466356642227480023e-02 1.457151023732935168e-02 -8.418080284799408508e-01 7.581928161433576507e-01 2.171702394880622652e-02 6.516686461840952571e-01
-1.718214411490649740e-02 4.833760258563567919e-02 -8.715169200460768373e-01 6.877803737488228375e-01 -1.695978124898263328e-02 7.257206923506567264e-01
3.841889596148331809e-02 -9.426845160546135083e-02 -9.415192025776635276e-01 8.132407650433771673e-01 7.382651479623431046e-02 5.772253492222114701e-01
-5.318914354579089981e-02 8.611956678238250062e-02 -8.393460023485884713e-01 7.036507127364227676e-01 5.012605113233246229e-02 7.087757427165545243e-01
-4.472642940210436874e-02 7.865630413304727786e-02 -8.468542826323877115e-01 6.831789995625789924e-01 5.690097714408618584e-02 7.280307228110102225e-01
5.987722745588801299e-02 -5.827973517505739137e-02 -9.766321597804609178e-01 8.247354745638870721e-01 7.061555596104164556e-02 5.610925416116249176e-01
5.232164847681022163e-02 -1.854287200504378674e-01 -9.375284798648106932e-01 4.768381070369590025e-01 -4.756244218513182992e-03 8.789782692526270091e-01
6.076714213177830670e-02 -1.065958852187806477e-01 -9.699348015955523428e-01 7.506863255219138331e-01 1.305012261239014704e-01 6.476414676768047496e-01
-1.752562399141985652e-02 3.146069551294201211e-02 -8.715116264332705143e-01 7.183062795382263443e-01 -1.027954174208973483e-02 6.956510761851258939e-01
-5.090805549755603870e-02 -7.182320807297572218e-02 -8.396964816868999204e-01 7.607721461538767826e-01 -7.345582560174776163e-03 6.489774911761395648e-01
-4.254068003152185889e-02 -5.670709368002235101e-02 -8.489762989117216607e-01 7.613810529704801988e-01 -5.262777542497718702e-02 6.461650017072891883e-01
-6.069599747114452076e-02 -5.383995931825449194e-02 -8.268860902643601074e-01 7.742980865534385693e-01 -7.344422266619506090e-02 6.285446836276974425e-01
6.757806243586637895e-02 -2.219025541029489290e-01 -9.442457937349635344e-01 4.880049023523140295e-01 1.434603938864842665e-01 8.609705747968645628e-01
-1.675316628275836132e-03 -1.497083793620047065e-01 -8.885404541732879746e-01 7.744609508287846333e-01 1.595673886298183408e-01 6.121670393995705117e-01
2.874811874730359013e-02 -7.440246366438363346e-02 -9.302080209242377107e-01 8.128035957722332672e-01 5.311318454074484552e-02 5.801114585385026556e-01
-1.471177191743996450e-02 4.059757717318548953e-02 -8.740586331008074472e-01 6.798891892460177111e-01 -3.165427787037867341e-02 7.326313513895632568e-01
7.318104041286635324e-03 1.110821896761973876e-01 -9.157441256178768807e-01 7.666418240467127720e-01 1.117215711310456244e-01 6.322804790331110203e-01
-9.074872702776508315e-03 2.287806836794893661e-02 -8.801970861567612880e-01 6.848577820939757421e-01 -4.016715400300096411e-02 7.275688407598417395e-01
5.596613155980236648e-02 -1.354443645021553289e-01 -9.580864777375958097e-01 7.577154699562695939e-01 1.252959350891019175e-01 6.404437486923399980e-01
2.842060970861865973e-02 -1.792363496894911479e-01 -9.173283863548168382e-01 7.197586372906970009e-01 1.015545759289567390e-01 6.867562683757089115e-01
4.486778817361000704e-02 -9.483407515082885320e-02 -9.504966763026118093e-01 8.116956089832725318e-01 7.319373035526788307e-02 5.794764155631830782e-01
-3.271221873395957491e-02 -1.101801863061405012e-01 -8.583701077087556586e-01 7.830897024048264488e-01 9.298917390316782661e-02 6.149174997707634871e-01
6.564025937441787806e-02 -8.524897004774660558e-02 -9.806673642138641345e-01 7.864380977080500656e-01 1.475296049580389068e-01 5.997917423024999861e-01
-4.810346790124878785e-03 1.320811061900827033e-01 -9.047819615519033798e-01 7.851393300639044615e-01 1.543318951821996687e-01 5.997815423270992374e-01
3.487885801206951075e-02 -1.348783068502596438e-01 -9.285327471882962591e-01 8.572416885504063888e-01 1.747475362440182034e-01 4.843552270677931593e-01
-1.905947617708073083e-02 6.269144988913843974e-02 -8.694324349639317440e-01 6.448859110052214128e-01 -2.428299255088079561e-02 7.638929886179999240e-01
-5.483773602675747622e-02 1.113740678692913821e-01 -8.391545022906531370e-01 6.766031284348713593e-01 4.274281348110912232e-02 7.351062906055587653e-01
-4.322873855178530761e-02 -2.760978420610479128e-02 -8.454492226509822128e-01 7.689713917619021011e-01 -6.233875616800604869e-02 6.362364954411127149e-01
-3.689269988229963021e-02 -1.061035653665892559e-01 -8.539000076592416777e-01 7.649966724660516304e-01 9.922316383077908752e-02 6.363449181656744003e-01
3.651031607293734466e-02 -9.392384159864149151e-02 -9.389029032498126259e-01 8.094174162632858938e-01 7.568315495635960510e-02 5.823362484900955760e-01
-2.097249273964802915e-02 -3.016650497778232062e-02 -8.712206669737728726e-01 7.335140088552171145e-01 -5.651722442504875793e-02 6.773204575062212740e-01
-1.486058181832306847e-02 5.213770868048808044e-02 -8.733916703393039827e-01 6.760657745664793161e-01 -2.680097447235937208e-02 7.363537032073367294e-01
4.195623826680961593e-02 -1.201800779508222783e-01 -9.425252216843139630e-01 8.067065762047412880e-01 1.099707532256304493e-01 5.806297730421784431e-01
-1.386100486085607014e-03 4.954963075372027098e-02 -8.955982956469266121e-01 8.485039463988417463e-01 4.833075956213941232e-02 5.269774099766878495e-01
3.435435323117964207e-02 -5.265212729345816745e-02 -9.400107663428618476e-01 8.153425670058691566e-01 4.859780482737113133e-02 5.769356565460664887e-01
-2.568418642053537509e-02 1.358419325544020229e-01 -8.756786294142883120e-01 8.329350129453337859e-01 1.320227340242740577e-01 5.373911628511514049e-01
-6.365337605438501842e-03 -4.145330697322678615e-02 -8.876317126083419495e-01 7.153376860765481293e-01 -5.347744103739607291e-02 6.967296162635416845e-01
4.353467880502669141e-02 -5.329965375603386984e-02 -9.530185199799751095e-01 8.181411374492463251e-01 5.211993125457042159e-02 5.726504972313147812e-01
-7.606093816721535422e-03 -1.224399822123258402e-01 -8.868506017237448580e-01 7.612911421392785094e-01 1.026592837923863272e-01 6.402318863907883184e-01
4.991509027393112308e-02 -1.809781742571947294e-01 -9.361800619882221230e-01 5.381420391892063337e-01 2.846713735844897189e-02 8.423732947736995991e-01
-3.739770838030929967e-02 -5.596207715412025024e-02 -8.549759451274285826e-01 7.617397489939585764e-01 -5.154541304718993078e-02 6.458294087422897789e-01
-6.246735933027488391e-02 2.015584052055383879e-01 -8.524784017395344859e-01 6.706826583359425387e-01 4.786383965980022803e-01 5.666480893019290033e-01
-6.238201158470541019e-02 -2.941264210145972183e-02 -8.215662300071812085e-01 7.868682298696183519e-01 -7.600791999543708710e-02 6.124223909360440032e-01
1.090765793262559857e-03 1.887243569705120139e-02 -8.966817017224841813e-01 8.646072565028608548e-01 5.762305673518671595e-02 4.991331238608489040e-01
-3.264359056059200348e-02 -6.675873326591340307e-02 -8.609639463777027935e-01 7.526258156430810642e-01 -3.848270873233864547e-02 6.573229516426528640e-01
2.536937717730124511e-02 2.084742011996004035e-02 -9.338056179806327739e-01 8.083478013242874072e-01 3.374514039141735672e-02 5.877372691893495427e-01
-5.899269179348747005e-02 1.793409563294726394e-01 -8.423957205671371851e-01 5.268868418497751893e-01 1.934564300856286834e-01 8.276260420891153879e-01
6.655056390728178450e-02 -1.405850848818682719e-01 -9.686387792747777059e-01 7.042942458445580201e-01 1.706557672543767001e-01 6.890908680087591831e-01
-3.970098993795384557e-02 3.868700805231853335e-02 -8.483774246377348005e-01 7.330738214124713492e-01 3.254842883667731501e-02 6.793698345820042839e-01
3.746027082109863477e-03 -5.809487402070973028e-02 -8.989358865441253732e-01 6.832916352572867558e-01 -5.719124193954389784e-02 7.279022620055771720e-01
4.560217460646374954e-02 -1.274427187051013488e-01 -9.461998796229108555e-01 8.089218478147292002e-01 1.146297268458053714e-01 5.766328726765932444e-01
2.508164454536871476e-03 -1.248035747004757195e-01 -8.977175338640300817e-01 7.284445890339908969e-01 9.152436843017423829e-02 6.789637476998002796e-01
-2.369250842001366722e-02 -1.124525429628556450e-01 -8.691906294357343299e-01 7.638021329152454575e-01 1.073599083363857426e-01 6.364590731823411840e-01
-7.224277598900740067e-03 -1.235451577858604211e-01 -8.871274026383435540e-01 7.612911421392785094e-01 1.026592837923863272e-01 6.402318863907883184e-01
-4.109045645869854879e-02 7.458908837944706882e-02 -8.498776654744090164e-01 6.762539131937012060e-01 4.609665116540820340e-02 7.352249612476041696e-01
1.307816782060969296e-02 7.847752726543384683e-02 -9.183438577857898633e-01 7.857813693213570039e-01 5.575441770224837112e-02 6.159862697610527515e-01
-2.769927439973580638e-02 1.135832446293375542e-01 -8.656399597268155111e-01 8.737703995087443554e-01 1.461587440316509945e-01 4.638565624041766644e-01
1.542206044977517503e-02 -1.816622919483772136e-01 -9.019569802479899812e-01 7.652690934226545894e-01 1.531305804685037797e-01 6.252313491640095755e-01
1.809481465262856303e-02 -4.859330781225578572e-02 -9.172342739296585057e-01 8.301985558516740138e-01 4.625839005074647292e-02 5.555452449726376862e-01
5.615712675875923071e-02 -7.762281384722243861e-03 -9.723829208490957221e-01 8.123299687362968147e-01 -8.107996997478408158e-03 5.831417342958538086e-01
-1.753863441275396035e-02 -8.316368351755595856e-02 -8.782112745462002934e-01 7.324456504090854914e-01 -1.031154090976420593e-02 6.807474137452733665e-01
5.566633104900877566e-02 -1.915248401898010100e-01 -9.401962429347057171e-01 8.826522537034876548e-01 2.738413527452816520e-01 3.820155920362265922e-01
5.732307159119454792e-02 -1.258822601071730128e-02 -9.740742089456490005e-01 8.123299687362968147e-01 -8.107996997478408158e-03 5.831417342958538086e-01
1.022318651018961494e-02 -3.845413430869382143e-02 -9.061050222870953297e-01 8.445609280925949758e-01 4.420832468925613157e-02 5.336313922245803365e-01
1.538993996779423369e-02 -1.410396016205370529e-01 -9.091153523761467126e-01 7.098549629374011349e-01 8.152666803211069957e-02 6.996137034054745740e-01
6.503938357643636314e-02 -5.785538477730310658e-02 -9.842543758701003398e-01 8.208756794470175588e-01 7.365546957247326443e-02 5.663373470772131713e-01
-3.414475281386808447e-02 1.572071771492493941e-01 -8.686035759581892668e-01 8.347993248294418578e-01 1.647319158347894108e-01 5.253317838944338014e-01
4.915656693846275072e-02 -1.900399420284087648e-01 -9.350508606099793285e-01 6.222388827232143704e-01 6.032909170124621523e-02 7.804993103916676445e-01
-2.381361865610790232e-02 -4.462648715537584354e-02 -8.693600422413653162e-01 7.397295465224777988e-01 -5.681510859970757832e-02 6.705014850367245760e-01
3.208474482309315451e-02 -1.296051494985255015e-01 -9.254153730882205275e-01 8.542202698228349433e-01 1.743625797273551936e-01 4.898014101803145892e-01
2.512833190517315546e-02 -4.269577947235340259e-02 -9.278036489007897014e-01 8.181166988776443771e-01 4.510645765059191625e-02 5.732804501252081186e-01
6.327660612517625738e-02 -8.979475148855688149e-02 -9.765422019257367081e-01 7.930459351033604110e-01 1.285770033890861197e-01 5.954377373122397010e-01
-2.979487937578087497e-02 5.130533863662416899e-02 -8.592432605346793650e-01 7.051872475866095558e-01 3.593608843583764867e-02 7.081098385061133094e-01
1.496677932085941840e-02 1.217189460054613100e-02 -9.182777923199241243e-01 8.314313117508772555e-01 6.091991431969095983e-02 5.522777723931112659e-01
-3.881497968155279716e-03 6.927050393154433883e-02 -8.940278034958112352e-01 8.286537152355656355e-01 8.800156773398452870e-02 5.528008179287140500e-01
2.569563107170221884e-03 -1.273084374374339710e-02 -8.955662552344449967e-01 8.819160470547566799e-01 6.391414720803341443e-02 4.670536026346249758e-01
2.581687911476656522e-02 -1.924772065126358761e-02 -9.307044536108939337e-01 8.133214029663143885e-01 4.757314392506298978e-02 5.798664427728087434e-01
-5.043135875246419070e-02 9.425878932365171345e-04 -8.348512029381665034e-01 7.731076844604911624e-01 -7.930138090698425537e-04 6.342742934702905178e-01
3.942210340100667926e-02 -1.320620467201543136e-01 -9.363698046657162877e-01 8.277139268258666416e-01 1.330084141469289327e-01 5.451590750456449808e-01
4.120863418849151499e-02 -3.054391683879571426e-02 -9.512642259685792911e-01 8.157931761972809781e-01 3.639888350769976411e-02 5.771972062903155676e-01
-6.436873091089843901e-02 -6.172239296577539808e-03 -8.175390793596751804e-01 7.831295628709088463e-01 -7.001377133048465942e-04 6.218581812317030000e-01
-1.534284887488434994e-02 9.925815053010003663e-02 -8.830366031514844671e-01 8.410004325920027446e-01 1.307393376462986367e-01 5.250004742587109918e-01
-3.467056189468227523e-02 7.977588707288942038e-02 -8.559143305709605576e-01 6.638251564370669655e-01 2.552292600658196547e-02 7.474521669841931448e-01
3.478954530686724500e-02 -1.934627709997003009e-01 -9.218297800507067041e-01 7.091018179832083712e-01 9.283920647884938426e-02 6.989674480784398014e-01
2.347900093523436552e-02 6.414666766023839617e-02 -9.315353325529546202e-01 7.943833320496328509e-01 -1.599369976803610358e-02 6.072061621306660273e-01
6.402663696064599466e-03 -5.540719796789064788e-02 -9.012304614422089744e-01 6.868818836605039557e-01 -5.315826482450736190e-02 7.248223760203913457e-01
6.472009890651008596e-03 5.311327976858751243e-03 -9.041578790791831022e-01 8.485260630690378836e-01 6.393785456185467619e-02 5.252765662454269568e-01
5.738453091741688855e-02 -2.219264044585267659e-01 -9.380879898078791079e-01 5.943203441003551690e-01 2.359614378340608998e-01 7.688338757128994061e-01
-5.245325423103845697e-02 1.590307103650345222e-01 -8.444151587535145831e-01 6.644121211764367763e-01 6.449488139388984131e-02 7.445783662636299427e-01
7.198079821420107216e-02 -1.637042466613456981e-01 -9.678902006554703785e-01 6.275116375692202375e-01 1.783115532352133326e-01 7.579143320310294252e-01
-5.353982335979366736e-02 5.375508939565915023e-02 -8.352331691132814928e-01 7.283834021385601210e-01 9.267608420836775940e-02 6.788731567125484423e-01
-5.068857988944972665e-02 -5.196726272745302161e-02 -8.389091787601301586e-01 7.669598790808764832e-01 -4.929920232897892773e-02 6.397985093214691998e-01
2.963639391150561450e-02 -1.969666242331447603e-01 -9.156093310735822222e-01 7.487091563169228081e-01 1.140189255534641150e-01 6.530193594854866168e-01
-2.219046445700102038e-02 1.257180508204905518e-02 -8.670506333951637501e-01 7.340247063997424881e-01 -2.637078593459673409e-02 6.786105746626438506e-01
4.947067977645463327e-02 -9.129196918599815150e-03 -9.633315637880257576e-01 8.096733864313078177e-01 9.367373376546309777e-03 5.868059812415706844e-01
-5.640830654814106560e-02 6.702201082389350195e-02 -8.340107570454495800e-01 7.367240610957263014e-01 8.671714710989344987e-02 6.706100164773425298e-01
-2.576596160919861558e-02 1.131168430467114766e-01 -8.690858863328919659e-01 8.633606281772294722e-01 1.391220533069544851e-01 4.850293599330630645e-01
9.230626701359936730e-04 8.753766679519228711e-02 -9.037859671649903781e-01 7.950542068913922789e-01 9.356124957977185463e-02 5.992788171472198666e-01
5.501190858396981520e-02 -1.357962504984769891e-01 -9.568886841810246846e-01 7.577154699562695939e-01 1.252959350891019175e-01 6.404437486923399980e-01
1.014239071362274189e-02 9.071091524191075839e-03 -9.105128461392899553e-01 8.383264271744959029e-01 5.609244745452739850e-02 5.422752426945247617e-01
-3.367087230867754633e-02 6.284446400760518303e-02 -8.560450038018766472e-01 6.900150176038029048e-01 4.503891682999257989e-02 7.223923943758023825e-01
7.330668786623306026e-04 -1.789495982096930005e-01 -8.833511063873097369e-01 7.905822851053563305e-01 1.541965287016378305e-01 5.926238950750789547e-01
4.588138156030387160e-02 -1.157197463509719998e-01 -9.487848279159120102e-01 7.995265938006496098e-01 1.099633459112735329e-01 5.904788636026937487e-01
-4.535442709156227437e-02 1.565513968294551250e-01 -8.497170465554657603e-01 3.856427445595777548e-01 -4.361031102188937802e-02 9.216169564092939748e-01
2.652227133849109977e-02 3.357957604802674478e-03 -9.338779002803367923e-01 8.010399931321381395e-01 5.350141812576049427e-02 5.962151689293024859e-01
2.646779304625853854e-02 5.100725702221491770e-02 -9.358490316117874519e-01 7.957434235032447845e-01 -2.023136905240231070e-02 6.052958744759469045e-01
3.080065311103316605e-02 -1.966567158211114108e-01 -9.170304422516502019e-01 7.545735299402577256e-01 1.434814995916015856e-01 6.403372917365068862e-01
1.256091645124357906e-02 -6.983016869381450387e-02 -9.077881604656561354e-01 6.531534400284807473e-01 -5.687678398805499219e-02 7.550864951925296831e-01
-3.197495598840961045e-02 9.499941054796175177e-02 -8.585149604894396491e-01 6.278720039185236024e-01 4.724047718469298477e-04 7.783164674662031990e-01
-1.721586283044742455e-02 6.800662183199557287e-02 -8.723116432334856452e-01 8.809139703285023826e-01 1.150483144409615022e-01 4.590800172348696861e-01
4.837254253795801595e-02 -1.467762817628081584e-01 -9.455667957800822920e-01 7.987085290962461226e-01 1.533781652639991389e-01 5.818417516551733781e-01
-9.715147527709021812e-04 -1.660647824549322804e-01 -8.848615291715185016e-01 7.866341419245325151e-01 1.689275739766161466e-01 5.938604225817961657e-01
5.251803598291217290e-02 -2.240730869507041589e-01 -9.332388044064610089e-01 6.385607790065661593e-01 3.360492769365299170e-01 6.923229123645719962e-01
-1.648852633544619153e-02 -7.271079629165259905e-02 -8.791605736725577325e-01 7.370835604589740520e-01 -2.943102848859872542e-02 6.751604546055890443e-01
3.624245472892522607e-02 2.277603429277977667e-02 -9.481272828024753796e-01 7.820803497314836594e-01 3.626538760217559720e-02 6.221214899245517405e-01
-2.423054325354884880e-02 -1.858967538962164046e-02 -8.666128279910852994e-01 7.391972260676210604e-01 -5.774684806115919916e-02 6.710087648555241868e-01
8.974698576631155722e-03 1.072543574014035994e-01 -9.170699478489454659e-01 7.585597615960160134e-01 1.124372865549466000e-01 6.418293734938874673e-01
4.049464777158009315e-02 2.503446782080331542e-02 -9.536067285146145878e-01 7.829179022415071465e-01 3.568143609439856229e-02 6.211009527186375223e-01
2.536827462832026356e-02 -1.172966554005556161e-01 -9.200504848919497380e-01 6.337393677238942757e-01 9.843970564867691314e-03 7.734840076177637025e-01
-1.916124047643909603e-02 9.326913535140425593e-02 -8.751975783186431990e-01 8.482673697628398957e-01 1.249372654215237521e-01 5.146194216162320867e-01
8.860540996055193269e-03 -4.644302586875642680e-02 -9.029872651408999973e-01 8.781765437089410486e-01 6.917215961131861768e-02 4.733087474515174087e-01
4.760595088468425745e-02 1.465075653275053772e-03 -9.613298632222954110e-01 7.886326491643739223e-01 2.508551813879065367e-02 6.143527174609794139e-01
-6.535718808535193047e-02 9.784406214228841270e-02 -8.279326591107237787e-01 7.133959837184691288e-01 6.820209824072669125e-02 6.974343296755043387e-01
2.349729751867441971e-02 3.442762392756637535e-02 -9.319671407634857463e-01 8.153167718135332365e-01 1.129236854788510068e-02 5.789050388553703685e-01
3.544903128800790115e-02 -1.499319826491215257e-01 -9.270721826261133502e-01 6.464096680095986480e-01 5.133238662197925350e-02 7.612617993748355127e-01
-2.206814077617029121e-02 -6.908595836325981399e-02 -8.729112076773898332e-01 7.370835604589740520e-01 -2.943102848859872542e-02 6.751604546055890443e-01
9.644873443583357533e-03 -1.118097220691965515e-01 -9.057519148298232015e-01 6.929407595749050852e-01 3.189936650864697021e-02 7.202885075690856898e-01
-3.450986557293364565e-02 -1.288302456899627080e-01 -8.519496438918385817e-01 7.792521870712517673e-01 1.674597341086615510e-01 6.039232288933149562e-01
1.886793632562079603e-02 7.451162860246517139e-02 -9.255500730262044007e-01 7.891943674432344569e-01 6.349800681183504630e-03 6.141106825541973180e-01
-8.466196383650977098e-02 2.184381192511217207e-01 -8.436321488601229435e-01 3.027166963173121839e-01 3.962166415647609963e-01 8.668188823034914670e-01
1.103090820449099951e-02 -1.150332503228988779e-01 -9.069553115239133989e-01 6.974364906436875122e-01 3.103836120822415362e-02 7.159741347647452514e-01
3.100161721973205761e-02 -1.999683074971233543e-01 -9.166350598782407877e-01 7.444129094943838787e-01 1.263759751408781162e-01 6.556512282344162390e-01
-4.861103885311818251e-02 8.427057540604551700e-02 -8.435916765344046997e-01 6.889661920223476566e-01 3.848328708528797604e-02 7.237711122069855341e-01
-7.882518003786204153e-02 2.099347015996284871e-01 -8.418117283400952111e-01 3.642022491607577184e-01 4.088847305296263168e-01 8.367616141087975690e-01
-5.757488823384607213e-02 7.101188363989409391e-02 -8.332450983219863438e-01 7.367240610957263014e-01 8.671714710989344987e-02 6.706100164773425298e-01
-6.577977032000660584e-02 -5.956326621349216505e-03 -8.157565647648012952e-01 7.861714163773156905e-01 -3.543270181856602100e-03 6.179983408616109841e-01
-6.273829257235861989e-02 4.588610775888078697e-02 -8.237515489863995732e-01 7.527267157670971542e-01 1.001242976783856126e-01 6.506747393167263693e-01
-2.273516753807570956e-02 -5.987398107730620284e-02 -8.716800995167094390e-01 7.379317225818112780e-01 -4.730897455866076018e-02 6.732151466906021176e-01
-3.537841987240650937e-02 -1.231092925103585284e-01 -8.524152766865326081e-01 7.792521870712517673e-01 1.674597341086615510e-01 6.039232288933149562e-01
-5.493072312560414588e-02 7.498077234404944280e-02 -8.365075661085916714e-01 7.050097289900757458e-01 8.577000309959413593e-02 7.039920373112438234e-01
-1.731742068096054840e-02 -2.808155278222141185e-02 -8.750050068956879423e-01 7.335140088552171145e-01 -5.651722442504875793e-02 6.773204575062212740e-01
-5.472989337695827183e-02 8.411028573927376017e-02 -8.376493823059520949e-01 7.123396958871839324e-01 6.326541620624988316e-02 6.989775710104039197e-01
1.585579180823105602e-02 8.170611453579126882e-02 -9.221420425235528073e-01 7.785657378007991847e-01 4.768698951522751250e-02 6.257486260102148590e-01
6.675501393452297483e-02 -1.462977801782092413e-01 -9.674257266042740611e-01 7.183713325726652776e-01 1.717023178389303906e-01 6.741371838034985187e-01
-3.439917925483064118e-03 -1.395721328326585131e-01 -8.887184562073056071e-01 7.581684849724199537e-01 1.293520434400762531e-01 6.390998335569351152e-01
1.709589120532476608e-02 -8.397247308282094341e-03 -9.192046290378943496e-01 8.269700603474080536e-01 5.221787083588073919e-02 5.598158744215562255e-01
5.616707032162135405e-02 -8.491255006949126674e-04 -9.723645456355010097e-01 7.976215286149019867e-01 3.066939309305415345e-03 6.031504712534844215e-01
-4.186755411426085205e-02 1.604081903126842179e-01 -8.572921715075888516e-01 8.299850994911658342e-01 1.696101944154657371e-01 5.313728602149222491e-01
6.125581010615971378e-02 -3.425932518735815002e-02 -9.799673983101729879e-01 8.244956791165380938e-01 -2.612538623177969917e-03 5.658622180001958712e-01
-2.160467044730700597e-03 6.092071165944206584e-02 -8.955026893740815064e-01 8.339052005729459260e-01 5.486815025011557156e-02 5.491735632252571220e-01
5.989007152726248673e-02 -2.535044704830564932e-02 -9.779245696782731256e-01 8.263761463246481753e-01 -1.170351325865854122e-02 5.629968850384768908e-01
-1.050427464920013730e-02 4.152507285754460792e-02 -8.792859020127825609e-01 8.823678703190929173e-01 8.905105059309714743e-02 4.620571953955637801e-01
7.702029755205866413e-02 -2.174276196277106499e-01 -9.592501467687239991e-01 6.318127330696609034e-01 3.986004967051013370e-01 6.647783949238214030e-01
6.416861816301240584e-02 -9.184262588147651396e-02 -9.772861683014770762e-01 7.745151471700463253e-01 1.261518139878005651e-01 6.198483739042548457e-01
3.691822678859234264e-02 -6.651524343112875937e-02 -9.424212382773540231e-01 8.160003217491823557e-01 5.381784195809231897e-02 5.755407151472472504e-01
-2.973992294019441734e-02 2.929439225452261722e-02 -8.587279210081676384e-01 7.327580480424857878e-01 4.688000881424088558e-03 6.804731189964098315e-01
3.833878390299997468e-02 -5.959185926244765091e-02 -9.450451615193770083e-01 8.148328603565195838e-01 5.056437479453376044e-02 5.774864965389673310e-01
2.247919669196374662e-03 7.279306234245641605e-02 -9.033824535920177423e-01 8.152961642542988496e-01 8.092545696957786916e-02 5.733613476390719832e-01
7.185822859250315386e-02 -1.910943287002218882e-01 -9.626555653414683444e-01 6.577634376538735728e-01 1.192674950622907848e-01 7.437220749092534611e-01
-2.381454321412915243e-02 -1.327277058286445710e-01 -8.646939443945760306e-01 7.814927393235732156e-01 1.686289583794237101e-01 6.006940758659172763e-01
-3.318591076879837121e-02 1.272456821398021964e-01 -8.599875806641043008e-01 8.833645313631606211e-01 1.890551586491114600e-01 4.288650740241069514e-01
-5.171457060338900680e-02 4.597698127904468329e-02 -8.361297124566993144e-01 7.283834021385601210e-01 9.267608420836775940e-02 6.788731567125484423e-01
2.934584405289804993e-02 -8.722966946211933859e-02 -9.297080510830693090e-01 8.125089198683171920e-01 6.689861777193455150e-02 5.790974271006783525e-01
5.763405509339786931e-02 -1.631483946626676729e-01 -9.536741965616871708e-01 7.656464637113791216e-01 1.530317747218951363e-01 6.247933806721445160e-01
-1.798340588413255671e-03 7.307228739362316150e-02 -8.976786227982959110e-01 8.141433800447313018e-01 7.446604860878996979e-02 5.758692250276390423e-01
-4.641418725990054985e-03 -7.248189896673333521e-02 -8.914642408679903651e-01 7.070246202072776320e-01 -3.437422263826038493e-02 7.063530273445214336e-01
-6.329217338048762076e-02 7.357259723088664660e-02 -8.274342763376395515e-01 7.390801937298711044e-01 9.633273730862079720e-02 6.666936860049331726e-01
2.105479800776293570e-02 -1.409593102545511067e-01 -9.147177416631339097e-01 6.913703817092291537e-01 6.664626241726546996e-02 7.194200935482994996e-01
5.979355407594866972e-02 -1.443844293490248627e-02 -9.775560623031828156e-01 8.263761463246481753e-01 -1.170351325865854122e-02 5.629968850384768908e-01
1.067342357785555987e-02 -8.580485126030228116e-02 -9.069218333514595942e-01 6.892492445596406503e-01 -2.290054633996846389e-02 7.241623049091246989e-01
-2.527013382031032679e-02 9.600173989072943725e-02 -8.644542006690163483e-01 8.995183950963601127e-01 1.526483234636731301e-01 4.093472196399999818e-01
-5.912189679229572919e-02 6.324903073439476497e-02 -8.305049619447185671e-01 7.308604522119503955e-01 1.043829753195407717e-01 6.744977345076730302e-01
5.824838293089720787e-02 -3.105964594346169103e-02 -9.755706212896808616e-01 8.244956791165380938e-01 -2.612538623177969917e-03 5.658622180001958712e-01
2.218688043256649561e-02 8.590705336073146958e-02 -9.303174168939551958e-01 7.748954396442765402e-01 4.375008914122308773e-02 6.305735383907562497e-01
-5.515332926320069135e-02 3.125867789950304704e-02 -8.305280893840224499e-01 7.590096714688894242e-01 5.330350684923780558e-02 6.488937160847388919e-01
1.983293892271206088e-02 -9.825668789552126359e-02 -9.153506152603855250e-01 6.431294816838467598e-01 -2.533513313393002606e-02 7.653382264189820816e-01
4.908189182925330740e-02 -1.418470525815687389e-01 -9.477582077239233849e-01 8.048443227083064144e-01 1.351821118205518979e-01 5.778852938498637570e-01
-4.454894805074550990e-02 -5.202000167478611908e-02 -8.462281951922699941e-01 7.613810529704801988e-01 -5.262777542497718702e-02 6.461650017072891883e-01
5.199880214481399261e-03 3.421554585775880841e-02 -9.048483598337672129e-01 8.451375660785080957e-01 3.766453906158507420e-02 5.332202892803064032e-01
3.699047111374851454e-02 -7.014306767647639218e-02 -9.421844343888905460e-01 8.160003217491823557e-01 5.381784195809231897e-02 5.755407151472472504e-01
-5.153330080158587817e-02 2.303871982230252385e-02 -8.341139318771920719e-01 7.610111359447178092e-01 5.159828073170231316e-02 6.466835921790987651e-01
4.063668836644224874e-02 -1.579343859065301947e-01 -9.307031648181227634e-01 6.083210256350952694e-01 4.738429797838223517e-02 7.922753675808442697e-01
-5.688468073242894385e-02 1.813647216209459401e-01 -8.441273345912447823e-01 4.678626731478622847e-01 7.641278343865803846e-02 8.804916840050753812e-01
-3.013435062650815510e-02 -7.768405503952428848e-02 -8.640363241280838436e-01 7.467168860901345351e-01 -1.291644239716945725e-02 6.650165844124896752e-01
1.488629273160971917e-03 -5.320504550074085445e-03 -8.945346020990653235e-01 8.730541412422134773e-01 5.777976680823281030e-02 4.841879438889485909e-01
-5.986939809880630070e-02 6.925145834742474360e-02 -8.305101555895230137e-01 7.240947533389057167e-01 9.710668563684994592e-02 6.828301983595154168e-01
-7.520922290081337620e-03 9.082378458415575617e-02 -8.928410306702679877e-01 8.171341811425599788e-01 1.204873434763395479e-01 5.637149368878676681e-01
-4.511237473893680433e-02 9.180387286570628261e-03 -8.412491425842705262e-01 7.637119882015372951e-01 1.006968220432188005e-04 6.455571151628684001e-01
8.535346368173376413e-03 8.343737152635492815e-02 -9.130044556527602273e-01 7.776846294630125334e-01 8.637085020696810833e-02 6.226930972248708729e-01
-6.383421397215210957e-02 1.830149472084339479e-01 -8.401439347938969293e-01 5.263886849524833655e-01 2.035678148681454025e-01 8.255150495925581700e-01
-1.497736453349967148e-02 -5.903286195525343782e-02 -8.799809543113406018e-01 7.237385619772878087e-01 -4.139150898793397121e-02 6.888317914344178616e-01
6.200732057093143179e-03 9.014703061339530976e-02 -9.109982037719023262e-01 7.807528701539854232e-01 8.510577498916252481e-02 6.190169325711600834e-01
6.100327072847824134e-02 -8.882274441666465625e-02 -9.737243058910063365e-01 7.930459351033604110e-01 1.285770033890861197e-01 5.954377373122397010e-01
-4.711667207447660377e-02 6.875521475308950248e-02 -8.436873357963980968e-01 6.923919981168252802e-01 6.670754900526432163e-02 7.184312241610192329e-01
-6.378798284793996132e-02 2.899153893625381131e-02 -8.201635208070542360e-01 7.578011462070782800e-01 8.429723825387194780e-02 6.470173092197829545e-01
1.116234136714426041e-02 -1.750553278159420190e-01 -8.982574083991193836e-01 7.750613695307262407e-01 1.523463581512523590e-01 6.132458402787627216e-01
1.807701808372808245e-03 3.398047114618528430e-02 -8.993575590927269658e-01 8.556289025815537741e-01 4.668137720761583731e-02 5.154803876861723255e-01
5.987970875651341812e-02 -9.553644347401801795e-02 -9.708651376476552519e-01 7.824122736714642645e-01 1.081558551641834121e-01 6.132971098920604325e-01
5.727557077291323823e-02 -2.008806219620807576e-01 -9.401342536547216966e-01 4.576735946526757082e-01 -5.420592411608094949e-03 8.891037610625690535e-01
2.955816647047266807e-02 -4.313446474676331521e-02 -9.340224698958086158e-01 8.130601407897217747e-01 4.565397742072808962e-02 5.803868725295786568e-01
6.341164886434696307e-03 1.024836871710412822e-01 -9.131056198876189578e-01 7.692444730697262090e-01 9.857294220934241513e-02 6.313052476543125069e-01
7.107998553275809983e-02 -1.637378011207321071e-01 -9.671364827687591870e-01 6.275116375692202375e-01 1.783115532352133326e-01 7.579143320310294252e-01
2.375094815901675899e-02 -1.725006282386829792e-01 -9.134190427328529038e-01 7.206380513220703721e-01 9.900330251928715630e-02 6.862063429297370343e-01
3.420551974159567049e-02 1.625601308476925383e-02 -9.450722073772385157e-01 7.904134875437479613e-01 4.171989937865500098e-02 6.111513468076171796e-01
4.695183122936594927e-02 -1.697388906373368256e-01 -9.351174875511879536e-01 8.980159477045464023e-01 2.681365456455103713e-01 3.488124862409580085e-01
6.650297419309045277e-02 -2.111611269213886366e-01 -9.496364811031914321e-01 8.322422604420905978e-01 3.075395334166441397e-01 4.612941093490271482e-01
