-1.385576334282248231e-02 -1.635934636281345111e-01 -9.367028083499975288e-01 7.735645418866565759e-01 1.539151706378744655e-01 6.147422384895974146e-01
-6.576945692204830274e-02 6.544058074468137032e-02 -8.806896429333817000e-01 7.266971624155059706e-01 6.444479517755891118e-02 6.839284337646551748e-01
2.518853469443729093e-02 2.110766249833003925e-04 -9.862688315456623611e-01 8.005089635922350011e-01 2.626139780035266838e-02 5.987451362592079995e-01
5.207080263536606468e-02 -1.136934928641678277e-01 -1.017307244236602903e+00 7.759808529864264948e-01 6.876858142000059904e-02 6.269964896296779111e-01
-2.076455677082158363e-02 -1.218694386511729247e-02 -9.288715709551498279e-01 7.221210956064658681e-01 -8.949920780262417275e-02 6.859526332647322144e-01
-3.355490359999282156e-03 5.223967531330953040e-02 -9.462005984518779833e-01 8.294271464920830450e-01 2.870519264764109443e-02 5.578768865771931429e-01
1.575740955256963935e-02 -1.733282189815979202e-01 -9.707660459887719195e-01 7.382026143797217888e-01 9.255698831493826273e-02 6.681991499822581559e-01
-2.434308073556337368e-02 9.377620934043459644e-02 -9.179304575872635485e-01 9.074407968306007488e-01 1.376896544099424635e-01 3.969795452109782241e-01
1.665837200020870920e-02 -2.338160949969673649e-02 -9.739880807486148706e-01 8.123734696997665372e-01 1.627409465354213297e-02 5.829103701009018534e-01
-4.911267189449106119e-02 1.507044185333509256e-01 -8.976422205499804408e-01 6.239688748836086374e-01 1.907643696855230650e-02 7.812163162204617262e-01
-9.985282114038179779e-03 1.918297363815040305e-02 -9.360393353304600206e-01 6.869106358189498440e-01 -7.959432294644885886e-02 7.223700728528987813e-01
-7.634705359904480661e-03 -1.453436481242611870e-02 -9.424139119219263616e-01 6.988407977920898517e-01 -9.350969660275032513e-02 7.091385449843893296e-01
-6.389766099556322410e-02 -5.218308805438916925e-02 -8.867280947921333256e-01 7.604893249329969240e-01 -1.174647779581549922e-01 6.386376222884116993e-01
5.813694091247413598e-03 -1.638404647153846316e-01 -9.609877062393323843e-01 7.571147953455297230e-01 1.186478890829497784e-01 6.424172048482643671e-01
4.267496949406287545e-05 -7.101316793572011454e-02 -9.571285254319633617e-01 6.865024000421514616e-01 -7.508373010198875208e-02 7.232405465751610141e-01
-3.651108100929343486e-02 5.149859171348174919e-02 -9.086295174786568341e-01 6.829894509871685671e-01 6.845929934136444142e-03 7.303961548937555337e-01
-1.374537550153358614e-02 -5.866387842748438386e-02 -9.423792969691510146e-01 7.028940971313309971e-01 -8.300082633410453548e-02 7.064352419336019651e-01
6.077219818831951052e-03 -1.868239909568150392e-01 -9.569067787569786043e-01 7.754264644037880405e-01 1.150142668017364034e-01 6.208747995645336193e-01
6.847063148827717965e-03 5.384718629392153816e-02 -9.610139935138651834e-01 8.115319598197276996e-01 -1.287934733961564743e-02 5.841660727937367792e-01
-3.891815411273139014e-02 4.381578937931102091e-02 -9.063066664443062415e-01 6.829894509871685671e-01 6.845929934136444142e-03 7.303961548937555337e-01
3.197344359363732402e-02 -1.279602749650622096e-01 -9.884736176001027719e-01 8.452536914315783578e-01 1.399529995201500288e-01 5.157124732315506721e-01
-4.367090494928040079e-03 -4.163379716575055928e-02 -9.492930958599377078e-01 6.884316374859116294e-01 -9.836536325879115250e-02 7.186001223346907274e-01
3.669309001555185606e-02 -2.859826149968034206e-02 -1.000744647340650717e+00 7.937238734240258387e-01 -4.685471183383465611e-03 6.082601903104877250e-01
5.700254408776030818e-02 -1.623418702762799426e-01 -1.015828201917331475e+00 7.493463276493143033e-01 1.134152280341365754e-01 6.523933378633258728e-01
4.774681955785214926e-02 -1.787954832339729017e-01 -9.992948595884492136e-01 5.443533439317127520e-01 -5.019364757446392183e-03 8.388410117106781527e-01
-5.502772727942241426e-02 -4.996956372750942926e-02 -8.967472443904207502e-01 7.509812354645188925e-01 -1.077332891189780317e-01 6.514758033847394270e-01
-6.032499438044375273e-02 1.978211333759567481e-01 -9.001381105061103671e-01 6.833216694349668607e-01 4.970622978280367921e-01 5.347902094826738617e-01
4.465730038410672953e-02 -1.213977392874571182e-01 -1.007012787132377518e+00 7.910591126612823709e-01 7.173882161477126984e-02 6.075187418910372728e-01
-2.747610299442707765e-02 1.186257632401068324e-01 -9.184562902633017778e-01 8.596736766873003255e-01 1.249512390865711864e-01 4.953265160090558616e-01
-2.691029188842474634e-02 1.564182258410145021e-01 -9.277003669704989575e-01 8.191951688886692784e-01 1.244329697293637960e-01 5.598532944564995617e-01
-5.773315270183340675e-02 1.869597740458552038e-02 -8.861020499328562394e-01 7.406235373218509332e-01 1.282704998587952047e-02 6.717977692382793853e-01
3.473818456974752354e-03 -3.842947155342149590e-02 -9.560985968464726925e-01 6.433697988469654350e-01 -1.143467799142303121e-01 7.569677112366561822e-01
5.229629960443718528e-02 -9.715797041007608525e-04 -1.020104833845927539e+00 7.788628120063019189e-01 -1.992193017190911630e-02 6.268778483659011025e-01
-6.338297115976232465e-02 1.937227695005699080e-01 -8.919642730829419053e-01 3.549907136110713735e-01 1.329039279060132139e-01 9.253745939872433102e-01
1.363126824573731612e-02 7.523484373461834795e-02 -9.696680645035493651e-01 7.683660707331660955e-01 1.632981366405237417e-02 6.398022495519788411e-01
3.638719610663210952e-02 -1.307738035936830412e-01 -9.944737858014313092e-01 8.008515901852880647e-01 9.643020907661095653e-02 5.910481750882381480e-01
-6.531180364496870505e-02 1.915784286624489519e-01 -8.908212413786753547e-01 4.183679780857683661e-01 1.581436365391568899e-01 8.944041732542380441e-01
-3.932935900142857377e-02 4.992068260831693249e-02 -9.059793715533467351e-01 6.829894509871685671e-01 6.845929934136444142e-03 7.303961548937555337e-01
8.687019480963977663e-03 -9.948125639410308751e-02 -9.673306456871019199e-01 6.612310528335362259e-01 -4.458653853571915154e-02 7.488561513068153763e-01
-6.645579387776701097e-02 1.143200385078455179e-02 -8.760650805262917284e-01 7.609721413864896089e-01 -1.160095384279644093e-02 6.486808289934254956e-01
-1.380466924365713298e-02 -6.111197158854038414e-02 -9.426079329776447802e-01 7.028940971313309971e-01 -8.300082633410453548e-02 7.064352419336019651e-01
1.462912074333829089e-02 -9.840180575701606633e-03 -9.714970677362902984e-01 8.198977278649504097e-01 2.103586109025576759e-02 5.721234205921682525e-01
5.796932534865206071e-02 -1.361922801315218201e-01 -1.021251966628185182e+00 7.405799089595710427e-01 8.513528532573765017e-02 6.665533599329754866e-01
-7.288015643804537924e-02 5.280445788392178208e-02 -8.718060661844607706e-01 7.349587167079268957e-01 7.300289639612560222e-02 6.741707957578806365e-01
-1.650039547056249278e-02 8.485479108515966984e-02 -9.298705751312329459e-01 8.467477957895522822e-01 9.588962777886771149e-02 5.232813293152783762e-01
1.243078288586833835e-02 -1.930251244412818923e-01 -9.636339973597425335e-01 7.635010998928761783e-01 1.068239810126503792e-01 6.369102821771501777e-01
3.541457858853650636e-02 -1.424437571668190627e-01 -9.905155768974419628e-01 5.575863869504246173e-01 -2.701565101988461642e-02 8.296792004669896192e-01
-6.364445858040504445e-02 5.272379831181098556e-03 -8.794642111102322080e-01 7.565643651465721042e-01 -1.271269636345891130e-02 6.537956475394546274e-01
-1.381333280206960799e-02 1.041126750810292545e-01 -9.372987342535422650e-01 8.326122024047144521e-01 1.017781959545208254e-01 5.444245762592042626e-01
-4.201127064624266688e-02 1.614501886931550556e-01 -9.065834250314729337e-01 8.256560374043357964e-01 1.487332477644787709e-01 5.442155169665785497e-01
9.941858253385020897e-03 -1.031610013192339886e-01 -9.686577436214596215e-01 6.612310528335362259e-01 -4.458653853571915154e-02 7.488561513068153763e-01
1.036358925690909240e-02 -7.692951576610691788e-02 -9.670576411536475625e-01 6.514972082232309836e-01 -7.453825378437260729e-02 7.549804212031676620e-01
-9.223514839764138107e-02 2.252880803958055012e-01 -8.930269925056668612e-01 4.431724322801463001e-01 4.535276345682811572e-01 7.732469721568903109e-01
5.943839640499490318e-02 -1.742758284028227689e-01 -1.016470838761492912e+00 7.467612977667762442e-01 1.199036205840694341e-01 6.541946850353582699e-01
-2.286591129450160631e-02 -1.310265235353445801e-01 -9.330179660329700475e-01 7.623916850041607685e-01 1.087544768808594992e-01 6.379117355832915059e-01
6.073639671943363572e-02 -3.133808669598627666e-02 -1.033026842001617318e+00 8.155085221121939343e-01 -2.067444306572606069e-02 5.783756718312996759e-01
-3.107501346731678799e-02 -1.384550795148854485e-01 -9.214818562928325241e-01 7.675002195074871469e-01 1.498831944440605080e-01 6.232803872088412689e-01
2.270448398725126785e-02 9.846310878127319602e-03 -9.833412917307154943e-01 8.020178824418018326e-01 2.057929141634255721e-02 5.969453986826344094e-01
-2.973959063115754961e-02 -1.032849278960897149e-01 -9.282117662578120987e-01 7.542779356370219457e-01 4.237993004106812428e-02 6.551860326204054230e-01
7.268320005611973722e-02 -1.549464841087181965e-01 -1.031755314836666271e+00 6.109797821728248923e-01 1.273428428990016070e-01 7.813369990845484558e-01
-3.874558466315828481e-02 1.509838968335921183e-01 -9.086743525760836437e-01 8.356970735933717531e-01 1.558144546900632754e-01 5.266234488675120007e-01
-1.670384128542631505e-02 -1.013444287459122767e-01 -9.427227640446346202e-01 7.340728349894372062e-01 -8.782964617819390141e-03 6.790139412877271852e-01
4.560814982678693813e-02 -1.619936996278980856e-01 -1.000273037868985693e+00 8.340972642699866491e-01 1.738949843114589999e-01 5.234904852704025391e-01
1.651168350507687885e-02 -9.765384664725454411e-02 -9.740657125308495035e-01 6.463805235249249215e-01 -5.433452743161903964e-02 7.610781680855301934e-01
-4.043983003495808110e-02 -9.036465242204427123e-03 -9.072685829220905607e-01 7.508563098057675633e-01 -8.957661812598019524e-02 6.543629203354797141e-01
-6.811530716844964306e-02 7.118442075047926032e-02 -8.786963089490810175e-01 7.309178763971616588e-01 4.792147758404743940e-02 6.807808677902345007e-01
4.921839230889039213e-02 -1.466872409577727465e-01 -1.009002939217742201e+00 7.836366641783363285e-01 1.151663570876566706e-01 6.104508897123567257e-01
5.535218424544277593e-02 -1.746826337198362222e-01 -1.011065304555182731e+00 8.194808533553069596e-01 1.553913812431073904e-01 5.516381509825234453e-01
-1.960609688349979410e-02 2.954792941397678396e-02 -9.258095192554522956e-01 6.977023619055021664e-01 -5.214352613606551556e-02 7.144875554364685799e-01
-2.465682038392712910e-02 -3.828385924187337891e-03 -9.237505578767484238e-01 7.243026498812946690e-01 -7.920987869143494842e-02 6.849171238132559791e-01
8.531259582726389082e-03 -1.338972251739710961e-01 -9.671499257931851501e-01 6.932439920521642485e-01 2.518284503389434797e-02 7.202628629879356259e-01
-6.057325944729732847e-02 1.951809122380495365e-01 -8.968755999158936065e-01 7.838458649722774840e-01 4.989926154185638230e-01 3.695835896297393064e-01
5.301387820380501492e-02 -1.091327919068778123e-02 -1.021491115557078277e+00 7.924404062133959536e-01 -2.907318801394826943e-02 6.092560646715414752e-01
6.029289093107451786e-02 -4.691002543969132604e-02 -1.032717549602658158e+00 8.172347559660484428e-01 6.007852659513776214e-04 5.763046006220823303e-01
7.094686501389498023e-02 -1.797301013116705815e-01 -1.026832468193140224e+00 6.329088221556172789e-01 9.029002619527129458e-02 7.689435180865019648e-01
1.018891943621798302e-02 -2.019014023855207271e-02 -9.648066622564739347e-01 8.329331613045248828e-01 8.901376705083011848e-03 5.533020100198484670e-01
-1.325344772767999386e-04 -8.998032254804919083e-02 -9.586594036377543704e-01 6.816793633740817482e-01 -5.724581414161458021e-02 7.294080903809406768e-01
1.942324486623636659e-02 3.970289005684167656e-03 -9.787256487456252874e-01 8.005089635922350011e-01 2.626139780035266838e-02 5.987451362592079995e-01
3.779324327964429103e-02 -1.200920864737629878e-01 -9.980938758212413164e-01 7.946715009567990595e-01 8.445422870666143000e-02 6.011361649581823396e-01
-1.857642685311821501e-02 9.717134614081111843e-02 -9.287782762581838769e-01 8.391692513079354043e-01 1.066142045497151525e-01 5.333182718110367482e-01
1.694180013356873238e-02 5.992984459461958568e-02 -9.744356993437676140e-01 7.962715985036907806e-01 -3.442720578120173763e-02 6.039588635979076248e-01
-1.678863465723971077e-02 -1.557563596681181550e-01 -9.349744155458076245e-01 7.735645418866565759e-01 1.539151706378744655e-01 6.147422384895974146e-01
-1.763112779001945948e-02 -1.240430616743643105e-01 -9.401649704775558725e-01 7.503534762011956349e-01 9.462207817019192835e-02 6.542295645073951116e-01
6.635576505560640895e-03 2.832717733230364840e-02 -9.608652351548115922e-01 8.300619209687436495e-01 3.813049301668751390e-03 5.576581999869654194e-01
-4.837140733407993554e-02 4.138893572296741680e-02 -8.968413638083152506e-01 7.169361948847717825e-01 2.834662052999185541e-02 6.965622452937522135e-01
-8.993361973476704692e-04 -1.761947312185382364e-01 -9.502666349725343853e-01 7.780681665895154975e-01 1.366097045759410988e-01 6.131457549031096299e-01
-3.774904390242417307e-02 1.651629227485524459e-02 -9.080846993986865234e-01 7.306648679426966941e-01 -4.608869633331789950e-02 6.811788919399786035e-01
-4.152006781918143180e-02 -1.349632721458289206e-02 -9.066395680577254979e-01 7.508563098057675633e-01 -8.957661812598019524e-02 6.543629203354797141e-01
-3.914332925163150484e-02 -8.797011268721298405e-02 -9.178696900006105830e-01 7.495650189423295195e-01 7.724836127763445338e-03 6.618856466828575424e-01
4.385310619296731854e-02 -1.109915537617585102e-01 -1.007124420914363716e+00 7.929321597286340673e-01 5.087263933878132666e-02 6.071824805071291964e-01
3.835380847414258942e-02 -1.119513742381984117e-01 -9.997624127721042031e-01 8.019795324453666829e-01 6.002473615035402305e-02 5.943280748785063627e-01
-3.984361479261025463e-03 5.829126087433995212e-02 -9.455673691408145176e-01 8.288933962323982163e-01 2.683772520656039010e-02 5.587624487991813549e-01
-4.631840600452788643e-04 9.997252163195812641e-03 -9.490223053225391725e-01 8.623560402867576080e-01 2.832202260393044610e-02 5.055095674827201346e-01
3.078733325758806379e-04 -6.440245257146032243e-02 -9.566422183835985305e-01 6.743253038041282510e-01 -7.978596930023711120e-02 7.341114246163806811e-01
5.975874429547146927e-02 4.368935017409540829e-03 -1.029131533373437657e+00 7.741754465483994263e-01 -1.224314871543269977e-02 6.328526552611740685e-01
-3.031471738437525876e-02 -5.521808609267922496e-02 -9.249478500300585271e-01 7.327171028980370426e-01 -7.913510707998336335e-02 6.759166235181283122e-01
5.144963491311637521e-02 3.639550589437764994e-02 -1.018475466398441664e+00 7.616699549008864034e-01 -8.859795019528604598e-03 6.479046101344653197e-01
-1.594744531904115914e-02 8.649755788962652792e-02 -9.310323894124669097e-01 8.274348020480966071e-01 7.886301609091983522e-02 5.559966484185588920e-01
-4.232431726146648060e-02 -6.530922112177967032e-02 -9.129997894609235276e-01 7.352045675331421171e-01 -6.328187694589162970e-02 6.748849145807086503e-01
4.537882486833848955e-02 -2.245797360816871591e-02 -1.012028823158337865e+00 7.930308355236025397e-01 -1.953269591126385873e-02 6.088682679358280447e-01
5.276956688931063594e-02 -5.905249538990152425e-02 -1.022128815305424654e+00 8.117531200358744092e-01 6.648424825450710389e-03 5.839629016978421516e-01
5.490521747478053355e-02 2.460781285172172414e-02 -1.022711303177534337e+00 7.623398627683438677e-01 -1.146215733702155536e-02 6.470753840036909121e-01
-2.132687132729449084e-02 9.737853665467413600e-02 -9.243311796132245295e-01 8.542870155394568510e-01 1.038269704654024017e-01 5.093266685386348414e-01
2.669460238335107441e-02 6.605033976190566314e-02 -9.863006848431455920e-01 7.762147196551777428e-01 -5.507991162470011332e-02 6.280580485321789475e-01
-4.497369952275383220e-02 -5.055582315441667363e-02 -9.082694291527844133e-01 7.419757695780234696e-01 -9.181144693499436460e-02 6.641103941144140821e-01
-5.790634528428102723e-02 9.979892716301540234e-02 -8.899874074423285153e-01 6.900863801695987787e-01 -2.479675586604445335e-03 7.237227639872916285e-01
-8.364690933300315823e-02 2.256726470104277460e-01 -9.001872158267606450e-01 5.338787917339223865e-01 4.612657211169156612e-01 7.086659087745219576e-01
3.031632364551814854e-02 -1.030903783898689391e-01 -9.899601258541305127e-01 8.022807308013905070e-01 5.526152436796862716e-02 5.943835402409084478e-01
1.380459893804380535e-02 -5.326063137862889312e-03 -9.704814386142258664e-01 8.198977278649504097e-01 2.103586109025576759e-02 5.721234205921682525e-01
1.110127759156045654e-02 -5.150391424584426642e-02 -9.656089976659378848e-01 8.460034380313319335e-01 1.954344521007168878e-02 5.328191405988409457e-01
5.704335096133184360e-03 5.228756479129942347e-02 -9.594608847810104368e-01 8.115319598197276996e-01 -1.287934733961564743e-02 5.841660727937367792e-01
-5.705389477878819449e-02 8.844127027186081402e-02 -8.907198759533926369e-01 6.840427409892466670e-01 6.115991500269457246e-03 7.294162893354430022e-01
-6.939022889514668072e-03 1.109063073135588412e-01 -9.476597132986989136e-01 7.874329494339760149e-01 7.629414849062138293e-02 6.116604883853460350e-01
-7.205863769800006924e-02 7.377933058710943459e-02 -8.747510315432908135e-01 7.085410138999901353e-01 6.725854999307663562e-02 7.024570585269984679e-01
-6.190742277236958857e-02 1.781984277786802240e-01 -8.904935853848003902e-01 5.313993726386589955e-01 2.425586394788391553e-01 8.116526431752774107e-01
-4.038228994295923330e-02 1.287505947225950353e-01 -9.041794764464415879e-01 5.955733935763780629e-01 -2.071227694250156806e-02 8.030338314465798044e-01
-6.581613588930895764e-02 2.003444736812760585e-01 -8.932517752989385107e-01 7.505038051534010934e-01 6.362117224766732360e-01 1.788258444228075505e-01
3.109485108503592943e-02 -1.649285082040358175e-01 -9.864484746972517204e-01 6.544395704997573171e-01 3.609495389126455428e-02 7.552522776315743203e-01
-1.818073727761341987e-03 -6.829510076686570730e-03 -9.467898616806689205e-01 6.358952606799368468e-01 -1.180802573494813823e-01 7.626888423656629223e-01
9.375593065278950422e-03 -6.291956862483055746e-02 -9.645729932825858333e-01 6.341056701124122563e-01 -9.937832716016559154e-02 7.668337154964794955e-01
1.662249939438745639e-06 3.770375965102581994e-02 -9.508497815454300950e-01 8.370918964354685521e-01 1.244543774818743405e-02 5.469207145476633336e-01
2.284774292467064635e-02 -1.920695085047454675e-01 -9.758847602805400534e-01 7.376967475422107068e-01 1.033533987188901271e-01 6.671743277726579491e-01
6.268698626965805987e-02 -7.128199278506436309e-02 -1.034990958265170624e+00 7.864669424281205412e-01 6.052031410886573454e-02 6.146601012331349700e-01
2.594199252011020543e-02 5.174766520629910105e-02 -9.865671423833898279e-01 7.866903147290407183e-01 -5.074040739834464325e-02 6.152590997039969478e-01
1.808513325454545392e-02 4.650615149645484503e-02 -9.767203113225065847e-01 8.000711327778471382e-01 -3.721704412626242187e-02 5.987495921686096789e-01
1.099403356769450453e-02 1.028953960282347063e-01 -9.681709335542297845e-01 7.473159906084463344e-01 5.976013914701611834e-02 6.617760466729253332e-01
1.541539667700697266e-02 -1.988801889799143852e-01 -9.662576679813579261e-01 7.646977879965419778e-01 1.033309883948243385e-01 6.360503123735923303e-01
-1.090315707815069958e-02 -7.206268955385664032e-02 -9.467274396975339235e-01 6.987705424604346849e-01 -6.683996677362555316e-02 7.122163630746278784e-01
1.943306572217068026e-02 -6.242631568083141513e-02 -9.773637046133784034e-01 8.031426285065953463e-01 8.451081587874038556e-03 5.957268648428676316e-01
-4.590854591473388785e-02 1.140032216206078447e-01 -9.001875180174929714e-01 6.289850616514188753e-01 -2.360384480413735275e-02 7.770589750654856021e-01
1.895370258077530914e-02 -1.028935897490513979e-01 -9.764188512780755946e-01 6.414673032833890787e-01 -3.686655902463732704e-02 7.662640247617131806e-01
8.011632946281353751e-02 -2.309719909555149886e-01 -1.014282839190371099e+00 6.580045799341002200e-01 5.385161902371169429e-01 5.263366656791538256e-01
4.199833521828225807e-02 -1.825595269114398123e-02 -1.007590355334735177e+00 7.886353991117670548e-01 -1.416345861705587588e-03 6.148594971472945980e-01
-4.949661367067214462e-02 -4.692615481677410438e-02 -9.026141404047783867e-01 7.456573897284946018e-01 -1.106118631411058401e-01 6.570845249096507468e-01
-4.537282950143720073e-02 1.501428155540417142e-01 -9.005189122310939265e-01 5.882686718490971467e-01 6.764688204462578416e-03 8.086372540975315104e-01
-2.502066190564704307e-02 1.403553533584012969e-01 -9.269462027770261070e-01 8.228687325229407934e-01 1.168891111658689752e-01 5.560791173267901621e-01
2.072809383990906196e-02 -1.389870863938890699e-01 -9.783264017596911000e-01 6.711686753179811893e-01 2.405144664141371097e-02 7.409143926165571159e-01
4.289917246999805367e-02 -5.640598029046508394e-02 -1.008671021495006537e+00 8.019099452839448805e-01 1.413224820968744973e-02 5.972777571743653757e-01
2.684498952873361818e-03 6.419682178241500892e-02 -9.552920230836986493e-01 8.063549944490367993e-01 4.827847324324346587e-03 5.914121361768854834e-01
6.550589749133393924e-02 -2.040816061266770010e-01 -1.017011073000151811e+00 8.007187274005546085e-01 2.487898617389896205e-01 5.449340549882440987e-01
2.450334077708172381e-02 4.612535423990525053e-03 -9.855457936686049525e-01 8.005089635922350011e-01 2.626139780035266838e-02 5.987451362592079995e-01
2.133942601003674562e-03 3.530777614452205310e-02 -9.540813920726837205e-01 8.409535090163614557e-01 1.066936990208289943e-02 5.410021813439953586e-01
1.984874312837322727e-02 -6.105380768485651338e-02 -9.779435801269217299e-01 8.031426285065953463e-01 8.451081587874038556e-03 5.957268648428676316e-01
-1.151367450462406107e-02 1.096413640347177754e-01 -9.413815948911500309e-01 8.162756850399567332e-01 9.694390095468449764e-02 5.694698289463963059e-01
-1.859753634016783966e-02 1.169267252801817758e-01 -9.322894953348856983e-01 8.210651489921776403e-01 8.118582621734546367e-02 5.650317537376642330e-01
-3.209925768658725836e-02 -5.824423032408096619e-03 -9.160721808692543489e-01 7.353534211214952654e-01 -7.993068532024792672e-02 6.729535136910634874e-01
5.375845332059170367e-02 -1.780819435615580149e-01 -1.007787127882277867e+00 8.393652080086760892e-01 1.779573428883076125e-01 5.136119466062734062e-01
-2.020736308895241390e-02 5.646077928683421870e-02 -9.234452344739922935e-01 6.633637692861270585e-01 -4.890955861644184777e-02 7.466969697771961290e-01
3.225982849902711558e-02 -1.291234351500831490e-01 -9.886245724560416281e-01 8.685502547324194245e-01 1.606918240069541981e-01 4.688268259193016929e-01
-3.239246988447532644e-02 -2.169026947905766320e-02 -9.177998081112953566e-01 7.287466066557254374e-01 -1.024907331515041709e-01 6.770701831463505904e-01
-5.408554091327966856e-02 1.893525622490547511e-01 -9.023474816203798099e-01 7.435123229199328554e-01 3.810694636548803138e-01 5.495229654309157219e-01
-5.794720782431370121e-02 5.530756820269257246e-02 -8.879311988889244667e-01 7.210661367396762333e-01 5.635900945101261078e-02 6.905702632614723058e-01
6.221348106685235801e-02 -2.957536490544625252e-02 -1.034974293319533611e+00 8.076925464578240677e-01 -4.033489914312407554e-02 5.882226162836563521e-01
-5.916906006507521160e-02 1.840902898915925401e-01 -8.931569032003443542e-01 4.405085815344956801e-01 4.890302157378884074e-02 8.964154639872184971e-01
1.514517587611883750e-02 -1.264355597913304485e-01 -9.735765197782112468e-01 6.739315972788115783e-01 1.050127880755430398e-02 7.387191112544982952e-01
-5.493031791567072608e-02 5.907578568894805010e-02 -8.913180236888691432e-01 6.933396454227442884e-01 5.325331509278300596e-02 7.186405363717608408e-01
-2.040799615303393391e-02 1.353183066216851471e-01 -9.327130845129653069e-01 8.228687325229407934e-01 1.168891111658689752e-01 5.560791173267901621e-01
8.008558373466555030e-04 -1.547773121162242423e-02 -9.503141533119963125e-01 6.315951759025336676e-01 -1.214993587394513769e-01 7.657189037777175633e-01
-8.050565151189507940e-02 2.022130416304756262e-01 -8.873017686327537845e-01 3.851010507676391748e-01 3.705782294827594803e-01 8.452035000702988743e-01
-4.413412595012405903e-02 6.211022991387092629e-02 -9.018559461728252735e-01 6.794481566115047055e-01 4.010113982619502304e-02 7.326268498095522830e-01
-5.890991086236806173e-02 -5.690833189473030324e-02 -8.933689750437652233e-01 7.497476082553478083e-01 -8.726666337170044252e-02 6.559443980852004419e-01
4.539288429284338983e-02 2.152730791275533212e-02 -1.011529682644236372e+00 7.649898116789238811e-01 -3.574834405800346709e-03 6.440324592646053947e-01
3.206379478128707633e-02 -1.489783529168468568e-01 -9.878979440904130938e-01 6.461056627168207944e-01 2.152380802996580259e-02 7.629444267396852108e-01
1.544171226381239881e-02 -5.654571054678906965e-03 -9.727750779144017645e-01 8.111063579360979769e-01 1.466597066092673561e-02 5.847147898079981809e-01
1.839722542859063489e-02 -5.111716391536531151e-02 -9.760777843727914682e-01 8.096894860710452946e-01 -5.550988292349597411e-04 5.868582691002114382e-01
-4.475046977552417371e-02 1.379160818800148104e-02 -9.006620868078522024e-01 7.392856391180009368e-01 -1.883542922524991670e-02 6.731284947168625354e-01
3.186249015989093408e-02 4.835621142677302281e-02 -9.943101059852084145e-01 7.750569677911389732e-01 -4.766245728952031580e-02 6.300912527908397731e-01
6.946085429972245762e-02 -1.147055388428773887e-01 -1.036885519138080136e+00 7.103639616059087558e-01 1.400954119485980920e-01 6.897509098236201952e-01
7.479385097369549776e-03 4.669772691719890206e-02 -9.620500513558518652e-01 8.115319598197276996e-01 -1.287934733961564743e-02 5.841660727937367792e-01
-3.892694137924679332e-02 1.336840989790567640e-02 -9.070342168927613136e-01 7.306648679426966941e-01 -4.608869633331789950e-02 6.811788919399786035e-01
-1.837944900832817405e-02 -7.931417915071650726e-02 -9.398568274920577892e-01 7.122644276110936534e-01 -5.172860152227465314e-02 7.000025263842917234e-01
-3.149573825086316239e-03 8.618188234652882085e-02 -9.492447891734004939e-01 7.965760314319521029e-01 7.335028792918790730e-02 6.000719635250648665e-01
4.724365101790745092e-02 -4.143691292590061248e-02 -1.014653666710083835e+00 7.989477303229899352e-01 -6.590730994834142738e-04 6.014001079434493358e-01
-3.136134374871159952e-02 -1.231765250863383204e-01 -9.241769658917570185e-01 7.634907594616601179e-01 1.055795183658741754e-01 6.371301480218052316e-01
6.539958100940058972e-02 -2.114925194033986100e-01 -1.012492254535719116e+00 8.436699516310651736e-01 3.762445826352481815e-01 3.829634796589147516e-01
2.288496298095706386e-02 -1.370104730663736503e-01 -9.803192221046822530e-01 6.541981147500934846e-01 1.074160176400353918e-02 7.562469468691871421e-01
-3.256647081239822696e-03 6.621740106062073972e-02 -9.470869719531619380e-01 8.117659120395549488e-01 4.301419065676800185e-02 5.823966719107629419e-01
-4.609482575899799539e-02 -8.236383927303213282e-02 -9.100025925199399790e-01 7.492081213226723380e-01 -3.651500425920329185e-03 6.623245862028614983e-01
9.812930208848913080e-03 1.300184821379694357e-02 -9.653070069839774225e-01 8.275913446657309214e-01 1.420388057603116580e-02 5.611513307575318743e-01
5.984711411615034355e-04 -5.420106290793139103e-02 -9.556464172388984268e-01 6.771042521953160032e-01 -9.147653663122630452e-02 7.301793443428663544e-01
2.949710496719916072e-02 2.353796778454542507e-02 -9.923836041798799190e-01 7.729393491664172666e-01 2.455088487457039812e-03 6.344751650385649366e-01
-4.067609130336631573e-02 -1.024733601486926271e-01 -9.157024754882042705e-01 7.476114523688519586e-01 5.916249366795713754e-02 6.614959679619556443e-01
2.090353052210796453e-02 -6.029791794993642762e-02 -9.793763387552675281e-01 8.031426285065953463e-01 8.451081587874038556e-03 5.957268648428676316e-01
4.189512905234917678e-02 -1.266235979800762745e-01 -1.002682654346445990e+00 8.043057153380833713e-01 8.229307718247007297e-02 5.884897328945799533e-01
5.910894545341299072e-02 -9.324980637328045274e-02 -1.028172005448654724e+00 7.696049524274206632e-01 6.973192162033818586e-02 6.347012496492523415e-01
-2.747336536822031494e-02 1.285984352311430601e-01 -9.207343128537138766e-01 8.371144174210181088e-01 1.189484900579981658e-01 5.339388624728413912e-01
-1.353394623099467634e-02 8.983702379723863818e-02 -9.352762056698821214e-01 8.321766645833651443e-01 9.745765463816546958e-02 5.458791115946216577e-01
3.238655981518206127e-03 -2.214678729249923428e-02 -9.536417023647640878e-01 8.550794062740280088e-01 1.329419385379290545e-02 5.183266087862297145e-01
9.795236670706287951e-03 -3.010457702339281241e-02 -9.640537514574604172e-01 8.373289895837748853e-01 8.169726318981569008e-03 5.466382887929528422e-01
4.518253227104849362e-02 8.810396367502226420e-03 -1.011295727743451778e+00 7.665085805351150583e-01 2.523554083347197535e-03 6.422291083724184224e-01
4.329903411889525489e-02 4.707605897632963221e-02 -1.008401038739045186e+00 7.705648693795009718e-01 -5.173188292868786259e-02 6.352586830314130850e-01
-6.320354457142686455e-02 -5.911261978645059728e-02 -8.887545888800815197e-01 7.497476082553478083e-01 -8.726666337170044252e-02 6.559443980852004419e-01
-1.551705603759003307e-02 3.699652774887260409e-02 -9.291615767078730270e-01 6.774609227302132997e-01 -6.486701398304949018e-02 7.326929566131035187e-01
-9.223798363875089848e-03 -1.317879962812398553e-01 -9.488278026557517286e-01 7.385332950360189441e-01 7.871904958638438476e-02 6.696057671163359037e-01
-2.243751169340044843e-02 -4.518367708432500379e-02 -9.318121326851298569e-01 7.134761223989376511e-01 -1.010139558785923403e-01 6.933599378997418183e-01
-2.872467300302636306e-02 1.118400736046478577e-01 -9.143498891136651041e-01 8.986687463053052438e-01 1.440654382812990575e-01 4.142941393585822807e-01
-1.563641377262598234e-02 3.045558315685181761e-02 -9.295980627941566876e-01 6.812395455583751813e-01 -6.032531218453127120e-02 7.295707904496021579e-01
3.424055012205739091e-03 4.299030085087802294e-02 -9.561092121932955878e-01 8.282632438455737045e-01 -5.322138735163703047e-03 5.603139064253997992e-01
-5.779342090236102431e-02 -2.821351631792609269e-02 -8.896547098655170904e-01 7.631502739951785408e-01 -1.055702043073963592e-01 6.375394821213652419e-01
-5.157615571071174493e-02 1.309478849363504560e-01 -8.953970984129150379e-01 6.298549447519147249e-01 2.882398437159038127e-03 7.767074354934501157e-01
4.350607398320986002e-02 -1.329588508243252989e-02 -1.009502153903794497e+00 7.835872668182988221e-01 -1.730994343985425843e-02 6.210405470968356489e-01
3.855648878337263052e-02 -2.148446742260999853e-01 -9.894376784179758078e-01 7.023236498693741225e-01 1.438585271323561954e-01 6.971701478157754650e-01
-4.279963299139345756e-02 1.211248988515568198e-01 -9.025023250069473812e-01 6.109868483777590731e-01 -1.584637479366336407e-02 7.914821308881913042e-01
-5.631275153015052881e-02 3.160200630410445188e-02 -8.879727109805900520e-01 7.320848451887700392e-01 4.158315927818202751e-02 6.799431007881320266e-01
-3.974538257653914552e-02 -2.529727231401593737e-02 -9.102933696851875922e-01 7.475465981517889213e-01 -1.031727900096092720e-01 6.561474369326767420e-01
-2.641385104119689433e-03 -5.209363416741950858e-02 -9.523405392402355396e-01 6.815280610949157047e-01 -9.227931306556892699e-02 7.259504324128140951e-01
-4.378921378123619423e-02 -3.803715078420641382e-02 -9.076748412557344992e-01 7.490777527314351758e-01 -1.009703910762267676e-01 6.547423160975137657e-01
-6.522962025543950493e-02 1.836516339331037695e-01 -8.896896461161071246e-01 5.243002126131226515e-01 1.736204731333944595e-01 8.336457391259016747e-01
2.607081388783401635e-02 7.440104824960498686e-02 -9.849375551321213340e-01 7.712430116934162472e-01 -3.303341775397764662e-02 6.356831051912268382e-01
-3.866560275937889340e-02 1.584019312792184220e-01 -9.107778031023651133e-01 8.236327328604129416e-01 1.401043696565230090e-01 5.495451637163556446e-01
-2.651968743734915354e-02 1.972462664993846274e-02 -9.196283056701620717e-01 7.106623063718534583e-01 -5.515642199056336459e-02 7.013678460090944089e-01
5.268168466097251229e-02 -2.036106256035062068e-01 -1.002490977747113376e+00 5.781358247704742048e-01 1.034601885415149976e-02 8.158749463066217178e-01
-1.748411946088987423e-02 7.192235932089745265e-02 -9.261713329111045390e-01 8.758622514283079807e-01 9.139483787182735297e-02 4.738272893505793837e-01
-2.001945298949607543e-02 1.479633027626341135e-01 -9.357258523789345750e-01 8.109393269284838057e-01 1.143806946094553523e-01 5.738418464537389241e-01
4.003421002039244531e-02 -8.356512675340634078e-02 -1.003990912506143030e+00 7.990100133652550118e-01 2.242645943074893927e-02 6.008993696613903479e-01
6.633723587846027114e-02 -1.178059260511094136e-01 -1.033094607703640255e+00 7.235737455520312444e-01 1.173982961547936354e-01 6.801901754713571835e-01
-6.009032074082810287e-02 -3.350564603406645716e-03 -8.840512715105730557e-01 7.608290155494286111e-01 -3.850096289930574761e-02 6.478092967485983289e-01
3.836063488306575703e-02 -6.891070773451599130e-02 -1.002318798058641214e+00 7.997104846209278639e-01 1.573245251825629992e-02 6.001796653712299090e-01
3.493716946090304198e-02 -3.054666623864215128e-02 -9.984081603426773199e-01 7.979573515071505252e-01 6.557522069450004432e-03 6.026782425805684573e-01
-6.566093580543770625e-02 2.013733478502001684e-01 -8.959121825946041451e-01 7.108272469440811703e-01 6.064824802299020323e-01 3.562353522267049932e-01
5.123646109588927272e-02 -5.426916241950298370e-02 -1.020052139239256528e+00 8.117531200358744092e-01 6.648424825450710389e-03 5.839629016978421516e-01
-1.705917527679578702e-02 9.033907934193169398e-02 -9.299553873202259791e-01 8.347140132835649817e-01 8.898931967006737387e-02 5.434458731214205640e-01
-1.036520822463573438e-02 -8.165841547265932296e-03 -9.389049453328867090e-01 7.036143734872951638e-01 -9.296618056938844854e-02 7.044743449497794519e-01
5.717347347800993268e-02 -1.497807277722385533e-01 -1.018250865511133085e+00 7.563662119104759274e-01 1.085377042428695843e-01 6.450811733711381279e-01
5.799437799999742488e-02 -1.041652035111840235e-01 -1.025620382388392704e+00 7.669371416873870251e-01 7.807868587494297408e-02 6.369545819855784163e-01
3.581334419867523294e-02 -1.898509739784331463e-01 -9.892720600361891714e-01 6.729541352575089119e-01 4.707429734278839595e-02 7.381847616752197361e-01
-6.455697473632357464e-02 1.745739985285646445e-02 -8.783620209642727383e-01 7.495282527424573793e-01 1.565441835191056300e-02 6.617872298004111586e-01
2.570706666152212244e-02 9.268247132944808231e-02 -9.841628576331489242e-01 7.568967386961830135e-01 3.856314706565576889e-03 6.535231103702194844e-01
6.035526798568119355e-02 -1.805688293611525386e-01 -1.016340796867597485e+00 8.031077072818580964e-01 1.392602135211947201e-01 5.793311690514403312e-01
-4.470536962363980127e-02 -1.059052491902840315e-01 -9.107509018018233871e-01 7.464891712540843161e-01 8.311592927549876775e-02 6.601860794511353880e-01
-5.833320959520716525e-02 6.717674028511884388e-02 -8.884831213150806706e-01 7.181890799914879553e-01 4.557826988761540243e-02 6.943537043143298559e-01
-4.389056092005298726e-02 9.624591015233371905e-02 -9.023338082669760674e-01 6.393760620103983161e-01 -2.417021813777647105e-02 7.685141845686699336e-01
-5.157244991652094879e-02 1.755712185755194943e-01 -8.966007582180945956e-01 3.017393096522058005e-01 -8.998672874953723977e-02 9.491342253125042427e-01
-1.974042343217420614e-02 -1.294543426033652744e-01 -9.369631219550591528e-01 7.503534762011956349e-01 9.462207817019192835e-02 6.542295645073951116e-01
-2.367707164234938641e-02 -1.288140218098124123e-01 -9.324257172694314644e-01 7.623916850041607685e-01 1.087544768808594992e-01 6.379117355832915059e-01
4.570437230158731767e-02 -2.112780616688418323e-01 -9.967716919029611100e-01 6.632922348502610088e-01 9.441504516354036480e-02 7.423807718644878095e-01
-6.289903250870405860e-02 -4.201741829258126559e-02 -8.859678740034148126e-01 7.625440501068909693e-01 -1.295784613836759025e-01 6.338264699363846955e-01
5.820702210838121782e-02 -1.259625840350389880e-01 -1.022989862540849559e+00 7.519063225618488611e-01 1.024417423767172708e-01 6.512622908708435299e-01
1.718958167701400627e-02 -1.940624785623183968e-01 -9.691368536138269540e-01 7.560561637304816784e-01 1.028045186355707741e-01 6.463824782845334349e-01
3.515938128946435870e-02 -1.233398861607891001e-01 -9.940229879685307246e-01 8.008515901852880647e-01 9.643020907661095653e-02 5.910481750882381480e-01
1.634621634480298846e-02 -1.747593132297224627e-01 -9.712109768000178889e-01 7.290059532942593234e-01 9.063881135891503626e-02 6.784798640615439247e-01
1.798551547595059197e-02 3.087047236287130889e-02 -9.772845082134408168e-01 8.161602896651014571e-01 -1.059628512146642589e-02 5.777283966669823911e-01
1.346767240245723765e-02 -5.586728358829928104e-02 -9.691158756585123157e-01 8.226296427963817326e-01 8.288514835531033548e-03 5.685171688828039027e-01
-1.664876044712572042e-02 -2.804636124787516019e-02 -9.352715297109415182e-01 7.048646488113652353e-01 -1.019181112330830447e-01 7.019818555053339848e-01
3.828069877250992251e-03 -2.674489964052057314e-02 -9.546138388881482140e-01 6.709116868627643671e-01 -1.009140736860259513e-01 7.346385901673361252e-01
3.964321241723827577e-02 -1.467173372248757879e-01 -9.955412184431412514e-01 8.316054137894030029e-01 1.406032105469749161e-01 5.372738342223998265e-01
2.210851729554507220e-02 -5.306852483454622266e-02 -9.810887060819579730e-01 8.017633257035560179e-01 7.575930163624788882e-03 5.975936536133306110e-01
-2.087437293376865483e-02 1.872779949840105984e-02 -9.254251298061118014e-01 7.101416141065546306e-01 -5.634875668264287957e-02 7.018003316716638906e-01
4.850587053314631136e-02 -1.747255015912639320e-01 -1.000155970264124283e+00 8.871941416174377038e-01 2.495210335449053463e-01 3.881054095196048159e-01
-4.916061962321991580e-02 1.726730154387990657e-01 -8.990784984840263228e-01 8.033564521573524075e-01 1.605414534562749629e-01 5.734499564036062980e-01
5.836564755682446121e-02 -7.677507373239295108e-02 -1.028758610728066625e+00 7.998885379012163899e-01 5.164075677220664878e-02 5.979227033440425165e-01
8.773431511768660374e-03 -8.275422985900118822e-02 -9.662251469087858036e-01 6.676605359177040233e-01 -6.557488310323246472e-02 7.415722105662279073e-01
-4.382414259011966490e-02 1.568952313416771549e-01 -9.020500696007306418e-01 9.116052689062738024e-01 2.531278995986664948e-01 3.238859369393610188e-01
4.274261487396466275e-02 -1.948741049463611763e-01 -9.950000308285630313e-01 6.450004242944881172e-01 3.862205116035909158e-02 7.632056012792993727e-01
-9.680749823703696175e-03 -1.179982182113668565e-01 -9.496471018044275736e-01 7.438435822903137762e-01 6.247853889722195658e-02 6.654270487910614040e-01
3.248673285487179568e-02 -1.154680534357645089e-01 -9.914629632692188999e-01 7.972524020562158364e-01 7.242481039350009975e-02 5.992856199301462850e-01
-6.752083083087323523e-02 1.040716748717647328e-01 -8.811933787836850884e-01 6.725144047997002605e-01 3.195346571672916941e-02 7.393939081204244923e-01
4.461452644680749535e-02 -2.104539684596506699e-01 -9.959027584397810440e-01 6.632922348502610088e-01 9.441504516354036480e-02 7.423807718644878095e-01
4.978161718812145614e-02 -1.660330404925911552e-01 -1.005391436483665135e+00 8.298550081320671401e-01 1.615839134882748884e-01 5.340705050645845331e-01
7.743410758915397762e-02 -1.970340345845498498e-01 -1.030389735084669356e+00 6.269776432973418467e-01 8.881727927510824072e-02 7.739577027896800132e-01
2.311929153428299646e-02 -1.563526054864620429e-01 -9.797036331863335779e-01 6.854821456162980553e-01 4.373173916499521058e-02 7.267749053392535963e-01
4.554625964892301815e-02 3.737211138195209448e-02 -1.011486145466747644e+00 7.637838918613851780e-01 -2.276428059711248578e-02 6.450705031715306959e-01
-1.065352197269023998e-02 -1.998869215554963802e-02 -9.401766090288852240e-01 6.946836370029230157e-01 -1.008060301360721028e-01 7.122168130342023673e-01
2.991760424871279384e-02 -2.122159923392932801e-02 -9.919353646723442219e-01 7.968207668332621951e-01 9.343218060930653240e-03 6.041435010157086838e-01
4.814823870691426616e-02 -2.096512949977368534e-01 -9.989401940825142212e-01 6.318959684150424749e-01 4.702718614719081369e-02 7.736251862910701327e-01
2.649655356761072486e-02 -1.858603090913028555e-01 -9.806061366813859648e-01 7.213918825983988148e-01 7.091041535656900097e-02 6.888871204450673913e-01
-2.092987264679642065e-02 1.486387247657547372e-01 -9.345738975845476748e-01 8.109393269284838057e-01 1.143806946094553523e-01 5.738418464537389241e-01
-4.732356289186769038e-02 -7.491861853827873341e-02 -9.083083253215740172e-01 7.457800172617387036e-01 -4.488645282600443182e-02 6.646783975771891617e-01
-5.069206789199186616e-04 -1.140335396538473961e-01 -9.590263328074661864e-01 6.933600107717104999e-01 1.016622297518504289e-02 7.205196342731212678e-01
-3.055577362280070819e-02 -6.674906905717001293e-02 -9.260159071937513753e-01 7.269462306662947126e-01 -5.384897871585726803e-02 6.845797727155876755e-01
-3.521755719599771461e-02 1.137278061015041530e-02 -9.111450914824841263e-01 7.302569077190201874e-01 -4.578639706156555078e-02 6.816366000830463845e-01
3.808322225565388252e-03 8.002569527967910712e-02 -9.576491914698935792e-01 7.737416081766848031e-01 5.668762197347037429e-02 6.309599331900166419e-01
4.987181600161288281e-02 -8.268575809188341563e-02 -1.017045949729006971e+00 7.979020097154982949e-01 4.141373844899617213e-02 6.013628564848738645e-01
5.178472968978620194e-02 -2.878289753937740558e-02 -1.020613753345916974e+00 8.059195437032332654e-01 -3.130945576157803667e-02 5.911965891791718386e-01
3.449132185126753489e-03 -4.233108043523337027e-02 -9.566526155212621285e-01 6.713572707779263959e-01 -1.003023956774876935e-01 7.343152214103769726e-01
-6.640356829963260654e-02 1.123297304679305025e-01 -8.825539383813536531e-01 6.502179583421694442e-01 2.539330432343351804e-02 7.593232425949294484e-01
-2.503878134075046211e-02 -1.271349313304193374e-01 -9.310845481123125600e-01 7.623916850041607685e-01 1.087544768808594992e-01 6.379117355832915059e-01
5.823323884652254617e-02 -3.395717354755257988e-02 -1.029593142582061027e+00 8.046262287284540182e-01 -2.542598573978565105e-02 5.932370110599858304e-01
4.730651098992021131e-02 -2.064554118118994974e-01 -9.984267629043032111e-01 6.116259035715803094e-01 3.091946352413258662e-03 7.911410708261844560e-01
-3.285741675332704264e-03 -1.285329043179390118e-01 -9.556291631509311602e-01 7.097397786674909392e-01 5.013509220383428194e-02 7.026776779624739344e-01
2.196270867560037171e-02 -2.934607433876958854e-02 -9.811999895503299429e-01 8.060365150599596573e-01 8.730108198641528885e-03 5.918014207492540146e-01
-2.769415294499660493e-02 1.062688686482171109e-02 -9.190878029874870458e-01 7.238983558102189964e-01 -6.775869394978939475e-02 6.865711396858160676e-01
-4.444757081651216912e-02 1.469990798696703405e-01 -9.011657217904425199e-01 5.882686718490971467e-01 6.764688204462578416e-03 8.086372540975315104e-01
-2.137850803881966716e-02 -1.289772339171641191e-01 -9.351449895992348660e-01 7.623916850041607685e-01 1.087544768808594992e-01 6.379117355832915059e-01
7.933180092230515679e-02 -1.718576253521641173e-01 -1.033847778788540728e+00 5.682808431701011909e-01 9.717330323852210738e-02 8.170766380356208058e-01
6.629043047743941874e-02 -8.592179191105930869e-02 -1.037910284954524087e+00 7.579776945771335983e-01 8.664954628147433779e-02 6.464995519354581610e-01
-4.838794571622019591e-02 -1.288113590831759317e-02 -8.986206411043620168e-01 7.564939644938067920e-01 -6.860490686404537020e-02 6.503923803663590464e-01
1.653428265163126715e-02 -2.188539157133150004e-02 -9.738569159823149413e-01 8.123734696997665372e-01 1.627409465354213297e-02 5.829103701009018534e-01
-5.630752978198343833e-02 -7.293432783532736996e-02 -8.981395910097778046e-01 7.415353028437428051e-01 -4.778563139455176828e-02 6.692099282502188551e-01
4.781008476073651814e-02 -1.687077618468066642e-01 -1.001531199221556534e+00 8.445340781418990694e-01 1.889789826098967340e-01 5.010480366080093395e-01
3.241024824966150242e-02 -1.456921121374054051e-01 -9.882249476849401804e-01 6.248087462770136602e-01 7.580137520678025681e-03 7.807410403526344744e-01
3.872611432311070384e-02 -9.847661172918782679e-02 -1.001408465584448404e+00 7.971832549104612697e-01 3.568621319818237464e-02 6.026818001880729359e-01
4.861586053987856232e-02 -1.218810216227775717e-01 -1.012036609327166881e+00 7.816819460428185984e-01 6.766432953904874537e-02 6.199958659045582410e-01
7.867520606861223842e-02 -2.280244543049780304e-01 -1.015552776264458723e+00 6.781565932594938451e-01 5.548117218364957415e-01 4.819622270795715369e-01
-2.990088861774080169e-03 -1.228050146652941432e-01 -9.562613445020197167e-01 7.144209041600196874e-01 3.543060213865542596e-02 6.988186060282544076e-01
2.989464526044777887e-02 4.921579857508451283e-02 -9.918203210290805760e-01 7.775700721735731014e-01 -5.924872313473895230e-02 6.259986994130957161e-01
-2.959602108947418514e-02 1.483983096782608424e-01 -9.219392054664463654e-01 8.260765097218588648e-01 1.247112883862546429e-01 5.495859301645124040e-01
-2.502950428632364985e-02 8.059176095369273429e-02 -9.179828374646781253e-01 6.102600001110953798e-01 -5.476960592351864249e-02 7.903056513345887435e-01
-4.772978977538351597e-02 -7.991492063900722254e-02 -9.080982127111777436e-01 7.417149423074739234e-01 -2.824479598272239614e-02 6.701202696962053063e-01
-2.929961049909692722e-02 -8.854699182920372502e-02 -9.288209399527607157e-01 7.372185651105991333e-01 -2.066627574845767909e-02 6.753382058664813004e-01
4.111698694364407380e-02 3.609592981707955561e-02 -1.006260928879828098e+00 7.682128817241496987e-01 -1.904041666103077277e-02 6.399112679789690228e-01
4.327842616225244937e-02 -1.815045954290566144e-01 -9.959023313882575668e-01 6.016721645318359180e-01 1.196357321282787330e-02 7.986535414956580370e-01
-8.139763593707020559e-03 8.502370174737846134e-03 -9.389839662946968257e-01 6.887357619001003295e-01 -8.739424528071471077e-02 7.197258479252377494e-01
-5.798057430029150000e-02 1.428581776638639389e-01 -8.902649520576236819e-01 6.342778213915127861e-01 1.232596049947280205e-02 7.730069313975144185e-01
5.062282710584513519e-03 8.975312080349850952e-02 -9.600608596965032326e-01 7.737416081766848031e-01 5.668762197347037429e-02 6.309599331900166419e-01
-4.105358778015647490e-03 4.324830740860614864e-02 -9.447341737861549849e-01 8.423207480999161945e-01 2.464395519483339458e-02 5.384128831972285756e-01
-1.408707128913825463e-02 1.352003065813716098e-01 -9.414934501184126781e-01 8.002132382046301950e-01 9.821600738046451506e-02 5.916184490837825827e-01
4.700789768938106253e-03 -1.202126802541231415e-01 -9.639505562183448006e-01 6.933600107717104999e-01 1.016622297518504289e-02 7.205196342731212678e-01
-6.472023964798087614e-02 1.978984683714770654e-01 -8.921477347332624763e-01 8.805702114490382426e-02 5.374359312889009227e-02 9.946645601531615144e-01
-3.785282107343586333e-02 1.289524920409373387e-01 -9.059898625940767669e-01 5.561526470743199946e-01 -3.634776687544951507e-02 8.302849348238200422e-01
3.781908054872928221e-02 -8.834640008404559541e-02 -1.000825072595177723e+00 7.932402113586168868e-01 3.737191490102480945e-02 6.077608962909405443e-01
-9.894511290606471110e-03 1.430994163835047628e-02 -9.366625853011844027e-01 6.869106358189498440e-01 -7.959432294644885886e-02 7.223700728528987813e-01
-2.323579842834193332e-02 4.649606558502625275e-02 -9.212534204540301364e-01 6.811362110219570942e-01 -3.969010032492522461e-02 7.310801310190622182e-01
6.987724181556281833e-02 -7.329960443391131397e-02 -1.044124868881981971e+00 7.824128836013897192e-01 7.342038158802439984e-02 6.184169525021344649e-01
