-1.551198451415946034e-01 -3.399201885999698219e-02 -9.733160025508762470e-01 4.487851880720221120e-01 4.500221220105056763e-01 -7.720569568809811933e-01
8.960765482161037188e-02 -1.548717578884952206e-01 -8.953076114321883994e-01 4.549816393905837253e-01 4.532610719467988769e-01 -7.665155631003819359e-01
-3.972241205472842873e-02 -1.170634183479933588e-01 -9.517007209037301463e-01 4.625399649446486627e-01 4.340467210825385558e-01 -7.730848755127086580e-01
-3.807027185001527619e-02 -1.919317321642360352e-01 -9.958930196554970360e-01 -4.720871226946866117e-01 -4.410888078785189514e-01 7.632656235873322981e-01
2.200238062764452163e-02 -1.357408141276987279e-01 -9.274789270027227195e-01 -7.061851118721391707e-01 6.891585258118977375e-01 1.623672198163960689e-01
-1.184465379782587702e-01 1.662529969311607805e-03 -9.303155790964759975e-01 4.635207820577820215e-01 4.396307506450480296e-01 -7.693330148172594640e-01
-3.996295006950150060e-03 -1.740014161312321284e-02 -8.720434338174501976e-01 4.657762625944966151e-01 4.340777802655280682e-01 -7.711218800444288313e-01
-1.246748672633206899e-02 1.328898268511140845e-01 -7.897427794967009085e-01 4.593976067007449759e-01 4.376887962627984963e-01 -7.729051407408610297e-01
-9.789171230709126439e-03 9.750785799291626643e-02 -8.087499208162609587e-01 4.600257688826459579e-01 4.461931324709306756e-01 -7.676509496507569752e-01
-6.474544734802681334e-02 2.423207984774510548e-01 -7.577494568830183130e-01 4.534499011907549004e-01 4.541364857062089033e-01 -7.669049742050895180e-01
7.078862687177087110e-02 -6.128258245101609464e-02 -8.538397938566821832e-01 -4.710886573575400749e-01 -4.314011024611341116e-01 7.693949348055187931e-01
1.079992355357206335e-01 -2.052614170175052696e-02 -8.059923189833986257e-01 4.550395569191939549e-01 4.423999427988410393e-01 -7.728009396024088096e-01
-4.456231403637860022e-02 5.088315173087768449e-03 -8.835477935327905596e-01 4.639245547166607198e-01 4.358430103433613145e-01 -7.712424248352685030e-01
9.733467048712064751e-02 -1.307556639111259189e-01 -8.782095931516948895e-01 -4.452190803478988101e-01 -4.539147886930915976e-01 7.718428176124185747e-01
1.330199293204245570e-01 -1.880407187976860239e-01 -8.883490306230764633e-01 4.543710373530301383e-01 4.607172109934718485e-01 -7.624215447566575765e-01
1.228133614295063430e-01 -1.628105639572101082e-01 -8.814083826320255888e-01 -4.601485150748583774e-01 -4.466070430247601197e-01 7.673366231290430495e-01
7.764592283238103132e-02 -6.065539554366044389e-02 -8.511924717619628877e-01 1.120662124806320048e-01 -7.826335542526410283e-01 6.123119170636189823e-01
-1.909998129175799475e-02 -1.353598815835923841e-01 -9.498863492205263936e-01 4.594823829831689577e-01 4.432069280092589270e-01 -7.697035524750449609e-01
-9.579109552345965728e-02 1.597477308818715316e-02 -9.098783270958340497e-01 -4.630368982365220543e-01 -4.527586320981938361e-01 7.619753617618310049e-01
4.678286175125913327e-02 1.385664076704038947e-03 -8.319718528154520509e-01 -4.604921249850580933e-01 -4.479178072960672274e-01 7.663658661069324696e-01
-5.208198872683056715e-03 -5.110360253363913779e-02 -9.019798668300759159e-01 -6.845933219008468740e-01 -3.571364672960098963e-01 6.354412068288375348e-01
-1.414116070479369200e-02 1.554191693218427150e-01 -7.776253830111313770e-01 4.645181171473239945e-01 4.559611006783804710e-01 -7.591590041026088365e-01
2.467472136098148444e-03 7.473354068245957604e-02 -8.128723949967717743e-01 -9.235145049203966061e-02 5.824816818529490181e-01 -8.075805222377371306e-01
-2.012199614846769610e-02 -1.417474840653247525e-01 -9.541745293704875230e-01 4.594823829831689022e-01 4.432069280092591490e-01 -7.697035524750448499e-01
5.640248121462168585e-02 -7.329477739511675027e-02 -8.695862599782087088e-01 -4.645951603202119196e-01 -4.463751114297742073e-01 7.647879424409705917e-01
1.292505683614649792e-01 -1.873329625427977985e-01 -8.917589570100195040e-01 -4.721827720746348822e-01 -4.359926154419891398e-01 7.661291464472339552e-01
1.082488587725001367e-01 -1.260864205227470447e-01 -8.688962661984118707e-01 -4.607715340392418146e-01 -4.481641394701342818e-01 7.660538476583209633e-01
4.482572039434996186e-02 1.871881424496750490e-01 -7.244987983071020654e-01 -6.068365680358949188e-01 -5.135008881479894427e-01 -6.066846112813830683e-01
-5.565331665084648910e-02 1.353567519788826667e-01 -8.145018896194825553e-01 4.494285300489518353e-01 4.346919072874229628e-01 -7.804210031238657530e-01
-7.789809502728001211e-02 1.221138426633805868e-01 -8.356445696056363781e-01 4.669908586989313659e-01 4.378350472245591818e-01 -7.682577753029921075e-01
7.996700994440444910e-02 4.831243758682065431e-02 -7.845491985753186848e-01 -4.697384173563295962e-01 -4.417259833976135419e-01 7.643454551778156025e-01
-9.716540855693944767e-02 -7.470798968803034346e-02 -9.618409548325808078e-01 4.684969996375242807e-01 4.530443874760325951e-01 -7.584598501615653632e-01
1.207856894801239561e-01 -1.158464294355156382e-01 -8.537347210125780794e-01 4.721491840714260313e-01 4.337593722490685200e-01 -7.674164156224316802e-01
-7.277542612730919513e-02 2.015235830317909926e-01 -7.863154333454409617e-01 4.707897607428861431e-01 4.394307512553566886e-01 -7.650213173701820857e-01
-5.226411721419171180e-03 7.646366414044102056e-02 -8.197843495573621242e-01 -4.627078164354280210e-01 -4.481372523169161459e-01 7.649016143893297981e-01
3.678396486159294515e-02 8.820467557722237728e-02 -7.874516484223871293e-01 -4.650417282539522357e-01 -4.395654976408642778e-01 7.684519271017001829e-01
-9.177504393351734735e-02 -1.362569445497973930e-01 -9.960253692592524466e-01 -4.651117708054320343e-01 -4.314903412464293209e-01 7.729729141886378940e-01
5.761211428934637224e-02 -1.274789063494822794e-01 -8.988115962548967053e-01 4.632586143980386151e-01 4.414262085562382087e-01 -7.684623338756909616e-01
-2.143695567456517168e-02 5.016601478462685837e-02 -8.469895026332866506e-01 -7.301329470670440136e-01 -5.453640342254648665e-01 4.116842841067887004e-01
2.581032306085744715e-02 -2.118030624076976814e-02 -8.577603535102202859e-01 -5.233840817485178043e-01 -3.827246591324874325e-01 7.613087010301289315e-01
3.465254963568596691e-02 1.416885321648070871e-02 -8.302386554377382266e-01 4.699305249388283645e-01 4.510354486385733108e-01 -7.587702720864321071e-01
2.455670836837577087e-02 -1.274727391774515585e-02 -8.550616966179136469e-01 4.454433908986859536e-01 -6.203399424624990166e-01 6.455683862227951098e-01
5.573756720437552086e-04 -2.487598120542886815e-01 -9.982317856814899582e-01 -3.572913654578938059e-01 8.554539671378593724e-01 -3.748885037945708376e-01
-2.523631694140082704e-02 9.008754678612708455e-02 -8.283469675316071923e-01 1.243438293555042817e-01 -4.456704541744144765e-01 8.865192938550071622e-01
-1.322027758118431671e-02 -1.576939041084138571e-01 -9.558398042738659450e-01 9.950107460864940911e-01 9.942281614005862855e-02 8.289680523328020467e-03
2.408926230666844429e-02 5.108882247330252119e-02 -8.168089448073125869e-01 -4.630596919658774846e-01 -4.313202922927409366e-01 7.742987324882891764e-01
-1.640196384202184665e-02 1.685258272418074244e-01 -7.729740075297816260e-01 -4.622746764907045280e-01 -4.576631420171389797e-01 7.595041618809044159e-01
4.083581608020957904e-02 6.649012610825277836e-02 -7.960796569019851221e-01 4.592479468932751385e-01 4.573897431623931142e-01 -7.615024268668824092e-01
4.873081064319143008e-02 -1.582191076992084111e-01 -9.204343406977095743e-01 8.496269157629326996e-01 2.362290570454501915e-01 -4.715187553200656523e-01
-3.826464072675007239e-02 -1.884180972338712345e-01 -9.939435135765319895e-01 -4.570924992094865802e-01 -4.525948551162398692e-01 7.656528875990317173e-01
-7.420032508899096491e-02 -7.742190074491779594e-02 -9.511404224390340723e-01 -4.571626207977217971e-01 -4.559951785088172116e-01 7.635906857224428190e-01
8.067173667125226988e-02 6.317875779190941510e-02 -7.738111378305525534e-01 4.568544865916508990e-01 4.393299390219710387e-01 -7.734812103471101485e-01
6.740891043887306533e-02 -8.469216005615176623e-02 -8.695605355639898226e-01 -4.644615177419446628e-01 -4.463696047467427541e-01 7.648723256172142992e-01
-1.610948434704844237e-03 1.792869072819838483e-01 -7.561125906881019931e-01 4.696504620582879763e-01 4.391671961890582510e-01 -7.658724549687615513e-01
7.296796722417844654e-03 1.866422199230259038e-01 -7.464705591318426814e-01 4.813945575565399815e-01 4.458370144246187605e-01 -7.546447088026825289e-01
-9.277098345904610799e-02 1.352503232983585102e-01 -8.386367789346058643e-01 -4.631380575798885180e-01 -4.379946723371955786e-01 7.704958186942749698e-01
-1.314250803350675012e-02 1.842226242707411046e-02 -8.647815331186416987e-01 -2.273656745192573492e-01 -4.373926216440047754e-01 8.700531849156049047e-01
-7.610875980149493791e-02 2.780681386507312738e-02 -8.865021674053643608e-01 4.893932694784727255e-01 5.271908752484297800e-01 -6.946682725185924223e-01
7.413746831743232846e-02 -5.199611082464122153e-02 -8.464595702050748960e-01 -4.640902262758467289e-01 -4.474356313465069901e-01 7.644747331840250348e-01
1.008828142829596985e-01 -1.492457586960587446e-01 -8.869738916532016182e-01 -5.073466514224458379e-01 5.731612477444011367e-01 6.434948013577984627e-01
-9.840447596124732299e-02 8.267681775732334259e-02 -8.710084003419936716e-01 4.579049735251641273e-01 4.474578500824874516e-01 -7.681826004411171915e-01
-2.243871721975019759e-02 -2.519883590131044224e-02 -8.830082877768760108e-01 3.461103684994873975e-01 4.213956294892675092e-01 -8.382322686848158177e-01
-6.025597922052438465e-02 -1.582642489650191164e-01 -9.897290532192219992e-01 -4.583405819316659358e-01 -4.556570892939575956e-01 7.630861864368271297e-01
-9.645252018661232274e-02 -3.097723846163205272e-02 -9.376163313862518889e-01 -4.667473575684605858e-01 -4.348737545398089765e-01 7.700855288961803158e-01
-8.742192540106627496e-02 5.349964130757523667e-02 -8.839007271039223124e-01 -8.536363458767126655e-01 -5.033652902837078003e-01 -1.338968764977435111e-01
-7.553451009711371900e-02 -2.051601272912905727e-01 -1.026266251438234134e+00 -4.570405503991508134e-01 -4.447699408002880328e-01 7.702555647649352855e-01
4.894623093816260172e-03 -2.297899880833714492e-01 -1.001994872381022361e+00 -9.234416668960584440e-01 -5.749893756854167204e-02 3.794065893190547989e-01
-1.646781125624734513e-02 4.051574571513486683e-02 -8.398054044728904266e-01 3.763315509731082753e-01 4.161365733109276266e-01 -8.277710529459301192e-01
-7.577294039524982983e-02 -1.379212094837955344e-02 -9.150349699006274928e-01 -4.649611864198902600e-01 -4.361357733673170700e-01 7.704522582952821885e-01
1.238482871138792824e-01 1.833007611264200060e-02 -7.738119336231312761e-01 4.697192990410834490e-01 4.527287400649176452e-01 -7.578921216291836238e-01
1.160502200458523175e-01 5.792770326297946165e-03 -7.857697352319018558e-01 4.595714913926353673e-01 4.479468264853502801e-01 -7.669013528093771015e-01
-1.317822908122036341e-01 -3.684386946325639289e-02 -9.608472355484120042e-01 4.669679758138126080e-01 4.500791957943671706e-01 -7.611633379751328032e-01
-1.339372539453362876e-01 3.364037952313557456e-02 -9.211537612727359603e-01 4.735506466585697183e-01 4.450157441921399615e-01 -7.600728731314955189e-01
-1.099536483509027246e-01 -1.167820695393147618e-01 -9.957478894461068153e-01 -4.704740536976075860e-01 -4.491125929744266831e-01 7.595735932937160984e-01
6.146788148413868946e-02 1.219681864743345501e-01 -7.528754106324226925e-01 -4.709639324431746377e-01 -4.502763125077979822e-01 7.585803956945110782e-01
-3.927878425602038953e-02 2.286265096518513840e-02 -8.716264250298655369e-01 -4.639103825018083271e-01 -4.367902966373181095e-01 7.707148589267690530e-01
-7.526521984105641327e-02 -2.008791560903152029e-01 -1.021990009694888846e+00 4.658782877323841554e-01 4.503028508588685641e-01 -7.616986041262762130e-01
8.299293870952260954e-02 -7.876735671905485403e-02 -8.550371636932113661e-01 4.640743513510651175e-01 4.473442249694029038e-01 -7.645378609360120592e-01
8.488201519015563246e-02 -5.011301715377044358e-02 -8.350900330029255025e-01 6.810165284413991493e-01 3.289027833538353263e-01 -6.542472369767602380e-01
-6.209197890050800056e-02 2.470770933184131615e-02 -8.827781894601376411e-01 4.611565467209611247e-01 4.546425267262271808e-01 -7.619939713071159915e-01
2.008404700752236191e-02 8.687700616348272009e-02 -7.967509734162943058e-01 4.552410014503291413e-01 4.590848313562294614e-01 -7.628871136787696017e-01
-1.086535536532219903e-01 1.586805512826525155e-02 -9.177471999175196293e-01 -4.626677084554997044e-01 -4.530788022173756757e-01 7.620093113169977839e-01
4.074065863527294440e-02 1.109200197385835571e-02 -8.299176720993270973e-01 -4.590313477477845350e-01 -4.490563749882092170e-01 7.665758891768652550e-01
-7.574162468763859929e-03 -2.022403399913073330e-01 -9.867732367465796850e-01 6.430947930358591469e-01 -3.439578443620216475e-01 6.841944814685346765e-01
-5.169315826430149335e-02 -7.993185459747434440e-02 -9.389376191294097618e-01 -4.620917076267977430e-01 -4.402999707622785586e-01 7.698098398236327133e-01
8.298161581876033199e-02 8.293561131464823044e-02 -7.625356959955729153e-01 -4.625730161730448597e-01 -4.514114077633514244e-01 7.630556635329308612e-01
-5.600485189779527695e-02 -1.085566243843920642e-01 -9.565958092015317549e-01 4.579443171478779773e-01 4.524772009574733467e-01 -7.652132937983070482e-01
4.334847201674209283e-02 7.088058647222515718e-02 -7.919524571486586950e-01 4.665412487843636491e-01 4.420738917262398981e-01 -7.661004747660344893e-01
-1.387253539284316051e-01 -1.955914860112226497e-02 -9.565873409212196643e-01 -4.666529982097775697e-01 -4.448296572762428513e-01 7.644354487262647879e-01
6.089814212761510137e-02 -4.441279324079187851e-02 -8.484512677225055644e-01 4.637537909712347028e-01 4.482569238428948943e-01 -7.641977176010887884e-01
4.376763905289358936e-02 -6.171865219728064900e-02 -8.705031230218627236e-01 -4.649013397627319577e-01 -4.492491842062728558e-01 7.629167154918127247e-01
7.368417653388252553e-02 -1.318519418051987691e-01 -8.915577897588603529e-01 4.736980243517731060e-01 4.431326111271663426e-01 -7.610805940771624423e-01
1.145434498505282506e-01 4.935957852463571799e-02 -7.613843508274003025e-01 4.594278802896755720e-01 4.436988312444313798e-01 -7.694526430943370299e-01
-1.889096083131898765e-02 -1.698543794742978300e-02 -8.791282283581294266e-01 9.854170359241164467e-01 -1.419991642618833455e-02 1.695630492885099594e-01
-4.363431022109588719e-02 2.092638449505762333e-01 -7.667859114409735222e-01 5.156885156433216322e-01 -3.068383660967220483e-01 7.999472307125524706e-01
-5.110984734679345498e-02 -1.302037460962658377e-01 -9.678620781369314807e-01 -4.520372855030039272e-01 -4.844917056929113897e-01 7.489526551323848480e-01
1.141505113035691694e-02 -1.461340737833455306e-01 -9.376179531451114268e-01 4.633006403746883217e-01 4.462688556955826114e-01 -7.656347856939097474e-01
-1.034277000973313730e-02 1.429159614880998741e-01 -7.842179944679189552e-01 -4.775604417645989974e-01 -4.330586320194837469e-01 7.644581386151986235e-01
-1.601837104184209576e-02 -1.661112384348096549e-01 -9.704098323089559441e-01 1.109528243573202344e-01 -3.872089396013199229e-03 9.938181310938348778e-01
-1.067874091852197144e-01 1.147231494960901377e-01 -8.575179458562434132e-01 4.666128473851192116e-01 4.370097919013183341e-01 -7.689570159882267442e-01
-2.529391933760800903e-02 -1.012778063421218289e-01 -9.338299703673419438e-01 4.713335999706530499e-01 4.398245453241533265e-01 -7.644599445812098049e-01
8.762399749739835375e-02 -3.860816539649314372e-02 -8.321337182319905601e-01 -4.730584258673188880e-01 -5.967088700681221214e-01 6.481930654503789135e-01
-4.308820090697478011e-02 3.415904650876594451e-02 -8.673508990710080413e-01 -5.233840817485178043e-01 -3.827246591324874325e-01 7.613087010301289315e-01
-6.416509587851323970e-02 -5.939108275395645065e-02 -9.345969332950623265e-01 -4.615576785529580950e-01 -4.459762591028766932e-01 7.668570177584659309e-01
7.062315746171150821e-02 -1.888855192110073244e-01 -9.265894991995660135e-01 4.645604558860024769e-01 4.514276661388790246e-01 -7.618376763270471308e-01
5.454195729604446874e-02 4.256384100837300177e-02 -8.032574072169478274e-01 -4.689221597107293693e-01 -4.452428427291892366e-01 7.628045746655270909e-01
-1.238827868294301304e-01 3.061539115044343770e-02 -9.167546566256887797e-01 4.577941948566828234e-01 4.390112597331710109e-01 -7.731064538490256544e-01
9.631603271787246567e-02 -1.874048283831695472e-01 -9.117938800625544626e-01 -4.720734976898955382e-01 -4.466238865176626605e-01 7.600484963281529671e-01
-1.118253260093248630e-01 -1.499555756734258227e-01 -1.014582709086091272e+00 4.744953890282040398e-01 4.381468295216371378e-01 -7.634667521058862150e-01
3.016819371903420310e-02 -5.461617455454245013e-02 -8.746278232575562805e-01 -4.663909019220894292e-01 -4.494035431736146946e-01 7.619159940487540972e-01
-3.839130351439024730e-02 -1.316911118244688261e-01 -9.610139453162414025e-01 -4.643787934168939757e-01 -4.519904957703854143e-01 7.616146847047468027e-01
-4.196145175913926738e-03 -1.497550298340991071e-01 -9.417974642309083766e-01 -1.445490880433367674e-02 5.691178560261789254e-01 -8.221288959546574349e-01
1.126662008579310120e-01 2.474296697143782073e-02 -7.768485702814880156e-01 4.513185769330926300e-01 4.518653520128374512e-01 -7.694993474756185448e-01
-6.519334755769862211e-02 -1.076764890474839892e-01 -9.590228314325448533e-01 3.461460770953097010e-01 3.920111508764446695e-01 -8.523556481305519794e-01
2.999730317443083036e-02 1.995190164273164535e-01 -7.252168025649864402e-01 4.575872573375575625e-01 4.402240652575525326e-01 -7.725391085831229132e-01
-2.481275300340957807e-02 1.870356913109743335e-01 -7.649199254661879221e-01 9.009172874141839829e-03 8.764297402390996972e-01 -4.814454748240427628e-01
-8.487662384658026249e-02 -1.236191373518553543e-01 -9.844477264842425024e-01 -4.580670482075151484e-01 -4.484200961266083252e-01 7.675245903137289938e-01
-9.743937108186945251e-02 -1.247145265037642309e-01 -9.927320895875068052e-01 -4.602175242883703721e-01 -4.452629563152861736e-01 7.680759923804773015e-01
2.758677184645797961e-02 7.299313564480418293e-02 -8.019114043824761007e-01 -4.649567455428640916e-01 -4.440330691998827795e-01 7.659307137275018773e-01
1.365430294416507262e-02 -1.244583291258760382e-01 -9.236706013734085063e-01 4.700691231661886516e-01 4.374237250944254529e-01 -7.666130080883620801e-01
5.396617424249165046e-02 1.101683335620024518e-01 -7.627015162554928729e-01 4.566171963480202822e-01 4.483264247498465749e-01 -7.684426802763455466e-01
-1.280542755647983977e-01 -7.851282307077506184e-02 -9.844199171267069559e-01 -4.613181186685767488e-01 -4.467181015522947440e-01 7.665693257192064403e-01
-2.988909960551438746e-02 -1.098616361473889191e-01 -9.431898741561258737e-01 -4.709037504113837147e-01 -4.396704731357066742e-01 7.648133974383014566e-01
-1.389545764164836494e-01 -2.776177736359193571e-02 -9.598902984784372094e-01 4.662736583885965236e-01 4.375187570960590855e-01 -7.688733398174460998e-01
-9.571127157713731071e-02 -8.923295789111386836e-03 -9.243235041079558290e-01 -4.649826155692075580e-01 -4.376847244780334156e-01 7.695604259426329641e-01
-1.179544298514080269e-01 -1.114032364819610849e-01 -9.974385310028484053e-01 -4.617339166848533072e-01 -4.478245499565362553e-01 7.656728822670231249e-01
-9.997004804791044530e-02 -8.317046524411859237e-03 -9.265548114118167256e-01 -4.654782663714847613e-01 -4.377827459186340864e-01 7.692049472746114169e-01
-2.603766205130824893e-02 -2.025707594068291151e-01 -9.947250097997051288e-01 -4.638417956018479060e-01 -4.404956811641270176e-01 7.686444844846058722e-01
-3.674229029415289338e-02 1.730495135205474821e-01 -7.776126862248713412e-01 8.665516749204081604e-02 4.474667087265666865e-01 -8.900923696607787594e-01
-1.433802739915269464e-01 -8.040332104220292153e-02 -9.947951241893474572e-01 -4.868117273890785190e-01 -4.388729148945895164e-01 7.552515519006816058e-01
5.227007712371972703e-02 -1.431519043957321935e-01 -9.111519880439188368e-01 4.909140589614858219e-01 3.913085377785520680e-01 -7.783835911525693874e-01
-1.092995428444781120e-02 -1.922270781883079205e-01 -9.705421877720973312e-01 9.804597234116944060e-01 1.926037439996756695e-01 -4.003159458191958564e-02
-8.250119417758883245e-03 -7.955908104950869253e-02 -9.027096956130080674e-01 3.458450832454793011e-01 4.560472457038532990e-01 -8.200073707478833240e-01
-8.471699231582888179e-02 -7.651527407232007472e-02 -9.536648318358528220e-01 6.668945952809969546e-02 1.991086603506277974e-01 -9.777056087397824058e-01
-1.092828791661129700e-01 -1.738731117864628362e-01 -1.027403926338451123e+00 6.626413790350281774e-01 3.912422662834255105e-01 6.386203033602716461e-01
1.199225982348667979e-02 -3.293784566851491041e-02 -8.730243076459170970e-01 -4.623720339583553551e-01 -4.346465640552570342e-01 7.728482817268683691e-01
1.049541109734322547e-01 -5.598400951946606863e-02 -8.300649931220018818e-01 -4.648789431054144994e-01 -4.464639574776116393e-01 7.645636029334789141e-01
3.882154519747996191e-02 -4.638513322069324346e-02 -8.620209833496004226e-01 2.484956122381379584e-01 -3.416297547326034578e-02 -9.680303826870344519e-01
-1.166674269544629855e-01 9.439322440299174888e-02 -8.768933886141638823e-01 -4.620344417172985163e-01 -4.412049211658584102e-01 7.693259336627181755e-01
4.936888346194608090e-02 -7.368656924724864728e-03 -8.338845888110425486e-01 4.613994905108592670e-01 3.984880687157018042e-01 -7.926649791983682025e-01
-9.903494083356667588e-02 8.967573651287782943e-02 -8.673854727836074474e-01 4.570362313137682486e-01 4.363433008380749878e-01 -7.750628407298605360e-01
-4.487857259416487554e-02 2.246332753584900643e-01 -7.598645092185790650e-01 -2.094570620389230031e-01 -7.505016648829525572e-01 6.267974075966964431e-01
2.314727116362048833e-03 9.042057736332212436e-02 -8.037842736458096216e-01 2.422634177468553918e-01 3.901879102320489068e-01 -8.882915237298841804e-01
4.994054943158119687e-03 2.227721616104013924e-01 -7.268059876936873165e-01 4.751122144195074615e-01 4.612985322459548509e-01 -7.493143851929708887e-01
-1.659996974271800560e-03 -2.164676777135001451e-01 -9.769104387093030528e-01 8.746426641825187642e-02 4.474349496042395180e-01 -8.900291950113595751e-01
4.825667802783024929e-02 1.218404266608083125e-01 -7.594111819444148148e-01 4.701832884225493059e-01 4.500364731960094788e-01 -7.592067228900541975e-01
-1.272363569823790341e-01 -1.168372973102275031e-01 -1.004609274079419245e+00 4.574153345925500713e-01 4.485686889946988165e-01 -7.678263755128256207e-01
-4.104690475428528218e-02 1.372807398177486315e-01 -8.045171008079595731e-01 4.647505205133706796e-01 4.529099631017724503e-01 -7.608413231454389525e-01
-3.774352760468728529e-02 -1.085292236520006975e-01 -9.455710319468442204e-01 4.633948393776505248e-01 4.555586407371418067e-01 -7.600865396044647060e-01
-7.459352286657686126e-02 -1.108984186344777606e-01 -9.708416385195433040e-01 -4.647971209880101817e-01 -4.526353921554508442e-01 7.609762401609780902e-01
-8.523250994579732731e-02 1.341030161235879682e-02 -9.033459371217175127e-01 4.646636263422239677e-01 4.383903998100210364e-01 -7.693513967680205567e-01
6.242512721038196571e-02 -3.820707019908636121e-02 -8.454847108295650004e-01 -4.637840149880220753e-01 -4.483571881885485833e-01 7.641205528195460506e-01
-7.524551551399662197e-02 1.539742217648128464e-01 -8.170934246555832114e-01 -4.505024442215592728e-01 -4.511643838622303448e-01 7.703883737989657421e-01
-6.059767766247928580e-03 -6.038128874504259530e-02 -8.934456768697653928e-01 -3.320903634624225442e-01 5.311346072092584247e-01 -7.794947206492569558e-01
-1.463349289302140754e-01 -8.761719801003051145e-02 -1.000456012040745302e+00 8.900571560408225835e-01 -2.162217926832418202e-01 4.013058625903287435e-01
-7.086980581339269447e-02 1.468848101418594732e-01 -8.169614152816383479e-01 4.686015033072735148e-01 4.345975375223855575e-01 -7.691148233376093879e-01
-1.720036435867073818e-02 -5.995151529506530935e-02 -9.064385905086205231e-01 -4.618693901460218521e-01 -4.467427270647195137e-01 7.662229455327735916e-01
-1.822240704070697201e-02 -9.518183193497641026e-02 -9.275734609679304743e-01 -4.693737046706545901e-01 -4.484624619945828949e-01 7.606377229308983745e-01
-5.444005292457323314e-02 -1.150013127771322974e-01 -9.635459070161177531e-01 -7.899635089226264562e-01 -4.777043682228889199e-01 3.843906751619007856e-01
-1.347618802526290294e-01 -2.997670355100857161e-03 -9.428740786906604221e-01 4.679758947246190348e-01 4.428943605751775592e-01 -7.647503823649891563e-01
2.450216081686169486e-02 -9.205011863786377591e-02 -8.982547506497094991e-01 4.677480416373221428e-01 4.435183691053342092e-01 -7.645281066191056407e-01
-9.719397951325764451e-02 1.301944161775974995e-01 -8.426280561158728810e-01 4.850348233796645814e-01 4.483031619283491809e-01 -7.508431894304575804e-01
-7.037033806111149883e-03 1.461701351655296799e-01 -7.783988231511965727e-01 -1.114013989518204129e-01 9.735597498727692756e-01 -1.994270336219448048e-01
1.110001249991604197e-02 1.040766811756850402e-01 -7.922414727121632749e-01 4.624307801404242690e-01 4.399816139817757099e-01 -7.697882520126625439e-01
1.039077995692475886e-01 8.534306507401209774e-02 -7.484484346659375786e-01 -4.609914775109423268e-01 -4.451340556104051993e-01 7.676864791033584101e-01
5.288480486678185516e-03 1.108593789957297397e-02 -8.498254041219721611e-01 4.690902856824684108e-01 4.351977015863744414e-01 -7.684772374067283529e-01
-1.397765085823651776e-01 -6.985492757395504217e-03 -9.482845967774997664e-01 4.717973846501524182e-01 4.461429312410585823e-01 -7.605022766178365368e-01
-1.902084711467924918e-02 -2.347410513721973901e-01 -1.007647264851552205e+00 4.597636526676606716e-01 4.507347516330826309e-01 -7.651506827782055264e-01
1.221816284798384611e-01 -6.337752728223952636e-02 -8.223780520410861605e-01 4.537592847083721792e-01 4.474342817126885086e-01 -7.706523698070338879e-01
1.239849632402956342e-01 -4.990384642574482998e-02 -8.149901885313061145e-01 -4.685950186644077808e-01 -4.458524374009427138e-01 7.626495345481709709e-01
9.786163058889463251e-03 -1.005756120221883293e-01 -9.120955068290137469e-01 4.696649952279564055e-01 4.410132415334026557e-01 -7.648020090518358183e-01
1.576055787053092655e-02 1.124705791070962357e-01 -7.845400459665033965e-01 4.654328266892076571e-01 4.561379747726279632e-01 -7.584922094592795316e-01
-3.095781061606187393e-02 1.273073052857907339e-01 -8.021826909446839737e-01 -3.378113979211372353e-01 4.691348707802697193e-01 -8.159631930746306105e-01
1.805410736030842178e-02 -2.079962095841322578e-01 -9.711790600760151770e-01 -4.620537725393163431e-01 -4.437580391198637231e-01 7.678444595090072600e-01
5.401794479587926356e-02 1.068026057595340833e-01 -7.646366097078163282e-01 4.573872869114954387e-01 4.488449287604311944e-01 -7.676816395471400822e-01
1.661472429592896274e-02 4.650693583055490882e-02 -8.223865380052847174e-01 4.666350852526293669e-01 4.504138553129644063e-01 -7.611695318083767647e-01
-1.544389397730730126e-02 -1.216047969400526202e-01 -9.359267276178497852e-01 9.992425584728705790e-01 1.152628521075819631e-02 3.716791742661919307e-02
5.194693688383538593e-02 -9.665164190753103290e-02 -8.837700261687967407e-01 -4.836206027407372043e-01 7.622965764327463978e-01 -4.301337491567013283e-01
-4.774716110530452529e-02 -5.932087086602869791e-02 -9.246116558605869118e-01 -4.634546247428266708e-01 -4.571745395286936908e-01 7.590792127381784660e-01
-3.109063233005404485e-03 -1.893960865244309899e-01 -9.821207271989604859e-01 3.737078386278089998e-02 -4.895310460501826055e-01 8.711846988248218571e-01
-8.285069756502265459e-02 4.518908794711605503e-02 -8.832284879073502015e-01 9.305146514682726133e-01 -3.135879772634130869e-01 -1.892222606320937417e-01
1.061403128527778489e-01 -2.882301591252738049e-02 -8.119709012041207430e-01 4.531916287474349603e-01 4.444893340984280017e-01 -7.726878926875864195e-01
-8.510099775965326852e-02 -7.082880699306386141e-02 -9.539262138812447667e-01 -4.624907778134774716e-01 -4.419488493537394591e-01 7.686244173797694978e-01
-8.645740846760067988e-02 1.802974949955044592e-01 -8.085897241459830687e-01 -4.653681727825149661e-01 -4.428677515127089070e-01 7.663554126064099359e-01
2.191816802306436121e-02 7.493619014892659302e-02 -8.026347528321553515e-01 4.662673057356520601e-01 4.430984655780335624e-01 -7.656752244943074714e-01
-3.844977573270964843e-02 7.022350308688063425e-02 -8.419274652267374481e-01 4.586986180585172490e-01 4.374550859295239236e-01 -7.734524068005733666e-01
-1.301926087430714876e-02 1.584151337445418861e-01 -7.767902056181504866e-01 -4.731633190445972970e-01 -4.412323134071806097e-01 7.625159140083884735e-01
4.806538444236156671e-02 -6.812382025380009365e-02 -8.716363645109665992e-01 -4.653574308673664728e-01 -4.464117664563190258e-01 7.643029479897831546e-01
-5.213450851544060988e-02 -4.766960260647450098e-02 -9.188813485669971026e-01 4.656295063826933478e-01 4.334272138837005350e-01 -7.715763170619108768e-01
6.599953142505531056e-02 -1.761336485520577366e-01 -9.236044632188589176e-01 -4.725182386557885139e-01 -4.381135685156116732e-01 7.647110664951487502e-01
-4.146615939746794294e-02 4.570594503717272735e-04 -8.860049842249727581e-01 -4.755350014171699224e-01 -4.425919664703264478e-01 7.602491786533553952e-01
7.916056375873339879e-02 -1.898732650084812290e-01 -9.220428029360742128e-01 4.618892106079311444e-01 4.326640733554191209e-01 -7.742481235053004784e-01
1.183712745869876654e-01 -1.368046647198530585e-01 -8.689888497612008322e-01 -4.578440154556511765e-01 -4.525984957956082910e-01 7.652015807060243979e-01
-6.810220175940407718e-03 -1.297344808043977837e-01 -9.313564298998210367e-01 9.501743191009683759e-03 4.491359941379504117e-01 -8.934128808373243968e-01
2.678355635485954456e-02 -8.937589757169318860e-02 -8.953075558897790609e-01 4.673626762534540124e-01 4.443414342519814708e-01 -7.642858226161867163e-01
-5.424691393272485646e-02 1.909981494503277394e-02 -8.813054928074114391e-01 4.634691614105695412e-01 4.375550917639969839e-01 -7.705464801637754713e-01
-8.919048483085016688e-02 7.437660916870507399e-02 -8.703252186435230797e-01 4.609018839596009109e-01 4.443720009206524879e-01 -7.681816049348396680e-01
2.194292960658818931e-02 8.477576989888865877e-02 -7.985057941851106955e-01 -4.556740610118926726e-01 -4.568804575153895819e-01 7.639511749198756307e-01
-2.081599823572847022e-02 -1.547733589996198034e-01 -9.641374961008161160e-01 -6.619559341958874965e-01 -5.603999834763384591e-01 -4.977611874208043852e-01
1.374504649232374115e-02 1.024269650179018970e-01 -7.915939588386025072e-01 4.748585531530993276e-01 4.422765731516541399e-01 -7.608552998688875579e-01
-6.315199669468395116e-02 8.000999802470443178e-02 -8.528090339378264773e-01 -5.233840817485178043e-01 -3.827246591324874325e-01 7.613087010301289315e-01
-1.872805033715850553e-02 6.069377661746038627e-02 -8.414629118977521305e-01 2.324350528832493934e-01 -4.368547421804107600e-01 8.689832451927067547e-01
1.775888250243888578e-02 5.865014561888574202e-02 -8.146648343297188122e-01 4.661581256311363441e-01 4.483092290650828038e-01 -7.627027186546124771e-01
-9.817327614286315215e-03 8.497016839379091871e-03 -8.597600414329648055e-01 -8.520968859069142365e-01 2.350812420460531293e-01 -4.676191897963813959e-01
8.947427071189655023e-02 4.123299330142703167e-02 -7.829213877601848282e-01 -4.704097060340846070e-01 -4.412323871352426541e-01 7.642176973950954855e-01
3.670581644764829565e-02 -1.272050860344327849e-01 -9.113065978665875200e-01 4.658020437342978437e-01 4.394163708814022851e-01 -7.680766296759518053e-01
5.290147830479515617e-02 -5.448548677091798881e-02 -8.591546975589557933e-01 4.582633013798002031e-01 4.316845778265824829e-01 -7.769447675833667244e-01
4.187529716719939898e-02 -1.064205598922428470e-01 -8.941389967753158308e-01 -1.155404575288999230e-01 1.119369893754842832e-01 -9.869754369200711697e-01
3.276299615494736306e-02 4.112977318755343947e-02 -8.173565198314590718e-01 -4.688448942139029074e-01 -4.474171801628408773e-01 7.615788416603276323e-01
4.486792353003248891e-03 -2.022151611377195068e-01 -9.864236992294156403e-01 -7.701194121392168634e-01 -3.336226333942067801e-01 5.437021514887189211e-01
1.396268944587564405e-02 2.006112459851039018e-02 -8.393707855298467857e-01 4.587724095409789760e-01 4.523908976900365975e-01 -7.647681687486523883e-01
-1.518532991696583401e-01 9.894097227597785371e-03 -9.458017487595142825e-01 4.347892389420748849e-01 4.548297723829791694e-01 -7.772311083932621489e-01
-8.044230513793516890e-02 -1.456686505089532513e-01 -9.946091023985464963e-01 -4.593962457898030927e-01 -4.466836272757550019e-01 7.677426824646452763e-01
6.594316333869848501e-02 -1.606745706992959988e-01 -9.146550806408313417e-01 -4.802587218385037660e-01 -4.248451046133344122e-01 7.673709645172480664e-01
1.243297315210579179e-01 -1.027074968961759760e-01 -8.455083106358460832e-01 -4.550898550055249570e-01 -4.462668489414710615e-01 7.705446926732417712e-01
-4.177494145979072926e-02 1.290206855331431646e-01 -8.113216710568075252e-01 -4.561845045722477399e-01 -4.318499657965350069e-01 7.780753850557827755e-01
-3.019804700111243176e-02 1.797111466194611928e-01 -7.748237731285578800e-01 -4.660037792184170136e-01 -4.405474829223396394e-01 7.673059318452737365e-01
4.693235483483888804e-03 -1.560563130729120118e-01 -9.475140344405860171e-01 4.665937501244375452e-01 4.449767390307503567e-01 -7.643860111660688572e-01
2.516015376713370486e-02 5.418404084761353767e-02 -8.143560020926802201e-01 -4.671592065532154114e-01 -4.462538142495714455e-01 7.632953615739318520e-01
-7.488152113019404255e-03 -7.514747578696868990e-02 -9.161921731797625368e-01 3.356762734802389292e-01 -5.300755909902137297e-01 7.786792069002456129e-01
5.298526815918119109e-03 -1.847349207855070452e-01 -9.667614784224026758e-01 -9.381127024246480595e-01 1.555563485471157525e-01 -3.094297658212796232e-01
1.113790781851925760e-01 -1.521033468278300271e-01 -8.820963431602836247e-01 -4.698877388940104205e-01 -4.425663612834798144e-01 7.637673262829295373e-01
-9.888801109693486080e-02 1.828917820331164290e-01 -8.151076926471791939e-01 1.566285693330264073e-01 -9.970846871474983719e-02 9.826116794213516359e-01
-1.181395019871258195e-01 1.218633731032156831e-01 -8.601638617772829898e-01 4.647133006550271950e-01 4.491149852085835059e-01 -7.631102661184713254e-01
-1.080101951018156980e-01 -1.591178031731632359e-01 -1.017554887845000700e+00 4.647223755024481040e-01 4.481521539581879154e-01 -7.636705838317973116e-01
1.933835907315812133e-02 -2.035042658820117659e-02 -8.596447991923219512e-01 4.608180622410860128e-01 4.635770500284163709e-01 -7.567978806784027013e-01
-8.898788532945700602e-02 -1.096032719430999336e-01 -9.787912209416158582e-01 -4.681064917105287049e-01 -4.505294131450363060e-01 7.601970536049517113e-01
-1.386277162647034933e-01 -3.071419248771168134e-02 -9.629824711373295987e-01 -4.602647438075073705e-01 -4.515191413250946306e-01 7.643865714577009474e-01
8.327147328580451757e-02 -3.914658863531794708e-02 -8.317974278825687184e-01 4.660239089250685085e-01 4.463419596076087514e-01 -7.639375441774277631e-01
1.458121121344850904e-02 1.525785572279206304e-01 -7.618609823157646010e-01 4.617814372305783510e-01 4.535525226137945842e-01 -7.622650545971032532e-01
-1.025231043069439185e-01 7.607976096828902857e-02 -8.802282693545194769e-01 -2.170883531037468839e-01 -3.147450344674341260e-01 9.240174296109336938e-01
6.025124075888527164e-02 -1.569965354591362217e-01 -9.159391524495051895e-01 -4.664996960855168351e-01 -4.522000102471943617e-01 7.601928599273726217e-01
-1.254791367350663019e-03 -2.022749221001380604e-01 -9.893884842077217412e-01 -8.746426641825333359e-02 -4.474349496042395180e-01 8.900291950113595751e-01
-5.748929280908377654e-02 1.699579934289293381e-01 -7.970579604553218456e-01 -4.692341682937998248e-01 -4.336210574280418562e-01 7.692802310345774330e-01
-1.830956276154389190e-02 1.216644522522232486e-01 -8.014291636419419440e-01 -4.716634198595290872e-01 -4.418214090362643232e-01 7.631038336187441207e-01
4.067862230996858314e-02 -1.870054337535304589e-01 -9.436730635477316165e-01 4.673333399397678334e-01 4.434341751434504042e-01 -7.648304921324653449e-01
-1.448315548604566516e-01 -3.075454740261112513e-02 -9.667693188006319938e-01 -4.668817144074172698e-01 -4.462152086917366978e-01 7.634876896742873731e-01
2.803746277086289693e-02 1.888955793627330459e-01 -7.342195203772511336e-01 -4.634533816303464393e-01 -4.516962671884364733e-01 7.623525728056731454e-01
-1.084843428210315874e-01 -1.616037367128120572e-01 -1.020903723697468513e+00 -4.677788083314375900e-01 -4.477820142007230553e-01 7.620198516012322010e-01
-9.338974189633802991e-02 7.122740698311957885e-02 -8.762571679994982654e-01 -4.607404773818685739e-01 -4.453861502906037995e-01 7.676909466909477286e-01
-9.606212784392090254e-02 1.554984366577268073e-01 -8.288566753620567606e-01 -4.538258864967532058e-01 -4.497611360306325023e-01 7.692574245737711092e-01
-3.155036151982254511e-02 -2.021526394735222998e-01 -9.999117723219219656e-01 -1.656243037429595000e-01 -2.722471450562642392e-01 9.478660675529920754e-01
1.009211577350369177e-01 -2.567542068814860495e-02 -8.132347279961860131e-01 4.658479352459239387e-01 4.443226876150039861e-01 -7.652209161397047765e-01
9.804476163822249679e-02 -1.501099511711044276e-01 -8.867038250487074835e-01 5.276510319890653777e-03 9.981037954855228600e-01 -6.132676313191121054e-02
-7.803474541774849116e-02 -1.943834054625027119e-01 -1.019891989160780499e+00 4.668870023198772312e-01 4.417165260781391045e-01 -7.660959715689801275e-01
-6.900683210069108453e-02 -1.612326391685787452e-01 -9.967696638346652538e-01 -3.597213166484616309e-01 -5.957398057931668767e-01 7.181188328836790591e-01
1.496034585609752610e-01 -1.009424141703641614e-01 -8.291645426974103561e-01 -4.663521725177884880e-01 -4.421254579266001850e-01 7.661858329681729973e-01
1.013885153897418206e-01 1.408998824009173069e-02 -7.898558703314013663e-01 4.753586425361433498e-01 4.398669166273260767e-01 -7.619391423355044157e-01
-3.627107317286618060e-02 1.761356627826362875e-01 -7.757522730473469519e-01 2.233890417409117868e-01 5.961125277163018543e-01 -7.711985414468561784e-01
-1.197348966797913694e-01 -4.094678794669510263e-02 -9.559191247853769946e-01 3.606244837844395645e-01 5.153327327689003479e-01 -7.774201928379167459e-01
-7.928401517338491689e-02 2.249141255617637392e-01 -7.766515236988099646e-01 4.549423826668188564e-01 4.429138346229336554e-01 -7.725637601862042070e-01
-1.016510751872298224e-01 -1.139311791868704155e-01 -9.873713480225033701e-01 4.596431496228133851e-01 4.496312753448455379e-01 -7.658719809710941018e-01
5.406532105314739572e-02 -8.701185449299639330e-02 -8.808663127438014495e-01 -3.749719724995323467e-02 -8.376431379012778677e-01 5.449292924089316204e-01
3.632599515388831163e-02 1.578301842117432741e-01 -7.472681627339733401e-01 -4.725973768187543556e-01 -4.363888434897829627e-01 7.656477628137381419e-01
-7.455642890816446822e-02 2.233408579951722817e-01 -7.763366938881899326e-01 -4.578998014244757275e-01 -4.396623973074878511e-01 7.726737657312163776e-01
5.203155938761080956e-02 4.745483035295881141e-02 -8.019395226025148871e-01 -4.586221763599381829e-01 -4.622135860321733292e-01 7.589626474591173455e-01
-9.211218514886616859e-02 -1.330132005832157793e-01 -9.943575372387755129e-01 -4.583378676668247165e-01 -4.396114741976333562e-01 7.724429757699995402e-01
-1.563246937864113395e-01 2.529471644119370404e-03 -9.527872850144911698e-01 4.501352549278026527e-01 4.494448770591157327e-01 -7.716071246148512586e-01
-6.805877955291793346e-02 -5.435596776561070487e-02 -9.324204669237109444e-01 4.611804206282329455e-01 4.468556975274672882e-01 -7.665719830625216114e-01
-3.788143752812753867e-02 1.590714251014468950e-01 -7.860461889885177467e-01 5.132203165268329759e-01 5.505129960378901677e-01 -6.584378086786050188e-01
-1.112886526336687304e-01 -1.016374836388702491e-01 -9.860983243878296278e-01 4.697720172879237821e-01 4.522641005713250451e-01 -7.581368181981700261e-01
-2.301179487738321677e-02 7.373620525841466725e-03 -8.691326007854682789e-01 4.649361343715658346e-01 4.364064839796710782e-01 -7.703140734117002175e-01
4.311082022516144613e-02 -1.779506847169236572e-01 -9.402612139310546624e-01 -6.801585650134563954e-01 -3.292607510912082258e-01 6.549592996741777640e-01
-2.336611237264904495e-03 -2.133031675297329399e-01 -9.962973319710095588e-01 5.905970809539241168e-02 -5.867596116653109872e-01 8.076045498869236505e-01
-5.996832523498903111e-02 2.069442456201983915e-01 -7.754125408560726962e-01 4.695711283637619138e-01 4.449080887220373537e-01 -7.626006477815810980e-01
-1.007410448992052954e-01 -1.690154698543161749e-01 -1.018953605069517376e+00 4.593745380604208894e-01 4.490875367035214727e-01 -7.663520197398440148e-01
6.189942088159647304e-02 1.365675464740675749e-01 -7.441454931368940429e-01 -4.567373267031684669e-01 -4.454667974349826309e-01 7.700326920196722824e-01
4.033748238994430343e-03 -6.925011473948532170e-02 -8.999001598854382555e-01 3.806187179849909730e-01 -8.337265409190713905e-01 4.000368064148371317e-01
-1.328084608436437553e-01 -1.999278038778991903e-03 -9.411425069904005847e-01 4.524093559018213528e-01 4.491586013462282589e-01 -7.704429411249086312e-01
-8.712658950802289193e-02 1.164937772546683660e-02 -9.054907869288585376e-01 4.642854942419867847e-01 4.380425288835731457e-01 -7.697777099434343073e-01
1.413116879257181602e-01 -1.444760971874801958e-01 -8.577805432754440629e-01 -2.044956538926144540e-01 -3.235871058598580041e-02 -9.783324799822626927e-01
-7.184190527773801072e-02 1.778261893854790054e-01 -7.995464558236236030e-01 4.694045823983294952e-01 4.461094030791993847e-01 -7.620011407522762070e-01
-8.171397939594342297e-02 1.633991483708961134e-01 -8.155296759078060065e-01 -4.533046155840155245e-01 -4.382236075928813701e-01 7.761926276630747301e-01
-2.619999487489584403e-02 9.873678514502824688e-02 -8.152024329062179664e-01 -3.157464933035913357e-01 2.851898675807954531e-01 -9.049701052497445275e-01
4.569869056695247123e-02 -1.590363798220227887e-01 -9.260019214683553601e-01 -4.575153084402732717e-01 -4.493845338733946093e-01 7.672895693662160621e-01
1.284154351145393447e-01 -6.354033715061262189e-02 -8.202559853653363930e-01 -4.681632591675854993e-01 -4.469762376118333602e-01 7.622567846703328653e-01
-1.265605386224572249e-01 7.184943187292323896e-02 -8.943894032707029318e-01 4.736730872396483494e-01 4.497882582479785230e-01 -7.571818336219579004e-01
-1.599798146660202092e-01 -9.541559528497082707e-03 -9.620316609015039377e-01 4.729728926580762938e-01 4.380554380365734857e-01 -7.644632600833330960e-01
9.012306063563027547e-02 -6.332038559408048606e-02 -8.433729598444418274e-01 -5.220488124857356471e-01 -4.455281401058216462e-01 7.273030412119013688e-01
2.419904198744488380e-02 1.059705726078922355e-01 -7.847608465640751874e-01 -4.696392329918593900e-01 -4.270840988820884254e-01 7.726824466214388121e-01
1.914201679369085390e-02 -7.859838885646674989e-02 -8.961579283985557920e-01 -3.138888559600125916e-01 -8.647314052865122669e-01 3.920629832250528413e-01
-6.264700394047648113e-02 2.474508826310191922e-01 -7.538603536683383677e-01 2.564397953304349276e-01 -9.146414848662217656e-01 -3.125213361237878518e-01
-4.637215899106506001e-02 -3.545954057855742192e-02 -9.082530197968139429e-01 4.618099828965868681e-01 4.501543516790041388e-01 -7.642595104815573803e-01
-6.101513603975239342e-02 1.645594600939400964e-01 -8.022997106268299206e-01 -4.794251774374515551e-01 -4.344905667442094943e-01 7.624758662733948089e-01
1.907569587456989929e-02 -9.650907683914143609e-02 -9.056831248804620982e-01 -4.637835568362653205e-01 -4.558829027749498608e-01 7.596549159755292546e-01
-1.155167666426945017e-01 -7.686255870994648798e-02 -9.758615218276388559e-01 -4.612129128376727949e-01 -4.409326492375164053e-01 7.699747059924597625e-01
-2.430076506246107645e-02 2.079014055031948027e-01 -7.548735593385642595e-01 -4.569502734687018175e-01 -4.469612095525621887e-01 7.690397419718887351e-01
-2.360788395182958008e-02 -2.136018942662736564e-01 -9.977186775364771387e-01 6.112839109699986784e-01 7.666745039646164495e-01 1.963216370139370670e-01
1.435728782685565322e-02 -2.207823992887239795e-01 -9.792944123078493046e-01 4.651306274068883750e-01 4.393815346738708660e-01 -7.685033288384043315e-01
6.127198083802358475e-02 -3.161301568145507418e-02 -8.407257681187318976e-01 4.622503653971708482e-01 4.483069158420264211e-01 -7.650787599315460596e-01
-7.555104081241177660e-02 -1.038681882554501612e-01 -9.657443519921705688e-01 4.553260784939455186e-01 6.009699867640738713e-01 -6.568966716707539399e-01
1.351056148728085535e-02 -4.248546540967398921e-02 -8.750797268604210144e-01 9.777095594562581482e-01 -6.963733333594382402e-02 -1.980774069744156152e-01
2.624857984298951952e-02 -2.164261291308165747e-03 -8.428597541482697464e-01 5.233840817485178043e-01 3.827246591324874325e-01 -7.613087010301289315e-01
1.450464615907810957e-02 -3.539888430978305883e-02 -8.713490065361743087e-01 4.632638251758114389e-01 4.426258658346172159e-01 -7.677688266513761350e-01
2.246465340719083854e-05 -1.722566257953675739e-01 -9.544721339296601270e-01 -4.804849545380661668e-01 3.939113827321094052e-01 -7.835611214299942340e-01
-3.501852153395278860e-02 -7.680482905126685689e-02 -9.304432617452919052e-01 -5.132203165268329759e-01 -5.505129960378901677e-01 6.584378086786051298e-01
1.032074279223176433e-01 -6.098743255682081976e-02 -8.324595688171687602e-01 4.666231854055240547e-01 4.457264754954232133e-01 -7.639310910575835001e-01
6.019362553817562272e-02 -9.801151622325362384e-03 -8.287258706899275351e-01 4.615619205096656574e-01 4.479694074691309424e-01 -7.656918463110241602e-01
3.718349455283768284e-02 -1.016095101476347518e-01 -8.985870534326253489e-01 4.871021110478945815e-01 -8.098622628105170973e-01 3.268862932092961859e-01
-8.214457739782414503e-02 2.648113701878899995e-02 -8.954835875522301203e-01 -4.649272027732337942e-01 -4.379440856785982716e-01 7.694463424700862531e-01
1.582666332881852442e-04 6.476247943642120253e-02 -8.203843904975867130e-01 -2.676344551667491078e-01 6.401270350449721480e-01 -7.201452474411882410e-01
-1.364178606554350979e-03 -8.559297544900799914e-02 -9.088144962504350888e-01 -7.682562986691178208e-01 4.485886332049723868e-01 -4.566732942865413536e-01
-5.103650655570012018e-02 -2.277291014639418465e-01 -1.024545092779828304e+00 -4.620644426619652245e-01 -4.314951147635243123e-01 7.747957258288795668e-01
6.475536174330691341e-02 -1.348332027619458459e-02 -8.297227504624187233e-01 -4.626405126318500205e-01 -4.471970213386794457e-01 7.654923776090470922e-01
-1.108191772013108339e-01 3.868814254385088969e-02 -9.057764206389048445e-01 -4.643814800152642475e-01 -4.509794780660775770e-01 7.622121432921946660e-01
-8.703851083464619887e-02 1.504798710086606428e-01 -8.262852334656237696e-01 -4.518857754724198705e-01 -4.465515372860572318e-01 7.722635369309810427e-01
7.073582420771178103e-02 1.385616165664020072e-01 -7.359729876434628615e-01 4.602652424615509275e-01 4.291166010767709649e-01 -7.771839224161353199e-01
3.144961022075336982e-02 9.484551389966518198e-02 -7.868580745463066295e-01 -4.681093991816196453e-01 -4.565883493334333409e-01 7.565716553313333037e-01
-5.252531981676460821e-02 -1.296262285062211306e-01 -9.647484500433138876e-01 8.511148822481757747e-01 5.109537319117024579e-01 -1.205393755632481467e-01
-4.486731118862397755e-02 1.314457410083189580e-02 -8.790437960210142343e-01 4.636958474732387758e-01 4.379498517492566578e-01 -7.701857492766787106e-01
1.410666185703979003e-01 -9.134217241030259671e-02 -8.271958582417766603e-01 4.668172924974034466e-01 4.459984136963598411e-01 -7.636537372433428450e-01
-7.070269367883151579e-02 2.448291867489199858e-01 -7.599383437913846961e-01 4.728441494899332520e-01 4.479999840922916921e-01 -7.587584757658053514e-01
