1.402483429629592382e-01 3.343696503721504780e-03 -7.125327132715705281e-01 -1.684063603080836191e-01 -4.314130415089375004e-01 8.862968382115508081e-01
1.285038638370516739e-01 7.657671474237968956e-02 -6.778609352575715175e-01 1.662689323996832669e-01 4.326565334066557189e-01 -8.860942197188768077e-01
-1.537027500111461664e-01 -3.157721793789974862e-02 -7.831887160118311542e-01 1.743295116933527289e-01 4.391931657783491594e-01 -8.813163929522408457e-01
1.070704919505706260e-01 -1.559814409141464242e-01 -7.946489663935724090e-01 2.087436822131948644e-01 4.840130598234174686e-01 -8.497984661415022289e-01
5.053425771023603574e-02 4.419330275182509898e-02 -7.081523851177443651e-01 1.607619435374032790e-01 4.224089067022223087e-01 -8.920349281551198661e-01
-7.908040488120988976e-02 1.634608220836623882e-01 -6.759330537329562016e-01 -1.712243595810978292e-01 -4.248721835441507944e-01 8.889127326889115777e-01
3.991306977611012302e-02 1.366286435999566617e-01 -6.630074741323750409e-01 -4.212389983592704779e-01 4.682771785465594805e-01 -7.767072745338182704e-01
1.312336727092922734e-02 3.240435824161876782e-02 -7.157338176514679295e-01 4.184442114619610353e-01 4.160684726408770961e-01 -8.073360316301171347e-01
3.260052194310975732e-02 1.216218639595126744e-01 -6.789741233298491885e-01 1.448247794134147060e-01 -4.801234420401582215e-01 8.651631428068156104e-01
-4.023302595425778255e-02 -1.601629969708988355e-01 -8.242913088835120972e-01 1.323011185148681434e-01 7.740762454178411467e-01 -6.191141900485991334e-01
7.541863630769972404e-02 1.530746134686595053e-02 -7.175388555805612967e-01 1.619970909441463824e-01 4.219480089526496114e-01 -8.920296072813551636e-01
9.922012710570458915e-02 1.459667460219328250e-01 -6.494358650102072250e-01 9.026007694599531561e-01 -1.463596932215618651e-01 -4.048341526729073436e-01
8.981257564434143303e-02 6.561117818831550819e-02 -6.903923418401560763e-01 1.767661915652098403e-01 4.324116545590561134e-01 -8.841797750011198831e-01
6.061541370856593502e-02 -2.105903263115741220e-01 -8.326655871086893201e-01 -2.326002529577602673e-01 -4.719302309967768339e-01 8.503993058530296967e-01
-6.735957548591235688e-02 -3.812556191077046130e-02 -7.715470893905309602e-01 -1.737035711245575875e-01 -4.435424752098619527e-01 8.792594281912960996e-01
-7.293900668178379676e-02 1.536826757919022325e-02 -7.452639940280184616e-01 1.635255913417217322e-01 4.308161188004539510e-01 -8.875003395819368590e-01
1.005382864768672585e-01 -2.229733496673014792e-01 -8.284228425578127331e-01 1.688513571769925947e-01 4.247207095567380741e-01 -8.894388894427253112e-01
-1.453224171149259947e-01 -1.288853951990121850e-02 -7.725162892751979982e-01 1.590192642394186728e-01 4.323511361537896169e-01 -8.875727399302443255e-01
8.618482546368703978e-02 -1.219374535190963643e-01 -7.820676219792555006e-01 2.584846232701170643e-01 4.593882160102703560e-01 -8.497930139297490415e-01
9.956994058451784646e-02 -2.835442529212432380e-02 -7.341290530715498530e-01 1.655802279695716694e-01 4.240941908493621182e-01 -8.903523490132260187e-01
-8.634686855505026987e-03 -2.998906012819164274e-02 -7.551995970242113554e-01 1.759335000312164665e-01 4.381272734507335453e-01 -8.815281594058083092e-01
1.502283059531157039e-01 -1.726089943536970039e-01 -7.946876459665553893e-01 1.658874384031810700e-01 4.251747278456662338e-01 -8.897796404623982136e-01
8.923203776879312654e-02 -1.109026657318621378e-01 -7.777934741986689549e-01 8.098138624912313288e-01 -5.077016359850758942e-01 2.940077497875026036e-01
-1.121147820577966941e-01 1.530850622400863580e-02 -7.540556277789014494e-01 -1.670891365965369579e-01 -4.305670874245428048e-01 8.869572727353723929e-01
7.979181721521106871e-03 2.311245837419435151e-02 -7.263520935932766820e-01 1.622673984564849403e-01 4.220789553754596968e-01 -8.919185202849669869e-01
5.948997591381444822e-02 8.717194203917151551e-02 -6.856247090953840884e-01 1.555179330966193485e-01 4.251876266140034999e-01 -8.916443543586793918e-01
-1.246397290226586019e-01 -1.115592379953146140e-01 -8.165220818702396688e-01 1.511341644438114751e-01 4.204817758339512435e-01 -8.946248043338601574e-01
-3.190447472035611021e-02 1.427998441058752621e-01 -6.757404875588167714e-01 1.625793325092569630e-01 4.416956652561986330e-01 -8.823111128931384606e-01
1.968636364916358586e-02 7.505792203271471896e-02 -6.967095262124385346e-01 9.022965874686851295e-01 -1.455570920006960256e-01 -4.058004450597196833e-01
8.671493368674150493e-02 -9.829255013031290567e-02 -7.705054273105600426e-01 2.475596044494072778e-01 2.435067810717254921e-01 -9.377732614107419096e-01
7.771494850596434578e-02 3.038186204048220346e-02 -7.097622226842842386e-01 1.783507375090609137e-01 4.200592772614440973e-01 -8.897984142582898714e-01
-1.641341658933817560e-02 -5.675096241024430582e-02 -7.676901079559106389e-01 7.691567138563426553e-01 3.100970414000529529e-01 -5.587824034851547328e-01
1.600834524379224633e-01 -1.755069855224068442e-01 -7.952306904135599819e-01 -8.334605716001439735e-01 5.429279856721110908e-01 1.028235282510051446e-01
-6.188955077549785494e-02 8.771568356494438556e-02 -7.080880833461049573e-01 1.700312719605517608e-01 4.329954738051122742e-01 -8.852142600634961278e-01
1.576007726077502946e-01 -1.782207694835097056e-01 -7.973968105861219957e-01 -1.503551172023066262e-01 -4.479745334016047020e-01 8.813127459390878160e-01
9.691104512854381570e-02 8.283909661139373173e-03 -7.182951946730999904e-01 -1.659287908915105525e-01 -4.347121868344623885e-01 8.851513717838779272e-01
-9.586268022532061506e-02 -1.046107320076460484e-01 -8.077334734634797897e-01 1.635336401552088537e-01 4.327837078422342443e-01 -8.865410372700827102e-01
-1.048257950531814170e-01 1.224346014392381915e-01 -6.993570692261417143e-01 1.684960176977993718e-01 4.290715286177486099e-01 -8.874157511277404042e-01
1.759530738252235160e-02 5.839248474755435320e-02 -7.133132729400066818e-01 3.158932481548947235e-01 -5.495249818909145878e-01 7.734557195133668905e-01
-1.933743672564261495e-02 1.416509597946218335e-01 -6.753788275481947823e-01 -1.763861547502939275e-01 -4.322688317486109710e-01 8.843254952284801407e-01
-1.074084944657929669e-01 -1.708125543175924646e-02 -7.674830467767829179e-01 1.677685473866603605e-01 4.279145649631517223e-01 -8.881119521772952163e-01
1.572298657658844842e-02 -1.844084088254109577e-01 -8.311978064216886120e-01 -8.538401416311959258e-01 -1.182125856492057953e-01 5.069347069725538280e-01
-8.538714003491032489e-02 1.565822808944167255e-01 -6.790736812764616159e-01 1.559396065038648194e-01 4.365531809935420116e-01 -8.860610358704639200e-01
1.198578250677779893e-02 -2.170687840690793124e-01 -8.361064584183394155e-01 -6.135605784592232936e-01 3.831679675659318551e-01 -6.904532751694182346e-01
8.110451464242508790e-02 -2.239214817611346817e-02 -7.361349846382385653e-01 5.864883999944426468e-02 -3.359621746866230940e-01 9.400477279088303995e-01
6.919788705931503858e-03 -9.021094661346185095e-02 -7.742759080860414089e-01 2.326002529577602673e-01 4.719302309967768339e-01 -8.503993058530296967e-01
-9.213780325833346996e-02 -1.615148730912796494e-03 -7.591388021076064252e-01 5.086587202110108841e-01 -6.032268478208185902e-01 6.143156162930060171e-01
-2.846526754756793440e-02 -1.648783118147442162e-01 -8.257425091740836498e-01 -1.668799572015866872e-01 -4.380113356754981591e-01 8.833442985066255471e-01
-4.839728345083710477e-03 -2.382136085873302611e-01 -8.569015463202140914e-01 -2.142307601570119791e-01 -4.739734046111226951e-01 8.540810225756628737e-01
-1.137632331428691246e-01 -7.007904419427835041e-03 -7.622112704012357076e-01 2.326002529577602673e-01 4.719302309967768339e-01 -8.503993058530296967e-01
-1.216291667732285857e-02 -6.230974669542395372e-02 -7.757936634790079111e-01 4.281010571765529737e-02 -2.985235045414705857e-01 9.534416668494836156e-01
9.668735742351802775e-02 1.808264357494489272e-01 -6.346183915252836538e-01 -1.676848898150767042e-01 -4.437316388072621298e-01 8.803317615814658659e-01
-4.380940611358653120e-02 -1.565353687389393622e-01 -8.231851949539679136e-01 1.234972315295628509e-01 1.969080894864203568e-01 -9.726127893973743888e-01
-2.647441159877548036e-02 1.517970913697133661e-01 -6.717206763165068928e-01 -1.776090477592517924e-01 -4.337286563486688062e-01 8.833654276776006231e-01
-8.127951755638658515e-02 -1.618640435700303415e-01 -8.328337990745099395e-01 1.663405172877286953e-01 4.231326985081839132e-01 -8.906680367912800378e-01
6.544945030712757961e-02 -1.377047247558906007e-01 -7.968104609598729571e-01 4.452787984267514987e-01 -7.408222969846152139e-01 5.029007018906088700e-01
8.846367867788468287e-02 9.367986336467608310e-02 -6.784385732236315469e-01 -1.477617216830168778e-01 -4.378847070489709226e-01 8.868051967246851630e-01
-2.489933429909088267e-02 -1.659142321719429825e-01 -8.241976793422235437e-01 1.663054196944027951e-01 4.369767992417928348e-01 -8.839648094266345790e-01
5.420781945591827272e-02 -8.090993842527069435e-02 -7.700416739333149074e-01 5.230755364742338820e-01 -8.326271428077738346e-01 1.820000664888771769e-01
-1.395235709696525384e-01 -6.823931420601622722e-02 -7.996631386090408133e-01 -1.560103605794521953e-01 -4.317861088532192748e-01 8.883814066003774546e-01
6.610390860184173212e-02 -3.075862421022287733e-03 -7.309214304351290270e-01 3.929390972593570508e-01 -9.074753313376570096e-01 1.486182655618455140e-01
7.692681466687188718e-03 1.959525199655575978e-01 -6.439565600166329284e-01 -1.707620361683473420e-01 -4.336671922386541866e-01 8.847446486865474524e-01
3.743731894526870774e-02 -4.767575727985866318e-02 -7.551503173204699992e-01 1.630400093330187372e-01 4.260982912784703758e-01 -8.898641477923788790e-01
7.409851468709363620e-02 -1.501433857778403380e-01 -7.967530327389988898e-01 2.326002529577602673e-01 4.719302309967768339e-01 -8.503993058530296967e-01
-1.364998822890606267e-04 -9.251397489560636567e-02 -7.853629757763846975e-01 -1.689100352643652381e-01 -4.331680944306621206e-01 8.853444538451120671e-01
4.755697417739655763e-02 2.376243685554823848e-01 -6.149252430044748197e-01 1.460801938513948128e-01 4.089202988217913726e-01 -9.008022902811890775e-01
1.540656339245190763e-02 -2.105763724145207350e-01 -8.420001639831703466e-01 -9.535379726557016156e-01 -1.461893896778600210e-01 2.634274037553218095e-01
1.180209750159800230e-01 2.478742518091461497e-02 -7.049594143151762804e-01 1.680950941308988755e-01 4.331139157562360897e-01 -8.855260443981443075e-01
6.888566413638051722e-02 1.225222901644822393e-01 -6.695291359501794881e-01 7.327550952123008943e-02 -7.567466070547443913e-01 6.495885408591628440e-01
-1.352816800637517830e-02 6.265256059768725856e-04 -7.426958984003978470e-01 -1.659826409261681845e-01 -4.243120546236953117e-01 8.901736028506983534e-01
3.540368051459660825e-02 1.457136505084689893e-01 -6.655433110748799619e-01 5.231430632641507206e-01 -4.128442785889771538e-01 7.455742330545953589e-01
1.508200793071914625e-01 -1.626203471659963193e-02 -7.200647600855194508e-01 -1.733232925810433422e-01 -4.361178034562882000e-01 8.830403715331073267e-01
3.492546922764975387e-02 -1.787874707555406062e-01 -8.206598720753695009e-01 -1.662085384738656024e-01 -4.316694710408982560e-01 8.865868200631297213e-01
-2.248681336894963259e-02 -2.951415817633373448e-02 -7.592537803719483502e-01 8.840238187246005630e-01 2.549734144071332670e-03 4.674349011181867519e-01
-8.455741699221832469e-03 -7.162097851545090599e-02 -7.778884290045455785e-01 6.154443117479048153e-01 7.826163552921647226e-02 7.842852896372849436e-01
-1.962058459075494143e-02 -1.131462745216016835e-01 -7.975946736917305380e-01 1.651558740645375778e-01 4.220977211144882890e-01 -8.913792969841369818e-01
2.855062177441072477e-03 -1.597361436133378498e-01 -8.105050113459152383e-01 7.642105397216449880e-01 1.662321565859704309e-01 -6.231766371544505967e-01
-1.371764725829963949e-01 -2.661884212655425339e-02 -7.776367357728030116e-01 1.707696225054247952e-01 4.276845567908102441e-01 -8.876506384338396227e-01
-1.544927507167742631e-01 -6.056969112963739993e-02 -7.987342531595972295e-01 -1.730126604252608946e-01 -4.309787202385083615e-01 8.856206648639984857e-01
-6.900716711379736856e-02 -1.311468993326038168e-01 -8.169862768452934576e-01 -1.644842113971162478e-01 -4.374352502263333942e-01 8.840788121318673420e-01
-6.734586464378391514e-03 -2.247446611755479773e-01 -8.507224612627732885e-01 -1.456721053333359661e-01 -3.303683765179272203e-01 9.325429606858134379e-01
3.921491784471761721e-02 3.453871233459186729e-02 -7.163455592077492273e-01 -1.646566543130301430e-01 -4.386551889492118494e-01 8.834420249220490406e-01
-7.258086438192791479e-02 -7.305677045617427201e-02 -7.915229690399073759e-01 6.058087634768948709e-02 -6.158109138319034503e-01 7.855615035288210368e-01
-8.809766069710994046e-03 9.943148139769351912e-02 -6.950874670968006930e-01 7.321964084272424012e-02 5.794602640557463408e-02 9.956310271474402285e-01
-6.498300714116067578e-02 -2.730202555296000824e-02 -7.644724655538994718e-01 1.652670578345374897e-01 4.277632100671836524e-01 -8.886537209215601418e-01
1.433617342385437310e-01 -9.282237903725880368e-02 -7.572466328537349467e-01 1.659607453169747726e-01 4.259767367713139241e-01 -8.893822860522333507e-01
-3.875450423739713879e-02 5.947642789583856143e-02 -7.188497726794013110e-01 -1.583643840910891887e-01 -4.317765924357656049e-01 8.879694229397816496e-01
2.619546298934916431e-02 -2.719584404417367193e-02 -7.458368663071280880e-01 5.323186872529303004e-01 -5.051055150999488319e-01 -6.793417651057030993e-01
3.924355298302775741e-02 1.730690471023645788e-02 -7.233021837580798641e-01 1.715414553686211985e-01 4.296795514015910311e-01 -8.865376541339587968e-01
-6.374274315400259294e-02 3.011953561160813850e-02 -7.378061897830320293e-01 -1.612951507845064580e-01 -4.304033513859643056e-01 8.881085685033858201e-01
-1.087341136063076780e-01 4.408252264097589634e-02 -7.380417027417668363e-01 1.626235680281694074e-01 4.370582738196604478e-01 -8.846093151259295517e-01
6.967732378815004457e-02 -7.797534880734659224e-02 -7.638216666218292650e-01 1.825307935098469669e-01 4.256998613799532483e-01 -8.862630182072104290e-01
2.222668565576354019e-02 -1.839110350472324962e-01 -8.254945387248913136e-01 -1.391254679084807100e-01 -4.512642755151000107e-01 8.814786768964283370e-01
7.099493148823932120e-02 -5.060295669890941400e-02 -7.503044660995596971e-01 1.684842906699757226e-01 4.402364488996696745e-01 -8.819324876982610473e-01
-3.109989574216785388e-02 -3.426110414370147489e-02 -7.644796501542535649e-01 -2.160001829391281492e-01 -1.138537503802624085e-01 9.697325633877682538e-01
7.697462436044498479e-02 4.800327987424782283e-02 -7.013965157273884810e-01 1.598840172004663274e-01 4.348869184844977309e-01 -8.861774479047065389e-01
1.033379483359241763e-01 1.524226527021403134e-02 -7.122926263004042413e-01 1.657319125417860972e-01 4.345955309951794465e-01 -8.852455352071875172e-01
-7.703844648975527454e-02 -1.782757945311869152e-01 -8.413574782468260516e-01 -1.678451334224951297e-01 -4.310666449421741153e-01 8.865718012686182314e-01
1.537893938627691443e-02 3.681365314608980865e-02 -7.249915516629233947e-01 -6.905634681854237733e-02 -3.600803440974437164e-01 9.303619547029767789e-01
4.156278372644982289e-02 -1.275494145386155131e-01 -7.931332972896083522e-01 1.635234171061261399e-01 4.419689063234312210e-01 -8.819997607149367980e-01
3.527315786941376263e-03 1.029721240023873663e-01 -6.898400796765533638e-01 -1.752016531149361012e-01 -4.274641345123508240e-01 8.868927750587443093e-01
1.229066021635851075e-01 7.581613613987303602e-02 -6.792458242126245826e-01 1.749214899037964677e-01 4.357956008578476315e-01 -8.828842883655726448e-01
5.996675148916104370e-02 -2.477592940151944478e-01 -8.493589415985719482e-01 -1.674965951210584669e-01 -4.259373013351734905e-01 8.891132132378652964e-01
-9.005616235786313706e-02 -3.729345044408980542e-02 -7.732835008508056607e-01 7.767303655181942990e-01 6.292203856564609898e-01 -2.777850889279457822e-02
1.348182969627949312e-02 -2.276973833364069333e-01 -8.418776313299660696e-01 -7.535582415381099075e-01 1.526947047152009129e-01 -6.394015199871905253e-01
-3.963665531921387042e-02 -1.256434143600441422e-01 -8.088308750948688397e-01 -1.735815804722375399e-01 -4.199000861909942262e-01 8.908161160068646112e-01
1.198495643839785629e-01 -1.824682544805418805e-01 -8.065136294089956248e-01 -1.672404025672600547e-01 -4.327465219899458426e-01 8.858674254394648395e-01
8.557438733397108865e-02 -5.823197152791669516e-03 -7.272638301832444752e-01 -1.652904238762309685e-01 -4.224183905889905555e-01 8.912024343924463965e-01
5.841015623676447388e-02 -8.459603744411500759e-02 -7.705121071679705835e-01 -1.566090819230388231e-01 -4.328247872549543240e-01 8.877704089441855739e-01
7.855119381223003849e-02 2.134226362661345022e-01 -6.208154297238834829e-01 1.753998431182102191e-01 4.284110290974360025e-01 -8.863965733134255842e-01
-6.772219184316696783e-02 -6.901288886555227708e-02 -7.875067861883372489e-01 3.965520642896842030e-01 -9.032121711721075030e-01 1.641774471544669989e-01
-2.015507387969237701e-02 -1.288017598274180386e-01 -8.105280268510799413e-01 -7.897657203509872784e-03 -3.503947615215021183e-01 9.365688111980803310e-01
1.647682052794961771e-02 1.461514244994978860e-02 -7.360218991315274906e-01 -6.970979099837694426e-02 -4.840587297134522626e-01 8.722543730054677091e-01
1.395278120344178863e-01 -8.864798764361053740e-02 -7.573392300365595631e-01 -1.661709690184590693e-01 -4.259403326344959884e-01 8.893604680278301977e-01
-1.591253809400176578e-01 -3.530907333823687932e-02 -7.860237192606467360e-01 1.718997979678235088e-01 4.403142687063575922e-01 -8.812342504874666194e-01
-3.211745500502331818e-02 -1.053928244748370546e-01 -8.005480854506062949e-01 -5.680006537623413232e-01 -5.488564745538283551e-01 6.132958728590105490e-01
1.161370041250626012e-01 -5.552963193250829571e-02 -7.456135553537714955e-01 -1.661993733616611291e-01 -4.267547551891356372e-01 8.889646490258495959e-01
-1.109090655825567019e-02 2.284772257298162412e-01 -6.316876116443782552e-01 -1.559774121248786449e-01 -4.290727508602676377e-01 8.897008606132897901e-01
5.614386540418522115e-02 -2.106574427093338697e-01 -8.320958185215178160e-01 -2.588172731329910214e-01 -4.325705966867490204e-01 8.636528805081775673e-01
1.700018854595963247e-01 -6.492147746660206775e-02 -7.387279389807565044e-01 1.706462053421920477e-01 4.313082694250059412e-01 -8.859193243901596349e-01
-1.152795376891110335e-01 2.348710459143051044e-02 -7.492928190676840794e-01 1.676213852619565237e-01 4.327075598251137745e-01 -8.858144494605280084e-01
-1.336214154579855595e-01 -8.301656573037900777e-02 -8.043991048324220516e-01 1.560926059352379935e-01 4.295338654453098037e-01 -8.894581253819411337e-01
-5.194767187909253570e-03 1.679867734950106772e-01 -6.585365307621308117e-01 1.597782634060803397e-01 4.449987102837662523e-01 -8.811623314626665371e-01
1.214717018683286326e-01 -7.627321622022241281e-03 -7.213724692912746317e-01 -1.657208138177380663e-01 -4.237383688310150665e-01 8.904955960856949515e-01
1.222366081664068571e-01 -4.883814020821540536e-02 -7.398786717035051863e-01 1.682610023611099126e-01 4.370965931639171353e-01 -8.835354001560614678e-01
2.841176591162459034e-02 1.065836600417869456e-01 -6.859797214704739243e-01 6.798650958708666314e-01 -3.068379099977391333e-01 6.660585172525883557e-01
-8.141121391827334242e-02 -1.361403508427466158e-01 -8.186882107427071453e-01 6.911540890915529589e-02 3.659919273600313883e-01 -9.280479348388259719e-01
-2.135505234195346144e-02 -2.374252126768455068e-02 -7.527121183060770937e-01 -4.060735369315689458e-01 1.586879963222579404e-01 -8.999568892047623558e-01
-9.110932398403309707e-02 -4.093488280994394407e-02 -7.774037199129485431e-01 -1.666028646397126889e-01 -4.293223689835630186e-01 8.876518399598927189e-01
-1.319240115326359153e-01 -5.340941385234300454e-02 -7.896521276730239514e-01 1.688863244689244036e-01 4.275283808623615012e-01 -8.880860842083861950e-01
9.455891261339038900e-02 -2.371753669368696915e-01 -8.364202715683791700e-01 1.633964212196238053e-01 4.361866484016290735e-01 -8.848970659284461915e-01
1.241340253519291892e-01 -6.512201627019548189e-02 -7.474067715467603845e-01 1.693309822041333401e-01 4.403809491911145901e-01 -8.816981558647587480e-01
1.546944310778840086e-02 -2.228200230789023906e-01 -8.440851948703845808e-01 -9.081671457274479442e-01 2.031248673472268451e-01 -3.660228458531409879e-01
1.559494166757797451e-01 -3.728670608313176208e-03 -7.129843321183035876e-01 -1.652930575855550976e-01 -4.381796967729959524e-01 8.835591425874917970e-01
1.497501612116916847e-01 1.134331310994346823e-02 -7.055114115019768262e-01 1.539985027844356091e-01 4.263730212330168468e-01 -8.913419702363294395e-01
-1.599715190447405511e-01 2.304274050095479406e-02 -7.592412087984264923e-01 -1.483640244886419157e-01 -4.344338945211856928e-01 8.884004207161818600e-01
-5.400099304065738431e-02 9.406592269441317600e-02 -7.035663584725491138e-01 1.690746574802653723e-01 4.333268178880572696e-01 -8.852353523763843990e-01
1.240499277468899847e-01 1.125967259253657649e-01 -6.612259513073751593e-01 1.546023654436841921e-01 4.341320724692494526e-01 -8.874837757687583650e-01
1.737069837924063997e-01 -9.263206293141522385e-02 -7.521873860924181976e-01 -9.301832122675479653e-01 3.655795879032329165e-01 3.332801410417560867e-02
5.339152639730150585e-02 1.761651934080794846e-01 -6.435883548962909595e-01 1.554554896991783841e-01 4.315170937642625049e-01 -8.886093565294218566e-01
1.499005801959706584e-02 -8.086973164276455017e-02 -7.721447929478545413e-01 -8.492694132265413698e-01 2.561867323972883415e-01 -4.616381937204141472e-01
1.695963978086865998e-02 -2.340937197648413071e-01 -8.548616507566305645e-01 -6.793019688867659722e-01 -4.585964584180869941e-01 5.729206955530156131e-01
4.712062965184954030e-03 -1.625159507411008120e-01 -8.247108093647640414e-01 5.981637653316184133e-01 -3.888579962798883738e-01 7.007064781871868986e-01
-8.314701887446412920e-02 9.592723753139514864e-02 -7.094590923661098225e-01 -1.581010718180886621e-01 -4.404685242461133243e-01 8.837372518109795072e-01
-6.867630702793819930e-02 -1.534920762462256283e-01 -8.251470366224238351e-01 4.196709244284232976e-01 4.404401026719558243e-01 -7.936553604353149272e-01
-1.190301043748670379e-01 -1.076026825121116359e-01 -8.149541208419984750e-01 -1.812007216994463987e-01 -4.396802479075557768e-01 8.796860678989693039e-01
1.825137299812326988e-02 4.127183003089165275e-02 -7.116199489197210237e-01 -2.460343937633342470e-01 3.368141745941471421e-01 -9.088582336525162786e-01
-1.216462214786219603e-01 7.027432242319534006e-02 -7.277892031976750387e-01 1.586778422926890253e-01 4.397588809680703092e-01 -8.839872561157470221e-01
-5.473426065080649189e-02 1.673303745858796543e-01 -6.681539162316958436e-01 1.566772938503435963e-01 4.332861869276195543e-01 -8.875332702549563191e-01
7.818725239284915474e-02 1.756633101398943630e-01 -6.391574761161310514e-01 1.584008284543191869e-01 4.387981794879892150e-01 -8.845141803402654102e-01
-3.414751729881154024e-02 6.202453692147457537e-02 -7.153533381431140814e-01 1.697528171553976117e-01 4.285994394799501617e-01 -8.874043619147240491e-01
4.232558358206005983e-02 -7.905178923976786953e-02 -7.708640560290607180e-01 -1.658772647655312737e-01 -4.134653555858543439e-01 8.952827110830238189e-01
-1.778464137503463910e-02 4.321923240031014246e-02 -7.228066394168992659e-01 -1.717061189777306096e-01 -4.235516036904354853e-01 8.894498567748863049e-01
1.646511487045571043e-02 -1.326974849416542521e-02 -7.366022427553960972e-01 3.758025048435752191e-02 4.848963977713542928e-01 -8.737638171736672454e-01
-4.039216342302241747e-02 -1.861793800120669640e-01 -8.383289855564053372e-01 -1.677336443477157601e-01 -4.319396176118231456e-01 8.861679249957007398e-01
-2.987228154836511643e-04 -1.812019458637948166e-01 -8.242680115581533240e-01 9.740092997554001819e-01 1.099105632954891221e-01 -1.980544169314675529e-01
4.161241191124011307e-02 1.644797744640050241e-01 -6.528790151326250291e-01 -1.781725038491767388e-01 -4.261050436060817015e-01 8.869549315977527382e-01
1.503145058556372149e-01 -6.039789984435946224e-02 -7.415601702303558085e-01 -1.755473893490917814e-01 -4.348474922519635633e-01 8.832274749886900311e-01
-1.013264971599457664e-01 -4.902538539430010417e-02 -7.818514697732952268e-01 1.661623559219108370e-01 4.285352563166909268e-01 -8.881146353754498790e-01
2.355375183039653056e-02 6.193792953227134773e-02 -7.011720800983967106e-01 -5.344605277599779880e-01 5.205477701716615391e-01 -6.658693289496347978e-01
-4.068418138401159317e-02 2.022017258865388134e-01 -6.500005386548763919e-01 -1.592614227944421090e-01 -4.341727606151899455e-01 8.866396185312694911e-01
8.071264608526859674e-02 -1.481250659246913515e-01 -7.958163744356426816e-01 1.566835572797276033e-01 4.284071079350816325e-01 -8.898975293531663500e-01
1.067877955724397532e-01 -1.880307258243654744e-01 -8.102947311455146462e-01 1.655239892057046580e-01 4.308574753061297224e-01 -8.871097141674515463e-01
4.343409443601117109e-02 2.054282385180150883e-01 -6.289322353831818813e-01 3.732603140342008463e-02 4.559295626029767901e-01 -8.892328161535251185e-01
1.473697220497323032e-02 -2.189748911587395541e-02 -7.545877015313642300e-01 -7.487753096876015313e-02 -5.114039233527515327e-01 8.560720662043794782e-01
4.593155891559130843e-02 2.307569950811912407e-01 -6.198661058878931485e-01 -1.639067497474912538e-01 -4.309529424601331038e-01 8.873635888248776471e-01
2.468779784466523363e-03 2.493010032438267298e-01 -6.190847566051761452e-01 -1.512604955409512508e-01 -4.023926514297539447e-01 9.028844979088068712e-01
9.535549097410658814e-02 -3.255342811874083198e-02 -7.369931320090052917e-01 1.665512048652147692e-01 4.393164610505201906e-01 -8.827580320835329841e-01
6.583563783264627378e-02 1.437406930599508248e-01 -6.570358604626467258e-01 1.628185341870796721e-01 4.289722610614877252e-01 -8.885228889370074823e-01
-1.323405862603542760e-01 1.886316199100121840e-02 -7.546834496448229235e-01 1.697271947571111217e-01 4.315140257600519891e-01 -8.859956686870624765e-01
-1.390447990087994024e-01 -1.386608688576025372e-01 -8.337872367889394010e-01 -1.669682788116247651e-01 -4.349030928787113726e-01 8.848620760746922498e-01
2.953379261521348054e-02 -1.177262636916396044e-01 -7.906220619186514753e-01 1.740128748968375882e-01 4.348400599400361055e-01 -8.835347427472692861e-01
-4.421345859712057930e-02 4.033694123651234559e-02 -7.291532898628352299e-01 -1.688634840082083866e-01 -4.496362562352427816e-01 8.771045324517282582e-01
-1.242642696085887316e-01 -3.822695722400205887e-02 -7.808722252272192188e-01 1.681738096515334735e-01 4.276449183062923654e-01 -8.881651837322235288e-01
2.248832150298519725e-02 -1.493771397200383266e-01 -8.072941204730933462e-01 1.743799241670504208e-01 4.275433137822785556e-01 -8.870165482602688778e-01
-1.787212600384868177e-01 -1.157807293888230976e-01 -8.287264218620806755e-01 1.452229477296228810e-01 4.361953918170086708e-01 -8.880562344864911806e-01
6.284036357347465296e-02 -2.338308181292801380e-01 -8.420771222488162566e-01 -1.632119873306972224e-01 -4.340989821763006629e-01 8.859570649106333073e-01
1.554534408203768203e-01 -8.400576324972872100e-02 -7.506841791026221955e-01 1.574913402825334208e-01 4.321774384438377692e-01 -8.879296928451790860e-01
-1.223407434848699793e-01 9.897057259532383855e-02 -7.139429181130035884e-01 1.767424509839891356e-01 4.339054294612518792e-01 -8.834524233393775683e-01
5.533117354162741391e-02 1.745623676975706084e-01 -6.440260059968782036e-01 1.572848881683192868e-01 4.294011848569713186e-01 -8.893121422747517490e-01
1.484906791391479297e-01 -1.893342136810374221e-01 -8.040344197618620736e-01 -7.861031081500636786e-01 6.024824078643311598e-01 1.380465558092896228e-01
1.427978311428867390e-03 3.283150929973830540e-02 -7.242267660331679346e-01 -1.714099879150011996e-01 -4.203736770567447212e-01 8.910132365351095540e-01
8.702061544603050675e-03 -2.168378462165201637e-01 -8.340548829228713323e-01 -2.258811904226938616e-01 4.063142068550247288e-01 -8.853736234613039935e-01
-1.491993177434573492e-01 2.020757581188825300e-02 -7.571642067492749817e-01 1.685754084807638831e-01 4.330190415142411986e-01 -8.854811355086179558e-01
2.318122857978745927e-02 6.867049116593361424e-02 -7.075144370104071712e-01 -2.326002529577602673e-01 -4.719302309967768339e-01 8.503993058530296967e-01
3.727838899445092696e-02 -2.434634133011828461e-01 -8.501537246913491996e-01 1.731364667041343508e-01 4.376519275434449519e-01 -8.823177172734975038e-01
1.321773962604934627e-01 3.765439976611632128e-02 -6.960405283916170083e-01 1.801728577183334123e-01 4.255476511357562108e-01 -8.868184357321683420e-01
7.324999249209847296e-02 -1.660178748995300435e-01 -8.058651381090596866e-01 1.744665453017115453e-01 4.380575620772884093e-01 -8.818542945846488124e-01
9.589544715373039818e-02 -6.840755606984189052e-02 -7.543122905874395379e-01 1.647241603869357696e-01 4.292997518309368821e-01 -8.880133298902190830e-01
-1.293469969521424401e-01 -8.065883892359033969e-02 -8.024140967060892082e-01 1.529464627481957884e-01 4.294306764267292742e-01 -8.900543093971829967e-01
2.280617999585531769e-02 -2.342789512360957116e-01 -8.467940449027931971e-01 -3.156408974431452186e-01 8.612748523596834849e-01 -3.982165900035946060e-01
-5.666168918196981541e-02 1.304773615525891273e-01 -6.864035577222680207e-01 1.735590358148182411e-01 4.224952262926072732e-01 -8.895926285929919297e-01
-2.085436592635957209e-02 1.920512617364098507e-01 -6.498199112799859511e-01 1.733090905814335947e-01 4.137471109275757120e-01 -8.937434124629509702e-01
5.380215628258115668e-02 -1.452159260778109195e-01 -8.007839047383704667e-01 -1.677254598811932229e-01 -4.422416015898957276e-01 8.810735133522321627e-01
-6.739363062228279078e-02 3.389185717004342124e-02 -7.352602977011163388e-01 1.601954625097667950e-01 4.319154066942854087e-01 -8.875733745732753421e-01
5.525176390359224504e-02 2.023191984949947175e-01 -6.319714156644723468e-01 -1.632477974727844505e-01 -4.348598666568395665e-01 8.855772428148096509e-01
7.269809566689389158e-02 -8.632494399086323988e-03 -7.310091932323061759e-01 -1.790888333115916164e-01 -4.363779087854131600e-01 8.817604609570347529e-01
-1.018044310003487218e-01 -1.059638931013341806e-01 -8.095121972792768128e-01 1.775611164303281808e-01 4.275201412339549312e-01 -8.863964004729004698e-01
1.063266186634142241e-01 -2.129855908945660625e-01 -8.238266059786736317e-01 -1.633261012582720439e-01 -4.368429414851316417e-01 8.845862474187525804e-01
1.051598690170530287e-01 -1.221616175002834676e-01 -7.786526405286235963e-01 1.586427485921201030e-01 4.266114286471438533e-01 -8.904129195304728572e-01
-2.330573476730031166e-02 1.556699044735555815e-01 -6.692889372889000432e-01 -1.647774895372100257e-01 -4.219442537103753055e-01 8.915219715198325900e-01
-3.159598854396655776e-02 1.510963170221504837e-01 -6.717098502147821337e-01 1.774605504508131315e-01 4.337144268125468494e-01 -8.834022577559773604e-01
-2.010137347973102798e-02 -2.133882157408533570e-02 -7.548607246579185359e-01 -9.356508164991484966e-01 -3.503977413766570237e-01 -4.217786650145152749e-02
-1.193194653460380034e-01 8.491381301639250312e-02 -7.216114831610717095e-01 -1.598477576341625628e-01 -4.374873222468166345e-01 8.849031230889852218e-01
8.485829540310201383e-03 -2.395221472023393028e-01 -8.444856683642519846e-01 -1.423955588225049029e-01 3.125926865201120730e-01 -9.391535109670653414e-01
-9.334225184703694167e-02 -3.171123681903319919e-02 -7.751574265407508157e-01 -2.158730146873877320e-01 -1.124017124223368191e-01 9.699302534586211610e-01
1.175288429065796114e-01 6.024689662835091414e-02 -6.878262263560979139e-01 1.634229083409387828e-01 4.254822364085131259e-01 -8.900886582415253878e-01
-3.589047478421915349e-02 -1.409306486293999440e-02 -7.526040457527808369e-01 1.657088921608671495e-01 4.245004378471095574e-01 -8.901347882913185350e-01
-1.661951854725112754e-01 -1.239402005477036744e-01 -8.303603906631069620e-01 1.765826564690820555e-01 4.354248323299528822e-01 -8.827365296761852109e-01
2.313779066124147573e-03 -8.338648933539592745e-02 -7.749852184232618457e-01 5.408059736880158619e-01 6.748540227783671186e-02 -8.384358170443075853e-01
1.934569112713710459e-02 3.358405115436022270e-02 -7.249085560912711390e-01 -6.433025004005491487e-01 -3.715049773876456518e-01 6.694370356908901920e-01
-6.854596133156462545e-02 7.823778595976832451e-02 -7.139572728888281539e-01 1.538151599208940623e-01 4.480253045016724389e-01 -8.806896292705469476e-01
-1.225877835500329034e-02 -7.920538259786860658e-02 -7.780293799025568280e-01 2.159094599460434361e-01 1.128173332953175956e-01 -9.698738858294623233e-01
1.176627729155766029e-02 -1.991647393767555230e-01 -8.432963299498434928e-01 -5.768251452916713928e-01 -3.963761742205388905e-01 7.142539326244772280e-01
7.829768938972944681e-02 1.097416622281338350e-01 -6.725043157634534863e-01 -1.710589594367475375e-01 -4.244770932432105348e-01 8.891333025526665379e-01
2.703138026968733565e-02 -3.204574892467450947e-02 -7.454687196724389953e-01 -1.022807010815918530e-02 4.852137825321334863e-01 -8.743357317545257246e-01
9.997277639129720228e-02 2.015582304778393286e-01 -6.225311095311122367e-01 1.571517462221894978e-01 4.335647549161937286e-01 -8.873133223127989133e-01
-4.349436021411515890e-02 6.696434364576225873e-02 -7.147569723745405001e-01 1.737479590604188440e-01 4.290430514395555672e-01 -8.864162152926657878e-01
1.063590605654168852e-01 6.415765826063098143e-02 -6.880099138163221495e-01 1.779120010777194005e-01 4.299229182516806080e-01 -8.851630382220443405e-01
4.089989853863879726e-02 -2.732970790469257949e-02 -7.439868684626611550e-01 -4.534270870220116212e-01 8.761773759472397671e-01 1.634536100333741637e-01
1.335183324295955154e-01 -5.370111086220309693e-02 -7.401092880918593853e-01 1.666780522427085687e-01 4.246626199897589604e-01 -8.898764442797721941e-01
6.421754229866549757e-02 -1.464346836652315187e-01 -8.005941492260522097e-01 -7.971281517006196804e-01 1.532238856908026414e-01 5.840455038951725131e-01
2.341853296655671199e-02 1.858671867732089242e-02 -7.270377363625974976e-01 -1.632211706523159778e-01 -4.245307055361316473e-01 8.905798838441624232e-01
-1.039938663748730258e-01 -1.715941500721722413e-01 -8.423769196359078837e-01 4.053424608139138408e-01 8.023798424281614050e-01 4.380457486681950119e-01
1.748676442063183158e-03 -7.651429374292861851e-02 -7.758604925216348036e-01 1.988626697507177576e-01 5.053382600306153272e-01 -8.396945167909858343e-01
1.628382934293223436e-02 -2.643798392806876937e-02 -7.432278895589805590e-01 -3.004186488581332415e-01 4.628247259581617645e-01 -8.339915517917468879e-01
3.092298372380508989e-02 -1.573090914341140623e-01 -8.109523619328601329e-01 -1.739931310323165614e-01 -4.261947520827107372e-01 8.877411918181604689e-01
5.919398150171684310e-03 2.092751463874456264e-01 -6.363977653340748830e-01 1.808033223124375644e-01 4.305709502968390612e-01 -8.842617346698100622e-01
8.033788202825383265e-03 2.188935991365685840e-01 -6.327447779884234347e-01 -1.518966952303789364e-01 -4.411585104196891760e-01 8.844809566420128721e-01
3.545644381378586230e-02 -2.286881784743683421e-01 -8.433435134260308663e-01 2.923058321983840191e-01 4.085684793077912214e-01 -8.646554794708289915e-01
1.020265988790144268e-01 -4.990836420739880319e-02 -7.441792105254627643e-01 1.655475303673357435e-01 4.270553085405219274e-01 -8.889419433442409257e-01
-9.832803003827229882e-02 -1.047674752563660661e-01 -8.096401700931422640e-01 -1.626126917670273897e-01 -4.310546303236758026e-01 8.875522622092744118e-01
5.297785320040158258e-02 5.720805293096351690e-02 -7.032299121559306698e-01 -1.281854877985706131e-01 3.670173516717745721e-01 9.213396465417514891e-01
6.240259766335076730e-02 2.398498223079641514e-02 -7.171091353915904909e-01 -1.778449771933449941e-01 -4.197852670898158944e-01 8.900289285306577369e-01
-7.771785165008802954e-02 -6.365267055857506961e-02 -7.844855233502073810e-01 1.667933500535514479e-01 4.291622164768295056e-01 -8.876935114816422168e-01
1.542193461266924345e-02 -2.585020803668320877e-01 -8.635884374621658477e-01 -7.717083031196708687e-01 5.695892694945252632e-01 2.829034446111454160e-01
-8.803215362683262935e-02 1.072681680754850181e-01 -7.035025138154997748e-01 1.134087237256727471e-01 6.002317732385263893e-01 -7.917450850986371691e-01
-1.177362414076166680e-01 -1.604846959120591887e-01 -8.403315682391481189e-01 -1.652782443649805366e-01 -4.300528942554085465e-01 8.875458354824138363e-01
-1.598387077713247229e-01 -6.796822332108021225e-02 -8.033846580281321925e-01 -1.775658175672634176e-01 -4.311257796337043535e-01 8.846473549199703745e-01
-2.461690164139408027e-02 1.453769225313567837e-01 -6.731356674844360954e-01 1.657513218745134409e-01 4.212729292508919920e-01 -8.916589136980709318e-01
2.631832844676394029e-02 -1.498036276758998864e-01 -8.068052483670412611e-01 1.606487862392547150e-01 4.327415852799545992e-01 -8.870888838494404016e-01
-6.779043035585360921e-02 1.014466709077160439e-01 -7.025436294174727259e-01 1.619107772716646965e-01 4.228954121326831128e-01 -8.915965290423766287e-01
-1.236407281960745508e-01 -2.282872098141443609e-02 -7.733300831861211755e-01 1.691229165001348622e-01 4.272429058816815672e-01 -8.881784384279236555e-01
7.883632372081531003e-02 1.246520258499371064e-01 -6.634973106873158777e-01 -4.243761014499760620e-01 8.920934485105338485e-01 -1.551586402450836344e-01
-7.024168603777868058e-02 -1.194664587855548410e-01 -8.101769072754340106e-01 1.639070079687169335e-01 4.357780294098217433e-01 -8.850039558230434755e-01
-1.207700906403395835e-01 4.612369644711312999e-02 -7.393126977449890891e-01 1.583895925924083403e-01 4.278419993848150416e-01 -8.898673836706315621e-01
9.237665989498607122e-02 -3.643670287391687166e-03 -7.235405435421606857e-01 1.812306415931443371e-01 4.343818408048313318e-01 -8.823082629822432965e-01
3.805966447917676077e-02 -1.813240432072674990e-01 -8.213005376440271066e-01 -1.659373384685493003e-01 -4.301502036920361038e-01 8.873756825413201543e-01
7.271084570726726003e-03 5.561603178555470789e-02 -7.143298099767201315e-01 -5.700516205377259560e-01 -5.253265548817764863e-01 6.317223762526990027e-01
1.755487679708793089e-02 -7.882505276668205774e-02 -7.754049753806880885e-01 -1.731125030108982554e-01 -3.941826749353771198e-01 9.025807886732869489e-01
-6.657778910846932907e-02 1.916563370831956409e-02 -7.440970024910560365e-01 -5.036736477085378416e-01 -6.569008818300101638e-01 5.610651370874248922e-01
-3.940365324244949480e-02 1.422895140064148745e-01 -6.787705866334631244e-01 -1.642656844608583744e-01 -4.415138320409792705e-01 8.820897465819993455e-01
-5.987609221945765919e-02 8.412426854687987676e-02 -7.108359244050578285e-01 -1.710454791519719631e-01 -4.313452432221898114e-01 8.858243196092904226e-01
1.282366839490529098e-01 1.400462174881178801e-01 -6.472337628575858259e-01 -9.829484337927125726e-01 1.531928986028305573e-01 -1.017069924937144820e-01
1.250312277773321101e-01 -8.172963055603034432e-03 -7.209733052901525774e-01 -1.646599448105699193e-01 -4.245844855082377967e-01 8.902893446743506134e-01
-1.554925877576917859e-01 2.094088404496977779e-02 -7.580195431368317305e-01 1.810679991854856619e-01 4.187801227156623396e-01 -8.898525655911880827e-01
1.267695550831803887e-03 -1.007842193602440095e-01 -7.877221675033511117e-01 1.587631177279809347e-01 4.313497627987247229e-01 -8.881056550787046477e-01
-4.101816078396076926e-02 -1.681328468350777594e-01 -8.272313216820500470e-01 7.001693920443784469e-01 -1.390367616279357121e-01 -7.003082188295537414e-01
-9.897863259843925343e-02 1.584387322503175155e-02 -7.499584700567607509e-01 1.648564404738871170e-01 4.322932307275444974e-01 -8.865353443046823934e-01
3.535331082991165219e-02 -2.740261200142974155e-02 -7.418596235824533869e-01 6.408167166146207239e-02 5.137736014460221323e-01 -8.555292080427508994e-01
-1.560533431313640140e-01 -1.456337995345540794e-02 -7.753554558535326047e-01 1.588717515806608860e-01 4.308747619729979550e-01 -8.883167824849449445e-01
2.957753591256458842e-02 2.334788467502566522e-01 -6.216063817358330468e-01 -1.654399082406062815e-01 -4.349801012996671878e-01 8.851112631950126541e-01
-3.839083981672605783e-02 -9.932897783957439497e-02 -7.990417260900746221e-01 -3.687935287937849776e-02 -3.077677595977842961e-01 9.507465064271121147e-01
-3.330660428151090147e-02 -2.080898267068948815e-01 -8.476659501770339444e-01 -1.659662651874480310e-01 -4.313849407899956190e-01 8.867706759243573211e-01
8.197235909667298717e-03 -1.998560502039849474e-01 -8.450117741621521184e-01 -6.969064525161490498e-02 -5.044173604768042996e-01 8.606429808079696375e-01
1.531571276111942381e-01 -6.223067484185573067e-02 -7.405199291768890246e-01 1.674307484402207113e-01 4.349133834243394392e-01 -8.847696273014467039e-01
-7.348217239127911860e-02 1.469232295349878203e-01 -6.829441126961307562e-01 -1.598285848835811485e-01 -4.318031333696953911e-01 8.876941350860805269e-01
1.439853622142374390e-01 -1.539605448683761535e-01 -7.867821204157326997e-01 1.662293001946952564e-01 4.308403744452243278e-01 -8.869861281354296523e-01
6.421961199103606854e-02 -2.093290552622996126e-01 -8.311290303144313052e-01 -3.938434360830010417e-01 -1.183262508351445030e-01 9.115296189469836996e-01
-7.385633125053095438e-02 1.531562916980445110e-01 -6.785942637791845256e-01 1.601821308480330941e-01 4.328664250534450808e-01 -8.871123621156643546e-01
-8.550919471149423523e-02 6.701016151564316570e-02 -7.239471208565136928e-01 -1.640591336461964533e-01 -4.182708462048597697e-01 8.933835122064487377e-01
-8.211685999514897749e-02 1.332254073528021110e-01 -6.897847575636304462e-01 1.613400116084508229e-01 4.318041134338110321e-01 -8.874201982577505365e-01
2.500977080103034683e-02 2.457924851194431271e-01 -6.164999917994237189e-01 -1.849853319701329213e-01 -4.469974735344467986e-01 8.751992262392152000e-01
1.630305572895114283e-02 -7.433118030174960811e-02 -7.771636660289373832e-01 -9.042717408226620401e-01 -1.709690144207980933e-01 3.912316639250121852e-01
-1.902921463411515234e-03 1.004789898589145275e-01 -6.920507639877009343e-01 -1.558581705713768528e-01 -4.247229729913305496e-01 8.918063841886023635e-01
4.766310905630903594e-02 -1.406042430598178905e-01 -7.997096597353324787e-01 -1.656483845899117957e-01 -4.216118152529872987e-01 8.915178573207793722e-01
-5.023924181393261967e-02 3.146967713601284827e-02 -7.332243896423432661e-01 1.608066406379781710e-01 4.305704282748480383e-01 -8.881161695532526767e-01
1.295701291069117911e-01 -1.877597832009995638e-01 -8.072871544941684352e-01 -1.643813530030074077e-01 -4.341287746934237024e-01 8.857262431293808636e-01
-4.176917456825152836e-02 3.171407047434915416e-02 -7.328440114148746520e-01 -1.671857840987950872e-01 -4.272910897702463795e-01 8.885219401895634306e-01
-1.103864828161395945e-02 -2.632841389770625498e-02 -7.552708294722990656e-01 -1.677083071617008203e-01 -4.227014116012247080e-01 8.906163261131522235e-01
5.505394362497231797e-02 8.176647823231762702e-02 -6.904208664356983327e-01 -1.736267818315778977e-01 -4.231589948672433432e-01 8.892638560594677832e-01
-1.585118362369339340e-01 1.450098336930590384e-02 -7.616994781803519965e-01 1.902874264376017144e-01 4.222258263510877407e-01 -8.862934316025902204e-01
-1.162459599274326266e-01 -9.756840205954632472e-02 -8.081533180233390068e-01 1.628404978178118745e-01 4.286719274896931831e-01 -8.886638008002343270e-01
-1.393287399804950810e-01 -1.447186770126115442e-02 -7.735764540519525223e-01 -1.720887552226451900e-01 -4.282038336413520607e-01 8.871453867212349964e-01
6.271874709293466521e-02 -3.097023056482173589e-02 -7.422961584640458410e-01 1.637539751286421208e-01 4.260024506118780252e-01 -8.897789319276122599e-01
1.317209901564020680e-01 6.694542429208742707e-02 -6.819114728457695840e-01 1.779179076640658996e-01 4.202270102429881415e-01 -8.898058653406822893e-01
-2.139684771824888407e-02 1.052136850278128366e-01 -6.941129718279515082e-01 3.164800733308459901e-01 -6.189881356424297570e-02 9.465774664885285850e-01
7.447257117251387948e-02 5.492654323717864606e-02 -6.984403597040320655e-01 1.582604825129358128e-01 4.367709155649714403e-01 -8.855420865161118815e-01
5.317278635158251276e-02 -3.494111658121506342e-02 -7.460577067439284615e-01 1.632250673797743246e-01 4.266411440639282793e-01 -8.895700711977052588e-01
-1.096858511127986463e-01 6.110474403872297872e-02 -7.299657952092409863e-01 1.754573424509931479e-01 4.335738388917151354e-01 -8.838712842992106911e-01
-2.444395101647948640e-02 6.237324279849534164e-02 -7.147159142427601530e-01 -1.556311880799251535e-01 -4.335539053452081015e-01 8.875865842027745867e-01
8.609019132342805858e-02 -5.877012065883077674e-02 -7.505281751144136093e-01 -2.755141059714212859e-01 7.791611279962219472e-01 -5.630274540645630044e-01
5.396099656598303540e-02 1.617150210749765671e-01 -6.505293288644168337e-01 1.585933365483131186e-01 4.399808136947309656e-01 -8.838919827575063559e-01
-7.157911604534216397e-03 1.263021674702756725e-01 -6.791234081004151601e-01 1.610525150584921072e-01 4.387021930760686694e-01 -8.840828429415320544e-01
-6.140803084521322119e-02 1.856024486367124915e-01 -6.618952284085312110e-01 -1.752685663844937292e-01 -4.263130869616388874e-01 8.874334237128792546e-01
-3.900565531429013577e-02 -1.528178798859032572e-01 -8.205300078056902979e-01 1.595552410402138743e-01 4.292613675702113274e-01 -8.889751421543524712e-01
1.313561283586186235e-01 -1.365495074504906314e-01 -7.820791139788156876e-01 -1.654466331858081840e-01 -4.351695912100103647e-01 8.850168577228305633e-01
5.331667049406386971e-02 -1.771898661666008734e-01 -8.150381125361803036e-01 1.596031207711523792e-01 4.251398937427349756e-01 -8.909449559813024111e-01
7.661980188427852667e-02 -2.651831857398211090e-02 -7.375420816102545851e-01 1.676533654570452891e-01 4.381733599102106691e-01 -8.831174642797657848e-01
-5.144125911981137916e-02 -1.817950739099565838e-01 -8.382862579271160852e-01 -1.676320512582610556e-01 -4.307440378228715727e-01 8.867688928187524855e-01
-5.870876952595512586e-03 9.937810830270300821e-02 -6.948536410027534860e-01 -3.635109480736801318e-02 -6.724777792726058800e-01 7.392240758328220140e-01
8.851819656820671123e-02 1.682756136992805407e-01 -6.408624328296770312e-01 1.404454810914632090e-01 4.381643542461591823e-01 -8.878553178919601496e-01
1.337156215305463913e-01 3.539723957146936190e-02 -6.981875451159273993e-01 -1.802112875017749805e-01 -4.299556637130032000e-01 8.846818745165198061e-01
-1.201352089427967645e-01 7.873456816136531478e-02 -7.247790002211295102e-01 -1.755132508328650087e-01 -4.323263038694473703e-01 8.844710655327634452e-01
6.806375229667040172e-02 1.228007237048643896e-01 -6.667680582635369113e-01 2.320796435583992734e-01 4.124052134352514387e-01 -8.809432325509009010e-01
1.935719709739199684e-02 7.039467034839683168e-02 -7.058997593761540124e-01 5.011414553107187420e-01 -5.388079233747662400e-01 6.771582263235284005e-01
1.378733136673667425e-01 -1.205625116366879079e-01 -7.717410205953283420e-01 1.610253370799787087e-01 4.363508944175333859e-01 -8.852506638005406270e-01
1.299349968930463284e-01 6.661721510243626132e-02 -6.837782074809809485e-01 -1.681291931862740618e-01 -4.203877515169265888e-01 8.916314893346215520e-01
-1.049363193407765737e-01 -1.823452065452597914e-02 -7.689519054730750147e-01 -1.670609200628435653e-01 -4.282516392547831008e-01 8.880828691419214715e-01
-2.478798948042919975e-02 4.321593477728660759e-03 -7.429867300408180553e-01 -1.579710698204348784e-01 -4.268499271893932967e-01 8.904180370804473110e-01
8.052306003585936456e-02 7.932632477659115611e-02 -6.868831095915873819e-01 -1.743979786398423271e-01 -4.351576928271430056e-01 8.833023986267074523e-01
-1.743199147217687206e-01 -1.158912740085262655e-01 -8.293210350216602134e-01 -1.715701309935810104e-01 -4.338448325870776778e-01 8.845011878953785711e-01
