-3.566824777064644264e-02 9.996398400642616394e-03 -1.073759741058409878e+00 -9.587214255519821426e-01 -1.796937065958041368e-01 2.203710507245363048e-01
-1.062790422709449303e-02 -6.132481138497620360e-02 -1.023830676660488548e+00 -9.573270355928951147e-01 -1.920949503252986079e-01 2.159270177222872844e-01
-3.094770120587735790e-02 1.612634549768601766e-01 -9.340232335419231813e-01 -9.596881223521975812e-01 -1.788230376255984799e-01 2.168433283051788008e-01
6.398827281336449090e-03 -1.960603606396237597e-01 -1.052651902160880004e+00 9.514581943278939136e-01 1.960075502363529953e-01 -2.372937940542219348e-01
4.921821586817803906e-02 -1.289900032753349135e-01 -8.228897324922479495e-01 -9.590492525681288960e-01 -1.768019332139910138e-01 2.212817379729034861e-01
2.572568192392002406e-02 -1.907597095364907402e-01 -9.717552230048467354e-01 -9.580749071246322801e-01 -1.814722527801971019e-01 2.217212073957008089e-01
1.289082458712402686e-03 -2.161415986788196852e-01 -1.054107188009762108e+00 9.997640585954294945e-01 1.003131783247763337e-02 -1.926654622237220990e-02
-6.758721883809818386e-03 1.124892033146685823e-02 -9.500545146281328401e-01 -9.587643895359839741e-01 -1.676894154025777572e-01 2.294582866658639586e-01
2.855226362267468832e-03 3.926077831693616099e-02 -8.814459918886106138e-01 9.588228064160377873e-01 1.802164364835701360e-01 -2.195013938854075419e-01
-4.375753773351422765e-02 1.390315968027032723e-01 -1.000661900138079208e+00 9.613849285853893756e-01 1.686619532873764316e-01 -2.174676173644085608e-01
-5.451094935384763647e-03 -1.053599655208533326e-01 -1.031367859300639456e+00 9.549381817260573779e-01 1.858742671643569544e-01 -2.313953886486179168e-01
-3.535680671543841441e-02 9.053675507419507718e-02 -1.003226932186913833e+00 9.581727774324404479e-01 1.768021573727635298e-01 -2.250464968306313818e-01
-4.077175566517945993e-02 1.874928268215124705e-01 -9.494327493614357349e-01 9.578235383007535075e-01 1.745336100329716866e-01 -2.282807228959194690e-01
-2.315245789027284978e-02 -5.200654175212642005e-03 -1.027314209677823831e+00 9.573622394916367906e-01 1.818000144195297541e-01 -2.245134676419593966e-01
-1.432497144500390236e-02 4.473488864972582219e-02 -9.500162905647274725e-01 9.548134584856797780e-01 2.007852238674737999e-01 -2.191267974737544089e-01
-1.379396992257124303e-02 -6.172073821238316382e-02 -1.032221561782106667e+00 9.542754260151331547e-01 1.937559194554089870e-01 -2.276335980904964085e-01
-1.425589097855418583e-02 1.371934896892526845e-01 -8.765887813548390861e-01 9.606829709238793313e-01 1.705850677184886366e-01 -2.190638355556380479e-01
-4.341045261117377693e-03 7.548007169190518173e-02 -8.888103655065632269e-01 -9.573031672686261873e-01 -1.823901838299743505e-01 2.242865728926390911e-01
-2.199244860220992553e-02 -4.461366058836071027e-03 -1.021759431593648015e+00 9.574985804221384234e-01 1.824662406718161323e-01 -2.233887631567098020e-01
-1.438233862795908029e-02 -5.278430066670002779e-02 -1.033165955345023423e+00 -9.572582657366902614e-01 -1.770577142179375063e-01 2.287076267086502468e-01
-1.450463035513327968e-02 -1.834848017614054971e-01 -1.136542841499844414e+00 1.402142099353134719e-01 3.553111549832929650e-01 9.241720394367350933e-01
4.474695775015126442e-02 -7.044547564300357445e-02 -7.954895350959484412e-01 -9.591912464776428671e-01 -1.747436220777424665e-01 2.222989411216730327e-01
-6.680212417536845852e-03 -1.402572610810158271e-01 -1.069396755328704707e+00 -9.603731924949624466e-01 -1.681732259869107848e-01 2.222635759592408444e-01
-1.734318384296378371e-02 -1.568053427360311114e-01 -1.122535631814750134e+00 9.590430308914100754e-01 1.741394013297388743e-01 -2.234097889599697406e-01
-2.516032847846109283e-02 1.654192900623195281e-02 -1.018517596923943280e+00 9.585216848338713458e-01 1.699342424615835623e-01 -2.288198700774140559e-01
1.523829672709832266e-03 -1.666557952892968875e-01 -1.037077041443297709e+00 8.913638122753776427e-01 -2.077052877831292443e-01 -4.029008160736747279e-01
1.514457437156400271e-02 -1.857049733597053998e-01 -9.970030494751467298e-01 8.690790309208296094e-01 4.531657039735442205e-01 -1.983493956529080449e-01
1.183880571065703408e-02 -4.834463279256258350e-02 -9.181057320095935559e-01 -9.538369980560245098e-01 -1.858309903054135293e-01 2.359275824942499711e-01
-1.867437797025743584e-02 8.024575316514974410e-02 -9.405343178434608653e-01 9.545787382750980932e-01 1.862592608262479410e-01 -2.325659480439507820e-01
-1.800632232933564942e-03 5.965251472378386988e-02 -8.946340884990301445e-01 -8.718120295982632051e-01 -3.936110657136358548e-01 -2.915717990401899828e-01
-2.296092117992683604e-02 7.480960718438040002e-02 -9.630127289897526532e-01 9.604237687122026967e-01 1.824215447035552329e-01 -2.104959964479576617e-01
2.013452210695347230e-02 -1.628968659140129782e-01 -9.679289295937082427e-01 9.557042150045038653e-01 1.855572246835079375e-01 -2.284687501396622522e-01
1.974211817456360436e-03 -2.830179519024931807e-04 -9.451826443317908888e-01 -9.917421030034337948e-01 -1.280901086299398028e-01 -6.365940739340720210e-03
1.072279099044202468e-02 -1.657428230335743768e-01 -1.015778217466145605e+00 -9.586179333070553588e-01 -1.752718908446409818e-01 2.243466563643284617e-01
2.477447934083382847e-02 -2.287698446201206215e-01 -1.005742900157507114e+00 -9.574585924722729402e-01 -1.839680437459305373e-01 2.223258927370125038e-01
-4.082318114939303966e-02 2.316973601975987895e-01 -9.202266826132393662e-01 -9.666369038450086659e-01 -1.573479757586656314e-01 2.021254824350106338e-01
-8.282264819840940914e-03 -1.969067409918163203e-01 -1.121122718624597780e+00 -9.597807424892684791e-01 -1.721126475756795116e-01 2.218065889265659896e-01
-1.204704984252346657e-02 1.157754052671061268e-01 -8.840749381089171299e-01 2.216038772879383723e-01 7.709885585290370269e-01 -5.970497166805039946e-01
3.596187351586584841e-02 -1.813332183398925213e-01 -9.153497740433128582e-01 9.602024000852225072e-01 1.742055078487701469e-01 -2.183203882044246757e-01
2.604679876690550039e-02 -3.005887029434593100e-02 -8.431333347476527296e-01 -9.610012107100717182e-01 -1.758045360812696967e-01 2.134699934581583414e-01
-2.916523874823422416e-02 2.090550466316686562e-01 -8.830630011251033862e-01 9.572088648308418879e-01 1.844009930703865707e-01 -2.230413926694027327e-01
-1.210844768141397694e-02 5.434865624660753514e-02 -9.244652767666085014e-01 9.761402547041883038e-01 1.002786123071941898e-01 -1.925990733617013451e-01
3.254411679514475353e-02 -3.940132348371272464e-02 -8.226914157692408747e-01 -9.581852762867781870e-01 -1.754262401413249628e-01 2.260677123719991299e-01
9.805464258271246250e-03 -2.163058515605659204e-01 -1.068900270735649416e+00 -9.106902096692918169e-01 -2.259052569466638016e-01 3.458470137161269164e-01
3.760791914371855015e-03 -1.533824888251356655e-01 -1.035611693227902252e+00 -9.590858985849933793e-01 -1.783019556468501410e-01 2.199151012275529504e-01
-2.897782388521158176e-03 -1.273636882713812812e-01 -1.037832514149898078e+00 9.587682115121476389e-01 1.782982428633143879e-01 -2.212990130697657654e-01
3.320023364789695397e-02 -1.751811420909921424e-01 -9.177506849182562876e-01 5.757228398097875566e-01 7.796866053827388177e-01 -2.462356779755836000e-01
-5.224440205135553843e-03 5.628102913433339488e-02 -9.105851424676216777e-01 -5.510398003543698353e-01 1.852038138550039792e-01 -8.136674294568865262e-01
-1.054713239291809289e-02 3.122995182913300763e-02 -9.447243038538007953e-01 9.565898079051818881e-01 1.855606413589657999e-01 -2.247291431710105869e-01
-7.585845527398627289e-03 -3.185287795040897540e-02 -9.621085871604693196e-01 9.487514730236201732e-01 -1.459437338298147646e-01 2.803053138834924463e-01
-8.305850319526379352e-03 -2.008490022109628015e-01 -1.118987069089349307e+00 9.554575699819771728e-01 1.837810798370631271e-01 -2.309228153692454433e-01
-2.439073967050058370e-02 8.664903798172841898e-02 -9.597726593597195599e-01 9.561671403341953646e-01 1.764742623587741976e-01 -2.336690704180894029e-01
1.985570457781801051e-02 -1.724149845006961723e-01 -9.820019123148967521e-01 -9.558373210161700273e-01 -1.829311216155161124e-01 2.300243910917290913e-01
-3.063950838111270669e-02 2.106781478218705261e-01 -8.881176169128075504e-01 9.608108633509820917e-01 1.801995383371325365e-01 -2.106433270954121972e-01
-3.651465561564120731e-03 -1.266707345327404977e-01 -1.046055525398647656e+00 -9.576249660842013345e-01 -1.844873673619121524e-01 2.211760285747607913e-01
-4.359514561971829238e-02 -1.327239487278911514e-02 -1.121921347678297209e+00 2.795193153734562008e-01 -1.691362915572003356e-01 9.451253182575484191e-01
-4.214842101710822297e-02 2.156578387573850619e-01 -9.330507274491528502e-01 9.558197155564478464e-01 1.827008793601516135e-01 -2.302803943774169582e-01
-4.514753471904888599e-02 3.991595702058555600e-02 -1.085132930376998095e+00 9.569085699035209114e-01 1.764318263258283226e-01 -2.306464816651909999e-01
-3.528555061600950095e-03 -2.040366283817301452e-01 -1.106679104883807607e+00 -9.593780898286056180e-01 -1.754759436817093787e-01 2.209114617801199165e-01
2.870640654961666496e-02 -1.292985813410875706e-01 -9.104429989882386609e-01 -9.577000161261035593e-01 -1.781799988326402961e-01 2.259702793025254730e-01
-5.148213840605903036e-03 7.769148551930686597e-02 -8.804020461966163280e-01 8.241667571028455930e-01 -3.796198155552314990e-01 4.202831808726008034e-01
-3.704511705290761819e-02 2.450938619867554583e-02 -1.068234542259538289e+00 -9.585213344320121509e-01 -1.724574191886824592e-01 2.269257367630517219e-01
-4.653007278510819938e-02 9.860303162657230169e-02 -1.049872510018775351e+00 -9.470452039104949593e-01 -1.938425632736249238e-01 2.559891451090061110e-01
-1.739448899836842921e-02 2.303030317003871286e-01 -8.161907276071077577e-01 9.632752067142210661e-01 1.682374275117327067e-01 -2.092774333603822645e-01
7.232538314455352326e-04 -1.408805058650255959e-01 -1.044959579348331502e+00 -5.433581504875639734e-01 -4.812526561287273075e-01 -6.878646678437401185e-01
-3.131239859112035923e-02 2.442458672963207789e-01 -8.697698325686417098e-01 -9.568653672210700734e-01 -1.872999409138061400e-01 2.220977288190306154e-01
-1.054623513182973045e-02 4.293717095563878011e-02 -9.409341199401434208e-01 -9.577597924008628416e-01 -1.708971702194461983e-01 2.312797813714855821e-01
2.346530924074310964e-02 9.169243748787895068e-03 -8.229225022162430792e-01 -9.601760559651768556e-01 -1.728032243836315762e-01 2.195472322617119942e-01
1.922092291167197195e-02 -2.207004922520364176e-01 -1.053587767690673749e+00 -9.325613876176712669e-01 1.667199199825342981e-01 -3.202088796483022470e-01
-2.636561263645467029e-02 -1.339810381847841014e-01 -1.142978083005732115e+00 9.588548240535584855e-01 1.787856934239726858e-01 -2.205291414215568013e-01
2.082200598160656446e-02 -9.086822742889003046e-02 -9.080849211179270464e-01 9.579892177713573709e-01 1.790245805153621583e-01 -2.240688693351252370e-01
4.243611956843058169e-02 -1.540069353570730215e-01 -8.660449485268718606e-01 9.578147351192857206e-01 1.830689850418038001e-01 -2.215325707523306542e-01
3.563458010454033376e-02 -1.977554797723015956e-01 -9.350162678095917945e-01 -9.578891920175195418e-01 -1.682537523876642127e-01 2.326778258096250107e-01
2.460479795929553307e-02 -1.232985270503405562e-01 -9.176941570649022051e-01 9.578803126524296774e-01 1.772283161834042886e-01 -2.259544878414210534e-01
-1.921910449813599500e-02 1.936698198316337549e-02 -9.965358380268242167e-01 -9.624813774273747180e-01 -2.027228365948834932e-01 1.803692036585728131e-01
-1.869444151312953106e-02 -1.036286967339616547e-02 -1.017803894682091981e+00 -9.625232547534735561e-01 -1.630087079338571332e-01 2.167421168036209045e-01
4.680805698426266162e-03 -5.867713342248156300e-02 -9.657307901867350219e-01 -5.512900371150182277e-01 3.205160241220058048e-01 -7.702913560846595953e-01
6.485657323378023718e-03 -2.257199669492742922e-01 -1.081362249760392746e+00 -9.597524020327586891e-01 -1.696830808307457084e-01 2.237922672304315241e-01
-2.723661277743306616e-02 -5.695987301601162893e-03 -1.045174023484064074e+00 9.576622751269991962e-01 1.825714374597541545e-01 -2.225997237699520737e-01
-2.584304217553477431e-02 5.209921322213791062e-02 -9.987224320720384796e-01 -3.957104435357635674e-01 8.555659808303666125e-01 3.337964908780525208e-01
-1.288070102661358074e-02 1.998443652216451427e-01 -8.212045192618776523e-01 9.593796983655233923e-01 1.710119789566039994e-01 -2.243780234724947753e-01
-9.670503373759116103e-03 1.899077047540446983e-01 -8.208957019324532034e-01 -9.558575282039147858e-01 -1.886187766819519829e-01 2.252983418911607694e-01
-1.579258872938339026e-02 -4.627233594432175051e-02 -1.028582340324979638e+00 9.603205100367048219e-01 1.764405586196918507e-01 -2.159936278615976479e-01
-1.803613289558916519e-02 -4.047783391464115227e-02 -1.038884700518288406e+00 -9.570382738865735872e-01 -1.794626232803904764e-01 2.277518587443991549e-01
-2.219794349062043787e-02 1.779274243252778331e-01 -8.724855302731288065e-01 7.153862707778329000e-01 -4.387479337837663085e-01 5.438039482966825489e-01
-3.712636135736820803e-02 2.354140584744685294e-01 -8.961784010276762080e-01 9.565843082146013865e-01 1.905033035041338307e-01 -2.205786767382660052e-01
-3.289819923137028007e-02 -1.081737439708766770e-02 -1.080891326270885688e+00 -8.853439840716857967e-01 -1.553392034708733216e-01 4.382188514122929979e-01
-1.827709386887918508e-02 2.694795664708501612e-02 -9.811949734903259168e-01 9.505518666096715030e-01 1.434234727090127060e-01 -2.754648005843152725e-01
-2.776053551293937265e-03 5.070925054179262204e-02 -9.108142781397894350e-01 -9.997691193792120901e-01 -9.923164728142660693e-03 1.905882308782887516e-02
-2.099633301699003682e-02 2.490588767360949474e-01 -8.221124373583005296e-01 -9.533294832511383099e-01 -1.923799859585710037e-01 2.327076220640353632e-01
-2.331140822528207993e-02 3.581563735656573960e-02 -1.000843314373461412e+00 -9.571473834981580886e-01 -1.864150204801990895e-01 2.216265471508256646e-01
-6.719430148585843476e-03 -9.633408083460777427e-02 -1.029544777354173934e+00 9.601464608240832810e-01 1.704974997215251142e-01 -2.214709379482912577e-01
4.298734556102667970e-02 -1.439979451552796108e-01 -8.613455970827686992e-01 -9.584048239063062136e-01 -1.816284534118535465e-01 2.201619822411233496e-01
-4.626400076415577989e-02 8.794289546879935707e-03 -1.114492477595798725e+00 9.603816644126385027e-01 1.719727449665599261e-01 -2.192998715199741544e-01
2.205989923570479336e-02 -1.647857371399732707e-01 -9.584329793200260239e-01 3.832730711480225039e-01 3.395499147875532531e-01 -8.589572796714213254e-01
1.896316598962876146e-02 6.987584757413477232e-02 -7.884559671440457551e-01 9.577670028682974124e-01 1.797103409053674716e-01 -2.244695114895458588e-01
3.974194754132931440e-02 -1.067421316687808819e-01 -8.400906709002543549e-01 9.583585040051956216e-01 1.789471303609332375e-01 -2.225464049058326621e-01
1.321146065091991992e-02 -8.474094253784117403e-02 -9.409832069032880719e-01 -9.581140217656390901e-01 -1.787672746123530609e-01 2.237404362732498542e-01
2.399939096017259313e-02 -1.559695662569516306e-01 -9.461117598182283706e-01 9.548903177899918937e-01 1.890575391726569965e-01 -2.290015892366417116e-01
-2.348625304671135908e-02 5.803177886639773048e-02 -9.784633793355453912e-01 9.572450164176602438e-01 1.747982770641328676e-01 -2.304941233067868966e-01
1.371037202702263952e-02 1.132531438661852838e-02 -8.627567448845001596e-01 -9.563447259099641107e-01 -1.807646694977134427e-01 2.296277411062921381e-01
5.001608544562529540e-02 -2.237421329172175344e-01 -8.924070509169714782e-01 -2.101535636578956423e-01 9.775701272687907784e-01 -1.386095067327347899e-02
-2.804084524027391015e-03 3.214757276262134034e-02 -9.165075290636031102e-01 -9.534709902954868754e-01 -1.893891376588496545e-01 2.345737095281161255e-01
1.006680793962355484e-02 -1.201923626867186512e-01 -1.011428429584672051e+00 -7.809573099816665698e-01 -2.221026620488556480e-01 5.837602996924432519e-01
-3.501968860056835914e-02 -7.203459913088912370e-02 -1.136045285142510686e+00 -9.582562008942827614e-01 -1.727858795254489099e-01 2.277939711324101502e-01
-6.733221144683975042e-03 -7.665397824013130308e-03 -9.593931911626648601e-01 9.575651876231029425e-01 1.842384824065949056e-01 -2.216418125102901648e-01
1.182737141263923153e-02 -1.629291521331442394e-01 -1.034704382409592283e+00 -4.403647188918694000e-01 -4.146248350330535848e-01 7.963448753706511285e-01
-2.941349131530976435e-02 1.772577810916687868e-01 -9.091919599409491459e-01 9.579620457991320226e-01 1.836036114755267845e-01 -2.204505220258859699e-01
2.250984930475955284e-02 -1.872544265502161520e-01 -9.867158652728765800e-01 -6.047195764823025677e-01 1.386904262550504585e-01 7.842698511891534885e-01
2.892120581130636428e-02 2.604458452610908248e-02 -7.863847616508342631e-01 -9.563722719613907408e-01 -1.746594240227575812e-01 2.341925767898002664e-01
3.960417646078119580e-02 -1.703387018955826171e-01 -8.964388896072430502e-01 -9.560782247764524344e-01 -1.776046275295291577e-01 2.331759515653464288e-01
5.045647314929684046e-02 -1.374710979489882634e-01 -8.188889177904999928e-01 9.561665625993253093e-01 1.783069646262936403e-01 -2.322759801028687343e-01
-2.884473735042125328e-02 -2.462939767487164894e-02 -1.066756054628233086e+00 8.286687307823386028e-01 -5.290548338168830078e-01 1.827816113250417263e-01
8.027336078108007408e-03 -1.602978449559177426e-02 -9.086039659928971668e-01 -9.613941527795865083e-01 -1.363141764366998798e-01 2.390391773404638986e-01
3.991089442834947626e-02 -6.931012369508011972e-02 -8.151418126034508660e-01 -9.590177504614205706e-01 -1.768362124714212835e-01 2.213908495369198426e-01
7.896275717884464890e-03 -6.861693186926280663e-02 -9.790084978033315455e-01 -9.146941169115467840e-01 -1.866404291166128548e-01 3.584689982502983208e-01
9.713652733162608452e-03 1.413396462409178267e-01 -7.767927542299608579e-01 -9.604906525953130769e-01 -1.774588872610718959e-01 2.143969440292745887e-01
-8.476510128955026813e-03 8.122235359217246098e-02 -8.963918107891749587e-01 9.567231546597217973e-01 1.850784274493968429e-01 -2.245590813812888276e-01
-1.866461538917656843e-03 1.520532599131879936e-01 -8.175530201800278451e-01 -9.537244200776007208e-01 -1.831726089459149720e-01 2.384481618289209237e-01
-2.356555391062010313e-02 1.390150708871346931e-02 -1.013816093494314119e+00 9.571675472009542052e-01 1.846945744491949870e-01 -2.229757851300007976e-01
-3.330304031402949588e-02 2.146735758274261607e-01 -8.962117799340180158e-01 9.542434979161303898e-01 2.041503385869923859e-01 -2.184993957419671673e-01
-3.757239776953390231e-02 -8.379832972097264743e-02 -1.150768617142222894e+00 9.577516056349951734e-01 1.829318245086944128e-01 -2.219184748629753900e-01
-3.260486414340166283e-02 1.259815448001908034e-01 -9.690658807966936461e-01 -9.538347474924392388e-01 -1.859613451502834802e-01 2.358339513003414600e-01
-3.035204013786109781e-02 -7.280874553982864816e-02 -1.116892297847648097e+00 -9.594035248922102577e-01 -1.695776523950360271e-01 2.253625883606033831e-01
-2.335517254765092851e-02 -2.054716017810426579e-02 -1.045593724663791857e+00 -9.574267939737497457e-01 -1.801797149780598184e-01 2.255420237817607476e-01
-3.651600029821926163e-02 1.394938974715471958e-01 -9.694569031926784097e-01 9.580993024370190181e-01 1.778249147497603377e-01 -2.245529477961449583e-01
-5.509197057113997958e-03 7.803589024763038506e-02 -9.105118900109767655e-01 -9.272227301199570393e-01 -1.729539024736074793e-01 3.321821132572362889e-01
2.843135089611277880e-02 -2.023335987692530258e-01 -9.639131651240068210e-01 9.546233222103981397e-01 1.826262619755423533e-01 -2.352487218431229543e-01
4.214112681258844889e-02 -1.762392328902886995e-01 -8.948387085872572255e-01 -9.465661271596047532e-01 1.973562901057048513e-01 2.550746198071852100e-01
-2.375729969934036595e-02 2.537105278811417342e-01 -8.248104977351135014e-01 9.628739189276124266e-01 1.605314554786725634e-01 -2.170333339625064861e-01
8.793713319222455638e-03 7.624763372086439117e-02 -8.267364665262312284e-01 9.588554784648936069e-01 1.710049660015337814e-01 -2.266130468897902817e-01
1.895542883911588081e-02 8.345053251990866561e-02 -7.778601908859574809e-01 9.569530844073841358e-01 1.780184685309673664e-01 -2.292383456254276364e-01
-2.038125717815847740e-02 2.231006071680274316e-01 -8.400118104803975250e-01 -9.578275795529553882e-01 -1.700285136801961694e-01 2.316390130859449503e-01
1.494554414996139211e-02 -1.735365494213095272e-02 -8.730114404010017592e-01 6.817742309689210911e-01 -7.240224652323531407e-01 -1.047633897198931296e-01
1.335935255165498180e-02 -1.830546145494778010e-01 -1.044812854072593389e+00 -4.128594988870094018e-01 -4.206172104164991876e-01 8.078540688021631500e-01
2.674179308202306871e-02 -2.023292013952343871e-01 -9.764829448953575852e-01 -9.726990894520713971e-01 -8.490000714316740804e-02 2.159825691258479563e-01
-1.475837235315845611e-02 2.059614668406938021e-01 -8.296072963565978009e-01 -9.606569376038412988e-01 -1.719920968799746319e-01 2.180755989202799450e-01
8.757647921959887255e-03 -6.041603515291254362e-02 -9.414206483825998673e-01 -5.318337991033968981e-01 5.646433720575912973e-01 -6.311344330035245642e-01
-2.486745440322613021e-02 9.431121760334335025e-02 -9.556260848971369626e-01 9.601862075809614039e-01 1.834415508151258922e-01 -2.106932467020063149e-01
1.054678703030614666e-02 -1.824881497916604756e-01 -1.024310292873790607e+00 9.575813001456026097e-01 1.834305337958892501e-01 -2.222415192595946221e-01
5.750121217465769402e-02 -1.899829835908426745e-01 -8.303775029816024000e-01 9.545703587759617470e-01 1.790751211831912992e-01 -2.381754208971975650e-01
-3.047260876137079539e-03 8.470437502425677556e-02 -8.774031786964675561e-01 -1.844607253020378868e-01 -5.225214817581952387e-01 8.324335060064954606e-01
-3.293751691540945659e-02 1.390795904453846210e-01 -9.526999234572743891e-01 7.250186928080708526e-01 1.050067034896609713e-01 -6.806772269593794888e-01
-1.329115220935032753e-02 1.328918741733564890e-01 -8.760277552796981171e-01 9.565571839918703967e-01 1.900118926679665865e-01 -2.211195025281130488e-01
-2.199244198893985421e-03 -2.033741067283787451e-01 -1.100541793756710574e+00 -9.574751629979282308e-01 -1.753352771155102519e-01 2.291262814277712778e-01
2.091634254901963280e-02 -3.458462508829984045e-02 -8.685442092658640645e-01 -9.571434407030361413e-01 -1.804041688600979965e-01 2.265629488178747541e-01
5.191537176370480955e-02 -1.349554910180651712e-01 -8.161968531338678057e-01 -9.554875437496312962e-01 -1.809716553574411135e-01 2.330081837543143686e-01
5.384869515147197062e-03 1.580944530366591438e-01 -7.818932844083086309e-01 -9.526949976862298941e-01 -1.887544401260223270e-01 2.382099970957271273e-01
1.800968521829103899e-02 -1.404300289458550455e-01 -9.646453680900081151e-01 -9.595505778849320322e-01 -1.844219741838767634e-01 2.127233506665752172e-01
-2.424099397217082340e-04 -1.788744917633185716e-01 -1.032397138400265479e+00 9.761402547041883038e-01 1.002786123071941898e-01 -1.925990733617013451e-01
2.030876457214670847e-02 -7.044096263877462627e-02 -8.993892666193288310e-01 -9.570561219095838901e-01 -1.658035776584723675e-01 2.378082276773420822e-01
-3.979953042568292604e-02 1.938581836169222528e-01 -9.457264999261376648e-01 -9.600727259428885052e-01 -1.783419187443466558e-01 2.155331086380378181e-01
1.827367303411874672e-02 -2.137957074517926881e-01 -1.016107623590657871e+00 9.546398732615519744e-01 1.827810696822613490e-01 -2.350612536020697252e-01
5.592390204811630364e-03 3.200613120011346763e-02 -8.754481699049152521e-01 9.586099721368023241e-01 1.812931275955065868e-01 -2.195443536202164314e-01
-1.699399597777767265e-02 -9.530807449204198312e-02 -1.077888501777464203e+00 -9.555961866677283867e-01 -1.843276823065619630e-01 2.299113602273431811e-01
-6.924686109866157180e-03 -4.443792459004267809e-02 -9.627880699815204446e-01 9.265019309630164734e-01 1.489221824098803937e-01 -3.455667164355969434e-01
-3.626530899420104398e-02 -5.988487282365624609e-02 -1.131805364526055957e+00 -9.557220136728167281e-01 -1.837436765268595229e-01 2.298558111459648723e-01
-3.142212212071382460e-02 -5.431515461170095121e-02 -1.106683192056960197e+00 -9.563021126754459589e-01 -1.874084973264733833e-01 2.244199733141237774e-01
4.898641776838966178e-02 -2.230298967718641057e-01 -8.982422845681060641e-01 -9.616753828232084134e-01 -1.667409304346603449e-01 2.176646967002674182e-01
1.216940620861034321e-02 8.012602659886601530e-02 -8.148448311879677997e-01 -9.624258604894974090e-01 -1.692207480575064482e-01 2.123694928371504531e-01
7.014212165375019806e-03 1.249416156723340970e-02 -8.901994688213000773e-01 -9.594567223970094094e-01 -1.825935695719573260e-01 2.147146622803367821e-01
-5.311921302150112920e-03 -1.870362130708763948e-01 -1.095408917847888519e+00 9.569468315901989985e-01 1.816199812228267430e-01 -2.264220482419937452e-01
-2.915345405956626390e-02 2.204180940474135819e-01 -8.796083535710946810e-01 -9.589688967319541790e-01 -1.808569224800299635e-01 2.183332972584597909e-01
-3.009599516639997752e-02 2.415455795266133465e-01 -8.668632371733484554e-01 -9.572395278057135304e-01 -1.726907277320604006e-01 2.320999762207357486e-01
-2.273413875200372414e-02 -4.476147538605777104e-02 -1.062343046404917279e+00 -9.573830583674761696e-01 -1.764566431782091105e-01 2.286498034751311137e-01
-7.319533459710622463e-03 7.410494579411803368e-03 -9.552999605771181901e-01 -9.567794371421155519e-01 -1.853081588936369428e-01 2.241294155381381437e-01
7.105241376664691612e-03 -1.414111298052000143e-01 -1.005661706455840632e+00 3.208832149710012516e-01 -9.142745849728002305e-01 2.472568414072458254e-01
3.756055461509720528e-02 -1.053097499730646647e-01 -8.483542390544698275e-01 9.586661285404572963e-01 1.786752649570452212e-01 -2.214371325721623540e-01
2.139668514259972232e-02 -1.925533181314150744e-01 -9.861533168291402029e-01 9.515564372820244365e-01 1.799894544214009906e-01 -2.492872699602356468e-01
1.760699016666065347e-02 1.072413961536719390e-01 -7.703770532855742648e-01 -9.574598208791010867e-01 -1.768267539310908743e-01 2.280416420225769014e-01
3.588288759078462481e-02 -9.997925901505681778e-02 -8.512957865183318207e-01 9.580814418570469115e-01 1.801275672557385021e-01 -2.227869167694806474e-01
-4.053827632716546642e-02 1.871537791985518340e-01 -9.543064064337450914e-01 -9.594770751492768257e-01 -1.796351885031588769e-01 2.171058297568808082e-01
-2.430634707201750899e-02 8.343790881127365056e-02 -9.674553980975402201e-01 -9.601758559750093180e-01 -1.834233109933091632e-01 2.107562919272165658e-01
-1.669082861936473094e-02 2.113141153508880585e-02 -9.863740248598676930e-01 -1.938979433741875591e-01 3.369206669694868039e-01 9.213512097588500982e-01
4.140707591072338841e-04 -1.521072099094334940e-01 -1.027988125813953824e+00 6.884168679331451601e-01 -3.349603037469610078e-01 6.433380222393685344e-01
8.756812257917209394e-03 -9.415355332943690925e-02 -9.960420342306525177e-01 -8.408750751023525982e-01 -3.505029674569432041e-01 4.124036589016761845e-01
3.711425842236704825e-02 -2.087379023212825035e-02 -7.832024823157628379e-01 9.563909391952882810e-01 1.812894906103747761e-01 -2.290207239954183405e-01
-1.071337126836589999e-02 -2.672738207443356787e-02 -9.914624783468433122e-01 9.569359772580736667e-01 1.833727678359918234e-01 -2.250510240929889383e-01
3.346409381311626213e-02 -8.578011057655679505e-02 -8.607359029776124881e-01 -9.628852232273757972e-01 -2.445910206942712994e-01 1.141371082781641594e-01
-1.103793935745248957e-02 2.446640406925430430e-02 -9.326077598222836107e-01 9.982490705807295361e-01 -2.731653821708902516e-02 5.246522490702040104e-02
-1.152784876973629406e-02 4.075961223939932911e-03 -9.703078538445735202e-01 8.627679164427035641e-01 2.485129793613547744e-01 -4.403099152256954585e-01
-3.000411641452473133e-02 5.099407123530059344e-02 -1.017348852405450810e+00 -9.570037661219455982e-01 -1.869033675567228492e-01 2.218353507094154575e-01
-2.971350143393752460e-02 -1.107852528941126596e-01 -1.138706698352669910e+00 9.593844976221981291e-01 1.730235697162854080e-01 -2.228098517679065194e-01
-1.211451678668855336e-02 -1.228318701289364961e-01 -1.078906043363516920e+00 -9.606119492326533615e-01 -1.664583442718035045e-01 2.225225889965606052e-01
-1.613580861258783611e-02 6.256461023886182582e-02 -9.491131555286221877e-01 -9.570991185060222506e-01 -1.717369620416210330e-01 2.333831468287936306e-01
-2.077961538288949916e-02 -7.314965559132940998e-02 -1.076402635891036574e+00 -9.611684765937471564e-01 -1.668912486191544697e-01 2.197782308073185364e-01
-4.250621810939111955e-02 -6.387919780627109544e-03 -1.115911423345501197e+00 -9.570493509042409253e-01 -1.743375434545904601e-01 2.316526729308133192e-01
4.392527546747044404e-02 -2.120768308911510636e-01 -9.057136150821141207e-01 9.563446867002545204e-01 1.791274559400117816e-01 -2.309073293523863923e-01
7.158005150264585767e-03 -8.432682054771616087e-02 -9.784915834071196139e-01 -7.226236870190035910e-01 3.192246534305289152e-01 -6.131155091833999649e-01
2.085123219118543980e-02 4.885471619074532174e-02 -8.027276566938585933e-01 -9.596334557426260403e-01 -1.708287701404376246e-01 2.234304408798650499e-01
-3.551485320000759283e-02 -8.517816183893381354e-02 -1.148652495673091023e+00 -9.564430764474591840e-01 -1.744212347500765370e-01 2.340809141813539052e-01
-3.776120645729111325e-02 1.280530608554683314e-01 -9.838498904035107850e-01 9.610826707569989358e-01 1.755112778900786430e-01 -2.133445366162109169e-01
-7.730511926674866856e-03 1.670913556690505342e-01 -8.251235013615105807e-01 9.569382638469087210e-01 1.868541147412447756e-01 -2.221591748947816525e-01
1.781744818103678588e-02 -2.329248539395191442e-01 -1.057623344376249941e+00 -7.785922072297738472e-01 3.172781586051148794e-01 -5.414136541621540344e-01
-1.341663258940018269e-02 7.070536798940331435e-02 -9.257879480347100953e-01 9.565551070111885101e-01 1.868419223216962743e-01 -2.238133671476018605e-01
-3.275478788350232734e-02 2.537239383124780256e-01 -8.684076971431745617e-01 -9.573208247823913331e-01 -1.730578411699627561e-01 2.314904361902538898e-01
8.801517945186518484e-04 -3.011037773574873344e-02 -9.502387129528822030e-01 -9.582412994181781496e-01 -1.846973567916925241e-01 2.183128454386589756e-01
-2.968300405100466471e-02 2.824644896554874204e-02 -1.028614048230832134e+00 9.570006544603905096e-01 1.852271493546376047e-01 -2.232501970980971528e-01
-3.852444059577970342e-02 -1.365547552397767921e-02 -1.099229973173850405e+00 9.567405434180885626e-01 1.807441502542294354e-01 -2.279892206419790734e-01
3.838663068802790346e-02 -1.664314444163274009e-01 -8.984624962409555327e-01 -9.577977091603678828e-01 -1.778867678752214521e-01 2.257871700120679948e-01
-1.673451070631574306e-02 -1.621810512171082685e-01 -1.124112907942466988e+00 9.590430308914100754e-01 1.741394013297388743e-01 -2.234097889599697406e-01
-7.115929956189213750e-03 -4.199246597407817194e-02 -9.618054825780069095e-01 9.267241386066114028e-01 2.019445850664260134e-01 -3.168607824994807420e-01
1.709600285171877440e-02 -1.461037286345348019e-01 -9.731279624807376294e-01 -9.591131337071984175e-01 -1.691410457671322920e-01 2.269213594775917608e-01
-1.665390302244562290e-02 -3.253719320683255006e-02 -1.026769513506032405e+00 -9.573169868437932939e-01 -1.835701771783594949e-01 2.232625735563989744e-01
4.290011548693653531e-02 -6.790303056946771221e-02 -7.959572568178353569e-01 9.592271678363246679e-01 1.746244511431534474e-01 -2.222375790627137415e-01
7.668363218606879216e-03 -1.116972286190714460e-02 -9.062152430225747235e-01 -9.579895532112927548e-01 -1.827364420272873380e-01 2.210506925870973360e-01
6.128568458132675062e-03 7.044916179495022690e-02 -8.428694388193477272e-01 9.583828183783292820e-01 1.740975644446672022e-01 -2.262574009654610419e-01
3.344781623246594320e-03 7.897605334834151281e-02 -8.479420988027818185e-01 9.620892424061804338e-01 1.719414812739858689e-01 -2.117083292258704896e-01
2.068306985733285586e-02 -2.046449218919586255e-01 -9.987095436342035004e-01 9.591775209273221137e-01 1.729296495631904851e-01 -2.237718026241660163e-01
-1.886177041860202450e-02 -7.677342834594653997e-02 -1.065642253576100540e+00 9.624602735710849899e-01 1.675573345250783996e-01 -2.135292987960280553e-01
1.825015876781634072e-02 7.563675967934711808e-02 -7.926950026791614867e-01 -9.568782804621288607e-01 -1.806956791950467267e-01 2.274489566915628702e-01
3.309592669087987882e-02 -8.230276937699899931e-02 -8.490261343562788277e-01 9.578808880872626830e-01 1.802957113755783436e-01 -2.235121041391966434e-01
7.178565062163404231e-03 3.450951388303065415e-02 -8.723097776322303876e-01 -9.551368888719513617e-01 -1.827657505572930496e-01 2.330454975734114476e-01
2.652288191158415354e-02 -9.294632995521225072e-02 -8.853537097074326567e-01 9.578961108618779807e-01 1.792719383515350706e-01 -2.242690636609792898e-01
2.013622756625325916e-02 -2.093199993466080336e-02 -8.609895489236084609e-01 -9.574173590753888297e-01 -1.773920130269507345e-01 2.277807591860082637e-01
-4.277936665779577541e-02 1.897807340949986613e-02 -1.097111833605852960e+00 -9.550163247761025431e-01 -1.883622393441566067e-01 2.290490912455253047e-01
-5.622191675724353549e-03 -2.096322530318650568e-01 -1.119911308743095857e+00 -9.580531341702198667e-01 -1.766823227991942413e-01 2.256491722052185456e-01
-2.683561596012807790e-03 -2.102937813009481405e-01 -1.102681232206697004e+00 9.587377583490231947e-01 1.767316863613956068e-01 -2.226832318602988692e-01
3.220163789211798189e-02 -2.221830299371324313e-01 -9.636043902079011181e-01 9.591423069452191807e-01 1.735496410077614904e-01 -2.234425141594145736e-01
-1.668423802017065735e-02 1.086056503356531006e-01 -9.096341058742141161e-01 9.565882936838984163e-01 1.693852814667254070e-01 -2.371654755848040252e-01
-6.653254537876823749e-03 1.765260760185393962e-01 -8.186049792064740149e-01 -9.598249833778349505e-01 -1.699853805604235879e-01 2.232509164134988955e-01
-4.092350326462562693e-02 -2.826299307519986731e-02 -1.126480581003137527e+00 -9.625198286064611253e-01 -1.779433290006008916e-01 2.046747449090208226e-01
-8.515363778571162154e-03 4.441371587288229714e-03 -9.374400687541570854e-01 6.257101482803971715e-01 3.874613357923260004e-01 -6.770232814349517181e-01
-2.241955856277686246e-02 3.775830522056002059e-02 -9.854728947199823397e-01 4.572098032915260513e-01 -3.436773911891718436e-01 -8.202713249648123650e-01
-3.323963720744625705e-02 8.402517550324506423e-02 -1.004741456041065906e+00 -9.580426895945209909e-01 -1.755889726941390894e-01 2.265451777962028679e-01
9.155524995940427305e-03 -1.139919047960261667e-01 -9.979213856668770477e-01 -8.437772495852458032e-01 2.478522678393820511e-01 -4.760348794040552556e-01
-3.678627813538211389e-02 6.441422673586923164e-02 -1.035397415060657744e+00 -9.574973194773351848e-01 -1.726357018386591724e-01 2.310753073013035452e-01
-2.608677146768207875e-02 9.367903718421399795e-02 -9.613930680527097428e-01 9.559218691156518011e-01 1.768387931624362530e-01 -2.343958646804416013e-01
4.106396917157708129e-05 -1.596847601569401087e-01 -1.019517692102676065e+00 8.259162506911046364e-01 2.603670809181516388e-01 -5.000713249312636055e-01
4.349546175403101039e-02 -1.055456986404547104e-01 -8.286526276081125353e-01 -9.610323303599962452e-01 -1.619412100372349117e-01 2.240354982910330306e-01
1.142946084966790787e-02 -4.962935839276105821e-02 -9.154393074848204970e-01 9.577613821077011202e-01 1.820416036014090577e-01 -2.226072539280195828e-01
1.170070661577802575e-02 -1.256622246710362156e-01 -1.006712431248898199e+00 -9.824756434699440932e-01 -9.124092402460827478e-02 -1.625321622678264077e-01
-1.971275407602545229e-02 -5.462837109148596659e-02 -1.063281142287954006e+00 -9.436064633805122392e-01 -3.264330749213116278e-01 -5.521132007061233665e-02
-1.764801513761680291e-02 -8.477990371793729663e-02 -1.072172904823504691e+00 -9.580257818469535280e-01 -1.695396780086716459e-01 2.311772023735243209e-01
-2.985846041094025738e-02 2.223450493194160937e-01 -8.755632276701313943e-01 9.598796526886139713e-01 1.793315177947934769e-01 -2.155719348148126546e-01
2.274212639803261000e-03 1.621440286830330701e-01 -7.863992824416821126e-01 9.578860884747673055e-01 1.780406639983256045e-01 -2.252903980855500976e-01
2.568334710755780168e-02 -4.589871109058651227e-02 -8.515599657158590130e-01 9.655815503165866565e-01 1.551953834267504329e-01 -2.087262864404987039e-01
-2.611018574069108589e-02 1.236982390440473228e-01 -9.376622664004254926e-01 9.602740795871000934e-01 1.678246839501652821e-01 -2.229541825805808342e-01
4.244351437110259473e-02 -8.285774282303741411e-02 -8.097877409369385049e-01 9.600562521816616846e-01 1.751469019445721920e-01 -2.182098883784144017e-01
2.451258716313895261e-02 7.002862206002000156e-02 -7.703500559721985219e-01 -9.588123327068918123e-01 -1.729637248778417846e-01 2.253052607587114620e-01
-4.005204837251605254e-02 -1.098312419741287981e-02 -1.103562931800416980e+00 9.570165257667153647e-01 1.779183118260237728e-01 -2.290511814559872683e-01
1.914064991667207422e-02 -2.503297531462992526e-02 -8.630399439092490965e-01 9.568679980826820808e-01 1.806944837241676316e-01 -2.274931598903511820e-01
-1.070809833561066696e-02 1.642248385577393596e-02 -9.627057291299252473e-01 -9.564067605318763432e-01 -1.859077136285269827e-01 2.252208481076649893e-01
-2.563091797928449336e-02 2.532318798195307488e-02 -1.013636143900187969e+00 9.571074620109687459e-01 1.847994103565132606e-01 -2.231467770208822032e-01
-2.564166722993194147e-02 1.633870504512083821e-01 -9.097667521989840633e-01 -9.585188146741546733e-01 -1.810081158228428466e-01 2.201766198348916737e-01
1.403598783667364984e-03 -2.062072105576990555e-01 -1.050779440342455517e+00 9.702931289299254747e-01 -1.117275841797396030e-01 2.145884220659039221e-01
1.357995604151275744e-02 7.952326667551681827e-02 -8.092286139013191715e-01 -9.559987207060133274e-01 -1.845582597913715539e-01 2.280453787105682084e-01
-2.501101425585394722e-02 1.873610295163710970e-01 -8.826265203237051438e-01 9.569675362756050463e-01 1.701909462566282283e-01 -2.350493061612228540e-01
1.310561595853703201e-02 7.440000948813189907e-02 -8.100171476640565249e-01 9.562990921534105793e-01 1.844239554004633297e-01 -2.268917165103453426e-01
-4.452712015370696719e-02 1.759672167318300853e-02 -1.105535039374376360e+00 -9.550163247761025431e-01 -1.883622393441566067e-01 2.290490912455253047e-01
-2.525542500759959952e-02 -1.369560414101178569e-01 -1.140562888598684044e+00 9.588548240535584855e-01 1.787856934239726858e-01 -2.205291414215568013e-01
8.456472177789914335e-03 -2.120343591365285163e-01 -1.070631924485107911e+00 -9.637125467496747699e-01 -2.602921123102073797e-01 5.921269717169171803e-02
7.458485304832969572e-03 -1.104323603626671951e-01 -9.857167029336723063e-01 -9.568838128634069573e-01 -1.713274506765063154e-01 2.345640068822963109e-01
-3.409136079075647530e-02 4.546643998351819482e-02 -1.033633983005506352e+00 9.571546321010118152e-01 1.853219690231553418e-01 -2.225101751492671587e-01
-1.125236843555257361e-02 7.200527173742542197e-02 -9.209159191371639741e-01 -9.562811024723517628e-01 -1.870331620220846147e-01 2.248222617052955397e-01
-2.916870202612284468e-02 -3.137479751632235581e-02 -1.070456604944765910e+00 8.118343295638947854e-01 4.179071965435510738e-01 -4.077727264281555408e-01
4.147197639585046419e-02 -1.047859408843063167e-01 -8.366250195533998513e-01 -9.546895605881300373e-01 -1.825492617403257078e-01 2.350395922862900389e-01
-1.954909465958686726e-02 -1.544635762004770707e-01 -1.135388818995160420e+00 -9.572214761927652082e-01 -1.818363615839542757e-01 2.250835025523930388e-01
-2.203346293616405618e-02 -8.973326035022393191e-03 -1.030814242065760666e+00 -9.853391681274682457e-01 -1.684145577975712793e-01 -2.726280388583757208e-02
-1.087231972136412823e-02 -9.210234217002866153e-02 -1.049067273570824632e+00 -9.578097232335144318e-01 -1.689167244563866688e-01 2.325245670424177236e-01
1.232199617440100578e-02 1.838410628135263292e-02 -8.631041573516242682e-01 -9.597695808718476052e-01 -1.767770992223167970e-01 2.181563861628196543e-01
-6.470636971746403926e-03 -2.033845391562728259e-03 -9.737383792925248249e-01 -8.256793398537886075e-01 -2.605272844348960337e-01 5.003790181488336763e-01
1.074849300242080230e-03 -2.065749355805863718e-01 -1.083678970229942973e+00 9.570627654502400494e-01 1.826306137613593339e-01 -2.251153524437828068e-01
4.599334148755886836e-02 -1.561477230799279692e-01 -8.526089616334315835e-01 9.592912306459271399e-01 1.827316934197590892e-01 -2.153356984472611091e-01
3.059109511712790048e-04 -1.762108994888101354e-01 -1.068470263092921479e+00 -9.556076157672775961e-01 -1.798194502402596373e-01 2.334074763217106330e-01
-1.063023028549563674e-02 9.827387096151657397e-02 -8.920840695224243611e-01 9.569891961349860088e-01 1.821130922888429815e-01 -2.258461868128595340e-01
-1.135588522465082011e-02 2.966028041311351282e-02 -9.494645652328950192e-01 9.565064412029186114e-01 1.862930760940397779e-01 -2.244778780564982701e-01
2.402420578836248085e-04 -1.897666501763647651e-01 -1.038537170468818438e+00 9.761402547041883038e-01 1.002786123071941898e-01 -1.925990733617013451e-01
-4.261334881124992369e-02 2.606591649155456242e-02 -1.090846551767034933e+00 -9.560613365762486993e-01 -1.852788940536318207e-01 2.271969456711513125e-01
3.969680317450359486e-02 -1.673418721681461108e-01 -8.937487850996007621e-01 -9.561541155613041409e-01 -1.788449820271953150e-01 2.319133021171334574e-01
-7.493500732213544298e-03 9.274969683342935978e-02 -9.032388961435782182e-01 -9.877601948812725352e-01 -3.501326863561706609e-02 -1.519995671953088823e-01
3.190527285867852947e-02 -3.288195040418433190e-02 -8.203501570937314913e-01 -9.585444344097795444e-01 -1.742905972118626579e-01 2.254226141840439956e-01
9.863099100436565486e-03 -7.672981853942859032e-02 -9.435491683586397782e-01 9.589051269176668280e-01 1.791384588359709595e-01 -2.200235672306185553e-01
-2.155177056991634463e-02 -5.359327911617730450e-02 -1.057600167731389984e+00 7.734127404332850064e-01 -5.158651033605083924e-01 3.683964278740070597e-01
3.451100328162245989e-02 -9.978726116065263566e-03 -7.910193363037651970e-01 -9.564799912191580544e-01 -1.693157150040632553e-01 2.376514570754034161e-01
-1.894413095618469392e-02 1.802797147129981958e-01 -8.623691505305980387e-01 9.574241330176478382e-01 1.958267252885239618e-01 -2.121106390028062449e-01
-1.941745641714625464e-02 -1.989215040221912686e-02 -1.022998994426838726e+00 9.761402547041883038e-01 1.002786123071941898e-01 -1.925990733617013451e-01
2.230144570517524159e-03 -2.079608043391630856e-01 -1.044008514331315585e+00 9.027407620907393904e-01 3.271272595551773521e-01 -2.793687035366536620e-01
2.213352799892965780e-02 -2.023367615231451769e-02 -8.466439005472538026e-01 9.572012599677443001e-01 1.894535044412374303e-01 -2.187992631868240501e-01
-5.029434258990806393e-03 -7.994852780451573715e-02 -9.808575277708218021e-01 9.761402547041883038e-01 1.002786123071941898e-01 -1.925990733617013451e-01
3.046338669450533720e-02 4.560945160365306728e-02 -7.642874549117997240e-01 -9.608733338891211062e-01 -1.756027933456942858e-01 2.142103993507209758e-01
3.042136436466955779e-02 -1.498769958734707530e-01 -9.192263814935465183e-01 -9.574498973855560813e-01 -1.761707360392547328e-01 2.285903885988550543e-01
4.260122137103970058e-02 -4.534906744474156287e-02 -7.798379176967241699e-01 -2.758712956119863668e-01 1.339023972654406203e-01 -9.518220297219076587e-01
-1.467653328453412398e-02 1.158253075579638094e-02 -9.866143532303727204e-01 -5.164927365024780670e-01 7.373384197699366371e-01 4.353932795431670888e-01
2.258276256284450986e-02 -1.469097990243262986e-01 -9.448636591058106049e-01 9.583532309177162922e-01 1.723651128731027715e-01 -2.277045292782226005e-01
3.956071767915160520e-02 -1.520746894807813165e-01 -8.768275665591511725e-01 9.572929619913979060e-01 1.825595108706013769e-01 -2.241923502540244806e-01
-2.369962374382882098e-02 -3.082075937298131910e-02 -1.055177722057602185e+00 -9.575752945047857345e-01 -1.777438102343818771e-01 2.268406781806050487e-01
-2.981562909703438374e-02 -1.033883618371081864e-01 -1.138906168922586115e+00 -9.571689702629785357e-01 -1.778806344862906286e-01 2.284426454068159140e-01
3.862484291574934392e-02 -1.605350814963260320e-01 -8.875397772196589319e-01 9.566640071954800595e-01 1.807431076826513383e-01 -2.283109860736103058e-01
3.290163633453031811e-02 -1.402448631759599107e-01 -8.957843905093759718e-01 9.610253747250481204e-01 1.767286937147621306e-01 -2.125963262910595397e-01
2.738914716895781212e-02 4.533822930092014369e-02 -7.721972093080140542e-01 9.567908179532953472e-01 1.862962739347679142e-01 -2.232600031315197520e-01
1.456099276985497321e-02 1.006836083992307396e-01 -7.830876066800498414e-01 9.560589288678457143e-01 1.803179571560186156e-01 -2.311639220534808803e-01
6.211804325641966974e-03 -2.288759500187627083e-01 -1.071604464684511759e+00 5.123251299012301363e-01 -4.872101071585138721e-01 7.072123250865167687e-01
2.246687407097970254e-02 -1.649444905315129717e-01 -9.651763588133730476e-01 -9.555384152252770491e-01 -1.867141984520749309e-01 2.282195108336819711e-01
-1.327395928889198336e-02 -5.727461064924371098e-03 -9.708101672948983296e-01 9.460622840279234724e-01 3.158721196829460953e-01 7.204830842477515096e-02
1.950029081788206067e-02 8.915114288090118799e-02 -7.711534259341050745e-01 9.605567712141817038e-01 1.641501853244848042e-01 -2.244669372814701025e-01
1.073748226726285206e-02 -1.321969360537848803e-01 -9.770158449247254850e-01 7.636938368665279198e-01 -6.339232477224964191e-01 1.221189564688600765e-01
-1.597195358495489409e-02 -2.137265295707426946e-02 -1.014897553970770749e+00 -9.570741766045544052e-01 -1.817507888126587978e-01 2.257779246133034823e-01
-1.434719277301511192e-02 1.550767694050972922e-01 -8.683045586451628717e-01 -9.568310823336207971e-01 -1.714493226102751233e-01 2.346900288822467706e-01
-1.551098379865347050e-02 2.304540325878702556e-01 -8.081249196193436291e-01 9.561891122102845753e-01 1.845350664503827287e-01 -2.272645835599134412e-01
-2.384922688940344440e-02 -2.257916889155794221e-02 -1.043894097491534056e+00 9.576384096597141404e-01 1.799187122036188802e-01 -2.248509135925517155e-01
-1.938977370940633133e-02 -1.271346697558607963e-01 -1.113135332770135655e+00 -9.576291844781745777e-01 -1.783951482303066105e-01 2.261006769639432035e-01
-4.155661430485263486e-02 3.912668403195612710e-02 -1.075650663494208237e+00 -9.573387094741594439e-01 -1.815313617740605678e-01 2.248309587997307790e-01
-3.828872127414879173e-02 1.674686894859026345e-02 -1.079639795838599481e+00 -9.589024940299784028e-01 -1.823010797413703310e-01 2.174219935246160529e-01
-4.700301484312287975e-02 1.132041749318329904e-01 -1.034956705348188510e+00 9.556879703842278140e-01 1.815642289782433416e-01 -2.317216736052363779e-01
-2.037477132589522039e-02 -6.361909824976183514e-02 -1.059265567181242762e+00 4.076914586206015212e-01 -3.904981378823418892e-02 -9.122843781469188729e-01
6.638509429397657091e-03 1.180071969266986882e-02 -8.869215969140583633e-01 9.564642224887023314e-01 1.829277481010423978e-01 -2.274063105407669316e-01
-3.028685456324412863e-03 1.514598594469838966e-02 -9.255696775785309249e-01 9.553202626020000920e-01 1.879148850858068653e-01 -2.281473029102774885e-01
2.180194264396559042e-02 -1.446104574752135330e-01 -9.517550973072161913e-01 -9.582367098053561350e-01 -1.727120995738419817e-01 2.279318728089627377e-01
-3.134565091218344257e-02 1.709589773343743110e-02 -1.044447285594359620e+00 9.585874406962064942e-01 1.691843571889570241e-01 -2.290999166784142005e-01
5.638666293889933040e-02 -2.110322131790022815e-01 -8.519281954673818547e-01 9.557900708666542400e-01 1.842852346497928784e-01 -2.291381520454133791e-01
6.265380036079420132e-04 5.419720565809151708e-02 -8.844483078184378622e-01 -9.544625787010858620e-01 -1.843925241012678296e-01 2.345220307664871717e-01
