-4.631088630524690664e-02 2.021858967019497244e-01 -7.488511822725956169e-01 8.885384443869599469e-01 2.504722509801090014e-01 -3.843996414350024371e-01
-1.248793477096516065e-02 2.049323261743385416e-01 -6.722524972788453956e-01 -9.232604999332422180e-01 -1.672816739357601001e-01 3.458422918445193672e-01
1.998028787686874017e-02 -1.821795892147707319e-01 -8.357678887647793653e-01 7.678725338703393799e-01 -6.396237400849827948e-01 -3.540117013945117547e-02
-2.844483398766037285e-02 6.082918845229641491e-02 -8.007717032549610536e-01 -8.928429830053015159e-01 -2.380676819732236993e-01 3.823024803713561681e-01
-2.820918919892122928e-02 -1.113344124067190133e-01 -9.073566536218751200e-01 7.887325936171415419e-01 -5.900137663710355307e-01 1.725823028547311677e-01
-4.785598850022397370e-03 5.502273513887317308e-02 -7.596623883221083062e-01 -9.806742237398610174e-01 -8.519121757762165847e-02 1.761264413421886332e-01
-2.515888723221846798e-02 9.812579343320848579e-02 -7.656493793417831206e-01 8.977220160113510428e-01 2.463949832206489277e-01 -3.652186936784752591e-01
-2.732694257732791801e-02 1.888108349022061261e-01 -7.060095463324417286e-01 6.141216436123839717e-01 4.682514420372495545e-01 -6.352914243690533924e-01
2.228258150503016274e-02 -1.158116519077815876e-01 -7.973720596422078088e-01 -1.717373529213406832e-04 -7.723831003669058282e-01 6.351569229520275250e-01
7.434596654546116179e-02 -1.860457218492612419e-01 -7.158111808080245275e-01 -8.915618349745759730e-01 -2.653956407898555581e-01 3.669913463101128759e-01
3.486527415723596895e-02 -2.193104627988942124e-01 -8.308207640624915014e-01 -8.882310460853006795e-01 -2.498162883413855284e-01 3.855352524083185961e-01
6.428613880335131738e-03 1.154154472466378811e-01 -6.796250491317902265e-01 8.943825964862965883e-01 2.507876931994585945e-01 -3.703853453393167738e-01
-2.141182759963341023e-02 8.863484797753359845e-02 -7.628054166085878052e-01 8.994363416091151198e-01 2.304061328705010181e-01 -3.713856234811357959e-01
1.070085763028096222e-02 1.575965915500435743e-01 -6.423966480959708569e-01 8.935524444129351318e-01 2.466192361478083406e-01 -3.751572756132287023e-01
1.298125640085494477e-02 -1.912221988443849399e-02 -7.467118994524183373e-01 6.688878099747525008e-01 6.812063012278753993e-01 -2.975686018964638913e-01
-3.905239973511199190e-03 -1.306265014199793906e-01 -8.443791221596318453e-01 7.148408445288898516e-01 3.044916561108225173e-01 -6.295136204659215196e-01
-6.075697014972844534e-02 2.277530091054846273e-01 -7.666669267988811542e-01 8.948825856755949770e-01 2.416259947305211264e-01 -3.752359744548059983e-01
2.943329017200697201e-02 -8.139931604717380587e-02 -7.517203253360864590e-01 8.945444936094026911e-01 2.431335542561740837e-01 -3.750682921120596647e-01
-6.098728990067511790e-03 -8.116659561779872301e-02 -8.272162339164326195e-01 8.101954445526785564e-01 -3.263865347885009927e-01 4.868831189668030301e-01
9.340098563255209638e-03 -1.404550973944607151e-01 -8.598949350617890452e-01 -8.146369252017378049e-01 -4.113146268676453610e-01 4.088850178504809252e-01
-3.627947629085157000e-02 1.645858926342791684e-01 -7.525360949801276345e-01 -8.950783852722355993e-01 -2.447097996921340779e-01 3.727623883294600149e-01
-3.564231552751610799e-02 2.400683476184179571e-03 -8.521833438763641855e-01 8.948460271811452538e-01 2.327153102180833377e-01 -3.809122891535822175e-01
7.312211985862054203e-03 -1.410583743096001097e-01 -8.626846799833010060e-01 -5.765784434589688034e-01 -4.474937627258144257e-01 6.835982964138554996e-01
-1.035957459427777963e-02 -1.211590442889517831e-02 -7.876390067157992281e-01 7.966933887733684827e-01 3.661703591943171188e-01 -4.808314801802302529e-01
-2.947344816010151816e-02 -5.762826483480706224e-02 -8.793705244647567199e-01 -8.930970521744555635e-01 -2.411218866481011636e-01 3.797866390179594487e-01
1.042195476830931958e-02 1.624442040839807477e-02 -7.371896420604594491e-01 -8.970681251147700763e-01 -2.460927152167392828e-01 3.670247327092877043e-01
9.405023147323655214e-03 1.777488961431370473e-01 -6.324761708486756895e-01 8.916498755445306790e-01 2.401907632618492661e-01 -3.837562985608355404e-01
2.079589189966213683e-02 -2.355709994306263988e-01 -8.714061810310330669e-01 8.924406703513462213e-01 2.393746217998685977e-01 -3.824257317977045045e-01
-1.966101937849534798e-02 -7.235514189394534612e-02 -8.623712669266374586e-01 8.937803148208949278e-01 2.356470526696624046e-01 -3.816113407732574236e-01
6.193169178026913801e-02 -2.188274276754516301e-01 -7.635196505247600074e-01 -1.614408782139850895e-01 9.793678840011127429e-01 1.215540646324905771e-01
-2.056049518074131929e-02 1.620962805127342532e-01 -7.168216041483015388e-01 -8.990867493402291410e-01 -2.357993849362924887e-01 3.688382670283635312e-01
3.884203639778997103e-02 -3.595615007934173379e-02 -7.035202728751608348e-01 -8.931354812351518513e-01 -2.444866814280144129e-01 3.775384414376510289e-01
-5.433295369796742151e-03 -1.146463492356633723e-01 -8.476285457288162961e-01 8.283873929818115212e-01 -1.577798729883526374e-01 5.374754309069178504e-01
6.442365482008269306e-02 -2.061903776119762277e-01 -7.490634805786362538e-01 8.966954245710123672e-01 2.412179733043253171e-01 -3.711484944174844869e-01
-1.065026068612501611e-02 -7.404629508333340770e-02 -8.522625091527509245e-01 -9.053737942379479486e-01 -3.403821080325304949e-01 2.538470272398568595e-01
7.659842980237668852e-03 -8.065222239061962950e-02 -8.028682578155106331e-01 9.232604999332422180e-01 1.672816739357601001e-01 -3.458422918445193672e-01
-2.057043659481360559e-02 -1.090609497416463042e-01 -8.914078377996413893e-01 -9.287822480474127174e-01 -1.746713067996243651e-01 3.268844907500288999e-01
4.420482309805607267e-03 -1.073068860102599775e-01 -8.309657566757465696e-01 -8.551804348779624698e-01 -4.300793431648795018e-01 2.893063815141392880e-01
-6.174483892569306367e-03 2.149993408068746892e-02 -7.819473777023940864e-01 -2.444640302847981561e-01 -5.585554324693130512e-01 7.926242279642554678e-01
-4.936916467217738330e-02 7.093782962378213097e-02 -8.438610676712874348e-01 -8.931589975935698700e-01 -2.534415235710757441e-01 3.715298092315358347e-01
-2.191951952292846284e-02 -1.431017096717310533e-01 -9.165302449102464832e-01 -8.969844035658978143e-01 -2.327900711604824202e-01 3.758028240029978595e-01
-1.949298697218801099e-02 -4.560746066457264936e-02 -8.447626563909252928e-01 8.915490327261756942e-01 2.480382731419378817e-01 -3.789687814342839745e-01
-5.168521257743823732e-02 3.714280990988789305e-02 -8.711106789534933670e-01 -8.930935089569781438e-01 -2.493463977623512073e-01 3.744467361078894219e-01
-2.314084138691689663e-02 1.122629184266768082e-01 -7.549956332971211603e-01 -8.899346398409453407e-01 -2.490396891135505941e-01 3.820936666020427475e-01
3.677297558035646369e-02 -1.830207274674372775e-01 -7.979153467549682244e-01 5.963119223237163258e-01 7.037790133205374943e-01 3.861440038433391342e-01
3.437370907560439309e-02 3.948140611574767894e-02 -6.621925510685916505e-01 8.856811799828196996e-01 2.560993485029959271e-01 -3.872750587380772713e-01
-5.859203416200872011e-02 2.060977182623003820e-03 -9.099608342739952116e-01 -8.954088914225818430e-01 -2.441089359219367760e-01 3.723623833907537262e-01
-2.045824112685713791e-02 -6.533635470410600887e-02 -8.629495725911022763e-01 -8.937243126863699816e-01 -2.565180501948453040e-01 3.680425829133231463e-01
-4.450429477020236002e-02 1.581068997256310782e-01 -7.762390964953604922e-01 -8.969770350609017617e-01 -2.434398371330795674e-01 3.690111709284336072e-01
2.705259364706706898e-03 -1.993249469650631434e-01 -8.909629666564508055e-01 8.843225155564333750e-01 2.592135254066887939e-01 -3.883066271983749429e-01
7.502977315741107822e-02 -1.210928976978020849e-01 -6.723960463348812588e-01 -8.958237867923917186e-01 -2.412199822313600694e-01 3.732461161073771794e-01
3.383142113974879628e-02 -1.897068551006981796e-01 -8.142521377402578420e-01 -8.944199337262380700e-01 -2.457842294215100976e-01 3.736349752376322830e-01
-9.327863763582263865e-04 -2.197753601399355661e-01 -8.911323608832071308e-01 9.806283669424884497e-01 8.529124251136996349e-02 -1.763332353771550065e-01
-1.107703818151131205e-02 9.890771935330994538e-03 -7.923966730025484573e-01 -8.950120025739716212e-01 -2.318280968703947675e-01 3.810633133089302849e-01
6.752495104882495769e-03 4.096638966285692796e-02 -7.268174437693687429e-01 8.956012108153323936e-01 2.446683538490811438e-01 -3.715317857342644303e-01
-6.564159341225786481e-02 1.326178699367668301e-01 -8.395050690397954929e-01 8.993701442949769698e-01 2.334213637525253959e-01 -3.696590462774358987e-01
-1.297842027952013366e-02 -1.090901489868308233e-01 -8.701856656198665441e-01 8.894789393786748377e-01 2.495894639942566606e-01 -3.827953968699824849e-01
-5.385816753551922464e-02 8.484133631242790630e-02 -8.422354636582499721e-01 8.943779440645716061e-01 2.410201568169056952e-01 -3.768253934898547763e-01
-5.867713204956253453e-02 1.829511174214296931e-01 -7.905163757078969011e-01 8.937162382833730989e-01 2.386184230126568995e-01 -3.799112180859755550e-01
-3.785346862638987869e-02 -1.048515942272233888e-02 -8.657195736188914026e-01 8.932595318787178718e-01 2.459577063648658857e-01 -3.762874106152747089e-01
-2.122022869300573683e-02 4.268515012802798214e-02 -7.919448844296220757e-01 8.900535333758299306e-01 2.648732793587155188e-01 -3.710078888742939784e-01
-2.484274874336321950e-02 -6.626890661595127852e-02 -8.707273693908035295e-01 8.887734328131007278e-01 2.575263246813701001e-01 -3.791595669658388568e-01
-1.723750681874463772e-02 1.374259596684603291e-01 -7.215992113490317106e-01 8.982768545341438537e-01 2.352277816210392170e-01 -3.711692112256743115e-01
-4.392659363323148623e-03 7.625020124756613782e-02 -7.337956748187807188e-01 -8.931889226867588683e-01 -2.465493500825431394e-01 3.760677683124981630e-01
-3.591094542182487331e-02 -9.463432466380745575e-03 -8.604346511352348736e-01 8.935141914204582925e-01 2.466718121254674323e-01 -3.752138148216063174e-01
-2.628856506460271886e-02 -5.744213105787147888e-02 -8.717740887206980593e-01 -8.928901108604636594e-01 -2.410755472423754542e-01 3.803022882515669778e-01
-3.187766447881937304e-02 -1.913557357590087715e-01 -9.707959296267628657e-01 2.524899559264833226e-01 3.974723012260356070e-01 8.821930581875614408e-01
7.015009675958262803e-02 -6.212317847916849767e-02 -6.459955604352807246e-01 -8.959720346192319163e-01 -2.391436572870488109e-01 3.742250985164523036e-01
-1.726297931547194839e-02 -1.453058585784402779e-01 -9.067314428445379937e-01 -8.976708919454489122e-01 -2.326874793035228206e-01 3.742238724737301236e-01
-3.465464965835057809e-02 -1.644894834099030201e-01 -9.571377569459481593e-01 8.957028300725272674e-01 2.384909273585621992e-01 -3.752845823741208231e-01
-4.022122982383545542e-02 1.134004654816384017e-02 -8.572221649031152024e-01 8.946909185151948884e-01 2.340692012796939392e-01 -3.804468022453639797e-01
-2.053879585951818524e-03 -1.698423833998292942e-01 -8.755001275391307569e-01 8.320532210969717735e-01 -1.535142115707374133e-01 -5.330298529238010063e-01
1.909682160859058411e-02 -1.863689420621522375e-01 -8.376340292276741595e-01 7.885094142478106249e-01 5.105858246306423931e-01 -3.428629745668396178e-01
1.698413965263699185e-02 -4.694714021996074238e-02 -7.623965670399389660e-01 -8.876965407586258072e-01 -2.493020124349758782e-01 3.870960580024557784e-01
-2.689722129848498913e-02 7.807648940366969381e-02 -7.827214630646776028e-01 8.889127741148505901e-01 2.499042954635009861e-01 -3.839035336179283386e-01
-1.517066640390966458e-03 6.046503222047087955e-02 -7.395784434207335334e-01 -8.718426407263069056e-01 -4.688136652928781567e-01 -1.417891288006129791e-01
-3.415957813216063954e-02 7.153699266106028354e-02 -8.041153467478262540e-01 8.983939449413567147e-01 2.473065544820314821e-01 -3.629432294490872457e-01
2.667264350172741244e-02 -1.622314311938453102e-01 -8.102405759539031971e-01 8.907118262023472344e-01 2.494354870100999322e-01 -3.800189212175018594e-01
-7.944714792962456404e-04 -7.642002660077861463e-04 -7.886919137405011826e-01 -9.671819592285988421e-01 -2.032331172211885306e-01 1.524970747499359291e-01
1.022746312780145432e-02 -1.674786148784653539e-01 -8.559380333261047413e-01 -8.950479463765378396e-01 -2.395539156002305381e-01 3.761689716174629328e-01
3.069700715800375082e-02 -2.288600810546579656e-01 -8.467796291906070083e-01 -8.935183082886007933e-01 -2.482029597715157965e-01 3.741928961294379574e-01
-5.776944448271298382e-02 2.280312468761842570e-01 -7.626955960261263545e-01 -9.078284561662958163e-01 -2.230901590503903409e-01 3.550750274372886928e-01
-2.228188038915135047e-02 -2.037109676882055131e-01 -9.562386068396715455e-01 -8.968407592153027075e-01 -2.365841998183321193e-01 3.737707439145536159e-01
-1.449514981276263381e-02 1.159858310233150697e-01 -7.288418782719552347e-01 6.363453928232513934e-02 7.639519683107907078e-01 -6.421277408151706556e-01
5.188254627051029633e-02 -1.775363895125579294e-01 -7.603888879680777979e-01 8.976269392638585032e-01 2.388252999793525344e-01 -3.704434558708922243e-01
4.110629257019628169e-02 -2.498866812970363879e-02 -6.910310027241349795e-01 -8.990354702995352332e-01 -2.406513227748965922e-01 3.658171182298418089e-01
-3.871234077109374921e-02 2.076718880958360047e-01 -7.273113549776608622e-01 8.931267549223691482e-01 2.485900453408481092e-01 -3.748700961656897812e-01
-1.585718574945454637e-02 5.333914823927320831e-02 -7.672888120387425515e-01 9.232604999332422180e-01 1.672816739357601001e-01 -3.458422918445193672e-01
5.142139736103931019e-02 -3.307989170463018769e-02 -6.716531974074839706e-01 -8.943430619098542422e-01 -2.396138390098980220e-01 3.778037794525687665e-01
5.176086083907798993e-03 -2.198161567495522661e-01 -9.070719671330742528e-01 -8.249659421496515765e-01 -2.820601056436897736e-01 4.897686097509801884e-01
-6.942436960708519861e-04 -1.563938874022653414e-01 -8.747119298450336533e-01 -8.959505293667910930e-01 -2.427659462434645365e-01 3.719372854015609020e-01
-9.691542969588321996e-03 -1.310514681738666753e-01 -8.764603671489200609e-01 8.954237816062887712e-01 2.426890514592317805e-01 -3.732536344574710063e-01
4.829576012215111569e-02 -1.717009542192868277e-01 -7.624677650750869562e-01 4.659249497802342987e-01 8.119654718892349576e-01 -3.516049112739730309e-01
-7.085877708742990486e-03 5.627984761256307755e-02 -7.547111256648713074e-01 -6.834692732943956628e-01 1.138345900293830093e-01 -7.210488461784493319e-01
-1.559264402047077364e-02 2.970245147253126536e-02 -7.870011675936465778e-01 8.921624596730646228e-01 2.496387418530442159e-01 -3.764659933063496111e-01
-1.028346466828743665e-02 -3.354932823807199593e-02 -8.031706115243681943e-01 9.893454987595388106e-01 -6.339302803017606014e-02 1.310603223000940398e-01
-2.165674724649399238e-02 -2.075654393302262812e-01 -9.540351469131016504e-01 8.902322244516952532e-01 2.475598706116068359e-01 -3.823619973409375095e-01
-3.602013824490354205e-02 8.334090639605092055e-02 -8.009656657588353212e-01 8.910947046824483353e-01 2.402353730417779165e-01 -3.850158345138263161e-01
2.498670871060708690e-02 -1.722360256788925681e-01 -8.238709419205763052e-01 -8.908137342434673256e-01 -2.467736098119663879e-01 3.815149753071045424e-01
-4.107728339980440402e-02 2.089980754280758024e-01 -7.321077434844527332e-01 8.989313857935251617e-01 2.451165697690869671e-01 -3.630981008762901863e-01
-1.176247058298967446e-02 -1.307096927989216673e-01 -8.844766372054624348e-01 -8.938182748263641120e-01 -2.487738544349818448e-01 3.730957798421003502e-01
-7.197742779697999249e-02 -2.343534064635276540e-02 -9.557274358139919990e-01 4.351713792025040939e-01 -1.137986878934613144e-01 8.931269391059241114e-01
-5.976677106369322062e-02 2.114929623431733574e-01 -7.747775853460050488e-01 8.907753261660035227e-01 2.465337666219462875e-01 -3.817596366944071562e-01
-7.209798472900690036e-02 3.075165126359054313e-02 -9.203925562986805531e-01 8.922960855314736595e-01 2.403565664504970223e-01 -3.821471139618051183e-01
-1.479052158941373402e-02 -2.099425327623428705e-01 -9.425602235795063066e-01 -8.963117728863505551e-01 -2.399367775247390477e-01 3.729015266479488444e-01
4.130400980713717224e-02 -1.260624904367337318e-01 -7.556083053506785774e-01 -8.936583783111921031e-01 -2.423244743920709432e-01 3.776950515757609428e-01
-4.064034213850094106e-03 7.869051361898633801e-02 -7.254184087438139139e-01 9.071765674391879530e-01 -3.007525884131490579e-01 2.942423423847145281e-01
-6.026219941846349543e-02 1.661405074729453354e-02 -9.046251990305844703e-01 -8.947804246013656426e-01 -2.366506012585897212e-01 3.786350283243055670e-01
-7.273103841103986666e-02 9.037674792316259531e-02 -8.867201867277151317e-01 -8.772576300921879344e-01 -2.560581457533762095e-01 4.060212758444816661e-01
-1.848271664772930048e-02 2.321098236070654186e-01 -6.636287199788133417e-01 9.025335048953672112e-01 2.334322841354843636e-01 -3.618599746650278948e-01
-6.139922857508408813e-03 -1.444981096194431214e-01 -8.837531819636852415e-01 -6.027139365619587075e-01 -5.452317839424695167e-01 -5.826304252722299681e-01
-4.160510106125455548e-02 2.430467588959348280e-01 -7.146637094065241280e-01 -8.927009561381106240e-01 -2.514861261606159970e-01 3.739515092345930825e-01
-1.594863080678154965e-02 4.150284652532792995e-02 -7.835300835286385102e-01 -8.934823017920277000e-01 -2.348836463078513015e-01 3.827780676600323617e-01
3.853134679251640077e-02 1.462146244849742670e-02 -6.715786511699565198e-01 -8.975241032045478962e-01 -2.373824684822109232e-01 3.716181478670872451e-01
1.717168986718376963e-02 -2.229370368186700258e-01 -8.933314403807168791e-01 -9.812557284575784688e-01 8.391205904880293109e-02 -1.734818771957955807e-01
-4.854283597148526669e-02 -1.431558097716709443e-01 -9.764312677800716100e-01 8.955889556730950440e-01 2.432086551413949471e-01 -3.725184190623186953e-01
3.080815521523035463e-02 -8.828309318309568443e-02 -7.529305105651495911e-01 8.941694144405029077e-01 2.432554541803041703e-01 -3.758827507224322129e-01
6.368752343742971334e-02 -1.480667476893420542e-01 -7.133592149125179693e-01 8.940642592500552821e-01 2.473622519779566931e-01 -3.734447972967943064e-01
4.983945612233630501e-02 -1.946227533733913551e-01 -7.793744277616211358e-01 -8.936063525642162775e-01 -2.322098195925140773e-01 3.841175423508924602e-01
3.565923371532249420e-02 -1.206522887747045608e-01 -7.622618276375822122e-01 8.939150583200508038e-01 2.413904051781799731e-01 -3.776857699153811088e-01
-3.119601720551574975e-02 1.538579236451427350e-02 -8.365181974354645167e-01 -9.034474432762352736e-01 -2.687605441817981222e-01 3.339917470967468383e-01
-3.157555741629738261e-02 -1.495331286183900973e-02 -8.569109468320811329e-01 -9.010589645370289391e-01 -2.279002528321076582e-01 3.689908090813626695e-01
3.396230743207836501e-03 -5.947527689994868555e-02 -8.080535295168173038e-01 -6.879070908450118926e-01 2.501886498481935561e-01 -6.813145190382271510e-01
7.368437233060737192e-04 -2.298911163469141150e-01 -9.186363920744796685e-01 -8.967012860280435538e-01 -2.340906549595331010e-01 3.756705589958703739e-01
-4.459979560525598880e-02 -1.192216042733766287e-02 -8.826995832080801740e-01 8.937890416856281162e-01 2.468170456901024601e-01 -3.744629419842454565e-01
-4.069501905601285996e-02 4.742184256300476658e-02 -8.383936059985187539e-01 -4.069228364355594318e-01 8.343114418216988071e-01 3.719384669977504054e-01
-1.235938055601494903e-02 2.019237531384650841e-01 -6.685833801131962906e-01 8.961365150689806214e-01 2.353657867514024060e-01 -3.762210690364323762e-01
-8.349747338964590149e-03 1.922769985266568893e-01 -6.685529615990472019e-01 -8.911068172833205292e-01 -2.526102808661604415e-01 3.769836683357918883e-01
-2.749247357730166472e-02 -5.089781127644001785e-02 -8.671777315285887910e-01 8.979232832912342754e-01 2.411439255838074280e-01 -3.682164913166178222e-01
-3.176347565848876980e-02 -4.565938072102181111e-02 -8.771309097289888834e-01 -8.926276158000464589e-01 -2.434891442945559814e-01 3.793797255018112602e-01
-2.770563753950367955e-02 1.775582998149826119e-01 -7.172426287372959397e-01 8.239530062139716060e-01 -3.635612087002347836e-01 4.346546802685818944e-01
-5.070614834229578149e-02 2.328681785684780514e-01 -7.396193287952379514e-01 8.924011743717573664e-01 2.547106890143421287e-01 -3.724816893241159610e-01
-5.529090183780364931e-02 -1.872175107665838278e-02 -9.169555855996138760e-01 -7.913968151605001999e-01 -2.065422999937070458e-01 5.753532473768846467e-01
-2.850465943391789631e-02 2.355540521881764604e-02 -8.216954208816635852e-01 8.817593566692299989e-01 2.053928215055617346e-01 -4.246342258935920100e-01
-4.261452410021192121e-03 5.090563935065021972e-02 -7.551931260142419333e-01 -9.806742237398610174e-01 -8.519121757762165847e-02 1.761264413421886332e-01
-2.445771748601911072e-02 2.503159911491601441e-01 -6.693433046642431883e-01 -8.871674274769268953e-01 -2.559035029693008112e-01 3.839887404495253009e-01
-3.721809864779956900e-02 3.131283903868384982e-02 -8.405085965641651002e-01 -8.931229100937475573e-01 -2.506424554159832341e-01 3.735101431135740002e-01
-1.467255845842094057e-02 -1.001278242461590973e-01 -8.683952669381445055e-01 8.973830064967163178e-01 2.350144307659565446e-01 -3.734594448968560632e-01
6.415104024629746104e-02 -1.378845524515554255e-01 -7.090376768463665380e-01 -8.949735721914925390e-01 -2.460202182901585488e-01 3.721509871964095995e-01
-7.523388415044804378e-02 -1.385886173531351634e-03 -9.484840588922223148e-01 8.978317855791138058e-01 2.365793070863551895e-01 -3.713870168198674659e-01
3.019072999699511442e-02 -1.636307490874102655e-01 -8.011239449949915103e-01 2.170520924081270064e-01 3.370359126110645254e-01 -9.161305489894334686e-01
3.454089616226922732e-02 7.599375876454265988e-02 -6.382466750748120310e-01 8.938333162573800506e-01 2.439077112452677221e-01 -3.762592605417565683e-01
6.124297473440620115e-02 -1.002532228992424335e-01 -6.884045402700983418e-01 8.947749597552303591e-01 2.432603041527920673e-01 -3.744358367177439417e-01
1.772775097443093223e-02 -8.392182486604318759e-02 -7.843573079130461423e-01 -8.943638848443222766e-01 -2.430201802945375911e-01 3.755721414798790514e-01
3.329724697465545613e-02 -1.542615156983669356e-01 -7.894677893179022909e-01 8.895458077448782364e-01 2.528427339456892908e-01 -3.804981048762022811e-01
-3.571637649456425867e-02 5.423069268666787929e-02 -8.188992045934994080e-01 8.927826188912375560e-01 2.387597395370411324e-01 -3.820117566016886235e-01
2.258582745682441786e-02 1.461669626420898128e-02 -7.094245851654478185e-01 -8.915493717859672707e-01 -2.446674079278997604e-01 3.811529577031901872e-01
7.269087019185697940e-02 -2.179146782104329216e-01 -7.389643013802164040e-01 -2.878664859978884993e-01 9.576649228642283296e-01 -3.283558234437212488e-03
-3.674313350867897034e-03 3.220541210091695111e-02 -7.603802776727404122e-01 -8.872589477302201821e-01 -2.528678000094825018e-01 3.857841824012834819e-01
6.583524069022450402e-03 -1.219842620248020315e-01 -8.525942371676146214e-01 -6.607006409644909928e-01 -2.599789872440043115e-01 7.041914435866802879e-01
-6.098377416243865728e-02 -8.183949599557921450e-02 -9.696599495698842164e-01 -8.943584796712739093e-01 -2.369269814688153286e-01 3.794581864872113020e-01
-1.097309456518624597e-02 -9.285995867619105046e-03 -8.011832385060541073e-01 8.937073686371376224e-01 2.485047936463771201e-01 -3.735405021928074887e-01
8.158450029957681551e-03 -1.652617391452710360e-01 -8.748626524265280535e-01 -2.769090920812436463e-01 -4.184044230231776518e-01 8.650197070109924002e-01
-4.043878885266056350e-02 1.750416195999096591e-01 -7.523340480554233656e-01 8.943337238835907810e-01 2.479445431673159839e-01 -3.724119947558888200e-01
2.806644243714898415e-02 -1.869885815484543801e-01 -8.285987545809637700e-01 -4.852081648285474502e-01 1.200437092125194033e-01 8.661192439047946667e-01
4.819955274335202544e-02 3.314705703403959119e-02 -6.367522451206828471e-01 -8.913619236543951496e-01 -2.384239604408193713e-01 3.855229385482153992e-01
5.751027375414778653e-02 -1.656335082743580212e-01 -7.425446335891369154e-01 -8.909923828413445213e-01 -2.413724781286983867e-01 3.845411558217325942e-01
7.755195049123878026e-02 -1.293082117339411918e-01 -6.684443374615227640e-01 8.911620757865901243e-01 2.421109539447178216e-01 -3.836827343779160571e-01
-4.799819242140365705e-02 -3.167606227688728182e-02 -9.033170132640097050e-01 8.868876573961436138e-01 -4.577372865087524501e-01 6.250487739356866412e-02
1.209749225075437695e-02 -1.469897793666664204e-02 -7.531641792029745153e-01 -8.986470988249464220e-01 -2.004236249664753944e-01 3.902098952215393157e-01
6.225448616242951205e-02 -6.205591291063944359e-02 -6.646648762334408378e-01 -8.957731142925067225e-01 -2.412478793103718933e-01 3.733496865392443298e-01
5.308052197001372416e-03 -6.960632575425824975e-02 -8.214379662999211629e-01 -8.301192215334051161e-01 -2.427904719097395414e-01 5.019510581626652757e-01
2.147884522573877478e-02 1.469163278632076297e-01 -6.269316157013972157e-01 -8.982559105859106996e-01 -2.422281914845750839e-01 3.666903630416110116e-01
-1.010112547579170884e-02 8.138925859019235931e-02 -7.407640094792640184e-01 8.923589528288453643e-01 2.491743879215813640e-01 -3.763078841987125278e-01
2.903066941580841227e-03 1.552674357552453477e-01 -6.656030431757825605e-01 -8.874097604025141806e-01 -2.465550978236265012e-01 3.895054568032834119e-01
-3.771029861497120217e-02 8.996763556187330202e-03 -8.527698040004675351e-01 8.930725649773614272e-01 2.488817781583804178e-01 -3.748056218701628639e-01
-4.527498184782331736e-02 2.124901194970747753e-01 -7.397731383391777937e-01 8.893182153204403084e-01 2.682054651265664558e-01 -3.703767546370982378e-01
-6.482837989510395471e-02 -9.427765147497983722e-02 -9.835231916763232940e-01 8.939534141841510850e-01 2.472070987494733030e-01 -3.738127119245247543e-01
-4.871704442527538537e-02 1.215812465624035027e-01 -8.097603718690933317e-01 -8.876983126042585770e-01 -2.494350558416891239e-01 3.870062773609820872e-01
-5.336039931733024128e-02 -8.157732418953511644e-02 -9.514654836786814451e-01 -8.961231682383468122e-01 -2.339034252594234808e-01 3.771636978798160178e-01
-3.964588789022572418e-02 -2.644092842295626272e-02 -8.833801986544087548e-01 -8.932944673671864289e-01 -2.443115629166831559e-01 3.772755687774947964e-01
-5.371778638110395049e-02 1.347349172703061482e-01 -8.098445505485583062e-01 8.942995656396849347e-01 2.420512217811767175e-01 -3.763502264260118468e-01
-9.108377557004916983e-03 7.793904275276146432e-02 -7.550973829477559685e-01 -8.476280138367927597e-01 -2.310360018420418438e-01 4.776495744915280617e-01
3.864241085853298285e-02 -2.007564020858041420e-01 -8.066669338724986593e-01 8.888341897564464578e-01 2.461923908068277822e-01 -3.864752124377698328e-01
6.073158765328136310e-02 -1.712637412873948828e-01 -7.412268417292807721e-01 -9.084583137600171776e-01 1.337668740831442216e-01 3.959923175496344872e-01
-2.796890582345345697e-02 2.546458047636298572e-01 -6.716809521389942583e-01 9.015588327484648223e-01 2.254480524606153058e-01 -3.692761117848556984e-01
1.808796110657619194e-02 8.021343022932649058e-02 -6.745909918251269399e-01 8.952749144303527862e-01 2.352397404837770767e-01 -3.783452022807342052e-01
3.507942553936498759e-02 8.989560714879195336e-02 -6.280982168981560365e-01 8.924300185063395174e-01 2.419909140518449187e-01 -3.808005509254510645e-01
-2.453073643356380035e-02 2.238614566936244221e-01 -6.865115867680005035e-01 -8.935634519975729217e-01 -2.340104679891561179e-01 3.831232936349310281e-01
2.452610826969720340e-02 -1.423086858550395850e-02 -7.190796887214749855e-01 7.134489432821020660e-01 -6.733735334951191920e-01 -1.938006442660841211e-01
9.724203298550167934e-03 -1.855581839059008142e-01 -8.846179150997646179e-01 -2.475613642785203239e-01 -4.218774660373824092e-01 8.721999624893567171e-01
3.503257100938290958e-02 -2.013259499098047078e-01 -8.188118365062779791e-01 -9.174918022398985684e-01 -1.508669010782873743e-01 3.680325678273830836e-01
-1.600206285541748777e-02 2.075787817997174767e-01 -6.767260308632827570e-01 -8.982907970299577327e-01 -2.366629042917817172e-01 3.702219789578437559e-01
1.131397804965398636e-02 -6.003656852649707359e-02 -7.846522123405965665e-01 -6.668841378235109696e-01 4.998671157426134992e-01 -5.526286396112249921e-01
-3.646520331309368451e-02 9.108684427984760357e-02 -7.969740875434584426e-01 8.980472816807612002e-01 2.482979229116237807e-01 -3.631242505583573976e-01
1.008303847029382201e-02 -1.844807545751618039e-01 -8.639467562981597570e-01 8.936955176022155500e-01 2.476796588452134240e-01 -3.741164369712014492e-01
8.694256553104719176e-02 -1.815069822195618521e-01 -6.796790506423506795e-01 8.886151966614933562e-01 2.425459968655751253e-01 -3.892742884737444009e-01
-2.096331385725679584e-03 8.594466093221610203e-02 -7.229499433928016083e-01 -1.064956112057727569e-02 -5.051942061739695955e-01 8.629399752567914472e-01
-4.756677601641699782e-02 1.351879634436446154e-01 -7.938528844644990867e-01 6.000553959449588248e-01 1.356091573171618880e-01 -7.883804146787690703e-01
-1.585401319799147751e-02 1.332326963789870200e-01 -7.210973591966175489e-01 8.923303521285580464e-01 2.541997783068845052e-01 -3.730000206150856923e-01
-1.258492909650047939e-02 -2.089637880267257164e-01 -9.367249848800727197e-01 -8.931776988112209992e-01 -2.393608209917801877e-01 3.807098576612282237e-01
3.248563856409079215e-02 -3.078905400676065426e-02 -7.152086045370357192e-01 -8.928393281073894183e-01 -2.444775063121094050e-01 3.782442109169127376e-01
7.920244224494184249e-02 -1.265951753834785865e-01 -6.660738551803098151e-01 -8.901653547228094432e-01 -2.446887040849142214e-01 3.843606110730654613e-01
1.507646951220966217e-02 1.631023667406298616e-01 -6.316749324410655397e-01 -8.859831082666916879e-01 -2.520474790195684212e-01 3.892377168080862204e-01
2.327789047154617957e-02 -1.398888187951333184e-01 -8.071846318492468253e-01 -8.970281157671979866e-01 -2.491546317219926476e-01 3.650514059891135643e-01
-2.083706762221609020e-03 -1.819863951901524168e-01 -8.703194204096915687e-01 9.232604999332422180e-01 1.672816739357601001e-01 -3.458422918445193672e-01
3.000246983781165028e-02 -6.765856543018373970e-02 -7.447371781081549846e-01 -8.921893443447741490e-01 -2.295231197836225812e-01 3.889952587403022743e-01
-5.765913553463025004e-02 1.894993066134407489e-01 -7.871571830478896192e-01 -8.975973420924365787e-01 -2.430360812681681137e-01 3.677668754393272343e-01
2.148454682429598236e-02 -2.148000922733444840e-01 -8.563378742433472857e-01 8.888670301352097347e-01 2.463545558099706489e-01 -3.862963054059465051e-01
1.096086695938111762e-02 3.415789756719080084e-02 -7.211579490078046106e-01 8.952982109294324031e-01 2.457235555297588858e-01 -3.715656708636725924e-01
-3.235595389825748208e-02 -1.015997788907134491e-01 -9.145349023761405460e-01 -8.904812350443752633e-01 -2.481509327904887208e-01 3.813978035975747471e-01
-8.723278501544530841e-03 -4.606388798987735150e-02 -8.036541825582900200e-01 8.467832493181282061e-01 2.065597341012311294e-01 -4.901950682353519717e-01
-6.253319177567835674e-02 -6.967694204885396814e-02 -9.655592261102591278e-01 -8.906608012538174135e-01 -2.475805151855232367e-01 3.813492173984089906e-01
-5.432423443729181983e-02 -6.286833391014745587e-02 -9.416456809057273114e-01 -8.917781027938067595e-01 -2.514691842281289169e-01 3.761582974774289601e-01
7.071627865740612306e-02 -2.174900284277089257e-01 -7.445801814047301459e-01 -8.997804672508455948e-01 -2.315221948601951518e-01 3.698548148138235403e-01
2.294012202851264740e-02 8.475619602274915565e-02 -6.634703786157946093e-01 -9.011392735456179581e-01 -2.342379977861536178e-01 3.648020971250160449e-01
1.164997308576094619e-02 1.429985033361956710e-02 -7.354940031782640775e-01 -8.967748070401867500e-01 -2.472549531103763187e-01 3.669603978911368247e-01
-1.617208234361969602e-02 -1.927380563244023570e-01 -9.315461910712543592e-01 8.925695535298040495e-01 2.456790891413112576e-01 -3.781023370336422107e-01
-3.908180937182559322e-02 2.191182581051035194e-01 -7.241652968507682475e-01 -8.958742620866588791e-01 -2.453590889417833487e-01 3.704162847450720997e-01
-3.973976841094543216e-02 2.405514465072315367e-01 -7.119226442286568091e-01 -8.926984907446577910e-01 -2.366022773089757891e-01 3.835476072072628306e-01
-3.967557076227036517e-02 -5.111643502124730426e-02 -8.994543087634633283e-01 -8.930703860895580215e-01 -2.404881264801484730e-01 3.802508994228887551e-01
-1.213188213834856706e-02 5.837323507350620014e-03 -7.973986311341062505e-01 -8.924623692338976566e-01 -2.494228167894651238e-01 3.758978291587051213e-01
6.270371274319484940e-03 -1.431489639886584231e-01 -8.459444720373195947e-01 4.279257286261184401e-01 -8.779046842442047582e-01 2.148556170126542653e-01
5.770037351208655990e-02 -9.928456174320589300e-02 -6.962536436077164659e-01 8.952714957175677002e-01 2.430520921712530646e-01 -3.733826849852656671e-01
2.748454191561348556e-02 -1.923334669527581864e-01 -8.277458542405582431e-01 8.838536727978327789e-01 2.428342092764063931e-01 -3.997927361607315766e-01
3.299255069883654662e-02 1.137654381321745872e-01 -6.210486105357637676e-01 -8.932102854807310033e-01 -2.408843233270268058e-01 3.796710796027414347e-01
5.516345033416900773e-02 -9.420460298967325841e-02 -6.990175976290008419e-01 8.943697738476897863e-01 2.444070030086011869e-01 -3.746570758813795310e-01
-5.917437316901347222e-02 1.824582629740029438e-01 -7.953570208005642517e-01 -8.966631308450867532e-01 -2.442237845642277749e-01 3.692559719709520571e-01
-3.686754526707135965e-02 7.987518946224632377e-02 -8.084898703445144719e-01 -8.980287994040950794e-01 -2.482767260417223787e-01 3.631844472810516478e-01
-2.727566475080077033e-02 1.769632723639855479e-02 -8.269234018337004999e-01 -7.544856010886373532e-02 3.536553887668038576e-01 9.323279362829904882e-01
-2.912223684093491298e-03 -1.551072240202340247e-01 -8.666887932368845249e-01 8.044405274978103648e-01 -2.586607555183118023e-01 5.347616770803054198e-01
5.576776977480350436e-03 -9.559135394664204644e-02 -8.377997210588462584e-01 -7.358764324231995557e-01 -3.985542297347522411e-01 5.473941926661650692e-01
6.054113369583309645e-02 -1.287063402680000378e-02 -6.338121104586453836e-01 8.916465439412691873e-01 2.452154080529971303e-01 -3.805730472997170821e-01
-1.832022255175071515e-02 -2.971999925657553901e-02 -8.317791734471666754e-01 8.926298310650320200e-01 2.474734727517760302e-01 -3.767875594774703352e-01
5.017594873148737561e-02 -8.057388416971068834e-02 -7.082863899287880072e-01 -9.107235238901618679e-01 -3.128595221520450997e-01 2.696323096957776722e-01
-1.365507606374668712e-02 2.335489115291016979e-02 -7.748047985665084125e-01 9.932512941680621266e-01 5.050229370544185442e-02 -1.044096976528481879e-01
-1.833013252660191730e-02 1.662771391053499649e-03 -8.114777183746741951e-01 7.613336883928012444e-01 2.975981026636657645e-01 -5.760263745777614020e-01
-4.758660808603515369e-02 4.534416290503335417e-02 -8.561042993771119658e-01 -8.929098122128841242e-01 -2.511107672022226955e-01 3.737050305375395065e-01
-5.304770330801351214e-02 -1.201447506746349675e-01 -9.722247405878792215e-01 8.962218655290700164e-01 2.374262403980447744e-01 -3.747200930268398955e-01
-2.549045367830017617e-02 -1.286918790086101771e-01 -9.156693856280138100e-01 -8.980041081617391452e-01 -2.309876014886473317e-01 3.744774354793107829e-01
-2.430054828024273000e-02 6.034646900504987699e-02 -7.911812072388664241e-01 -8.924384698272352923e-01 -2.355957189045259637e-01 3.847703663307278088e-01
-3.763943220084014357e-02 -7.975442972946117370e-02 -9.129857681207000919e-01 -8.989420406761904347e-01 -2.315585475047929054e-01 3.718653608261960897e-01
-7.052974199622237539e-02 -1.627933993463747189e-02 -9.501241501225878849e-01 -8.924477430962354241e-01 -2.382446946005857269e-01 3.831142014296907705e-01
6.369339694677604580e-02 -2.072249846983019450e-01 -7.514149164353515209e-01 8.914832073515536193e-01 2.429906033535951804e-01 -3.823784221056973354e-01
5.927358835532604668e-03 -8.529866711337739937e-02 -8.204481541107802034e-01 -8.321754474790816758e-01 2.414521657586327918e-01 -4.991842107513577154e-01
3.588497546120435200e-02 5.468429740487244783e-02 -6.521475451419809222e-01 -8.965478345604044330e-01 -2.352360943938191506e-01 3.753211428089173740e-01
-6.236361453093117874e-02 -9.542125348583289923e-02 -9.817252755098092587e-01 -8.914681254800655985e-01 -2.381959487775869855e-01 3.854183068290905068e-01
-5.624984350887940465e-02 1.227295925314278169e-01 -8.235945405966034194e-01 8.991587381363808085e-01 2.403697348602754080e-01 -3.656992674263817578e-01
-5.255004182120409650e-03 1.695385894157475648e-01 -6.725040318709475384e-01 8.927991556218313196e-01 2.510452321459427094e-01 -3.740133141182741539e-01
1.615032031330887463e-02 -2.353680412453095505e-01 -8.968124707382951755e-01 -8.760282865051539636e-01 2.378005770449454770e-01 -4.195537233775132324e-01
-1.866840751235987819e-02 6.949195224418446004e-02 -7.687675889159453213e-01 8.921667857645233513e-01 2.509453321839751894e-01 -3.755860309352221926e-01
-4.357842498150667904e-02 2.524301118776484110e-01 -7.133115224735382398e-01 -8.928433100001884615e-01 -2.369958808622191770e-01 3.829670693966363282e-01
-2.503411402704559027e-04 -3.074886049247723546e-02 -7.928218365227469588e-01 -8.948514571026514597e-01 -2.491314273676150104e-01 3.703706273707949581e-01
-4.718085760761971809e-02 2.230177287550981838e-02 -8.667506930077309990e-01 8.928228276999332635e-01 2.493900677046818615e-01 -3.750626513906036852e-01
-6.344094419921376959e-02 -2.262743324918550791e-02 -9.341118624801931780e-01 8.921944185096226665e-01 2.447351181216265437e-01 -3.795969461656266697e-01
5.568322458528044555e-02 -1.619042668902265780e-01 -7.444416608845053629e-01 -8.938065526550418305e-01 -2.420461907226618692e-01 3.775228310811927224e-01
-3.386620317946192893e-02 -1.698559073520557183e-01 -9.586662761204717276e-01 8.957028300725272674e-01 2.384909273585621992e-01 -3.752845823741208231e-01
-8.956583333023021218e-03 -4.360674886420284890e-02 -8.027105956627773597e-01 8.471722224498425824e-01 2.604297438274338350e-01 -4.631150764544074705e-01
2.152239035111626342e-02 -1.459126332140495419e-01 -8.152847534776900273e-01 -8.956311198805261276e-01 -2.333910378853558676e-01 3.786469602893314246e-01
-2.916699412171276651e-02 -3.721224627670825791e-02 -8.655703606968915276e-01 -8.932659418424552245e-01 -2.477625328303150465e-01 3.750862360442177579e-01
6.805427238505139254e-02 -5.974661900350029115e-02 -6.462259994857924017e-01 8.960265090159857948e-01 2.390298109116691661e-01 -3.741674018887231612e-01
1.172209067797860653e-02 -9.798647107402946518e-03 -7.508618131484682268e-01 -8.943377942775599942e-01 -2.470612456354242537e-01 3.729888076495340155e-01
1.343362360656221235e-02 7.366101469392301315e-02 -6.899663312328941922e-01 8.946152993830518430e-01 2.382981319927749697e-01 -3.779913575712103291e-01
9.220020069219519651e-03 8.176651907036459888e-02 -6.947345145396152111e-01 9.006908805649349592e-01 2.369470013906967154e-01 -3.641593829618006151e-01
2.581270775893730954e-02 -2.048817648616165776e-01 -8.397508594467487653e-01 8.958767211878392311e-01 2.372828257238610572e-01 -3.756351435239069780e-01
-3.379318842619333935e-02 -8.283829393631858551e-02 -9.025794298488873935e-01 9.011276871977904612e-01 2.325419493810424731e-01 -3.659141062375512177e-01
3.271827770909441213e-02 8.152994420357313754e-02 -6.424531727402250647e-01 -8.924175836540120255e-01 -2.447164346578620531e-01 3.790840579521629894e-01
5.134588246047605553e-02 -7.672172239083889511e-02 -6.967478356557267327e-01 8.940464834011797590e-01 2.445336096884536958e-01 -3.753454398959961136e-01
1.280676032532137264e-02 3.688424509243037192e-02 -7.183665177538294255e-01 -8.896697004054222591e-01 -2.464485094035186452e-01 3.843838659378275846e-01
4.010792430427339433e-02 -8.911493517013976962e-02 -7.313353999503238168e-01 8.940268083888545103e-01 2.434877692528914228e-01 -3.760714986625405820e-01
3.178658408565304683e-02 -1.697602853746282142e-02 -7.079431178995371221e-01 -8.931633010631935266e-01 -2.414536114843287284e-01 3.794199139938151388e-01
-6.993294830362478676e-02 9.642897065856850455e-03 -9.321070953907836243e-01 -8.897185687526634190e-01 -2.521577753568195468e-01 3.805487153359107810e-01
-1.844941987703510589e-02 -2.161465667016769787e-01 -9.551660942226385398e-01 -8.941764989439443534e-01 -2.408702903436513720e-01 3.773988499798528462e-01
-1.283527848799025269e-02 -2.159717286916046364e-01 -9.386010843530251391e-01 8.953057777365430736e-01 2.410766351604526070e-01 -3.745792577429746251e-01
4.400250503839550631e-02 -2.202384509146963487e-01 -8.064952146798861632e-01 8.958430513981100463e-01 2.379096288705425388e-01 -3.753188454533075147e-01
-2.243995523285876800e-02 1.075829875938309199e-01 -7.531822202162046231e-01 8.915395101928573762e-01 2.330794375441211930e-01 -3.883700265973114019e-01
-3.945627238968590737e-03 1.792529933905407102e-01 -6.664557717842990447e-01 -8.968321914389543181e-01 -2.344165937939653999e-01 3.751544761199548939e-01
-6.884433042797072355e-02 -3.833170657161093925e-02 -9.603017443898419492e-01 -9.017199369072859128e-01 -2.432097351935697260e-01 3.574215719441036221e-01
-1.030525284176481149e-02 3.420815010022897670e-03 -7.795088198014807901e-01 4.800707167227393213e-01 4.096514192176541891e-01 -7.757047258321151384e-01
-3.411710617972384119e-02 3.386123908904020707e-02 -8.255183111275684604e-01 3.509112714718879977e-01 -3.367949172036643346e-01 -8.737450791276365480e-01
-5.148311129065909902e-02 7.845990592432604271e-02 -8.439127566483807241e-01 -8.941156335126400068e-01 -2.397482388412498777e-01 3.782565477038159485e-01
7.277419624636975205e-03 -1.153961456350720144e-01 -8.392588863492742579e-01 -9.244961570020027164e-01 1.659827208375284913e-01 -3.431568039131667747e-01
-5.814034719468862827e-02 5.756191125781139756e-02 -8.731687103309336839e-01 -8.931153843154046035e-01 -2.366033552851808663e-01 3.825751724392759678e-01
-3.850760727603902422e-02 9.015981911322358544e-02 -8.024616818520107220e-01 8.907113054960141829e-01 2.405542194130314837e-01 -3.857033027913725487e-01
-1.357489080540429495e-03 -1.623862021764528873e-01 -8.580919376262686749e-01 7.148408445288906288e-01 3.044916561108222397e-01 -6.295136204659208534e-01
6.661310735272400751e-02 -9.837033534441406990e-02 -6.777290746874324867e-01 -8.985479153220646831e-01 -2.264646998389431287e-01 3.759326849280721361e-01
1.709740177396432484e-02 -4.816393937705770734e-02 -7.596699437926794918e-01 8.939281667358822681e-01 2.462963427785138104e-01 -3.744736896634442980e-01
9.363277145635486021e-03 -1.271435325765094548e-01 -8.480682504772023567e-01 -9.852030318089964878e-01 -1.713447414916251244e-01 -3.995707387867139700e-03
-3.605050351487460586e-02 -6.075221588587107618e-02 -9.006269274945998271e-01 -9.113600564208685917e-01 -3.989506889182943272e-01 1.012975585696398589e-01
-3.296371063861613243e-02 -9.095580522890560349e-02 -9.090326641150734410e-01 -8.938695030584108414e-01 -2.335547852882730591e-01 3.826871748191442157e-01
-3.930510476660557112e-02 2.211282263897714762e-01 -7.201053213838818357e-01 8.973214594946050671e-01 2.440061459034428004e-01 -3.677977692860844305e-01
1.098960870400064044e-02 1.667415688187665612e-01 -6.357287015954952158e-01 8.939580739577293045e-01 2.422238691431179147e-01 -3.770498100027695476e-01
4.072063783755187211e-02 -4.109901890386667006e-02 -6.989271176798506069e-01 9.059409659171223650e-01 2.206309831534896126e-01 -3.613764457541137620e-01
-3.727658923892217258e-02 1.209126392102780057e-01 -7.797228906295169404e-01 8.974944838584328899e-01 2.323081544336486060e-01 -3.748820785624686902e-01
6.666901489127845248e-02 -7.517357474261512906e-02 -6.594632307836942875e-01 8.974242634877680480e-01 2.397561883735444543e-01 -3.703331762616284273e-01
4.279570758190900936e-02 7.720948494069379553e-02 -6.212459829401317801e-01 -8.952770051485084979e-01 -2.372346754467020979e-01 3.770925520585300394e-01
-6.583126061668385931e-02 -2.023416599526750917e-02 -9.382116474583803711e-01 8.925295327047780836e-01 2.419025653456977065e-01 -3.806234124813670516e-01
3.081941707121286719e-02 -2.121089531401533154e-02 -7.097161900558885961e-01 8.924007125894044545e-01 2.447128952153579950e-01 -3.791260569853256435e-01
-1.734125644039847744e-02 1.429756036492152264e-02 -8.043865165215562385e-01 -8.918781293744368899e-01 -2.499532525792695359e-01 3.769307282095731848e-01
-4.063669950163391331e-02 2.022763523832383711e-02 -8.525318877768178760e-01 8.929784818334102203e-01 2.489756178609925097e-01 -3.749674288431397717e-01
-3.569584783866429356e-02 1.614860131343976435e-01 -7.531732473530053928e-01 -8.951335469741461548e-01 -2.454102095974036446e-01 3.721689967028996016e-01
-1.105594076503925481e-03 -2.097493083040531392e-01 -8.880946795388299231e-01 9.976254134302463550e-01 -2.998961273482061290e-02 6.200127100427577781e-02
2.524702127490937795e-02 8.446181949857446691e-02 -6.581331110287107489e-01 -8.911478686921130432e-01 -2.484774280144096403e-01 3.796240823404755105e-01
-3.280575779877908937e-02 1.863854542851876017e-01 -7.270311970972548332e-01 8.921755877662083112e-01 2.339860923142469129e-01 -3.863589382912339665e-01
2.507083008800958454e-02 7.929260954448291709e-02 -6.587185795022982848e-01 8.916330471523197243e-01 2.484073147191708519e-01 -3.785291471206410074e-01
-7.284648992244331656e-02 7.835031549731400272e-03 -9.401168436909360659e-01 -8.897185687526634190e-01 -2.521577753568195468e-01 3.805487153359107810e-01
-4.683601779887493904e-02 -1.459503595124705677e-01 -9.741523232310120850e-01 8.955889556730950440e-01 2.432086551413949471e-01 -3.725184190623186953e-01
3.235446186833421892e-03 -2.157236045499243693e-01 -9.086685212828066183e-01 -9.187751829178616436e-01 -3.305149568477221966e-01 2.158981856204407190e-01
7.208865973280110216e-03 -1.115455172549852658e-01 -8.270248133406726820e-01 -8.920766730479038342e-01 -2.351294324490620091e-01 3.858929377430551644e-01
-5.368660308781533774e-02 3.894816695804179107e-02 -8.714126973772916562e-01 8.930813583186348881e-01 2.495224848399009432e-01 -3.743584071221900955e-01
-1.588792159070683344e-02 7.112444001802677163e-02 -7.643275059923928527e-01 -8.917253912037279573e-01 -2.510793152617866175e-01 3.765434956684693968e-01
-4.834636410700508813e-02 -3.855348871561291996e-02 -9.067636386910907786e-01 7.025654839885828729e-01 4.636782153617859392e-01 -5.398187226345503298e-01
6.332527934923200263e-02 -9.804960814468319241e-02 -6.852999451297848710e-01 -8.889379919625864934e-01 -2.461281081271598226e-01 3.862773625715978931e-01
-3.900518335713957369e-02 -1.627791804777733720e-01 -9.695354201995075583e-01 -8.930297554388842984e-01 -2.459630234337826793e-01 3.768289359962676000e-01
-3.698938992240580897e-02 -1.428356147266583026e-02 -8.692637151575485221e-01 -9.608620560204109706e-01 -2.436696227304607221e-01 1.317923528078305262e-01
-2.212496048946759053e-02 -9.691855906295647471e-02 -8.871154240798373447e-01 -8.934983927432101902e-01 -2.328698495015241454e-01 3.839690812532143283e-01
2.059603731996276915e-02 2.153280166298868550e-02 -7.097127643941189001e-01 -8.970188796998465053e-01 -2.413607544606954369e-01 3.702730285454183257e-01
-1.338914736174328692e-02 -4.162781198512714026e-03 -8.155179207859963864e-01 -7.145470250505017162e-01 -3.046223850443776637e-01 6.297838927134867815e-01
-6.492656531085673997e-03 -2.113068302315210256e-01 -9.205165247714641730e-01 8.928045329711914446e-01 2.467412879071421705e-01 -3.768538214586895085e-01
6.944264905901176288e-02 -1.494534282600033792e-01 -7.006031108939818619e-01 8.965045832041361740e-01 2.473580014178817510e-01 -3.675507467391803673e-01
-7.342773077538211450e-03 -1.805691089742731958e-01 -9.060825190725518841e-01 -8.903146398760389824e-01 -2.435355293706376045e-01 3.847470441167315514e-01
-1.292929313310278022e-02 9.836973103642043803e-02 -7.365670566398783148e-01 8.926606688206242257e-01 2.461940941168129782e-01 -3.775518485754213449e-01
