1.869726544817493230e-02 -1.270401291912097164e-01 -7.080982378262509203e-01 -8.817537425527478545e-01 4.395719657842626638e-01 -1.711339369931681731e-01
4.586842180556492676e-02 -2.140560404380331405e-01 -6.497592960131178819e-01 -9.613235857860055189e-01 -1.673387749260105140e-01 2.187571663232966146e-01
-4.230778678599635828e-02 1.538931201435585483e-01 -7.388040721233668506e-01 -9.669132568617893053e-01 -1.557640707274312586e-01 2.020304629884993319e-01
-7.559881590256077588e-03 -1.293577797036218613e-01 -8.116688080633905900e-01 -9.560099369993657614e-01 -1.796374096466094028e-01 2.318952380147660253e-01
-6.957335928055018506e-03 8.553674571896932588e-02 -6.585383442320571490e-01 -8.560809561037806548e-01 -1.620744276594486277e-01 4.907721227772610662e-01
-4.433289361280352142e-02 4.310727746274717331e-02 -8.285311986287431374e-01 9.573025010680019653e-01 1.810018790143156919e-01 -2.254112713291754888e-01
-1.662724319844607543e-02 -1.251473352326664401e-01 -8.414150662753415721e-01 9.766452711857674940e-01 9.762742755727980837e-02 -1.913972300192112452e-01
-2.726153747010809716e-02 -9.257968302427627139e-02 -8.613812802892054643e-01 9.628038798730392811e-01 1.606786989794721787e-01 -2.172349985515378001e-01
-9.425081785972400095e-03 1.467943245484231996e-01 -5.986022589181496656e-01 9.586187563101924436e-01 1.818793597535147133e-01 -2.190204980040711680e-01
-3.698688360027824890e-02 9.078250775602179912e-02 -7.597726595211071743e-01 9.594531360983215018e-01 1.713289492523726032e-01 -2.238215154518747307e-01
1.646849043763339016e-02 -6.500022996441245926e-02 -6.532795863005395054e-01 9.579774464384764876e-01 1.625050681557863586e-01 -2.363711381258279676e-01
-1.859521954534287466e-02 2.416560075833423527e-01 -5.690116505229765309e-01 -9.560327215722460581e-01 -1.689560826251118586e-01 2.396983050151600125e-01
2.078388430732090730e-02 -1.736531253825144006e-01 -7.199353147490312743e-01 9.562940353231879076e-01 1.800941884441829566e-01 -2.303644966003325356e-01
-1.039558189228843854e-02 2.139078114890976545e-01 -5.501555997832294764e-01 9.565429811757746315e-01 1.783215485494600849e-01 -2.307096670845941444e-01
-6.128556484738738146e-03 2.041399544373269370e-02 -6.755704747263349130e-01 2.442002365481624193e-01 4.406244358526488769e-01 -8.638381509283765691e-01
3.330432345504814873e-02 -1.071880199625796087e-01 -6.144389366837762489e-01 9.585589056073015035e-01 1.773836895958844639e-01 -2.229346342457433072e-01
-4.437106367907109328e-02 9.283489567364089368e-02 -7.896975761289383167e-01 9.543821682778577120e-01 1.770474019126357379e-01 -2.404348026996942778e-01
6.520821373219925013e-03 -5.612913323037230923e-02 -6.852052132948613927e-01 2.819473920376210363e-01 5.976002901148602664e-01 -7.505861452077429163e-01
1.218185194555579560e-02 -1.532528991493102843e-01 -7.752860559168904819e-01 -6.932673426030115937e-01 -3.274634533345958665e-01 6.419875998882994539e-01
4.277963701196613004e-03 -2.999102854006592545e-02 -7.091807236079692434e-01 -9.766452711857674940e-01 -9.762742755727980837e-02 1.913972300192112452e-01
5.412455205690977315e-03 -1.554155848317145261e-01 -7.788059415423782550e-01 7.408702351581421264e-02 -3.240145065236164634e-01 9.431467078396787995e-01
3.334089107337362239e-03 8.826611059199272746e-02 -5.896818122661433570e-01 9.625205315611400358e-01 1.682386485708971535e-01 -2.127204349617091150e-01
-4.554810683135872978e-02 2.212824649987067405e-01 -6.944088560721316528e-01 9.600341680762003449e-01 1.773247666945328982e-01 -2.165417355683831868e-01
2.834772600122972309e-03 -1.040548402802466028e-02 -6.990728469043320237e-01 -9.986709477921805744e-01 -2.341864337750299355e-02 4.591192849603657755e-02
1.075519445473075705e-04 -1.813761232573906923e-01 -8.195061456972542180e-01 -9.567474174195964576e-01 -1.751641449141560780e-01 2.322754864324372281e-01
-2.951812102936038351e-02 1.959823071014989981e-01 -6.456688841755747754e-01 9.487614809956949058e-01 2.016314011762866953e-01 -2.433031652867329586e-01
-3.190696748234040508e-02 -1.001756268777505704e-01 -8.872417840966524416e-01 9.594371863085442431e-01 1.794720934423097991e-01 -2.174167730506979535e-01
-4.034866996185791643e-02 4.286613926225858739e-02 -8.169190943010655737e-01 -9.622193816280316669e-01 -1.667427779013334055e-01 2.152456913322891574e-01
1.494974577414909939e-02 -2.387516090528721546e-01 -7.954726187775391644e-01 9.593270491307722692e-01 1.737352461652276192e-01 -2.225032068217276116e-01
2.363022626309277049e-02 -2.130146304151344927e-01 -7.438188894516877259e-01 -9.585665039146754607e-01 -1.859859486562372710e-01 2.157764687708932649e-01
-3.821387443107946563e-02 1.053903213802184075e-01 -7.536074388919044020e-01 9.594955159641330722e-01 1.765500906435275019e-01 -2.195413863910049002e-01
-1.602765979293827026e-02 -1.742995591448102954e-01 -8.773062302125166356e-01 9.601144534447394463e-01 1.744604602948973127e-01 -2.185035104528119942e-01
-1.340624367572650077e-02 -1.669465258589757639e-01 -8.658522398445577251e-01 -9.577019742233315869e-01 -1.730126539165727784e-01 2.299424931444323528e-01
-3.999094175876869578e-02 3.365707921094350519e-02 -8.171246657620783171e-01 9.578675670556859867e-01 1.847655168525110803e-01 -2.198895808469454871e-01
1.958717541838930418e-02 5.472493242712490186e-02 -5.520573131503807573e-01 -9.598173217484055053e-01 -1.908964997925685358e-01 2.056920884202016186e-01
-1.138536846876508912e-03 5.902785780276842420e-02 -6.370123667487640473e-01 -9.586225449134346821e-01 -1.789126951829697609e-01 2.214341073232751200e-01
-2.777053912288270088e-02 2.036964556703283191e-01 -6.324290042849369797e-01 9.587302026375956743e-01 1.823706386873360230e-01 -2.181223250729915908e-01
4.701622344009670496e-02 -9.083571128014228391e-02 -5.488122558975307985e-01 -9.581176276912460876e-01 -1.742288432396566777e-01 2.272771913119969733e-01
3.971776541801935734e-02 -1.002834244951193027e-01 -5.871367340356258291e-01 -9.592841167600303365e-01 -1.760313068895726085e-01 2.208777089854875308e-01
1.053883232826591070e-02 9.318855406411885589e-02 -5.605439219975324461e-01 -9.564309086335951449e-01 -1.813842855864217785e-01 2.287786221494897410e-01
1.138586113686907569e-02 -7.821915623252925429e-03 -6.304048812222927678e-01 9.572699543310415615e-01 1.788467013104570735e-01 -2.272621657148716778e-01
5.141495629999574130e-02 -2.180799925263883776e-01 -6.238435754672746469e-01 9.594654912089659593e-01 1.679112321612046821e-01 -2.263444041571243959e-01
4.834689893208881512e-03 -5.169834457379438031e-02 -7.215461691755414853e-01 -6.278327569492296867e-01 -3.536665835384932843e-01 6.933584765399062322e-01
1.315332060147548186e-04 -1.875857686700052596e-01 -7.835593794069735107e-01 9.986709477921804634e-01 2.341864337750339253e-02 -4.591192849603734777e-02
-2.381553051329276735e-02 -1.257837818654072848e-01 -8.780369888999330907e-01 -9.584177809513617641e-01 -1.761311032240782115e-01 2.245288213867805693e-01
3.144472334526728780e-02 -2.961435429890624943e-02 -5.619137532081295294e-01 9.622264058430403111e-01 1.693014019343249965e-01 -2.132073619776224671e-01
1.271617239980899969e-02 1.078888587818064571e-01 -5.344262957336386455e-01 9.568911227130937336e-01 1.761399634278369708e-01 -2.309417514364067447e-01
-3.266813413701024488e-02 1.235768871882516329e-01 -7.158492131399658565e-01 9.609041996638701955e-01 1.698939684262175953e-01 -2.186301867554623635e-01
-6.091868855351252783e-03 -2.059934346266263372e-01 -8.653469585248125817e-01 -9.571638427604118871e-01 -1.948933482188711375e-01 2.141353799169102845e-01
-3.581215652027567448e-02 1.397722507147081961e-01 -7.164985008824036328e-01 9.600434959865928874e-01 1.725060313338514228e-01 -2.203591499513579965e-01
3.828979144643747108e-04 -2.348357205295309447e-02 -6.896593782790325644e-01 9.583082329626653184e-01 1.812008375858205622e-01 -2.209334449425240099e-01
3.326551453930745583e-02 -1.604233299253560452e-01 -6.562542270203716166e-01 9.574167723562054810e-01 1.747373741427848681e-01 -2.298259647835950159e-01
-2.672347970482385690e-02 -1.224731860853910809e-02 -8.017697366734942710e-01 -9.582777616956796862e-01 -1.766479721661229074e-01 2.247203270047344603e-01
2.654873365151320941e-02 -9.368726796179294158e-02 -6.382001909196007849e-01 -9.586726325633907475e-01 -1.770466578693028203e-01 2.227134134067553228e-01
-2.536424769229287182e-02 -4.473226042971491234e-02 -8.214295301298056851e-01 -9.580641590320295720e-01 -1.711348115503870948e-01 2.298389511241814842e-01
-3.734005006275616101e-02 1.122638265396386642e-01 -7.446165724888638149e-01 8.822441593696180862e-01 3.402225250727805017e-01 -3.254133935339742489e-01
-3.061289167428083574e-03 1.695899431518004333e-02 -6.908086542352463999e-01 -6.126519457399590696e-01 -3.591212255670988562e-01 7.040522272731101205e-01
-4.054157883834130782e-02 9.496398090244451140e-02 -7.717941649844983765e-01 9.583457743076129187e-01 1.860886382835273412e-01 -2.166665538760529364e-01
-3.655130280349486172e-02 2.629862444473463068e-02 -8.083140256559104841e-01 9.578647733751942672e-01 1.824267440215196490e-01 -2.218458000337052982e-01
-3.484112720210279929e-02 1.779669758879142138e-01 -6.827039619668326953e-01 9.551826511465870695e-01 1.752997395533049951e-01 -2.385290428042687039e-01
-3.962027347323911902e-02 -1.222793528349466578e-02 -8.568458674781045392e-01 -9.606152735868094261e-01 -1.722479454785889597e-01 2.180571976114165922e-01
-3.320129241574434203e-02 1.643732382938808967e-01 -6.915170488119745107e-01 -9.594664330260395113e-01 -1.758442112806636592e-01 2.202339148618344400e-01
-3.869547544514547605e-02 -5.279375606722463282e-02 -8.792187696086116722e-01 9.610629500337355413e-01 1.678581476108808035e-01 -2.195031852914602066e-01
2.311927369647158014e-03 1.462008442577223399e-01 -5.542290202405966149e-01 -9.578986982969635022e-01 -1.819381929619705851e-01 2.221003776284854181e-01
3.108752049172595552e-02 1.204343576934913985e-02 -5.308081265178894448e-01 9.569614869556136716e-01 1.731681118895720961e-01 -2.328894963460175493e-01
-3.024873750678035503e-02 -9.403442695113108096e-02 -8.808875496288994800e-01 -9.581382981082458006e-01 -1.764024469931803341e-01 2.255064930175018634e-01
1.097289540047262195e-02 -1.237858083082403610e-01 -7.228208182298569984e-01 9.567946313424592342e-01 1.697135797328935825e-01 -2.360960276846994499e-01
1.596065705449252817e-02 4.243157406500138243e-03 -6.071126833874668227e-01 -9.568851208744226788e-01 -1.782080723697637703e-01 2.293746899537839889e-01
-1.274055608884114461e-02 4.569979165708412672e-02 -6.969357710670704975e-01 -9.580825028012127653e-01 -1.675987488417605697e-01 2.323544215478604569e-01
-2.147686996365675421e-02 -1.412282700755706777e-01 -8.749094818962485087e-01 9.579489349983436597e-01 1.766103501926081509e-01 -2.261473460829989401e-01
4.131234347444475569e-02 -1.711944829514584210e-01 -6.357155781619709956e-01 -9.602851337487171568e-01 -1.766976128765331833e-01 2.159407685105881880e-01
5.620559975902265047e-03 8.973907535766592267e-03 -6.418403236824290481e-01 9.601102723179572029e-01 1.634291479227790445e-01 -2.268902346924001889e-01
-2.437989415083606157e-02 1.043342722185505445e-01 -6.954033458389631273e-01 9.605576601522053393e-01 1.811380869400311400e-01 -2.109928315906168250e-01
-2.926614865128131238e-02 9.379930994840877945e-02 -7.300289879079684408e-01 -9.617201124357868114e-01 -1.802516185794705572e-01 2.064068296737751329e-01
1.809278678767220483e-03 2.137907763939858596e-02 -6.483189155695869843e-01 9.567473190193525046e-01 1.825048178667712795e-01 -2.265536559067142519e-01
-3.237124734463103087e-02 4.132247356967551355e-02 -7.788231288741437330e-01 9.576415906822365320e-01 1.818274854336535129e-01 -2.232965502117537915e-01
-7.235550997622319271e-03 2.119676229302808190e-01 -5.381104839340170587e-01 9.564553004310233364e-01 1.918863704615793309e-01 -2.199383529730148945e-01
1.321737301655112433e-02 -1.201900714925175639e-01 -7.158597573434176686e-01 -9.577846285270301685e-01 -1.850083313465518131e-01 2.200466375332815194e-01
-2.051627036782792055e-02 4.532089841152177334e-02 -7.304067516321500753e-01 -9.585840693879930097e-01 -1.693597227254846072e-01 2.289844235617399248e-01
-6.945070723109068520e-03 -1.495675479987944034e-01 -8.248029505405312101e-01 -9.584618840126175598e-01 -1.664370755704726867e-01 2.316236533053831204e-01
-2.800638236278126664e-02 2.214298895682441648e-01 -6.195184058146055994e-01 9.561804657330618129e-01 1.731471182619583882e-01 -2.360910679972547110e-01
-1.118934114288479623e-02 -1.908879842041435182e-01 -8.751206710859251725e-01 -9.561942939891242554e-01 -1.701632763146504468e-01 2.381951543094533164e-01
2.476962114069537063e-02 -4.336295821923876609e-02 -6.011340217116318829e-01 9.642025937699617577e-01 1.569726047968380833e-01 -2.137123288689115885e-01
1.419463735954074914e-02 -1.866733674117815045e-01 -7.475810539675467048e-01 9.633569612370368462e-01 -5.014874955801727763e-02 -2.634928237237398885e-01
-2.562289477843414029e-02 1.258361241940358921e-01 -6.893963721118460120e-01 -9.544506826756684603e-01 -1.751659586400589885e-01 2.415383639790164572e-01
6.371433014617715156e-03 -2.395196458023855432e-02 -6.699202119396147070e-01 -9.580915575907009707e-01 -1.824863689872062988e-01 2.208150638142466204e-01
-4.290353738618447876e-03 1.221280402456566272e-01 -5.959293774307008462e-01 9.617000503905495101e-01 1.683453709283355415e-01 -2.163165485251082598e-01
1.163416894917421217e-03 1.432331291560070829e-01 -5.616152586390288359e-01 -9.576170409863885569e-01 -1.841915528075014907e-01 2.214567106385238460e-01
1.071829603294413916e-02 -4.026156911191244858e-02 -6.639896716462291293e-01 -9.578074813452330805e-01 -1.805655194806620456e-01 2.236088590681944155e-01
-4.298968483201027167e-03 -8.424230549843969573e-02 -7.282985440620427520e-01 9.156365287181474910e-01 1.826643678504697721e-01 -3.581109827899300879e-01
3.399650185691187321e-02 -2.046904726751762604e-01 -6.876226539002787685e-01 9.613490533555193451e-01 1.656963156462941400e-01 -2.198925387403824483e-01
-8.383479178061283704e-03 1.034482222405674751e-01 -6.334107806018841602e-01 -9.563174177999756997e-01 -1.792339384061277796e-01 2.309376360314951693e-01
-9.157748654139957756e-03 1.007325154866553357e-01 -6.334291435472392262e-01 9.572556932819824560e-01 1.771046945794484684e-01 -2.286820168643602658e-01
7.259599498448163213e-03 1.362538212249485015e-01 -5.355821767231242481e-01 9.605057037360625882e-01 1.764647348403093341e-01 -2.151487635294027645e-01
1.683190049513825018e-02 -8.949805043068900789e-02 -6.687309555711906661e-01 9.996059529350672657e-01 -1.275458468520508128e-02 2.500518798737589796e-02
3.315102498662626795e-02 -2.772315453352295722e-04 -5.317990700424505279e-01 9.598136053255116318e-01 1.681973591640706645e-01 -2.246497082176511784e-01
6.642425835813910683e-03 -7.308462204083512881e-02 -7.015689734798791211e-01 9.582691758044901142e-01 1.605651273035170190e-01 -2.365143264096041253e-01
6.901449272244303094e-03 8.135475422606666673e-02 -5.799000620778447246e-01 9.562791703203467053e-01 1.838394003349478611e-01 -2.274493862289287405e-01
2.733301981935324504e-02 -4.190215641937195673e-02 -5.888252952391666017e-01 9.582549378835805154e-01 1.753266772808193541e-01 -2.258495743972137593e-01
4.291282262528129526e-02 -8.682795994638763115e-02 -5.576447051130362098e-01 9.605686727903751665e-01 1.733178273649151890e-01 -2.174137888250021744e-01
1.973227977435412436e-02 -5.128955000149678506e-02 -6.286485314428728044e-01 9.580920467360926063e-01 1.784792453108218491e-01 -2.240642518884363443e-01
-1.938208739349086759e-02 -1.376978489544691264e-01 -8.684896590968095298e-01 -9.162182674131210680e-01 -3.321943415052253101e-01 2.240334928764184386e-01
-1.761414112758113992e-02 3.085012852418103288e-02 -7.294720909528243924e-01 -9.794313067112513371e-01 -1.082286559157396161e-01 1.702964282437047783e-01
4.385384781735475468e-02 -6.406483704077721442e-02 -5.413173479543497146e-01 -9.598383032851872665e-01 -1.718594325861924066e-01 2.217538432085563171e-01
-1.946206339721987325e-02 -5.091050122368782210e-02 -7.955955454337534372e-01 9.584590269102655213e-01 1.723746523620624804e-01 -2.272515631569679007e-01
2.983052710070726449e-02 -1.552593691504002837e-01 -6.668760714445778337e-01 9.583682343571655604e-01 1.887426503904406916e-01 -2.142581137290270332e-01
-5.877788902287572025e-03 -1.992822133475272428e-01 -8.537046283163470806e-01 9.600057477667129913e-01 1.736331499372331111e-01 -2.196371860540663745e-01
3.998304388275733534e-02 -1.138554166461889366e-01 -5.967908906823949922e-01 -9.592500723777180882e-01 -1.759399268468761768e-01 2.210982604736151103e-01
3.358347353325213253e-02 1.282202836416459872e-02 -5.249642740011875031e-01 -9.556365147885840239e-01 -1.763930303697847923e-01 2.358905475844521593e-01
-1.049744070443670713e-02 8.250678306787077518e-03 -6.881651226165930169e-01 9.981260477004108012e-01 -6.017127302432542270e-03 -6.089488550759865337e-02
4.961675407069024435e-02 -1.713533621402795193e-01 -6.005878468308558649e-01 -9.607037257552660803e-01 -1.639810591392719397e-01 2.239610760009722035e-01
-1.520784114545229403e-02 -1.609798753309465424e-01 -8.689256944396267501e-01 -9.587119038196868503e-01 -1.692007926563409148e-01 2.285663519394259269e-01
3.608670228785465506e-02 -1.179080847155953293e-01 -6.164589745585773439e-01 -9.583449587812140624e-01 -1.784370319144163441e-01 2.230138238320818200e-01
1.237060223272869490e-03 -3.992123103879839652e-02 -7.043610104752090484e-01 -6.289439932781222264e-01 3.532587046973833522e-01 -6.925588356774438070e-01
2.799406829124278726e-02 -2.186357837503557777e-01 -7.241355361156899262e-01 9.583201769812529358e-01 1.729858066678705286e-01 -2.273727096247185053e-01
-2.949338770042438801e-02 -1.159315712270323484e-01 -8.891524428493763343e-01 9.600307562153176377e-01 1.701349635501864799e-01 -2.222499523024073775e-01
-1.614486703963106658e-04 -1.859386715032587956e-01 -8.188109691029743509e-01 9.564376654560956537e-01 1.753535646665527747e-01 -2.334054829168046019e-01
-1.455676104094593120e-03 1.220667218962577932e-01 -5.891018271849497445e-01 -9.577858600978461645e-01 -1.681084438512154278e-01 2.332076270248294725e-01
-2.101979923859765079e-02 5.353009010172270904e-02 -7.261449500312080474e-01 -9.567841588193090052e-01 -1.858298908106725822e-01 2.236768318662460397e-01
-1.430792518039893969e-02 9.961213242102520682e-02 -6.562669342082353419e-01 9.766452711857674940e-01 9.762742755727980837e-02 -1.913972300192112452e-01
4.270319736052300558e-02 -1.388558219644138447e-01 -5.990782980072919539e-01 9.557504242005272488e-01 1.805334794831152945e-01 -2.322687870253597742e-01
-3.167979509456130688e-02 -1.012754265550793870e-01 -8.926599261369299043e-01 -9.583673691927951932e-01 -1.751864775402131869e-01 2.254810053053982466e-01
-1.496680500123841358e-02 1.318120161453353034e-01 -6.338853906496749735e-01 9.613940064283935660e-01 1.697103914553756143e-01 -2.166101277309651629e-01
-5.190283918218053204e-03 -5.775973307507715343e-02 -7.230128303434250059e-01 7.109232905790333623e-01 -1.009613474445814063e-01 6.959848283076681685e-01
2.100720811099049748e-02 -3.443747806161256975e-02 -6.102736144079043967e-01 9.577859840449095552e-01 1.775976797192695134e-01 -2.260643114811714816e-01
-1.087990883692398388e-02 1.034882957137372717e-01 -6.440061681779037928e-01 -9.599757454281648839e-01 -1.770339253734578011e-01 2.170381474683754364e-01
3.456146181132981055e-02 -1.487425349761056781e-01 -6.414927585357464990e-01 9.612689982578396242e-01 1.742426246875485585e-01 -2.135448916044666301e-01
1.880177794983186809e-02 -2.298152105216972330e-01 -7.722391565697623861e-01 9.563516667474396549e-01 1.791545612721552327e-01 -2.308573860303710645e-01
4.776722958487999646e-03 4.812583889639577422e-02 -6.205366602893098715e-01 -9.594267414936992200e-01 -1.753438323930509024e-01 2.208050455684841262e-01
8.316778792927928543e-03 4.233161800674833941e-02 -6.018750873362403997e-01 9.813383914670498198e-01 1.567971002453246443e-01 1.113087183805508834e-01
2.766530012419484569e-02 -1.511906187988541067e-02 -5.665592371931896798e-01 9.582530119722741935e-01 1.712925248983264148e-01 -2.289323829431325619e-01
3.071985375257831399e-02 -7.140706262485141398e-02 -6.102307529843724598e-01 -8.831672331386083430e-01 -3.645925916279211254e-01 2.951065577724953926e-01
-1.348638309908570254e-02 1.186313283591004242e-01 -6.378259663632526166e-01 9.591351783640688078e-01 1.910352087824118972e-01 -2.087229231061752122e-01
-1.134425370868759504e-02 9.868629008817147996e-02 -6.442757020993826744e-01 9.570174308769842098e-01 1.797604788558119504e-01 -2.276044974053590964e-01
7.732118910347488862e-03 -1.429647423935577755e-01 -7.362554018059407346e-01 9.105452671259761654e-01 3.384044155168714485e-01 -2.374652986715525271e-01
3.098605129918885481e-02 -1.516735030153108267e-02 -5.524500472704219067e-01 9.554472665346723792e-01 1.845179291705041358e-01 -2.303772008816227790e-01
2.391726615854063327e-03 -8.741784079266485467e-05 -6.628702497993049780e-01 9.576946066048064310e-01 1.827842453625739827e-01 -2.222857623135123528e-01
1.366281264205392379e-02 -7.120365096799369242e-02 -6.755563007789275876e-01 -9.556100435447801855e-01 -1.799196420030192700e-01 2.333203100843318500e-01
-3.123072139665055563e-02 -5.585836401003578706e-03 -8.158161057791296633e-01 -9.585430089975384149e-01 -1.771689668194896539e-01 2.231736030494182177e-01
-2.584967337760965198e-02 -2.602687427517518665e-02 -8.088430656528030616e-01 -9.548674534572667572e-01 -1.533518805988122458e-01 2.543842507798824704e-01
2.099060964441627070e-03 1.195781617746884962e-01 -5.759887032327807299e-01 -9.583197313258211558e-01 -1.846484513121364468e-01 2.180097290939923271e-01
4.557174288105124427e-02 -1.347480098000638227e-01 -5.891126136099319455e-01 -9.595116139057130455e-01 -1.765753737767515041e-01 2.194506781845398657e-01
1.385723368122293575e-02 -1.232671895326943878e-01 -6.996901847772140082e-01 5.997865271826124944e-01 6.940379876044455720e-01 -3.982052154005429334e-01
-1.894861848431859605e-02 1.239483308472054401e-01 -6.569775738179405300e-01 9.556255753434264033e-01 1.834664311225987221e-01 -2.304773923852013739e-01
-2.678004088777530267e-02 1.608165649677867903e-01 -6.616992625196400635e-01 9.591737545157364986e-01 1.781354216553243663e-01 -2.196667480522836169e-01
1.436791344301741394e-02 1.048688991428962103e-01 -5.351949706240786142e-01 -9.566513433620419393e-01 -1.773387432856049495e-01 2.310176992645439908e-01
-2.865683168088322547e-02 1.999687185750208263e-01 -6.389649866096912545e-01 9.586878643783767195e-01 1.705519678158534114e-01 -2.276611626250017728e-01
-2.069374878436695472e-02 -1.472492340966523872e-01 -8.762855734920762529e-01 9.589476652944916024e-01 1.739798178093860948e-01 -2.239428458809452627e-01
-3.416548719497679298e-02 2.171018939901926681e-01 -6.489624258388567712e-01 9.602189395014810724e-01 1.736311840260355288e-01 -2.187048242640480256e-01
3.650037735223007201e-02 -1.107151963498523434e-01 -6.035368645324545867e-01 9.575289857215987244e-01 1.622629051542543999e-01 -2.383463679477160202e-01
9.197486617165561221e-03 -7.302458172926484803e-02 -6.907698938947596234e-01 9.595669082860655008e-01 1.761753823856855028e-01 -2.195303695700875912e-01
-4.409145054567854306e-03 7.666650082933526046e-03 -6.959832847619035201e-01 4.726331468962294974e-02 -5.761967240027999759e-01 8.159433278929310029e-01
1.118725566585860622e-02 -1.506657327690225645e-01 -7.570234108591663569e-01 -7.763940904979836910e-01 6.271519251186415955e-01 -6.239133801891454112e-02
1.644041243779902420e-02 -2.908375934583681821e-02 -6.254432679564754238e-01 9.576459792956409922e-01 1.788118241807543640e-01 -2.257000440231322069e-01
5.383098667239597651e-02 -1.677953345483659264e-01 -5.796392512811848752e-01 -9.585064912755545397e-01 -1.808764566834303311e-01 2.203384070022120222e-01
-1.964435525558220000e-02 1.301181003914723411e-01 -6.550476227511319305e-01 9.616892744789243830e-01 1.608265595052119357e-01 -2.220102635238211664e-01
-1.199093174557874482e-03 -5.261160458741165336e-02 -7.245705000281944530e-01 -9.658914552028186051e-01 -1.176606994384049587e-01 2.306721842222137220e-01
1.652651441807652388e-02 -1.858694694917411294e-01 -7.882803639931096340e-01 -9.766452711857674940e-01 -9.762742755727980837e-02 1.913972300192112452e-01
-1.496624419394572934e-02 2.820149792850457776e-02 -7.201823647830151165e-01 -9.589807052366944307e-01 -1.676143884021019381e-01 2.286075759556567555e-01
-2.312066551705439094e-02 1.986443985291912739e-01 -6.217833364422082898e-01 -9.652305531695921648e-01 -1.597317096151341376e-01 2.069196949817720121e-01
-3.219434206011693306e-02 -9.439351486961018722e-02 -8.839908531933199365e-01 9.571892801178741861e-01 1.801683105489708669e-01 -2.265569727493632612e-01
2.441609948942833133e-03 -5.427312440275164351e-02 -7.048258223589485283e-01 9.590401060156568125e-01 1.795404132582775758e-01 -2.191057166313210847e-01
-3.240795132900275294e-02 2.296240589983963853e-01 -6.373322189580226116e-01 -9.593721821951851636e-01 -1.599009098302871246e-01 2.324579855920091143e-01
-1.360433884420242726e-02 8.790450248084129281e-02 -6.677944466830305625e-01 -9.624171088902583326e-01 -1.622450233790792840e-01 2.177839776109311010e-01
3.439615265318988167e-03 1.263825490806100293e-01 -5.595595546144038757e-01 9.583733879216397300e-01 1.636960938601016435e-01 -2.339316955406921528e-01
-3.673089247788977746e-02 5.739041699305839211e-02 -7.902163869917472327e-01 -9.574018842610528823e-01 -1.711663728383500671e-01 2.325590351346269180e-01
-2.595706139572399179e-02 1.227017662905133810e-01 -6.932481360785770486e-01 -9.609130024491353561e-01 -1.656835224348685021e-01 2.217998469741637446e-01
2.086553876280815376e-03 4.551524748017769101e-02 -6.339439632567800409e-01 -9.592673278711019158e-01 -1.774956973232391932e-01 2.197759566257721509e-01
-1.269555718969450110e-02 8.390878039930071974e-02 -6.516355873363084417e-01 3.430651400764843095e-01 2.525110357407427952e-01 -9.047344839749614787e-01
1.637424342794030485e-02 -1.620380183756842951e-01 -7.350349513645294541e-01 -9.569588245898027479e-01 -1.800761567454745860e-01 2.276013748013888949e-01
-2.950947813037068518e-02 4.699318228657787394e-02 -7.620416669320395631e-01 9.621331581254017884e-01 1.767281320786565080e-01 -2.075257896446359718e-01
-9.594462218498814310e-03 -1.549381998791330151e-01 -8.348803671869517995e-01 9.595254543896069022e-01 1.709648137960581848e-01 -2.237899345862047751e-01
-2.927249807106255784e-03 5.126686803246562063e-02 -6.454057274865372396e-01 9.586332056601279961e-01 1.656268114908957811e-01 -2.314954347738762130e-01
1.283462661664441437e-02 -1.471436879475406245e-01 -7.459970581036741155e-01 -7.605383873359661262e-01 6.425259958460348697e-01 -9.349709113372969838e-02
5.092828573364686917e-02 -1.750402937875262799e-01 -5.976840538064255304e-01 -9.603553171926660914e-01 -1.682744053299204956e-01 2.222642329540125694e-01
1.696164204462687758e-02 -2.636762539893040130e-02 -6.210798204113203713e-01 9.576459792956409922e-01 1.788118241807543640e-01 -2.257000440231322069e-01
1.306753366013475165e-02 -1.814291921078565184e-01 -7.586843264401679221e-01 9.564244092379396989e-01 1.844056252219634651e-01 -2.263778142847807096e-01
3.229358698449495690e-02 -6.318129616691019190e-02 -5.813244585816672583e-01 8.151544156446723921e-01 -5.759332195003431520e-01 6.184015953215277889e-02
-1.073953669979643873e-02 1.551877139057502176e-03 -7.173665104295536832e-01 9.596098101459814567e-01 1.688541406499361464e-01 -2.250273126910712906e-01
3.657943827738553005e-02 -1.407571858428898759e-01 -6.320427329228301971e-01 -9.584982679913764958e-01 -1.762303657141557900e-01 2.241069576291340182e-01
-1.850414252435529606e-03 6.876607557819573724e-02 -6.335267763036910305e-01 -6.499154908104941564e-01 6.010192559690745728e-01 -4.651727730198046418e-01
3.332258179675132159e-02 -2.198030774730682924e-01 -7.078096796358872567e-01 -9.585598572149617302e-01 -1.781475899301150356e-01 2.223205711087572756e-01
-2.988766836640181519e-03 -1.433885423701728168e-01 -8.031196555033955908e-01 -9.596384495055969577e-01 -1.608864349923612713e-01 2.306720643379744640e-01
7.771699060077592175e-03 -1.417786587916237441e-02 -6.480022542376148165e-01 4.091329450206739327e-01 5.489131184946927089e-01 -7.289064560306361962e-01
5.280172320832688532e-02 -1.775668065297784648e-01 -5.917904581305972744e-01 -9.573378684003570616e-01 -1.828354434535121587e-01 2.237753479358668696e-01
3.808535869707767307e-02 -1.778979496057775944e-01 -6.588735752150990388e-01 -6.202929947228621455e-01 6.650141697684625042e-02 7.815460077550234752e-01
9.204533899086118909e-03 -4.604939999019008745e-02 -6.836856599995845274e-01 -6.390368212868857700e-01 -5.360374330767088136e-01 5.516301400214510542e-01
2.110160731618427113e-02 -4.378984270016972324e-02 -6.226664338746689120e-01 -9.614792906539456618e-01 -1.749893055742341441e-01 2.119818779476981274e-01
1.539030530572067963e-02 -1.853512026594104078e-01 -7.574351381071896538e-01 -9.589088737393611783e-01 -1.782089399051362821e-01 2.207608334868244038e-01
-6.063276313700405318e-03 8.864452068577736987e-02 -6.348587179440913220e-01 -9.574996518634341092e-01 -1.786820062105902440e-01 2.264225195027233795e-01
1.434991071437009477e-02 -1.230802438507045196e-02 -6.268154803163447086e-01 -9.570818259147563234e-01 -1.800330706740456144e-01 2.271177491244357471e-01
-2.208435339007055326e-02 1.560141729106001018e-01 -6.313194552412551008e-01 9.475698636452642987e-01 3.104640003883807897e-01 -7.565353907213165363e-02
-2.993597292921406500e-02 2.273096617452661505e-01 -6.286164833225402759e-01 -9.584335842684635898e-01 -1.747906301512997529e-01 2.255067629975152921e-01
1.181163029972740440e-02 1.193363517363312948e-01 -5.294672321446993735e-01 9.562436188645763169e-01 1.772175631618767011e-01 -2.327919171443570134e-01
1.529422322356679617e-02 1.076386500541851865e-01 -5.289728043616774844e-01 -9.601061960608595625e-01 -1.784180292800036094e-01 2.153209212161846797e-01
-4.248234766448585886e-02 1.633794368801114172e-01 -7.267209177484394989e-01 9.360580423184629018e-01 2.210328582788686769e-01 -2.737513780275826480e-01
2.498458181776174684e-03 1.310049378573737711e-01 -5.653821758778077022e-01 -9.578155107449038974e-01 -1.650928742180094444e-01 2.352313547529657489e-01
-1.593188399421054460e-02 1.668088047013906172e-02 -7.357937862034225063e-01 -3.461825443164083804e-01 -9.295270538049003051e-01 -1.270318946383141023e-01
4.091943285056880153e-02 -1.215370695550274938e-01 -5.987217919647971343e-01 -9.552305930256168587e-01 -1.800138880092835014e-01 2.347967509820136078e-01
-1.935088416417745857e-02 2.218157432062765888e-02 -7.381033716681670853e-01 9.573323215582106860e-01 1.822622663041073288e-01 -2.242661195581215350e-01
-3.283587455882929634e-02 4.731629385000647031e-02 -7.814189027294514700e-01 -9.584152584622733784e-01 -1.689138082002266672e-01 2.300180813457729512e-01
1.521714352258465202e-03 -5.447838731577230031e-02 -7.247828677748078263e-01 -1.618189862816995228e-01 -3.473621366852497339e-01 9.236634461080623915e-01
-2.682681926688380847e-02 2.210706175362207315e-01 -6.147942980718194006e-01 9.595767734480913358e-01 1.866965275258750112e-01 -2.106105943886263931e-01
5.535840254561695539e-02 -1.670787746997100531e-01 -5.672472133448354104e-01 9.561481563914715487e-01 1.784358514131992313e-01 -2.322527716941970577e-01
3.116382872849180613e-02 -7.049608492153190686e-02 -6.058656976485989887e-01 -9.658752745711082222e-01 1.898149167719960229e-01 -1.762250020372437553e-01
-9.749582491329806394e-03 1.933817844477141723e-01 -5.635728440487247637e-01 9.552095626399211836e-01 1.871975965028875311e-01 -2.291980613024306446e-01
2.321372014623582225e-02 -4.676610608368175770e-02 -6.156314305996644087e-01 -9.579855903425315011e-01 -1.774610625484336068e-01 2.253246102298915032e-01
1.809235957253453944e-02 -2.038918053210503623e-01 -7.604225062624562215e-01 -9.588578833600207574e-01 -1.790666787059824183e-01 2.202877302428561113e-01
2.177879485644058227e-02 6.865082956499478362e-02 -5.316463538995167548e-01 -9.589361811192401719e-01 -1.746306640173728442e-01 2.234849697972983440e-01
-3.249929679916573055e-02 -2.667136542395646612e-02 -8.325238303059775413e-01 8.517786963019969848e-01 4.166508047234121492e-01 -3.176085002788867628e-01
-1.882976277839587455e-03 -9.899135392785322896e-02 -7.563057821678675907e-01 2.657528485377257388e-01 3.253931717854135486e-01 9.074660915150015716e-01
1.827964767191536666e-02 -1.776573490697266611e-01 -7.334453107011424944e-01 7.114745629084180401e-01 4.094371530647493707e-01 -5.711087147159537025e-01
2.450019598085612094e-02 -2.247904889961530595e-01 -7.437520871129164046e-01 9.612593501043825706e-01 1.674562923153464222e-01 -2.189494279528885479e-01
-8.422381113718131751e-03 1.696908573699729139e-02 -6.914251117873491115e-01 7.176527308334962330e-01 7.815051778838578989e-02 6.920022070027180838e-01
-2.160607551434638729e-02 9.113800982634152892e-02 -6.994097099233229642e-01 -9.636085221344058427e-01 -1.890634024536901325e-01 1.889805437672897603e-01
-4.440301343846322739e-03 -1.192420866508172722e-01 -7.904030305750340268e-01 -9.588329154208347083e-01 -1.618947354875917843e-01 2.333013821797567666e-01
4.142772646552161930e-03 -4.181138588810746903e-02 -7.167663054850519355e-01 -7.272918497979403707e-01 -3.118544771177383379e-01 6.113864165314046861e-01
-3.994774874109620344e-02 1.772667414112774897e-01 -7.104569868446741765e-01 -9.597968266433912765e-01 -1.704086689613849848e-01 2.230491809177635454e-01
-3.205450063250125936e-02 2.971956545499683522e-02 -7.919591201859753626e-01 -9.588038315449940452e-01 -1.685779528771600144e-01 2.286409552516450172e-01
-2.988509890298380028e-03 2.316247868829130613e-02 -6.677322745875782228e-01 9.573068066354558647e-01 1.841319320530761527e-01 -2.228432398970795203e-01
-1.194183417623857942e-02 1.878540198589941090e-01 -5.825433983953935968e-01 -9.565617860895332392e-01 -1.644980685948320420e-01 2.406863827094756769e-01
-2.216980155172798561e-02 1.107732094214961410e-01 -6.865115017615160964e-01 -9.550508672827697776e-01 -1.862838486928782844e-01 2.305995850356155341e-01
-9.595511774682014591e-05 1.004808620440872900e-02 -6.837218664906961063e-01 -8.270318504503600954e-01 1.437089176444835692e-01 -5.434759105333963891e-01
5.171572521043782053e-03 -1.811882300364895948e-01 -7.729633927446523112e-01 2.541240313487701519e-01 3.519650322105364881e-01 -9.008560333327881864e-01
-3.440489639294938562e-02 8.169079238721797809e-02 -7.557374633946083442e-01 9.580658100435235358e-01 1.857386545839662395e-01 -2.181995779532704682e-01
-9.129721574145975918e-03 -3.235103000233003484e-02 -7.426480543977167503e-01 -9.595684052807238462e-01 -1.652110891903558754e-01 2.278898233698574971e-01
-6.454784354346094870e-03 1.753557228154140335e-01 -5.635621609913599173e-01 9.564518879562787790e-01 1.851666712459814623e-01 -2.256392915353012119e-01
4.540553935104387276e-03 4.305235297806812161e-02 -6.252562261091089146e-01 -9.625523193548274348e-01 -1.588533012852705040e-01 2.196785405437076122e-01
-2.326687458494935273e-02 2.491084186906856179e-01 -5.830890651258778812e-01 -9.622313409083539382e-01 -1.717914111579528502e-01 2.111837058725663518e-01
-2.841875918751143523e-02 -1.299831118016940568e-01 -8.957816367902184940e-01 9.592728587124187412e-01 1.679414809544912124e-01 -2.271370544682578263e-01
2.520914111105972480e-02 1.321042742037927854e-02 -5.550724131458929511e-01 9.568601914053429525e-01 1.716640576579732680e-01 -2.344142175981020482e-01
1.638432381233455651e-02 -1.384884760101514622e-01 -7.320818248348820445e-01 -9.766452711857674940e-01 -9.762742755727980837e-02 1.913972300192112452e-01
5.236734444829718033e-03 -6.905611071405372281e-02 -7.175036625668341772e-01 -6.611554905266253668e-01 2.068722411359859570e-01 -7.211638462886722500e-01
-2.059344544192672974e-02 4.609930867740197336e-02 -7.404631330791874300e-01 -9.867520767001458637e-01 -1.521241688529830771e-01 -5.637886464570298489e-02
1.736229235621501027e-02 5.826230128362093474e-03 -5.997093379665529023e-01 -9.604358125796178536e-01 -1.747926658832381630e-01 2.168192193232872378e-01
-3.776761416356469708e-03 -3.063438097992972342e-02 -7.183735643829514128e-01 -9.626820148577088787e-01 -1.606375380383234797e-01 2.178047741498985723e-01
-3.576604523340801145e-02 1.716456476230843187e-01 -6.969250183463523429e-01 -9.584514043973253461e-01 -1.744670999766884945e-01 2.256814933363364695e-01
2.710687298592823549e-02 -1.771385367485371898e-01 -7.090459906492134756e-01 -9.577243203428975615e-01 7.876105138234264225e-02 2.766962648986842632e-01
3.630141641658560930e-02 -4.160392011178550009e-02 -5.561511708406998711e-01 -9.599141898260807881e-01 -1.715083125383320695e-01 2.216971964206872481e-01
4.883210290866556169e-02 -1.987194637132333186e-01 -6.250858336895254164e-01 -9.552696163068608026e-01 -1.866009032957816616e-01 2.294342237987638533e-01
1.137363094556365518e-03 -1.903427318414512015e-01 -8.289695790249589358e-01 -9.577243203428967844e-01 -2.702331538184754023e-01 9.868216050055121646e-02
-1.300581283383412962e-03 -1.858983028878343768e-01 -8.290176842202866547e-01 -9.675454163820143005e-01 -1.556086002729302198e-01 1.991025634170840719e-01
1.198136259295517689e-02 -1.355436538825503245e-01 -7.333389946045497654e-01 -1.813813382386338102e-01 -9.224723173862389158e-01 3.408014580291935935e-01
-2.286138646473472730e-02 -9.071687040028715565e-02 -8.413550368645426047e-01 9.563199628251979334e-01 1.978337035722198545e-01 -2.152067713453997000e-01
-4.662354505483395223e-03 -1.017911108720049862e-01 -7.436960440217567081e-01 9.998341254432975278e-01 8.275741902761859711e-03 -1.622447826573331781e-02
4.054454824176002706e-04 -2.033644302673281168e-01 -8.353652380200072836e-01 -9.588035120889566443e-01 -1.777269042203414862e-01 2.216054438007686589e-01
-3.344918969421945606e-03 -9.005288472534099531e-02 -7.630412238043845496e-01 -9.580070119556113317e-01 -1.829053558961248327e-01 2.208352232511681112e-01
1.321229029144398853e-03 -2.147214308738307209e-01 -7.983375959385750065e-01 9.986709477921805744e-01 2.341864337750338906e-02 -4.591192849603734083e-02
-1.343622788959517381e-02 4.384735520911339779e-02 -7.014253199106184056e-01 -9.741122999215172662e-01 -9.258578478445003701e-02 2.062355439720803263e-01
2.526273669414925982e-02 -9.784684408707863823e-02 -6.471294407088904466e-01 -9.546498796299009992e-01 -1.810269157487352787e-01 2.363744129492782731e-01
1.762648771913277734e-02 8.751905353790066788e-02 -5.292600115796909366e-01 9.574483051556572644e-01 1.754502985818078287e-01 -2.291504651579700236e-01
3.982379582692594996e-03 -4.631752515853332364e-02 -6.920414018961298375e-01 9.560013640552207370e-01 1.825135570353643155e-01 -2.296741026386215911e-01
4.169248887082162985e-02 -7.518272582421998973e-02 -5.538402373930928491e-01 9.603813584162980144e-01 1.703982189942671033e-01 -2.205268540791534004e-01
1.145962206742815424e-02 5.996156673252175939e-02 -5.824709369097103018e-01 -9.566297630848072941e-01 -1.872301618621545205e-01 2.231689110727054781e-01
-2.088292345292024760e-02 -1.301233509832104840e-01 -8.635010397783575709e-01 9.584553587350038706e-01 1.746329956436702413e-01 -2.255363432901070775e-01
3.381913144386549525e-02 -5.693197800665723840e-02 -5.785146068481900050e-01 -9.559383302530671811e-01 -1.923082897484642284e-01 2.218094462528556188e-01
9.340911155761992199e-03 -9.494862205101066432e-02 -7.359111173696417652e-01 -9.361971717851762520e-01 2.105909112312898956e-01 -2.814006461403604220e-01
-1.637497867063382462e-02 -1.081035585345264949e-01 -8.327629434790931873e-01 -9.566048820716637202e-01 -1.794573791132527130e-01 2.295694855124709166e-01
1.623405829007226048e-02 -1.784811487656089990e-01 -7.484088062953179188e-01 -9.581394770937887717e-01 -1.735476641931294750e-01 2.277058424537019010e-01
-2.873840988934586727e-02 1.047982824770204990e-01 -7.191656257576187761e-01 -9.565971354677803573e-01 -1.764809141563686012e-01 2.318974069569769147e-01
1.254113866645768967e-02 -4.150289496358017943e-02 -6.517845807761835086e-01 9.578710887666167517e-01 1.632971651596660800e-01 -2.362562446918029246e-01
3.429263628672217512e-02 -7.004580985996478049e-02 -5.811551435747952521e-01 9.566163502967206522e-01 1.699282647057692719e-01 -2.366633541532534302e-01
-1.593133328571224444e-02 8.996073141075858204e-02 -6.759303971180401494e-01 -9.609089487083696257e-01 -1.784385851538728973e-01 2.116923796938848801e-01
5.087496781653895635e-03 -1.993810238825436398e-01 -8.123557180990764737e-01 -9.553459905522602158e-01 -1.773000151218627474e-01 2.363868502550603712e-01
-7.372122612711836179e-03 -6.320991170668148473e-02 -7.592312346350986729e-01 -9.580893333405002821e-01 -6.746564423789766507e-02 2.784119541016895627e-01
-4.388403429162310992e-02 2.358321050702107680e-01 -6.761574106991449229e-01 9.572887288847358178e-01 1.708464879975453710e-01 -2.332590128787121742e-01
2.717692514110406354e-02 -1.188843076281478756e-01 -6.456223097655646725e-01 7.755501721563179407e-01 6.306604818566429183e-01 -2.809425373012111246e-02
-6.931220734275955232e-03 -1.391327405755294899e-01 -8.111243854273895160e-01 9.581813879477040219e-01 1.825758468345126395e-01 -2.203508292320950634e-01
2.466513155933885981e-02 -1.901914452807557110e-01 -7.161970406886337681e-01 9.587332398345278506e-01 1.805167078619583643e-01 -2.196458354239160804e-01
-4.183505965452748859e-02 5.574882854953481376e-02 -8.078923116344628452e-01 9.552952520027623295e-01 1.769844169692083857e-01 -2.368279916966068988e-01
3.695544821342708341e-02 -7.803508386283251885e-02 -5.815917832819582634e-01 -9.554974151555318818e-01 -1.798011230308457220e-01 2.338722852069995140e-01
-5.376858526277556241e-03 1.527370796109218387e-01 -5.819244466339038580e-01 -9.575863023448824007e-01 -1.855424977583558788e-01 2.204596450306634259e-01
3.366078018308587411e-02 -5.808018979534966889e-03 -5.392429852088628239e-01 -9.571530325914759940e-01 -1.663062134003356896e-01 2.370660574299559287e-01
-4.011947227209095371e-03 1.494257253361696847e-01 -5.788151996437683744e-01 -9.570830492877439033e-01 -1.865890038140443630e-01 2.217579320379691188e-01
-1.629769023518449003e-02 -9.869165946582039717e-02 -8.196305409817158383e-01 9.583486100834702759e-01 1.832910006477328768e-01 -2.190259131532925063e-01
3.118264022984854056e-02 -9.504635608519519663e-02 -6.139122020086842380e-01 9.586471787623491725e-01 1.781921491896484577e-01 -2.219079642963786014e-01
-2.929671494169107729e-02 2.245016089683085359e-01 -6.280932874362998852e-01 -9.585114297182156795e-01 -1.790172670871081895e-01 2.218302440701111211e-01
2.848295702674372154e-02 -1.783157624046320389e-01 -7.032425045443846390e-01 -9.699104725709096764e-01 -2.279234363443393141e-01 8.558377394262735305e-02
9.831457959520010365e-03 1.222034292491191443e-01 -5.354499427676204792e-01 9.558531730147150629e-01 1.775286703129587418e-01 -2.341543996055036325e-01
2.355754675230197631e-02 -8.507140079685768241e-02 -6.387644125818520147e-01 9.547843293460309688e-01 1.799345646006591803e-01 -2.366652422668375777e-01
-1.303452785612034016e-02 4.693189772697409917e-02 -6.919621208042335825e-01 9.586374383185175541e-01 1.676934307926761514e-01 -2.299851628325021990e-01
-3.412232028812645784e-02 1.478585345505182003e-01 -7.030662715091976489e-01 9.590193691717209257e-01 1.817914225688932739e-01 -2.173332193518804356e-01
1.556773126709887212e-02 -4.290876528498199088e-03 -6.098005009497542428e-01 9.606865036098467536e-01 1.754588707016956350e-01 -2.151641849239167015e-01
-2.077612029723436768e-02 8.312058787029368012e-02 -6.965659089873991183e-01 9.186732680053865119e-01 1.183047798780986759e-01 -3.768864626254143646e-01
3.382230033029268168e-02 -2.170037585782896294e-01 -6.979723087229070533e-01 9.556206397886253257e-01 1.794560701339493747e-01 -2.336337126830320132e-01
7.203449738302250722e-03 5.211358332693691309e-02 -6.015477266440539816e-01 9.906587244556172012e-01 9.736889808696494453e-02 -9.547035846428925110e-02
-1.567711147043575684e-02 -9.718076116801428743e-03 -7.529069469880383947e-01 -9.578923668073365816e-01 -1.804494430366329061e-01 2.233387832867546330e-01
9.775614561652082660e-03 -2.042975273209039766e-01 -8.033029294977334089e-01 2.106857262846147383e-01 -6.098529833171433268e-01 7.639966383951598550e-01
4.891819745881404759e-03 -1.464323456411022739e-01 -7.496230394145694254e-01 9.149363565589855307e-01 1.476944298349656959e-01 -3.756032732049784384e-01
-1.116970232156449215e-02 2.307601517905492616e-01 -5.458622782410512686e-01 -9.557720817920136724e-01 -1.807168357559642557e-01 2.320369646011434528e-01
4.191016246001981471e-03 1.085856662613262774e-01 -5.678866867495245829e-01 8.659748018081566689e-01 3.561841419088442318e-01 -3.510277762314319983e-01
-3.997203006489231936e-02 2.265768152480888975e-01 -6.718589760009250345e-01 -9.563373195981593744e-01 -1.750109526066396248e-01 2.340728468052724331e-01
9.330668121940497925e-03 -1.556119268867513783e-01 -7.616510454518775619e-01 -3.377466319112437665e-01 2.554414949544647762e-01 -9.059121675350426672e-01
1.407950883812973675e-02 -1.802097578313509307e-01 -7.534445236156371850e-01 9.584801628601131718e-01 1.721081062454279109e-01 -2.273644149119719848e-01
2.310639555659757538e-02 -9.024024555944740178e-02 -6.441977792528439384e-01 6.615434756558054019e-01 -6.858214383852740959e-01 3.033301575320040411e-01
2.427119836833252497e-02 -1.312676985191494061e-01 -6.718446668232229690e-01 9.584637916270400959e-01 1.724403595378154463e-01 -2.271816069632111301e-01
-9.360034781063010859e-03 -7.016020426950682343e-02 -7.677274816643874233e-01 9.582485684936812298e-01 1.697767396341293422e-01 -2.300772471562890220e-01
-2.564296762428519907e-02 1.174335172797144611e-01 -6.959814510631707751e-01 -9.555793820268815297e-01 -1.745927084966938658e-01 2.374561660284098819e-01
6.001223468243790937e-03 -4.324493987764262831e-02 -6.749612164725508068e-01 6.925310805510439538e-01 2.860717113537389888e-01 -6.622414049528666524e-01
-1.263325331614196037e-02 1.152890532649136659e-04 -7.319920664908077246e-01 -9.591977058907177334e-01 -1.653111628151164858e-01 2.293730159864025286e-01
2.108224522894302025e-02 -9.835024971920641734e-02 -6.652106998540772143e-01 -9.552570738652278459e-01 -1.784577735844593283e-01 2.358744281979730517e-01
3.671169599175194004e-02 -2.052697155531275353e-01 -6.764881962129540849e-01 9.622096428820765546e-01 1.641594191172996153e-01 -2.172654787577117663e-01
1.219735558481420228e-02 9.200152281251815223e-02 -5.489070033296616913e-01 9.603586419777456751e-01 1.794230137251732748e-01 -2.133510274745271662e-01
-2.774454825110903716e-02 -1.595499348741543505e-02 -8.090832819676474497e-01 -9.426202044261011714e-01 -1.928874321453200313e-01 2.725097956552754441e-01
-4.698799164775675774e-02 1.119581529533462266e-01 -7.872381983085966484e-01 2.931547179205336029e-01 -7.644537461893993191e-01 5.741696450509428118e-01
1.728864464797643177e-02 6.644248116574198726e-02 -5.526175982692076438e-01 -9.572660648715547449e-01 -1.825500829775179024e-01 2.243148417965914188e-01
-4.230166451349181428e-02 1.284609448374317009e-01 -7.583644126772922656e-01 -9.565394734123289222e-01 -1.792800881951552294e-01 2.299801856265054067e-01
-1.012587974664044647e-02 4.715551256235785138e-02 -6.627081618131809293e-01 5.349700846442716484e-01 4.843559359833614075e-01 -6.922473082745665973e-01
-1.762324366284833896e-02 -4.995872450780360768e-02 -7.871584306905030637e-01 9.577214795021661287e-01 1.749571567514576764e-01 -2.283846776857588745e-01
3.399909021723028502e-02 -8.768863436579470150e-02 -6.063173012192927258e-01 -9.101845266147993163e-01 -2.328414451574701560e-01 3.425623869136461552e-01
-5.755316873001459221e-03 -1.975652577702678367e-02 -7.182589895231176191e-01 -9.581082291636033865e-01 -1.303528372003271429e-01 2.550230559043811795e-01
-7.600165835559996932e-03 -9.669445382333990979e-02 -7.862713919756799674e-01 -9.584716980788551277e-01 -1.659486979533787987e-01 2.319332525305807802e-01
