-5.068465212749811120e-03 -8.545253120649107248e-02 -7.491362736995649252e-01 -9.697413328855917225e-01 7.381636676516085960e-02 -2.327077379264972656e-01
-3.467109657123914473e-02 -2.377940395618634295e-02 -6.171283403724490135e-01 -9.694523759611805014e-01 5.546905222236064165e-02 -2.389252497932667363e-01
-3.490967869401115972e-03 1.675835428931416182e-01 -7.132382171513683700e-01 9.507543474521795712e-01 -1.344971135080973434e-01 2.792430791600218343e-01
-4.452659134468770624e-03 -2.042158738926009298e-01 -7.844224304613586218e-01 9.663315224642031742e-01 -6.976642105546768113e-02 2.476611297420860391e-01
2.004205849084858548e-02 -1.655675679433767922e-01 -8.569558518271881420e-01 -9.477181342933607144e-01 1.949867983217503931e-01 2.526073760042342187e-01
1.093097632283581561e-02 2.956395517827703143e-02 -7.904582745613576433e-01 9.684721348190664658e-01 -4.972315933681357991e-02 2.441092614067841282e-01
-3.194495698861322952e-02 -1.259124006998978695e-01 -6.520590440115772157e-01 -9.671089160670032214e-01 5.778555207415476958e-02 -2.477118778645696628e-01
2.430464071888979380e-02 9.247006381288365440e-02 -8.236773125398237916e-01 -9.659282217228103429e-01 -6.131281378091627682e-02 -2.514426561776584856e-01
-1.893462188767531390e-02 2.729066864841848961e-02 -6.725390899937722100e-01 9.669153920638576816e-01 -5.747725987118383617e-02 2.485377017430087376e-01
-1.113244295326721450e-02 1.889288612183548655e-01 -6.654629910389038283e-01 9.682859074467989879e-01 -4.492177166325933557e-02 2.457731390338724620e-01
-1.518233768254837086e-02 -1.128413685130804228e-01 -7.152736528569834107e-01 -9.683682416240023683e-01 5.787504282794310451e-02 -2.427208850340275004e-01
-2.063927805866532308e-02 -8.349953655818743992e-02 -6.866518070268796681e-01 -9.507543474521795712e-01 1.344971135080973434e-01 -2.792430791600218343e-01
8.256893143566167159e-03 -1.621951827302817728e-01 -8.308640629779117104e-01 5.944500672071574288e-01 3.489436924050084432e-01 -7.244773406588813636e-01
-1.713130064644359518e-02 -1.581310405108568851e-01 -7.181408891988612098e-01 -9.690447864644415876e-01 5.955238271127875210e-02 -2.395948988177636907e-01
-6.385467932854059329e-04 -3.867616536922040271e-02 -7.492131112131521498e-01 -9.851685471721136622e-01 -1.437624289236679176e-01 9.367655892887119529e-02
4.602415596180067445e-03 1.030732515177003872e-01 -7.431402332914356368e-01 -9.654548524119663799e-01 7.175470105283374145e-02 -2.504958898485292740e-01
-2.547380511658231192e-02 -1.858275154119177208e-01 -6.967469543364366302e-01 9.690761879992697558e-01 -4.123504091278993450e-02 2.432920328611779814e-01
-1.603764522731078793e-02 9.106927368107592055e-03 -6.882706920336492118e-01 9.693926033219772975e-01 -5.470427472159210963e-02 2.393437338887823562e-01
9.542975275871825799e-03 -4.317382175807394501e-02 -8.021031260809395880e-01 9.657879765317817222e-01 -5.266656504175064313e-02 2.539287642496405040e-01
-2.276568024453944072e-02 -1.106971320554465121e-01 -6.848236663636086963e-01 -9.675560695478270246e-01 5.676392188936746352e-02 -2.461972978180270999e-01
3.818109420870210990e-02 -6.698494933115051175e-02 -9.162855578747496343e-01 -9.657078617764991435e-01 6.592915094806696408e-02 -2.511208329835044051e-01
1.998413696996781050e-02 -1.504214771345693813e-01 -8.341957534218636949e-01 -9.863418112517899905e-01 -1.307902735548860107e-01 1.001186082602842919e-01
3.157001645110701915e-02 -6.252206885668573633e-02 -8.940100391720813278e-01 9.873602930153336787e-01 -1.237792953997852580e-01 9.898655366769294750e-02
-2.587647472162459689e-02 5.744302861724264603e-02 -6.380568620352575770e-01 2.192980314918250295e-01 9.285820598832156270e-01 -2.994056302858287277e-01
3.913808797634589845e-03 -6.820063417995743393e-02 -7.696953879299192058e-01 -9.818923204289822237e-01 -1.590378136579716772e-01 -1.029293199699732320e-01
-1.974557448456017855e-02 -2.233380746363739233e-01 -7.231226286575695994e-01 -9.682028539948002166e-01 6.609793235425356905e-02 -2.412763910017227120e-01
-4.916875785304551660e-03 8.040777557403532005e-02 -7.107784319868253320e-01 -6.971809593184518095e-01 -6.737902672488363942e-01 2.448374679752765848e-01
2.630399069213173666e-02 -2.045407861931850535e-01 -9.064402673573787039e-01 9.668455912802484953e-01 -5.867707214256581011e-02 2.485288792609879061e-01
6.097655510007997208e-03 -1.361584392856854397e-01 -8.102637368930000195e-01 9.647989826839347138e-01 -5.485393771021817438e-02 2.572041378549895785e-01
1.090770818657558518e-02 -8.615272578789304192e-02 -8.125894073455649513e-01 -8.292590367218237724e-01 -4.892656567170943771e-01 2.700899242333619776e-01
-1.519223890623281475e-02 2.099666819916650995e-01 -6.444154669191616280e-01 9.709493314086969917e-01 -4.182345715643645545e-02 2.356017705122098738e-01
-1.875233601063684696e-02 -7.454621586054341158e-03 -6.763856859182618697e-01 -9.691344532049656069e-01 5.716449019540775084e-02 -2.398137457941296180e-01
-3.679866221495321776e-02 -1.850813910651834537e-01 -6.465717079377042431e-01 -9.642811762636864792e-01 6.385601318722979036e-02 -2.570685174877578860e-01
5.502319801051275966e-03 1.091521163490094259e-01 -7.298489789583569864e-01 -8.869396512906420060e-01 2.004296137222477403e-01 -4.161322204679482328e-01
1.777117736077830912e-02 1.074792284642400730e-01 -7.944140620469248848e-01 -9.658712098024695436e-01 6.508353573702482797e-02 -2.507128625553171619e-01
2.871717459078796525e-02 1.177178426421533336e-01 -8.403966667689611869e-01 9.691362321407602787e-01 -4.552355700000747935e-02 2.422861310724930273e-01
-1.387146716812135382e-02 2.388928006220807782e-02 -6.883694776350709477e-01 -9.660499771602589769e-01 5.782353927932339099e-02 -2.518012707153711727e-01
1.723669538310542565e-02 -1.262949552439315004e-01 -8.522437841170773520e-01 9.665703268703496054e-01 -6.785641775038440959e-02 2.472595999831574132e-01
1.654938614582041750e-02 1.459002252985479586e-01 -7.804100447124874274e-01 -9.738722153955858829e-01 5.516416112622721940e-02 -2.202948556088710486e-01
2.403324178257644494e-02 -8.640404620817045134e-02 -8.647847786242677248e-01 -9.697774338251757831e-01 4.879983177035350506e-02 -2.390613002195082770e-01
2.965331948208368464e-03 2.058338547196275539e-03 -7.538553996851282690e-01 -9.700951460264247705e-01 -1.104888195144534263e-01 -2.161194771839693163e-01
2.043797576792261150e-02 -2.490047883512749860e-01 -8.882342568088192891e-01 -2.116382363396865085e-01 1.019828787540021375e-01 9.720127310689267164e-01
1.942844087484555879e-02 2.316485849667708832e-02 -8.257523669377594411e-01 9.679768662707802784e-01 -4.975292420002246085e-02 2.460598156915241586e-01
-2.206136034506095064e-02 -1.702092239817157293e-01 -7.065101554868008504e-01 9.658182813049598359e-01 -5.797495625561138732e-02 2.526538183845505325e-01
-7.559569360019955178e-03 -1.704483065516819787e-02 -7.196889915055878495e-01 -5.775157203274174922e-01 -8.136515351572193300e-01 -6.668412188073091773e-02
4.004470309996195805e-03 1.016218591653962611e-01 -7.291645786688641939e-01 -6.105709547629163403e-01 1.883315356361751625e-01 -7.692427067478903036e-01
9.433356681259788545e-03 2.061749487727564945e-01 -7.380137977928933335e-01 -9.658867236941862666e-01 6.308395913390829612e-02 -2.511637933526686961e-01
4.341246716650441068e-02 -1.616028166772521396e-03 -9.267348230938889930e-01 9.670004649440581135e-01 -5.674210583569146843e-02 2.483755910376599096e-01
-2.838063786232124242e-02 1.657601792344809422e-01 -6.017826779662243109e-01 2.428217863162236423e-01 -6.994941758279961397e-02 -9.675456883631002869e-01
1.990323604677838448e-02 2.940032097331897118e-02 -8.210618047499451677e-01 -9.686493728572556083e-01 6.523056176455595268e-02 -2.397151773983572931e-01
7.670510411862667410e-03 -1.455278622255196663e-01 -8.014622930803444456e-01 -8.216986019912363437e-01 5.010540060507386873e-01 -2.715810937936481984e-01
-1.073300181138520971e-02 1.383393726090323406e-01 -6.738555850717172779e-01 -9.675260982000627452e-01 4.558004088964017625e-02 -2.486276516686368454e-01
-3.635614597712974461e-02 -9.592847739673675267e-02 -6.273431658330529404e-01 -9.698456562858319696e-01 5.179754252349686588e-02 -2.381520891615913627e-01
-1.726074960717343190e-02 8.920729720421624598e-02 -6.645103217737964307e-01 9.682591104497687562e-01 -6.446350625261548783e-02 2.414927563978711278e-01
-3.560294326690277567e-02 -1.401686942187500839e-01 -6.457571171067179039e-01 9.669884687789267463e-01 -6.110251762649064611e-02 2.473859001404306868e-01
-1.322882052909758049e-02 1.117476138854664597e-01 -6.703043421578460670e-01 -9.665598270802390202e-01 4.673375017388250313e-02 -2.521468962119173263e-01
-3.038928536189364378e-03 2.773514130193372590e-02 -7.553416489913130638e-01 9.875848877367270351e-01 1.441186180915279558e-01 6.249730740939426349e-02
3.690596641411177103e-02 -7.715056607844256176e-02 -9.187249264702110896e-01 9.683472108570818637e-01 -6.448649706469528065e-02 2.411330979389499085e-01
-3.335474008194082990e-02 -6.681725731187061756e-02 -6.325195394206912791e-01 -9.669890286775478794e-01 5.878880304608111868e-02 -2.479437336446746187e-01
4.046883348954614240e-02 -1.766263607124637369e-01 -9.510060535427604655e-01 -9.701818286671908265e-01 6.153218135364053182e-02 -2.344376462555628482e-01
3.427394875031119365e-02 -4.973213189922908763e-03 -8.863725732625212794e-01 -9.676593042225570818e-01 5.656031650901174879e-02 -2.458381612929879112e-01
8.256359096449278692e-03 -8.601142134460292021e-02 -8.114572270896320827e-01 -1.495880246812240078e-01 -4.290555488970527187e-01 8.908056796140324529e-01
1.387214021674540963e-02 -3.045169318184219598e-02 -8.112128311846440454e-01 -9.648840321814223797e-01 7.216741387521771744e-02 -2.525681468750222702e-01
1.315706714491569548e-02 1.933659688288022760e-01 -7.557189622601002688e-01 -9.646077610204438768e-01 7.043421316966515244e-02 -2.541080262295871139e-01
8.022942506567556920e-03 6.910827628366404685e-02 -7.608954178666379464e-01 -7.275229791429723702e-01 3.598406917901221247e-01 5.841446664576683823e-01
-3.691915137794910678e-02 -3.499594619984395388e-02 -6.107751310820193069e-01 -9.689844065823429720e-01 6.041841441530298312e-02 -2.396222756752916516e-01
-1.598396526355398695e-02 -1.750982777599381646e-01 -7.372707031813582335e-01 9.288123019793584900e-01 -2.927322065086813696e-01 2.271905873146246868e-01
-1.303965895625323716e-03 -2.269350213646781356e-01 -7.971995100585679284e-01 -9.665001937206805227e-01 5.790915868144718565e-02 -2.500478051867160989e-01
1.743288281065668438e-02 9.830750747056214711e-02 -8.000355113611135049e-01 9.699203502690277867e-01 -5.769363471973314866e-02 2.364866986678793026e-01
1.561830515968809854e-02 -1.820978576162636808e-01 -8.588221636788054836e-01 9.684458968420432967e-01 -6.517632029973589869e-02 2.405506020819669633e-01
-4.370070893011892069e-03 2.064490099617234398e-01 -6.970884629782165831e-01 8.242116048876432233e-01 -3.393492699824641745e-01 4.533401629360717111e-01
4.158479637669604961e-02 -2.368457175810068094e-02 -9.246712319024202875e-01 9.689260738236374904e-01 -5.394183946032804489e-02 2.413970617475426350e-01
6.574828335222184655e-03 1.686923524324063783e-01 -7.404962533867219809e-01 9.679412049300378795e-01 -5.537506485909930720e-02 2.449967877145271256e-01
9.414778794959379957e-03 -4.193467630248413555e-03 -7.744715006095888032e-01 -7.854188230945814420e-01 -2.685923196023973780e-01 5.576517176332609349e-01
2.559054730028398144e-04 1.656471349714305208e-01 -7.174836792219309034e-01 -7.045671695157021408e-02 -4.328596342639222661e-01 8.987037265202084679e-01
2.376707859881869306e-03 -9.531029628788231789e-02 -7.809247762789756075e-01 -9.665221529131219347e-01 6.076100338422751879e-02 -2.492850344403483298e-01
-2.987318190072385873e-03 1.530448097979760225e-01 -7.193429051866674362e-01 9.930490968488788761e-01 -5.107487838323564872e-02 1.060417278516516543e-01
-1.269057019525037314e-02 -1.660276573434151803e-01 -7.377210328902151781e-01 -9.689993718092586583e-01 6.077356826756023789e-02 -2.394718998824087453e-01
1.428427559590747867e-02 -1.986241578348421077e-01 -8.634312414498075405e-01 2.747860189745041093e-01 -5.580101086557048840e-01 7.830181111661413951e-01
3.401479204133478484e-02 -1.505586247325667593e-01 -9.245092455377370566e-01 9.678672441037491359e-01 -5.868110128345196269e-02 2.445189688821195195e-01
2.086469843586752360e-02 1.982718053964297733e-01 -7.900852166345071481e-01 9.733184185857894910e-01 -5.162961927033423576e-02 2.235746820542482693e-01
1.952047822935845667e-02 9.361541367871008268e-02 -8.045681491979113087e-01 -9.697723569256923026e-01 5.761990440433703564e-02 -2.371107807739300799e-01
1.430105560013336490e-02 -1.041166354913730385e-01 -8.259347750322817427e-01 -5.591468372703941592e-01 3.705716973458683117e-01 7.416410395175805359e-01
5.902403288949371885e-03 -1.886428601588786835e-01 -8.075557612463810653e-01 -9.507543474521795712e-01 1.344971135080973434e-01 -2.792430791600218343e-01
-2.537614554717659062e-03 -1.128366149090590520e-01 -7.546629206999813100e-01 -9.533385560241440793e-01 -2.932042779745548389e-01 -7.195032296814239670e-02
1.792027510754271025e-02 1.930831429255021325e-01 -7.798305779114017566e-01 9.665530111232004673e-01 -6.352097945516603505e-02 2.484760790453093837e-01
1.566453811335399848e-02 5.941354616797264038e-02 -7.971080138209614141e-01 -9.688388871249390411e-01 6.262369748158552740e-02 -2.396444935904945839e-01
-3.696744820403921605e-02 -1.783293942995132775e-01 -6.444354080225282999e-01 -9.690309088054268605e-01 6.252537845939888650e-02 -2.388926010328434602e-01
7.471535407024802386e-03 -2.050934660803648280e-01 -8.502149197272724779e-01 7.527513437424725451e-01 2.213345194309928599e-01 -6.199810037429805964e-01
5.752416934619266307e-03 -7.690116946257255504e-02 -7.800422310105912249e-01 -8.014755062092188131e-01 4.941135621511985598e-01 -3.368809888446216427e-01
-1.080581996538876322e-03 -1.341741614811035044e-01 -7.762367925661337598e-01 -9.685112188495434982e-01 5.193608788030366907e-02 -2.434926317946006780e-01
3.570628920422855290e-02 1.638851131433472982e-02 -8.869197557278535315e-01 -9.679267930882373694e-01 6.397824930217628492e-02 -2.429495973204096326e-01
1.792329223884935388e-02 -1.637637982323194019e-01 -8.459335397697940184e-01 -6.496475416852983686e-01 -3.971863994163203349e-01 6.482291536956263922e-01
9.807426341889238439e-03 -4.139791276169102474e-02 -7.792662192048704917e-01 -6.539495006724057591e-01 2.644007662059327801e-01 -7.088316340288621786e-01
2.098932167468800514e-03 2.132257840601951837e-01 -7.073365623946686886e-01 -9.640404224124502486e-01 4.353004810570366284e-02 -2.621663572366590422e-01
-4.215673088563120889e-03 -1.673346258526765828e-01 -7.766099482780517427e-01 9.682843795071767179e-01 -4.851723964057413907e-02 2.450947528203345493e-01
-1.283216864148908724e-02 -8.616683634266555925e-02 -7.234291473158580565e-01 9.679641489017241085e-01 -5.440121328920587140e-02 2.451242836473437325e-01
4.605880089388119519e-02 -7.548982027740198941e-02 -9.544786500473128044e-01 9.670277357790815209e-01 -5.807783857150115858e-02 2.479603252555650228e-01
9.981887512185457292e-03 2.308305920122505628e-01 -7.345381611454450121e-01 -9.699776688091926724e-01 4.663468637829658314e-02 -2.386808078540923750e-01
9.463113560296899582e-03 -1.353034621872547250e-01 -8.184346552824331988e-01 -9.573070926424867011e-01 6.010498293826291999e-02 -2.827552323165398174e-01
1.075906266006516031e-02 -2.391435795106292839e-01 -8.530988007014025376e-01 9.676834140272856377e-01 -5.601328685052334860e-02 2.458685053289618727e-01
1.300696456624531039e-02 -5.218274067596132687e-02 -7.897966753748340007e-01 -9.957211493645031775e-01 1.636061455441709112e-02 9.094901318669970647e-02
1.947162662529030794e-02 5.824810466904989381e-02 -8.175318194164695740e-01 9.727408184118386814e-01 -6.971347122662213680e-02 2.211681082909594531e-01
-1.662828812733590025e-02 -2.007434104645279549e-01 -7.354024572880435429e-01 9.664255161778964043e-01 -5.124775884143718818e-02 2.517844095531257542e-01
-2.276220363761112617e-03 2.601195747640402955e-01 -6.839189962644727228e-01 9.681122783933633347e-01 -4.723372008477205036e-02 2.460235600729419603e-01
2.980367539785482023e-02 -2.126642304286242569e-01 -9.222090937523474974e-01 9.668390021773679566e-01 -6.066825033451855170e-02 2.480760110732590507e-01
6.781887085138584015e-03 -1.204916194121609524e-01 -8.142751786111712686e-01 4.616369590219330243e-01 4.142115085358238358e-01 -7.844234470370320400e-01
-2.496174417136140175e-02 1.146907581427288741e-01 -6.280102731051243614e-01 9.699172668831379518e-01 -5.528826912730660376e-02 2.370732011401755213e-01
4.830023922362992883e-02 -9.675643034235827111e-02 -9.684242673671773494e-01 9.701228085278023050e-01 -5.573162175217541425e-02 2.361264972657696193e-01
-2.652635237253979719e-02 -3.529435903335349095e-02 -6.522233939393392577e-01 -9.680562723772966338e-01 5.909150727036903417e-02 -2.436703660265014115e-01
1.401917729397666838e-02 -9.556890211451594952e-02 -8.031040207700618216e-01 -7.515105769078427311e-01 2.862780562943302853e-01 -5.943708667826691494e-01
-1.817756932874275890e-03 1.628725848160836875e-01 -7.035330855939045946e-01 -9.716844604059234891e-01 4.836223879885286070e-02 -2.312799240401382239e-01
-1.806967788037282599e-02 5.904127020251925123e-02 -6.634315536326794716e-01 -9.684919943982458479e-01 4.537346257358922802e-02 -2.448765110838347914e-01
-1.048906678222325667e-02 -1.000479740940318635e-01 -7.418958756493202467e-01 6.305958325287485122e-01 -6.763588408355573900e-02 7.731586403718259115e-01
3.155659560168917743e-02 -9.214263041038986413e-02 -9.009093622737716078e-01 9.685377594324767747e-01 -6.668535900033752128e-02 2.397658679806489168e-01
-3.010806554115751446e-02 -1.001374955066674510e-01 -6.531425322597254057e-01 -9.707955714941847170e-01 5.300717515377349059e-02 -2.339790540828318721e-01
-2.275829505937426982e-03 -1.360256946319965930e-02 -7.483471005814684718e-01 9.663288522613247000e-01 -7.092610311117995836e-02 2.473419438444948437e-01
-3.355962729070358086e-02 -3.402796986840612298e-02 -6.240573654308756435e-01 -9.683807294116176800e-01 4.459132668453497789e-02 -2.454595210798235505e-01
-1.287678064300702523e-02 -6.657156505700594085e-02 -7.135049018524358688e-01 -9.681559636546140934e-01 5.438488309549129041e-02 -2.443692176414515582e-01
3.164085718916000156e-02 -1.388884535248134378e-01 -9.121897465004878969e-01 9.403699258502595804e-01 -1.360878060321261684e-01 3.117443048489251800e-01
5.272801285734834802e-03 2.334661875148330568e-02 -7.643531438823275570e-01 -9.836941141708193115e-01 -9.963724279325451849e-02 -1.497274510376944978e-01
3.735060953666329703e-02 -1.059714191097076846e-01 -9.272420391129986283e-01 9.693311697036021135e-01 -5.677448598523725937e-02 2.391103117436769177e-01
-2.039893628679666920e-02 -1.324448075921119961e-01 -6.990844544928703774e-01 -9.680376217035567832e-01 5.535110406939775657e-02 -2.446209685305416048e-01
-1.239426957192337787e-02 -3.729726436368970000e-02 -7.085578824157355848e-01 -9.682887316920916199e-01 5.550434007238843476e-02 -2.435902303280027270e-01
4.729719845554116592e-03 -1.764027682577120823e-02 -7.907169537043152729e-01 8.426453768553838763e-01 9.073628368127829857e-02 5.307689663949456405e-01
3.950927078147218642e-03 8.897826709012060520e-02 -7.438827773247721487e-01 -9.688444144643072464e-01 5.039698926300053422e-02 -2.424884410328430606e-01
2.689676303902695242e-02 -1.424529737826998044e-01 -8.891878143914658805e-01 -9.679271930994511886e-01 4.924190289076997573e-02 -2.463578370141974172e-01
-2.691207709857533839e-02 1.218974618006485600e-01 -6.135321774599742373e-01 -9.700582666903490026e-01 5.708166501888953942e-02 -2.360691482265039054e-01
4.366095135854791004e-02 -1.524915006239744575e-01 -9.581068218336021847e-01 -9.697037735022407956e-01 6.260131271339042236e-02 -2.361263799368363281e-01
-2.728388981478209463e-02 -1.620675349746108010e-02 -6.495424388892893086e-01 9.689649286291655006e-01 -6.043679378155401849e-02 2.396963934732478374e-01
3.490157872529010136e-02 -5.110211233337107889e-02 -8.996480354350853137e-01 -9.661759396141791356e-01 5.150345857402092303e-02 -2.526884395170710951e-01
-1.974270871065844993e-02 -4.297509694933077107e-02 -6.807866769501560444e-01 -9.674691598258252645e-01 7.233011817333485916e-02 -2.424289149234128138e-01
-2.203773474166284552e-02 7.739294618168067463e-02 -6.483871787339934301e-01 9.687456180595672706e-01 -4.996634762106313271e-02 2.429717917697407636e-01
1.224002779944118741e-02 -2.359592236688455025e-01 -8.532318221928756330e-01 -9.670054744111815648e-01 6.480296340999421034e-02 -2.463757057667999850e-01
1.769660953793749866e-02 -1.201093727071690792e-01 -8.474371158509789170e-01 -9.701491325842768187e-01 5.126462257245588405e-02 -2.370286881760913511e-01
-2.542250328833554895e-02 1.096065883921325257e-01 -6.273768362527371023e-01 9.684831924032490935e-01 -7.103323734105064513e-02 2.387353874591302827e-01
1.894335431463391173e-02 -1.378718400892552653e-01 -8.310555149587420809e-01 -9.370546197510839503e-01 -1.800882990608289880e-01 2.991602315558150593e-01
-2.307164322049071875e-03 8.983310331192996545e-02 -7.189223585353359258e-01 -9.687856812407893425e-01 5.395021710460241177e-02 -2.419580085411224268e-01
1.691764355175301437e-02 -1.455575616642156012e-01 -8.661787795225637243e-01 9.479248575254961562e-01 2.459146189374003533e-02 3.175432639613013364e-01
2.818596840060115516e-02 2.785517153598657605e-02 -8.592868098875398042e-01 9.678702374750698390e-01 -5.067232452269111037e-02 2.462915324111226711e-01
-6.067676965246127964e-03 2.062380098142248264e-01 -6.814332879471830529e-01 9.692320472263390441e-01 -7.064407739754544058e-02 2.357936660686395236e-01
-3.363353355724072596e-02 8.657250524754038501e-02 -6.004174813792071408e-01 9.687608645305917365e-01 -5.696599215579242759e-02 2.413654140336738696e-01
-8.878634712805181031e-03 -1.247318100165937388e-02 -7.167491016457814279e-01 -9.685536110469787907e-01 5.307293211388334347e-02 -2.430785190112303429e-01
-1.941525894588069789e-02 -1.310562886303147934e-01 -7.026602941257631407e-01 -9.679770587391421932e-01 5.539367180986639466e-02 -2.448508829433544143e-01
1.826811875868927446e-02 8.980021719093799620e-03 -8.244593226126969432e-01 9.681758896057559571e-01 -5.086168771091459373e-02 2.450480269443126580e-01
-3.955258128736749423e-02 -1.432302464714907964e-01 -6.309375415559195233e-01 9.620814793190888281e-01 -6.295135439730388527e-02 2.653984817792646167e-01
-5.395012685858184727e-03 9.270101112333961613e-02 -7.109547698506479829e-01 9.686681225460030964e-01 -5.639213410859263143e-02 2.418718577550519333e-01
4.069454590707809183e-02 -1.719447792926443452e-01 -9.508219012267266068e-01 -9.661204338042697071e-01 5.182032959595356258e-02 -2.528358377018899983e-01
-2.284331052442786780e-02 -4.436410386932465588e-02 -6.686752963953829232e-01 -9.507543474521795712e-01 1.344971135080973434e-01 -2.792430791600218343e-01
-1.475538167427880784e-02 2.515523221539354148e-01 -6.320603533216030412e-01 1.400169249397160143e-01 -4.755768941398763050e-01 -8.684594858084601077e-01
-2.124732591243693944e-02 1.860656336563201382e-02 -6.603831968255778895e-01 -9.662846420249969759e-01 6.075273322660183078e-02 -2.502061070240311769e-01
-1.927135976074149937e-02 1.633384915373968793e-01 -6.392611034402091441e-01 9.682345395618989770e-01 -5.025466863108434684e-02 2.449415127742485543e-01
-1.584740914657776362e-02 2.674962962041709663e-02 -6.797734404487437709e-01 -9.703218634134397336e-01 5.589017606429660251e-02 -2.352695679457327826e-01
2.872244335301958607e-02 -1.594201426356945117e-01 -9.004178512966490855e-01 -9.674985810594040059e-01 6.183289915112212543e-02 -2.452003022645100339e-01
-1.299871336401672677e-02 9.165139247060820338e-02 -6.810018291578169292e-01 9.686336837934429456e-01 -6.242638961050742119e-02 2.405238709586673684e-01
1.683464313613480465e-02 -1.751727519994203119e-01 -8.620111570147370728e-01 9.678608173484364308e-01 -4.933125434027698514e-02 2.466006195994474015e-01
-1.062930434041274921e-02 -1.195373403108128257e-01 -7.349090471780099776e-01 -9.677520971228253943e-01 5.877362351214023006e-02 -2.449521171446100709e-01
1.415097052014385216e-02 -1.316523881296264853e-01 -8.339879879142375607e-01 -3.099454319727590890e-01 -4.125684788244646239e-01 8.565752036334504105e-01
2.499422407279008971e-03 2.497860322216590712e-01 -7.052242787657082568e-01 9.703502756176179966e-01 -5.006495510693585727e-02 2.364610811084000286e-01
5.034061450388424737e-03 -1.814125846718840640e-01 -8.433834560031557848e-01 9.362448133057202915e-01 1.524634063103749715e-01 -3.165447192647107277e-01
-1.711124886377240681e-02 3.684659598185494045e-02 -6.801720085833502516e-01 9.532444839945887205e-01 2.831943621352747131e-01 -1.054794149997295288e-01
3.290360636806444194e-02 4.837484313748060399e-02 -8.732394380821415503e-01 9.641297021437004178e-01 -5.735359005428043028e-02 2.591611142748562191e-01
-7.862019113630594122e-03 2.169298511572184396e-01 -6.717565196196466637e-01 9.708133299687257134e-01 -5.573674231127614953e-02 2.332700021682183877e-01
-3.457758615059067057e-03 -5.957238605253194035e-03 -7.368616329739434700e-01 -9.681660711014278275e-01 5.099414754166583380e-02 -2.450592901412308178e-01
-3.441693927503285816e-02 3.330024407663505822e-03 -6.117341838501643148e-01 -9.715303805248198810e-01 4.678818770779617081e-02 -2.322489724591232096e-01
2.009200771195747447e-04 2.003511391565933678e-02 -7.501950646769175446e-01 9.707444091461112645e-01 -6.724501243061564715e-02 2.305068337702236292e-01
-1.123266031386678694e-02 2.595803721028294708e-02 -6.984785584121699920e-01 -9.661325518141740121e-01 5.576572833067790919e-02 -2.519485579811513443e-01
1.049190697126911945e-02 1.980537448939562462e-01 -7.441842680455916792e-01 -9.712347058243167019e-01 4.205804565792248956e-02 -2.343806028616469972e-01
2.081592095557485700e-02 1.194492673738731109e-01 -8.086386447519310350e-01 9.650621938134190669e-01 -6.215007377345906081e-02 2.545433762681412748e-01
-8.902314053747459321e-03 1.108802648121789136e-01 -6.927308700985874701e-01 9.696771836082097584e-01 -6.019762536824130317e-02 2.368594635847910690e-01
3.235063037359529881e-02 -1.815131897068145428e-01 -9.201402677655894369e-01 -9.665592837590990527e-01 5.361576991791990043e-02 -2.507757966694671992e-01
2.025979326215453236e-02 1.134914356120138995e-02 -8.267619824652284732e-01 -9.644680128425137111e-01 5.566519322315881257e-02 -2.582689266385741478e-01
-1.119228893036810710e-02 1.220592366132042805e-01 -6.808882046742786853e-01 9.655306310457602015e-01 -6.325501886000703400e-02 2.524864414209133656e-01
3.305758417725370574e-02 1.159046188083034772e-02 -8.825716979326658773e-01 9.675914705227488533e-01 -5.189431164460507617e-02 2.471309907529950223e-01
-2.241525253665506770e-02 -2.220690441225737499e-01 -7.124171215784922406e-01 -9.691983823255139185e-01 6.130775546343426169e-02 -2.385285199250661847e-01
9.564725252939776379e-03 -5.029626277265709239e-02 -7.945814868243534779e-01 -5.098567101908563215e-01 -2.342563831881229464e-01 8.277500117843407113e-01
1.419979852044822230e-02 9.788941120014124642e-02 -7.780834396370883699e-01 -9.704361993660269858e-01 -1.029491959452323441e-01 -2.183003573388074825e-01
4.004435240800144347e-02 -8.596965269057141312e-02 -9.331383144863051315e-01 9.685320095112209815e-01 -5.163722826061911686e-02 2.434734959081108208e-01
-1.464164731390371794e-02 9.491987051199765602e-02 -6.735413250460505763e-01 9.661827982761633793e-01 -5.341616735454686460e-02 2.522647684088953346e-01
-3.092697538625655083e-03 3.401072580862132821e-02 -7.338817888725291949e-01 9.661287647606334739e-01 -5.002587584864238296e-02 2.531652062343263676e-01
1.946002204518425260e-02 -2.034677306859880019e-01 -8.741713562079499455e-01 -9.678821554566953145e-01 4.988166902145534792e-02 -2.464060718491649093e-01
-1.831184953599133969e-02 -7.654823537026303470e-02 -6.869564036386242023e-01 -8.869396512906421171e-01 2.004296137222476015e-01 -4.161322204679480108e-01
7.902667538784477475e-03 1.949795068513007767e-01 -7.395386596057288431e-01 9.681632795365249233e-01 -5.023793987427053326e-02 2.452264536184256827e-01
-3.609633068831292774e-03 2.020231612990163184e-01 -6.923776517997759505e-01 9.667748818867587524e-01 -1.210484201714495806e-01 2.251524099956295488e-01
-1.611328948599760960e-02 1.281397519270132887e-02 -6.819654550437302953e-01 -9.698209285367244137e-01 5.575198576432654346e-02 -2.373585529436430253e-01
-5.808891058227106351e-03 1.296452983759062150e-01 -7.005729316541574603e-01 9.702560813041225529e-01 -6.267378962243444485e-02 2.338271429640515764e-01
1.300675299902866178e-02 -2.376982715242647037e-01 -8.566504340607475898e-01 -9.675774982478655417e-01 5.575659591012969291e-02 -2.463432298580913449e-01
1.228666275923456438e-02 4.988988082242923339e-02 -7.860301101140956259e-01 -9.688596419321635622e-01 4.781764035017171954e-02 -2.429495163741250685e-01
3.848693102130153112e-03 1.304652838254191094e-01 -7.211650478171023337e-01 -7.003967076752964926e-01 1.417491593167041763e-01 -6.995367236325861215e-01
1.265580120963216097e-03 3.939750158605509478e-02 -7.558503621154587515e-01 1.483681755784374001e-01 -4.291352987897535387e-01 8.909712564433011073e-01
2.112635358786680087e-02 1.733133000256125711e-01 -7.969770501352337888e-01 9.642293840802919069e-01 -5.931920025198899465e-02 2.583465257316329144e-01
2.174408260333254503e-02 1.020741522531758427e-01 -8.112274344535774784e-01 -9.696246961828791644e-01 5.556164566163222795e-02 -2.382033838626784750e-01
-1.445696398802595421e-02 -6.364737443920653881e-02 -7.065986169961634422e-01 -9.679656184522407170e-01 5.439399629039910061e-02 -2.451200821269674257e-01
4.921569956040054185e-03 5.105297327683962216e-02 -7.564809512546967207e-01 -9.686404066090678056e-01 5.363179355148234295e-02 -2.426095492858252323e-01
2.489357600632275541e-02 1.595374745075006651e-01 -8.103177718160017307e-01 -9.725753247464056228e-01 4.819924008102231816e-02 -2.275391635522016620e-01
-3.944754600045389387e-02 -6.424668627997420778e-02 -6.077696548720420422e-01 -9.631115084211003818e-01 6.225957168989741664e-02 -2.618013905230899274e-01
3.150666073342465318e-02 -3.288324515415792099e-02 -8.868288055668862579e-01 9.682594281279625070e-01 -4.533397889883427484e-02 2.458017701289215706e-01
1.414894813688554430e-02 7.181029476875618045e-02 -7.933315558904618925e-01 9.651982337238305121e-01 -6.742080086516749615e-02 2.526792536539108069e-01
-2.458145075597370846e-02 -1.559520882681439957e-01 -6.931159964951156827e-01 9.688821112373827704e-01 -5.274786314229466117e-02 2.418369646230978387e-01
-1.251564371401351662e-02 -1.950867407561708219e-02 -7.090326914419401438e-01 1.387805154772433214e-01 9.903130778957539571e-01 4.469482353543687697e-03
4.627603764042471923e-02 -1.128664988652379880e-01 -9.642964255568733378e-01 9.704228887465243814e-01 -6.647933878326246770e-02 2.320773890575964782e-01
-2.588132565601848623e-02 -7.553386999337359520e-02 -6.691758518771933062e-01 9.677597752744070414e-01 -5.651390544521502080e-02 2.454530420511394639e-01
1.976467759341517597e-02 -1.623841927432096710e-01 -8.350698275275583171e-01 -9.507543474521795712e-01 1.344971135080973434e-01 -2.792430791600218343e-01
1.340128228685187866e-03 1.869129224779420562e-01 -7.104958961528801131e-01 -9.683728599076265597e-01 5.513005540915504737e-02 -2.433406689908368392e-01
3.012375118651248670e-02 6.648696104585755107e-02 -8.578612350524991159e-01 9.677328702619789613e-01 -5.337595990374006255e-02 2.462602256127978395e-01
1.063274432384630173e-02 2.123357995288982780e-01 -7.413917416181065034e-01 -9.620558686029763162e-01 6.402416659688968392e-02 -2.652346353290730985e-01
6.029087074625386414e-03 -2.171858554628219862e-01 -8.623905049260264244e-01 9.999800900125600522e-01 2.738268641987308231e-03 -5.685196858219863231e-03
1.301085207114076672e-02 -1.998311055754105059e-01 -8.447474307326533483e-01 1.367115655257070961e-01 3.652470743272996367e-01 -9.208173122540965760e-01
7.466625514564772040e-03 -1.124932317530702441e-01 -8.052448968552630149e-01 -9.698257988594137791e-01 6.476907706860123015e-02 -2.350380533496256585e-01
7.222182226405584118e-03 -2.724754465422049229e-02 -7.729993700313766425e-01 -3.222363488731509462e-01 3.321408009203050127e-01 -8.864796804376957606e-01
5.916826414826431048e-04 1.900344328648298220e-01 -7.118198954895900155e-01 9.687870910467959451e-01 -5.481587045408116421e-02 2.417577145975867703e-01
7.569574874923147741e-03 1.842245421014145415e-02 -7.747708875362194769e-01 -9.771281713290196347e-01 -4.785280610846535942e-02 -2.071971180850536720e-01
-1.565989600683668354e-02 -1.710315752179801529e-01 -7.227106174219163348e-01 -9.283280134248127480e-01 2.566340458876634461e-03 -3.717532964042010168e-01
-3.068611752536699357e-03 1.181015657406990910e-01 -7.182576968537316420e-01 7.759070776336597364e-01 6.147346233631175716e-01 -1.416670382149626817e-01
-3.751724323322514626e-02 -2.922640342356961837e-02 -6.070523975063796263e-01 -9.666887499190972566e-01 4.646321613544533019e-02 -2.517022652385231818e-01
-3.716504167382899456e-03 2.322740876810467925e-01 -6.796215179246472005e-01 -9.680035473531143353e-01 6.785569052167102211e-02 -2.415879499801550645e-01
-1.870369180679282151e-02 1.996775753587605104e-02 -6.751534194129346078e-01 9.666083714470689037e-01 -5.860493339881338304e-02 2.494668675992186002e-01
-7.282344095264773123e-03 1.146943463386844997e-01 -6.983510761337480277e-01 9.671551938653335512e-01 -4.321589467306247156e-02 2.504859625346619323e-01
-1.982564661424404337e-02 -8.755702141919662410e-03 -6.723611366322418403e-01 -9.689837002642334163e-01 5.621602983348215204e-02 -2.406456868759448697e-01
-7.778153777772140419e-03 -2.967388723228630773e-02 -7.301577567165479232e-01 9.677950303288086475e-01 -5.126045804880308837e-02 2.464653012322167436e-01
1.950622177437718219e-04 -1.947728754828562947e-01 -8.006710054669081700e-01 9.670895148392898433e-01 -6.123621207333768829e-02 2.469574793741146634e-01
-3.473334622973820590e-02 -2.942602277978725433e-03 -6.119861960768601117e-01 -9.658694532814318112e-01 6.817583820978767584e-02 -2.498964871746322536e-01
-3.464197012680968885e-02 8.782276512624780096e-02 -5.959899511436334008e-01 9.709600367485541339e-01 -5.809305108069745538e-02 2.320814608136156088e-01
3.150939712610758333e-03 -1.221055169239420798e-02 -7.643272422284647094e-01 -9.738650556831541794e-01 9.855921657095957633e-02 -2.046287715551400876e-01
-7.835660487588791759e-03 -8.481249715264441158e-02 -7.427917740906848643e-01 9.666419542005618704e-01 -7.228780758203913470e-02 2.457189558302347865e-01
-1.618629614138362288e-02 1.606101676528874922e-01 -6.520562165075021177e-01 9.666492390386117739e-01 -6.474722798194695872e-02 2.477842713626650095e-01
-2.394933517228835240e-02 -4.504809361485066083e-02 -6.646798278792577230e-01 -9.633337462139156537e-01 7.185936965406330978e-02 -2.585040123448457683e-01
1.001650069212006028e-02 -1.750613866413457120e-01 -8.299469328733640738e-01 -9.676328397463188624e-01 6.045357090318118076e-02 -2.450143938823363676e-01
-3.583472759951657899e-02 5.593580006117575276e-02 -5.937514619791182113e-01 -9.652271999751754761e-01 5.193772615054808445e-02 -2.562009465837183364e-01
4.364845637923880223e-02 -9.555852305008731562e-02 -9.445888744332791020e-01 -9.685938649076313300e-01 5.818250224590790221e-02 -2.417451577502685023e-01
3.522487656211199109e-02 -6.347855749931335945e-02 -9.037826574116518685e-01 -9.663502649993456206e-01 5.219038319138686460e-02 -2.518795927383372102e-01
1.375934891885505738e-02 -1.736661982644331290e-02 -8.078481983437175717e-01 -9.683232003024369039e-01 6.971337565089415211e-02 -2.397711930391225044e-01
-3.951317998932607836e-03 -1.277079838933266598e-01 -7.634344160922865719e-01 -9.678378820397824933e-01 6.155697909563594833e-02 -2.439273916831967703e-01
-1.571102671703298453e-02 5.765860593627280400e-02 -6.731736984262257639e-01 -9.708685555673015610e-01 5.923887959832904032e-02 -2.321745097003466429e-01
-7.920515580063290303e-03 -1.480966968174097231e-01 -7.523914563185910565e-01 -9.685874091528891006e-01 6.144133099522568198e-02 -2.409634695882946764e-01
2.849930888021178638e-02 -2.309101873247208225e-01 -9.168477671080632607e-01 -9.571409346743622870e-02 8.643718985803722221e-01 4.936598355712861763e-01
-3.877172351716338949e-02 -1.551133987645658685e-01 -6.367662793728464665e-01 9.704061035253218614e-01 -6.733329303100429875e-02 2.319013192942274426e-01
1.782544153071653065e-02 -1.753222195629451363e-01 -8.556115223237124034e-01 -7.365512230776708469e-01 4.212834284961428089e-01 5.291621383444989890e-01
3.308313864774947016e-02 2.659545490037569515e-02 -8.791373689422957716e-01 9.686001906267548422e-01 -6.336251319773981983e-02 2.404139401929104025e-01
3.960696436472157383e-02 -1.509494604848768129e-01 -9.465868079549806247e-01 9.680865166178751480e-01 -5.594714596086806241e-02 2.442916560210394994e-01
6.672660820407104627e-03 -2.058753636738012149e-01 -8.398288633316617346e-01 8.716208874150280783e-01 -2.127080127502714302e-01 4.416246482406404050e-01
5.690025198427197881e-03 -1.192254792578807537e-01 -8.274175841313049506e-01 7.173889801920685372e-01 -2.309196691564762427e-01 6.572892494903954663e-01
2.512488786872123236e-02 1.391860089495389474e-01 -8.160134917614009220e-01 -9.657753948623069018e-01 7.041469527525140437e-02 -2.496390541719161194e-01
1.194800026350984097e-02 8.034314078551291205e-03 -7.945621347915962085e-01 -9.656362969076611735e-01 5.300684890966257667e-02 -2.544343059870814994e-01
-2.181864474333377463e-02 -6.509636876751845325e-02 -6.734159214986287223e-01 -7.738796526529574393e-01 -6.223093383259660216e-01 -1.176493546180200356e-01
-1.125297230403540100e-02 1.488011789299282517e-01 -6.694446199023424970e-01 -9.699201014284745126e-01 6.718432085837891532e-02 -2.339685104362891621e-01
3.892368130769680457e-03 -1.501138592910851444e-01 -7.997815777174878127e-01 -9.677933036162119640e-01 6.806177099774206318e-02 -2.423710312811113987e-01
3.892545816676209330e-02 -1.588946577346375122e-01 -9.458255001337367851e-01 9.684066908500271742e-01 -6.806707544518324215e-02 2.399069702139554339e-01
-1.088809330739522706e-02 1.923483211653457814e-01 -6.655202410784449851e-01 9.711070423297829546e-01 -6.879946027144273613e-02 2.285120272630289384e-01
1.041092949253668697e-03 -5.121351123670166670e-03 -7.654952177055315277e-01 5.101089357712819128e-01 2.331583807199805458e-01 -8.279046099318005947e-01
1.890510068244761685e-02 -1.157755732991458258e-01 -8.562635814760911623e-01 9.665851619986237653e-01 -6.646289917829076299e-02 2.475799015205202291e-01
-2.644223814974978187e-02 -2.123217361471397072e-02 -6.491314556030298721e-01 -9.685646367881449725e-01 5.976645244516601285e-02 -2.414757037997165845e-01
-3.904062009298511077e-02 -1.002271026072399929e-01 -6.176983072507836736e-01 -9.714905036561858331e-01 5.310870303210465937e-02 -2.310533855369749368e-01
9.910999474592221622e-03 1.955034795804165282e-01 -7.423238478789747630e-01 -9.666105547273784460e-01 5.377672176325719311e-02 -2.505436083519731461e-01
4.648657450408966857e-02 -3.052323398534147886e-02 -9.408054061204935703e-01 -9.696270143312681888e-01 5.564534682387614617e-02 -2.381744076425527934e-01
1.023124254866937055e-03 -1.254368504968162712e-01 -7.710923907854924098e-01 -8.642749507622753402e-01 3.276379346355617339e-01 -3.816833678228720439e-01
-2.261682944030941889e-02 1.170319012946428594e-01 -6.367072544958631841e-01 9.702323143499508307e-01 -5.420649571625796304e-02 2.360315911341136774e-01
-5.487437492526829147e-05 2.982139687971051972e-02 -7.417712448295872285e-01 -9.672437054073577123e-01 6.718069003837003061e-02 -2.447986299712745506e-01
2.306577345029956969e-02 -1.347446097427844325e-01 -8.668044069398411766e-01 -3.337258825159904463e-01 -4.531918421605524716e-01 -8.265858633790250654e-01
1.147330066208417446e-02 -2.244039519830336449e-01 -8.565810341130259964e-01 3.099454319727590890e-01 4.125684788244646239e-01 -8.565752036334504105e-01
2.204277290331976141e-02 -1.939276347955123381e-01 -8.550607322405318067e-01 -9.357740107225273052e-01 -1.530067013979334589e-01 3.176727092206677594e-01
-1.022553768956965640e-02 2.561518283308198973e-01 -6.532796800352104194e-01 9.671184399420476030e-01 -6.007982493032983790e-02 2.471281808301125094e-01
-3.762598322813821838e-02 -2.449032456389764467e-02 -6.106006098200977839e-01 9.668601609782758732e-01 -5.455969559074989872e-02 2.494086380422845250e-01
2.429966660657960353e-02 1.470020096100196627e-01 -8.159884893710607212e-01 9.666504827938845468e-01 -6.331785380166687904e-02 2.481485311346832423e-01
-2.313452425179564342e-02 -1.342368490792675839e-01 -6.936897578391799657e-01 9.672940023413009181e-01 -7.324328260113717459e-02 2.428533190803804920e-01
-1.191141414148895634e-02 1.354204875020958154e-01 -6.749274012653956323e-01 9.720219362028180710e-01 -4.642647584257940385e-02 2.302562439573858644e-01
-1.126007947858081656e-02 -7.924548321225135042e-03 -7.113027643844422876e-01 9.685390194550753673e-01 -5.297926488750483165e-02 2.431570794465599539e-01
-2.795091382169823807e-02 -1.406165843606612953e-01 -6.712922268984888863e-01 -9.670374089876618839e-01 5.492383736164793695e-02 -2.486403460983375724e-01
1.809650362545396282e-02 2.124899910225662159e-01 -7.757937337871491090e-01 9.690897372167308621e-01 -5.021742184551394178e-02 2.415435608009395274e-01
-8.628194035524247227e-03 -1.843414652133668896e-01 -7.581469954535819955e-01 -9.669852281438702235e-01 4.896272694261304126e-02 -2.500844255884210887e-01
-7.176078963237759317e-03 3.786405745917163779e-02 -7.116296262948289542e-01 -9.700338436376850781e-01 5.207293952597340236e-02 -2.373241478792744996e-01
3.683883179618012080e-03 1.678407807875471891e-01 -7.241809918221741027e-01 -9.693058253292952120e-01 5.194318004101482200e-02 -2.403083915095776402e-01
2.438059926424719637e-02 -1.731476617013901487e-01 -8.914543044255036630e-01 9.696837830198575814e-01 -6.526375581950401294e-02 2.354867366214709878e-01
3.992541942299984714e-02 -1.057169913778356896e-01 -9.322382531934061412e-01 -9.664592689265476544e-01 5.949393283848955494e-02 -2.498338517122379032e-01
2.574279927914905827e-02 1.072166963214026339e-02 -8.535924206622175214e-01 9.682712517531008034e-01 -5.111728255304594237e-02 2.446176740402775940e-01
2.960370404778204373e-02 -1.797649263584874535e-01 -9.087315759312670771e-01 -9.688867705755570547e-01 6.075210354902772780e-02 -2.399325065889077735e-01
-7.498790139717726941e-04 -8.555993088111062128e-02 -7.771447201371609603e-01 9.507543474521795712e-01 -1.344971135080973434e-01 2.792430791600218343e-01
8.040998239822638033e-03 9.192879140406506888e-02 -7.644185715214893984e-01 9.649300977741682717e-01 -5.308131398102679255e-02 2.570841895480578954e-01
2.727412381537341196e-02 -1.990185762337122743e-01 -9.039735243700447453e-01 -9.686369003141606093e-01 5.964037791793229404e-02 -2.412168747653886114e-01
4.758419116318186176e-02 9.148383822285595032e-03 -9.408444848115907755e-01 9.713773884217298260e-01 -5.271326745174201994e-02 2.316188263020533267e-01
1.516938686435069170e-03 -1.301364001007932203e-01 -7.761644243376643049e-01 -5.814825468321657143e-01 6.084418949368105567e-01 -5.400708362939823370e-01
-2.145539176030883746e-02 -2.162947174228855018e-01 -7.148252927016511826e-01 -9.659631487001865136e-01 6.541481676840499304e-02 -2.502720461825037601e-01
2.751769786992328687e-02 1.541590747260490890e-01 -8.218590493457496038e-01 -9.605606021013963769e-01 7.662698287926140994e-02 -2.673043867680147678e-01
2.512562272695300497e-02 -1.345035730716818700e-01 -8.803048590009548979e-01 -9.701496652199020909e-01 5.328596396036607008e-02 -2.365802889475925874e-01
5.991348999589161083e-03 8.601843999414367226e-02 -7.366633594494769177e-01 -9.968847804237479515e-01 6.810264855920183935e-02 3.978396434139797738e-02
4.077412152310246063e-02 4.002782848378794167e-02 -9.062799418439045906e-01 9.686497996429851431e-01 -5.174941853121466789e-02 2.429805822144764926e-01
3.171405459708439428e-02 -1.306800138245031717e-01 -9.107475547909912317e-01 9.507543474521795712e-01 -1.344971135080973434e-01 2.792430791600218343e-01
3.906742193322909618e-02 -9.818872810014037111e-02 -9.322564884667435825e-01 9.650174061380818458e-01 -7.210158939166276537e-02 2.520769062364194846e-01
-9.092851123106001840e-03 1.507014211106040280e-01 -6.824462595918846519e-01 9.671002586899190012e-01 -5.069879108160871978e-02 2.492924431761920911e-01
2.703561712817150603e-02 9.001474207238722991e-02 -8.401952226289941539e-01 9.675572839778820988e-01 -6.150858083796382353e-02 2.450501922150719880e-01
-1.086989889409604657e-02 -6.513500404364400143e-02 -7.263609520230623895e-01 9.699203275665999602e-01 -7.072134127426468742e-02 2.329228414335279829e-01
-8.508261665715064273e-03 2.472279732486249715e-01 -6.571338628769938239e-01 -9.712327743389702617e-01 6.427321147921774558e-02 -2.292942483708972079e-01
-2.076516564367214893e-03 -1.768292951720145667e-01 -7.873045505262737942e-01 9.698084492719624139e-01 -5.278763009015519092e-02 2.380861983193827136e-01
-1.634858831598742096e-02 2.198747637091373053e-01 -6.375614767288545481e-01 9.697705650177511627e-01 -5.459262193032175803e-02 2.378333384030185682e-01
-6.040691746806008686e-04 2.120539709495097153e-02 -7.536198590058276192e-01 7.021247324869996920e-01 3.089873058616479651e-01 -6.415198397917397655e-01
-2.361811867557280301e-02 -1.069086002714243200e-01 -6.855651126325872369e-01 9.677807526136749106e-01 -5.535592767303643136e-02 2.456341510091103741e-01
3.465842487010467599e-02 9.135563683835164206e-02 -8.701006376727986602e-01 9.720066393953096240e-01 -5.609721710286444396e-02 2.281582678860243074e-01
-2.982349152121275670e-03 -5.675121464503594254e-02 -7.589860462060377122e-01 7.196752046218226617e-01 4.619725421902832196e-01 -5.183135827998187617e-01
2.020617832276668316e-02 -1.593136972081706793e-01 -8.397502755711807598e-01 -9.629390721552177901e-01 -1.170413379330417503e-01 2.430013755757188254e-01
1.193362642056847167e-02 -3.266433127405603265e-02 -7.804427874381085761e-01 -9.507543474521795712e-01 1.344971135080973434e-01 -2.792430791600218343e-01
1.546272432511889248e-02 -1.601958264279605693e-01 -8.460441637661582082e-01 -4.367303243015562830e-01 -2.595632423851560455e-01 8.613324253956552434e-01
-1.560649801471524802e-02 9.165403005082314869e-02 -6.706606474953318298e-01 9.644758210854742497e-01 -6.434313382428596961e-02 2.562154399546803241e-01
2.019875844566839870e-02 2.237914247529564082e-01 -7.816032716526944979e-01 9.661515953845744020e-01 -5.525079206209783378e-02 2.519889773628056773e-01
1.063648997776931414e-02 -1.252948107200907088e-02 -7.714566442034838101e-01 -8.869396512906415619e-01 2.004296137222480456e-01 -4.161322204679488990e-01
2.329100138438046017e-02 -1.873763681873702736e-01 -8.855224413395035299e-01 -9.699265917090842404e-01 5.782751977220155354e-02 -2.364283922302803653e-01
6.175451163253572323e-03 1.993727996000334290e-01 -7.318064756371165380e-01 9.741205471643057390e-01 -3.117071759518227556e-02 2.238694842021018427e-01
4.499269206830647932e-02 -1.065239448997074567e-01 -9.576229895051057150e-01 9.665268791440871921e-01 -5.309779429747167601e-02 2.510107888771606066e-01
3.890847651263357188e-02 3.980137260454198744e-02 -8.941456417372224408e-01 -9.650121180899051687e-01 6.592401492316900258e-02 -2.537826554279167257e-01
1.201292671435863664e-02 -2.446096908481343590e-01 -8.593117695989717086e-01 9.674075451004251480e-01 -5.904024168162633895e-02 2.462455919299752494e-01
2.095858910748835211e-03 -2.175547766621060142e-01 -8.085620508928362815e-01 -9.665361438307851216e-01 4.644642878026369187e-02 -2.522907289661591168e-01
2.655874915167456829e-02 1.049607378014897757e-01 -8.347828775380448096e-01 9.668635617512573166e-01 -5.611418414887881650e-02 2.490502987249333111e-01
3.711732619810167999e-02 -1.813476000214940820e-01 -9.440353397805484326e-01 9.664469520558094384e-01 -5.820349653641099935e-02 2.501852150966801247e-01
