-8.521515833324025402e-02 2.001927983880632533e-01 -6.187242083271032866e-01 9.786572189841320074e-03 5.009781241819115660e-01 -8.654046117833820162e-01
-5.137211153610007908e-02 1.630319713236428811e-02 -7.241336863904459520e-01 1.087052420080059784e-02 5.062419133198425847e-01 -8.623230003321636916e-01
-6.145938353377465579e-02 1.341021773439051712e-01 -6.564038007917558648e-01 1.694269819990581322e-02 5.013550745361803340e-01 -8.650757390046998063e-01
1.753976106757970388e-01 -1.082130769650213181e-01 -7.918606604560085582e-01 1.127026393730856842e-02 4.981244027363561644e-01 -8.670323295871564806e-01
2.809974154726030751e-02 1.583991797184586825e-01 -6.422061106972372091e-01 -9.955490781692557037e-03 -4.869618468345954243e-01 8.733665026383455876e-01
1.115294321666064487e-01 -1.181175910385825895e-01 -7.986598212093423133e-01 1.068781292250258960e-02 4.953695502568685183e-01 -8.686165893725731335e-01
4.799628220144650653e-02 -2.593065313237465346e-03 -7.332464567001460987e-01 2.086160765051132959e-02 4.876425458935408908e-01 -8.727940998658858529e-01
-3.290902341931931097e-02 1.473333072258940259e-02 -7.239298043798434446e-01 -1.095262217757156653e-01 1.783698004434771112e-01 -9.778487720671795724e-01
-1.139048971575659513e-01 -8.694677575939560588e-02 -7.836391375191262831e-01 3.252592131515880669e-01 7.161068254612238393e-01 -6.175738488536069992e-01
-1.562611812645591514e-01 -3.600241970021705873e-02 -7.575346501081429151e-01 -1.733360534676339770e-02 -5.103810787758412681e-01 8.597736333205913128e-01
6.660828255293703426e-02 -6.791068830603921858e-02 -7.685544565836890385e-01 4.558394704247479279e-01 -6.264704335410418989e-02 -8.878545630686786039e-01
1.157767466374776538e-01 -3.430234197609419167e-02 -7.517066094047232250e-01 -1.732949310672633747e-02 -5.008189902008267635e-01 8.653785459109140099e-01
-1.921161660958219802e-02 -1.762792439904821706e-01 -8.377953922550811505e-01 6.188301843616983433e-01 4.976590996040841097e-01 6.077702061668690536e-01
1.538376076506424994e-01 2.555727256241953696e-02 -7.151173082588944130e-01 1.925222035768086107e-02 5.072919593884279710e-01 -8.615591795989109292e-01
-4.308006665565195653e-02 -1.294275583476098557e-01 -8.079254604637565729e-01 1.550055874772409033e-02 5.068326091934187705e-01 -8.619051217719381208e-01
-7.418604261138980749e-02 -5.763751257298311420e-02 -7.696578185180302789e-01 -4.864538510248370140e-01 -7.764553931280866461e-01 4.005991429164746376e-01
-4.336635347787707456e-02 -1.838803510858309787e-02 -7.482403571397554520e-01 3.370612743697865565e-01 5.211380165128812192e-02 9.400392805610122693e-01
-1.426539833623228781e-01 -3.198677742970913729e-02 -7.549932400728673887e-01 -1.654573933556385476e-02 -5.081882437535660824e-01 8.610870730771106318e-01
-3.994740297780199206e-02 1.863467269999796727e-01 -6.291443698686305375e-01 5.579551583536487280e-01 -3.747922260607435274e-01 7.404166587476183059e-01
-1.559709259404530937e-02 -1.698771758230661899e-02 -7.362986648612873664e-01 8.287459774241127952e-02 4.500734331486294093e-01 -8.891376191697433207e-01
-5.899206587607797037e-02 -1.458365994823676570e-01 -8.203523831611178041e-01 6.841700875460284825e-01 8.489677676723206279e-02 7.243644307955728889e-01
-9.114828664456835206e-02 -1.410735997118954532e-01 -8.155160288407026226e-01 3.213292223916404400e-02 5.118062766480260262e-01 -8.584997440256205703e-01
-1.470620461251260364e-02 2.422639241057427881e-02 -7.259531347939491841e-01 -2.234787916438594202e-01 -4.654722474533017906e-01 8.563835685813760978e-01
-1.285760666201997138e-01 -6.799961608443831629e-02 -7.754419776268386411e-01 -1.751857022172797693e-02 -4.976106016848634850e-01 8.672236094504197634e-01
-9.693973689374937863e-02 5.821492004995458547e-02 -7.022164775111755519e-01 -2.767242894552243357e-02 -5.100294248854205792e-01 8.597117089043874172e-01
2.852255625508606091e-02 -3.398883046915357475e-02 -7.516320404822098844e-01 8.287459774241127952e-02 4.500734331486294093e-01 -8.891376191697433207e-01
-1.431508562615451674e-01 6.403019726270507694e-02 -6.982518653753048143e-01 3.282808056018931414e-02 4.953340993632913136e-01 -8.680820509230049442e-01
-5.138702534605416559e-03 -8.564780975173498512e-02 -7.881749429316312616e-01 -8.081609314409216038e-01 -1.259547897854375043e-01 5.753358148270001360e-01
-9.694978064731175904e-02 -3.755413965964404105e-02 -7.559345747377201885e-01 1.360068359417187893e-02 5.041446749900496682e-01 -8.635121122977651442e-01
-4.892268251777010662e-02 -5.468461437914404893e-02 -7.663622234151171719e-01 -1.611056454297317767e-02 -4.898664474666852287e-01 8.716486180545895968e-01
-9.051937405583049268e-02 -1.482020845632784911e-01 -8.195924389543166599e-01 1.668737071987087123e-02 5.043697547612869814e-01 -8.633265211613139201e-01
7.975312138797903405e-02 6.307434351331255018e-02 -6.948295912266376773e-01 2.507849486732288691e-02 5.100675442170173879e-01 -8.597686720459233323e-01
-8.418435383655947790e-02 -7.511002552501200302e-02 -7.773911685193911625e-01 1.231899380971584849e-02 4.974630979771457739e-01 -8.673976645936375407e-01
-8.484718524702091272e-03 -5.437208653862339591e-02 -7.716024434832045031e-01 -5.201472726571810812e-01 -3.857240783603440026e-01 7.620129592863621459e-01
1.117572576301660570e-01 8.794783256131005755e-02 -6.799058320583695192e-01 8.393653293341492641e-03 4.901934265332137386e-01 -8.715732620772723704e-01
-2.100946846268353374e-02 -2.254971678859715445e-01 -8.656066092553791336e-01 8.766718842649618981e-01 9.944678138482111740e-02 4.706981463863233461e-01
-1.824485868723780407e-02 1.271462683455906184e-01 -6.596374989777872289e-01 7.589495377264995207e-03 4.891990760259306015e-01 -8.721391308588865021e-01
-3.694507326919412027e-02 3.320821061340722274e-02 -7.155486606447983844e-01 -1.064367704898554201e-02 -5.060694431172647612e-01 8.624270582964440601e-01
1.611600734293671400e-01 -1.260485877956128986e-01 -8.024042956210383215e-01 1.262440230741855574e-02 5.009094651838794654e-01 -8.654076104100194566e-01
1.533009120556313443e-01 2.215060510305991506e-02 -7.184728896416837651e-01 -6.084434610405143641e-03 -4.947271552684261997e-01 8.690270545244734857e-01
1.158282392110524667e-01 3.331613294184242874e-02 -7.127169120087564202e-01 -2.830627064101308085e-02 -4.961082858988754007e-01 8.677991263563689106e-01
-1.434237695154764736e-01 -1.097111235164662663e-01 -7.997964659989226233e-01 -2.286417319445254587e-02 -5.067451046947663018e-01 8.617926829882138762e-01
8.331021567220509016e-02 2.519578971423593224e-03 -7.311013794980724123e-01 -1.309378795476499185e-02 -4.982919915069523586e-01 8.669104013201310854e-01
-3.544956185304463329e-03 -1.419701936315699298e-01 -8.194513780633873035e-01 1.995429065635757615e-01 -8.476129455854222172e-01 4.916654583313374016e-01
3.260732264892723248e-02 -1.759804737900302063e-01 -8.348419177473677122e-01 -2.824485639387441707e-03 -5.050537488845991962e-01 8.630832711960561010e-01
-7.937125140110206159e-03 -3.347048339710116671e-02 -7.553897949502141884e-01 -8.768841067163526404e-01 -3.823147785737068260e-01 2.913926448495254284e-01
1.388162370782999033e-01 -8.270612668610999307e-02 -7.777806507433139283e-01 6.057519256983685124e-03 4.998288350575091910e-01 -8.661030204920799891e-01
7.742128996926433970e-02 -1.087614457478649072e-01 -7.952771852024995702e-01 -1.420763491724908942e-02 -4.966554710615755930e-01 8.678314848947704663e-01
-1.446455468618646767e-01 -1.034760089982129094e-01 -7.961833745317590250e-01 -2.454369678893142739e-02 -4.941677593365924048e-01 8.690200415296440717e-01
2.234718487577077098e-02 -1.383611552503999087e-01 -8.118976344284990487e-01 1.914043174489249086e-02 4.910911389433021967e-01 -8.708978913305445158e-01
-3.358374378237421326e-02 -7.089723153577193182e-02 -7.740329354314076094e-01 2.335596093801659695e-02 5.016665613856912120e-01 -8.647457200102919295e-01
8.113298458455452111e-02 -1.564186609298099107e-01 -8.212604663831163387e-01 1.612484815214852360e-02 4.913085901840087422e-01 -8.708362983267703417e-01
4.715975731997786718e-02 -6.722897671619676441e-02 -7.704939765726812606e-01 3.032316201672873371e-02 4.357050723165591943e-01 -8.995785656644609274e-01
-7.622689470346051370e-03 -5.761841607455744224e-02 -7.608664452408387957e-01 -6.465381404964489764e-01 3.445379857873286933e-01 -6.806482272312215365e-01
-8.697605234339719771e-02 -7.521217899825834163e-02 -7.789003169197301624e-01 -1.292901937058899345e-02 -4.975456321445239638e-01 8.673414462551760629e-01
6.084251657354577264e-02 1.566114353951560678e-01 -6.412845951875902895e-01 6.208874546635415395e-03 4.966130062766778153e-01 -8.679498671430879719e-01
-8.325537977455334249e-02 -2.348750246368543071e-01 -8.694467389850119021e-01 8.083835487153089722e-03 4.823130737432463344e-01 -8.759616147412843112e-01
3.747098138265177181e-02 9.747487171782184823e-03 -7.276858458854754685e-01 -1.194850915585104860e-02 -5.021181319612216809e-01 8.647164938202147599e-01
2.835063055069265633e-02 -8.727594409852926227e-02 -7.823914581272338742e-01 1.948273670528721108e-02 4.981490539402176898e-01 -8.668725067903227943e-01
-6.768421692429460457e-02 2.374553845222020926e-02 -7.200956616204976513e-01 1.390151132740919185e-02 4.934351268959653591e-01 -8.696715032286479463e-01
8.739242704837248132e-02 1.096701932202592683e-01 -6.678474648718817352e-01 2.726735724201335975e-02 5.062215195590500372e-01 -8.619723106714985983e-01
-1.012483352677301940e-01 -1.919503954882379737e-01 -8.464546020945079574e-01 -1.954776232674001676e-02 -4.909069965986142536e-01 8.709926553528137827e-01
-1.270983381159157197e-02 -2.288576367418617974e-01 -8.555571143408913226e-01 3.530321608173768166e-01 4.225473087137047723e-01 -8.347586868834719898e-01
7.443039605594804764e-02 -4.519281229907767816e-02 -7.587020518498729382e-01 -2.015167287658411847e-03 -4.990011538776678579e-01 8.665989773416296060e-01
-1.712475759834578481e-03 -2.369366890945835136e-01 -8.660875214820776824e-01 -9.694166309655655178e-01 1.108386932679213122e-01 -2.189661610432807048e-01
1.290634729460257979e-01 8.516771953476713619e-02 -6.811952384092929691e-01 5.782286953292851972e-03 4.882999884295718407e-01 -8.726566830416583320e-01
2.353972248574908235e-02 3.625956316358387027e-02 -7.112706630033600597e-01 2.158949791359444925e-02 5.043221862794222687e-01 -8.632456348028539894e-01
-8.047316603157439463e-03 -1.936774936096707922e-01 -8.551326419336676699e-01 -8.287459774241127952e-02 -4.500734331486294093e-01 8.891376191697433207e-01
-1.271746586892730929e-02 -1.011556795332073794e-01 -8.002552179364775808e-01 5.497536053207578710e-02 -5.908690570735085634e-01 8.048922083903103930e-01
6.657691974091900500e-02 -6.967661670627710475e-03 -7.368523642713026289e-01 -1.350725779494529356e-02 -5.016218040456371652e-01 8.649815718805001774e-01
1.196021079793535558e-01 -7.276283278155019907e-02 -7.738086792196869901e-01 -1.782308829941242623e-02 -5.007707784649061411e-01 8.653964206992786901e-01
-3.839056186081830219e-02 1.485012249629463488e-01 -6.518057131533978588e-01 5.576671107632525937e-01 -4.032640679909633152e-01 7.255242828743541095e-01
4.447356969549901007e-02 -3.514123304546479254e-02 -7.520366760039678411e-01 -1.509097973926858960e-01 7.280949846609808818e-01 -6.686583031432603574e-01
-2.994685591147688494e-02 2.628343319581614643e-02 -7.194146119779608606e-01 -1.099979053452077721e-02 -5.050051120840951535e-01 8.630462568003681723e-01
-1.195021828607265441e-01 1.516668953150416554e-01 -6.473352141636492529e-01 2.277358307742365431e-02 4.988392114481879358e-01 -8.663952937519718844e-01
5.596069367455614590e-02 -1.587820230454457804e-01 -8.230651797802506220e-01 1.730210257984921007e-02 5.039487764153645077e-01 -8.635602283545560365e-01
1.539583800883556619e-01 -1.372746041913460724e-01 -8.089676290587674012e-01 2.648147720745016448e-02 4.961331686622072468e-01 -8.678425031756101804e-01
-6.815068067145006736e-02 -9.316715883753848293e-02 -7.888806065394735612e-01 -1.842181031696324064e-02 -5.105342509690252717e-01 8.596600580997943997e-01
4.439482176892877580e-02 -1.079549096006595377e-01 -7.939911539916021388e-01 1.708759219118243661e-02 4.959327265818934682e-01 -8.681928039889277304e-01
-1.634712241823045031e-01 2.173365917403322772e-02 -7.242084863035740394e-01 9.963006465684870472e-01 -7.651934143337382754e-02 -3.911281163272977562e-02
-8.778209766943050052e-02 3.230680340319323773e-02 -7.144966168782025395e-01 8.287459774241127952e-02 4.500734331486294093e-01 -8.891376191697433207e-01
-1.461225965251696651e-02 4.279494134452858228e-02 -7.031422619127797313e-01 -2.362222225978559409e-01 4.388455674575877929e-01 -8.669565326322634657e-01
-9.210960292821510076e-02 5.596834500215677050e-02 -7.033605727660401374e-01 -9.093547770817302783e-03 -4.965050466126937345e-01 8.679862015476205173e-01
-1.077516602757244441e-03 -2.089428187931278158e-01 -8.596228158338197201e-01 -8.274249727407942956e-01 -2.310251059074065749e-01 5.118547791369809641e-01
7.406487348678041961e-03 -1.981154164481320201e-01 -8.434511889700346821e-01 -8.192237079864007898e-02 4.501089896501906940e-01 -8.892078624252117702e-01
-1.068347100786021797e-01 2.962063315823449186e-02 -7.174129085037334042e-01 1.643199261927268465e-02 5.097303173270235632e-01 -8.601773033603314911e-01
2.525730867523630699e-02 -1.119950728534307577e-01 -7.988832657023804407e-01 7.418772429344547836e-01 -6.346073827280473978e-01 2.165447441131501394e-01
3.992785424417839846e-02 -1.855583123309549887e-01 -8.388025416216835506e-01 1.768817802520929530e-02 4.966956009105357173e-01 -8.677445525004866544e-01
-7.104501496119669524e-02 8.780257050976032068e-03 -7.288238168545493334e-01 9.444182231215283649e-03 5.075910904872622531e-01 -8.615463378599755861e-01
-4.987411080597943004e-03 -2.494787500985218009e-01 -8.750805565408591447e-01 -6.075799922643656537e-01 7.702508937039107551e-01 1.938043181881153321e-01
-1.048127772456060314e-01 -4.098776491981875880e-02 -7.594802611041671092e-01 -1.470726873313720623e-02 -5.034204360892843289e-01 8.639164084412830347e-01
-4.273313620255501932e-02 1.930280186877729176e-01 -6.219367835826494773e-01 9.509373493633623831e-01 3.060463529005465477e-01 4.531873191139065143e-02
-1.266170488005961547e-01 1.310323712807030805e-01 -6.600269145789247061e-01 9.887043295401657383e-01 1.248471139978758332e-01 8.292735902542851256e-02
8.255129967217200715e-02 9.153039194875535814e-03 -7.258804231664202078e-01 1.262068687721323162e-02 4.993924826111176829e-01 -8.662839410806665308e-01
-8.403530398235221910e-02 -1.754687599023689870e-01 -8.351973231930152064e-01 3.602661642608913362e-02 4.302894471949930688e-01 -9.019717703684048127e-01
1.176843532609357368e-01 -7.222754183914094350e-02 -7.721266659967981338e-01 1.664372311823652043e-02 5.015606650890486184e-01 -8.649623608667572627e-01
-5.576708480566349574e-02 1.159468051299592135e-02 -7.282871425440695656e-01 -1.448976270642709369e-02 -4.915470699272471156e-01 8.707304547462717537e-01
7.442815659351616035e-03 1.714048736608909940e-01 -6.336702096794396555e-01 2.298493418972474486e-02 4.961460029186615661e-01 -8.679348112549289951e-01
1.297959603073056134e-01 -2.041858739482571225e-02 -7.434902540960617312e-01 -1.911012755436626923e-02 -5.003079557560629054e-01 8.656366168503070169e-01
-6.977181887668493232e-02 1.690556973098761642e-02 -7.255140977365402977e-01 -1.363737250862816046e-02 -4.924272101429367776e-01 8.702467838388745491e-01
-1.524569467874427146e-02 9.921521542236991231e-02 -6.770899822067053542e-01 -1.304741117762095275e-02 -4.997413150898709078e-01 8.660764302610990395e-01
5.166542623959626684e-02 9.029937699489001823e-02 -6.810576665460572610e-01 -1.875689402094405517e-02 -4.954816719714953410e-01 8.684158518054688747e-01
-3.638016281054601286e-02 -8.651895047937688266e-02 -7.845246016872103878e-01 -1.890218913920774929e-02 -3.937727089176672468e-01 9.190134715864547443e-01
-4.134646739593472037e-02 -4.998902498876497957e-02 -7.621072602500739146e-01 2.443727143030777205e-02 5.069089514653618567e-01 -8.616531405904168661e-01
4.432009926445820702e-02 1.693874369051553697e-01 -6.356108349275003677e-01 -1.284261119910789714e-02 -5.039690564142340623e-01 8.636262255828819345e-01
1.591188546864993197e-02 -1.899517793977503199e-01 -8.410000975030962334e-01 -8.254006824582832413e-01 5.090109877689034112e-01 -2.441751988387134142e-01
7.216993347301810247e-02 -1.620189168674858737e-01 -8.260642748321523898e-01 -1.648767304937752767e-02 -5.065647403682357330e-01 8.620442682676329182e-01
-2.383999641044062812e-03 -2.133330498713113532e-01 -8.487714414655816997e-01 -7.128739459333623962e-01 3.167225146834385940e-01 -6.256976793164541473e-01
2.786759570893829543e-02 -9.315183730241960447e-02 -7.871802175093360887e-01 -1.901447081962067201e-02 -4.971100079159291307e-01 8.674791582103137388e-01
4.781584431017896208e-02 1.639392707903763319e-02 -7.236847248702243940e-01 -1.043074595319584512e-02 -5.006534456444041714e-01 8.655849622672782129e-01
-4.387057749851225319e-02 -7.556628261045966743e-02 -7.783656541035345322e-01 -1.280846131883761965e-02 -4.964857936460941312e-01 8.679503442169094196e-01
1.131520165908730807e-01 -1.698126755290801371e-01 -8.284392672631124555e-01 1.638893970649107912e-02 4.929293047593639732e-01 -8.699149976662932104e-01
-1.248957689215264288e-01 -4.722162185895503045e-02 -7.620561908492716752e-01 1.641892651710120249e-02 5.029163923314500240e-01 -8.641791024876412930e-01
-1.401120851636558362e-01 -1.364813903017347008e-01 -8.137381712230227215e-01 1.322413813895138152e-02 5.020242328695936340e-01 -8.647524453750782270e-01
1.442218617099901845e-01 9.926560332309017180e-04 -7.308438155028000871e-01 -8.703264204211661956e-03 -4.967254178782994911e-01 8.678641094237163900e-01
-4.906436174879313938e-02 -1.648709237523619531e-01 -8.285128531215184555e-01 2.152674147615570022e-02 5.080778506964283014e-01 -8.610420994545600060e-01
1.297925802562403808e-01 -8.083584764726607641e-02 -7.768784361566063446e-01 1.741528373355329812e-02 5.014904301308634738e-01 -8.649878937763469944e-01
-1.405589810838709097e-01 -3.987892957812051720e-02 -7.594830913404242434e-01 -1.772802078856702823e-02 -5.063048468474899977e-01 8.621723257781240823e-01
-8.279519564353901226e-03 8.559187583501103036e-02 -6.833840280336136441e-01 2.134318606516602199e-02 4.880871241289156948e-01 -8.725339120447708208e-01
-5.448851497668450589e-02 2.303997556604986952e-01 -6.007748408492518122e-01 2.174006868736354930e-02 4.906933076445832431e-01 -8.710611041977979196e-01
3.498317007154463226e-02 -1.282047107208866277e-01 -8.073008944269066678e-01 -1.805950747167802198e-02 -4.921019999599877126e-01 8.703502029788127148e-01
1.730871110136817936e-01 -1.373205418902969377e-01 -8.100756237335204890e-01 -2.584246874297880733e-02 -5.002704253149325986e-01 8.654834882101937188e-01
1.505936282881573107e-01 -4.696379702695559211e-02 -7.569877347015041558e-01 1.974910907890804063e-02 5.015716057217731727e-01 -8.648906850141647729e-01
1.401807778297727847e-01 -1.082679963037226356e-01 -7.925236984529469009e-01 2.090926995430980248e-02 4.971678737082954602e-01 -8.674023909249674036e-01
-9.866394470816289286e-02 2.055073155262112650e-01 -6.159391903890076847e-01 1.766652598843466634e-02 5.024957766691058314e-01 -8.643991487092129722e-01
1.403966362195690210e-01 4.485394785080956681e-02 -7.056439931360536377e-01 -1.692412479924103319e-02 -4.895035436936533424e-01 8.718370574316827160e-01
-1.131649341930577868e-01 4.328910256303415693e-02 -7.110467994257637647e-01 -1.839478957382525634e-02 -4.980261573509712214e-01 8.669668842065192393e-01
-8.801642377340782031e-03 8.814390367496725831e-02 -6.833689573680153950e-01 -2.193848333662827554e-02 -4.882122418456830149e-01 8.724491445699861236e-01
1.038833919900079561e-01 1.312356812735341882e-01 -6.560380993398615690e-01 -8.671129491538088763e-01 -4.229742593014197971e-01 -2.630739618019979353e-01
-5.287452941618068364e-02 4.206097123329387288e-02 -7.093065507883937748e-01 1.190688836061193356e-02 4.917019329474488498e-01 -8.706821665483394090e-01
4.259959021420386960e-02 1.519728702343675908e-01 -6.456168994064882538e-01 -1.701835705358233086e-02 -5.055624355262050562e-01 8.626221648601479774e-01
-1.266707168439158704e-02 1.389334096013104120e-02 -7.201141935764249213e-01 -5.519074008300414169e-01 5.075463754292709462e-01 -6.616607119193623765e-01
-1.070521024426028950e-01 -1.814333627495565149e-01 -8.405110811736105081e-01 -2.114030571900623462e-02 -4.990569411274373701e-01 8.663112933505093816e-01
7.935572261050381770e-02 1.488372448187116615e-01 -6.454462793977296942e-01 1.198041732408879588e-02 4.813451684647340190e-01 -8.764492560304887325e-01
-1.167985697508748116e-01 6.173562643523530097e-02 -6.991068411845489106e-01 3.577917795413630697e-02 4.860160454066946856e-01 -8.732171860609271308e-01
-7.231533136063884870e-02 2.209379368783939701e-01 -6.065348385017295119e-01 2.964418115746990379e-02 4.973010419073575217e-01 -8.670714481756156555e-01
-2.790093089443051316e-02 -2.253124994345935550e-01 -8.643626326703698348e-01 -1.990564727584353752e-02 -5.123856329254140585e-01 8.585247395259804071e-01
5.568069790951348658e-02 -1.337718087722506444e-01 -8.101301191209757668e-01 -1.589756680861567281e-02 -5.005545683255083755e-01 8.655590052087895891e-01
-1.487801138431994220e-02 -2.243757709841556203e-01 -8.542674165858652469e-01 6.160496910960137074e-01 4.727250625314761145e-01 -6.300903057142821506e-01
-1.742416860821728933e-02 -2.098013006003849601e-01 -8.561751405064341736e-01 9.830276722116599863e-01 -1.834531734547266979e-01 -1.236452795244647124e-03
5.711477583259505497e-02 -1.558684230706753604e-01 -8.227824507010824684e-01 -3.001218343719945156e-02 -4.913577884838881138e-01 8.704405738139475712e-01
-1.518172301461375717e-01 -5.363558514928120496e-02 -7.675940830283674021e-01 -2.507687075757822001e-02 -5.016080764172488049e-01 8.647314543984133683e-01
1.945433439950031151e-02 7.679961331664622755e-03 -7.278355618747008871e-01 1.252051713625662761e-02 5.032184430104725825e-01 -8.640685362080696708e-01
8.437756714243099809e-03 1.253777506808994024e-01 -6.601783889442858211e-01 1.462355510070841545e-02 5.102339496474961322e-01 -8.599113141849762387e-01
-8.300830888934659924e-02 3.909769852634758375e-02 -7.129585662564831283e-01 -1.237619155987697067e-03 -5.087952600547125392e-01 8.608866659698488633e-01
-1.750693568283771262e-01 -2.364577240529829386e-02 -7.504059409867928077e-01 9.489188422207102125e-01 -2.727534464695621219e-01 -1.586145904936950846e-01
1.068424584046035325e-01 -1.181772698300629088e-01 -8.002061187852201884e-01 -2.387587190885379768e-02 -4.998424264245318049e-01 8.657872091262542869e-01
-9.672881711409504757e-02 1.641949786391634636e-01 -6.411363635358461321e-01 -2.560926469733000588e-02 -5.035361808882704571e-01 8.635945113872116607e-01
-1.693318088900224588e-02 -8.550013597394824985e-03 -7.316257902344462938e-01 8.287459774241127952e-02 4.500734331486294093e-01 -8.891376191697433207e-01
-1.206899525143233509e-01 7.510217734835684944e-02 -6.914786296778406838e-01 5.098745165057781692e-03 4.918917490099511958e-01 -8.706414359847988171e-01
1.605979079802106330e-02 1.867878309484456434e-01 -6.261179487896646467e-01 -6.831770214379817747e-03 -5.055830509287715380e-01 8.627508942500684563e-01
1.126047418469847960e-01 1.929908861367070350e-02 -7.208795013845712418e-01 -1.458689261328600245e-02 -4.953947270533562985e-01 8.685455008067330951e-01
9.876643483690905612e-02 -1.370527029117736550e-01 -8.112470573392180917e-01 -5.437223339157897656e-03 -5.049292134920171371e-01 8.631436299739996265e-01
-7.184655088936829637e-02 1.054740244610639643e-01 -6.744777790896742120e-01 2.765247481461698825e-03 -4.893023077787750363e-01 8.721098583370853197e-01
-3.853782654557082188e-02 1.838524373065182627e-01 -6.311977986610238789e-01 4.257422836544183520e-01 -3.252410186470440778e-01 8.443706459240239992e-01
-4.070001850666637999e-02 3.349881291717494991e-02 -7.140106469853879645e-01 1.181608036842061484e-02 5.064181757133155992e-01 -8.622070583983432179e-01
3.590132581990090888e-02 -1.769112214797361471e-01 -8.339201960331055208e-01 1.913104700946894818e-02 4.979006194713518907e-01 -8.670230540016599097e-01
-2.513795973906073414e-02 -2.153709509640852338e-01 -8.571681378321589495e-01 3.114165912266485346e-03 4.954728644203404420e-01 -8.686178346049392429e-01
-7.521640778486780865e-02 -2.150541626870773881e-01 -8.592400334666322470e-01 -1.510229913281746321e-02 -5.003037784349856354e-01 8.657182277419018801e-01
-1.103168682722348581e-01 -8.642463380540961471e-02 -7.871230039532925993e-01 7.620490419147814276e-02 -7.461628375381744727e-01 6.613878079116269904e-01
1.006626770561726975e-02 -2.051371180251863879e-01 -8.520058972738655534e-01 -1.216345488958554648e-02 -4.973248518651591232e-01 8.674791306322281459e-01
-8.087208495573205980e-02 1.296359446794042580e-01 -6.616104359523312661e-01 3.929672398946012501e-01 4.818084815653250058e-02 9.182893630226455217e-01
-1.181426887688360183e-01 -1.540048616118103730e-01 -8.234440166979509756e-01 2.170826559861751062e-02 5.011324636964128443e-01 -8.650982632246254633e-01
-1.230156372642401130e-01 1.808001639567444196e-02 -7.243500983536879101e-01 1.613782105617871457e-02 4.928868009892762858e-01 -8.699437752763772291e-01
-3.241000019242316899e-02 -5.997611253462487892e-03 -7.380281001900061977e-01 -1.279040856250507861e-02 -5.050290375645740681e-01 8.630075762502923409e-01
5.823919203623114521e-02 5.771869509640072116e-02 -6.982869490121976774e-01 -1.077849496847922966e-04 5.470059332305134969e-01 -8.371287221168672854e-01
1.574883122196671717e-02 1.051549705218238207e-01 -6.731189988809876956e-01 -1.215707093763829065e-02 -4.952112863639289708e-01 8.686875085345704406e-01
4.066373284023754725e-02 -8.604696013236869112e-02 -7.814184706209007514e-01 1.754585360709696312e-02 4.986665578737075610e-01 -8.666162974924868090e-01
-8.055058576937802750e-02 2.217856917338429379e-01 -6.062478741404766502e-01 1.485022594408429326e-02 5.003456829117530758e-01 -8.656983703236256211e-01
3.294339211958779989e-02 -1.382753053085376826e-01 -8.131094369844240610e-01 -1.223338814090796541e-02 -5.040240497234145245e-01 8.636029767867887674e-01
4.752064801260871829e-02 -1.760234428522505223e-01 -8.345661639441921409e-01 -1.717463087741990038e-02 -5.059774157993699450e-01 8.623757224987351755e-01
-6.599905864413224688e-02 -1.804714389614540671e-01 -8.391886000077311003e-01 -1.850270978565288910e-02 -4.962118591160450398e-01 8.680042860511610892e-01
-1.073148824866427403e-01 -3.434362104644472086e-02 -7.556771493529772510e-01 -1.648182776183015549e-02 -4.918137378022423012e-01 8.705444254388264858e-01
4.397263983802364440e-02 1.213101141329616522e-01 -6.632848442848582327e-01 -2.003600299421480838e-02 -5.103202379647165943e-01 8.597510182068123230e-01
-7.334263789586747961e-02 1.818479122372993473e-01 -6.304949025490426129e-01 -1.072852220510038708e-02 -4.883200849524227394e-01 8.725986439614454859e-01
5.317283324670071983e-03 -7.363579801288221149e-02 -7.769539335948001391e-01 -6.678441384626563337e-01 3.391244844873424480e-01 6.625547454680753567e-01
-5.456671576418044289e-02 2.241306260118232641e-01 -6.043978107578924508e-01 1.718463414646038967e-02 4.925382196519857980e-01 -8.701211355502774802e-01
-1.155571430030509217e-01 5.534409375392027736e-02 -7.050937284777620828e-01 -4.743628327828667279e-01 -7.161362632763995650e-01 5.119851123760623679e-01
-3.126779118605288454e-02 2.045249610045856703e-01 -6.166498932045236803e-01 -3.484961361239995864e-02 -5.047838365224880386e-01 8.625420469847856486e-01
-6.194795317656450612e-02 2.029542039725366898e-01 -6.166935862960458703e-01 2.556810566131674858e-02 5.009857608260073203e-01 -8.650777649566990801e-01
-4.914428492426857475e-02 -3.485360919156389042e-02 -7.549866412935009041e-01 -2.648141024603774610e-02 -5.059654386937809667e-01 8.621471508732082567e-01
-4.560813111953661335e-04 1.675497543013911295e-01 -6.374312293495280057e-01 -1.357379690021844054e-02 -5.094680820788743958e-01 8.603824878393242503e-01
6.339485072470216198e-02 -1.812902238911838770e-01 -8.359484458706967214e-01 1.404392413662286163e-02 5.007456888854717736e-01 -8.654805158161904544e-01
-1.114987040840991345e-01 -1.592686338180065997e-01 -8.263437004836239330e-01 1.574684761809638789e-02 4.850618957171849432e-01 -8.743380319495103192e-01
4.560690415664248737e-02 5.318898331834898130e-02 -7.011087381252232298e-01 1.972255494514822335e-02 5.008551071749984818e-01 -8.653064095701338276e-01
3.380609841784931041e-02 -4.730005330007863718e-03 -7.330898449351016533e-01 3.297163844291536305e-01 -5.872070052105975851e-03 -9.440617695004227539e-01
-5.864296597084130147e-02 -6.743382018727368810e-02 -7.724853725695328688e-01 1.069710056010031093e-02 5.010145953917363171e-01 -8.653727215738094003e-01
-7.711125442187719004e-02 -2.112938882373355254e-01 -8.556914402042778978e-01 1.445937943550212705e-02 4.994562523189627345e-01 -8.662184357111295530e-01
9.337423750813700352e-02 -1.242244281223806313e-01 -8.025276411144045552e-01 1.765143198945172409e-02 5.111700631075146717e-01 -8.592983146331550914e-01
1.933109998864638093e-02 1.829591825806742289e-01 -6.268026491615651397e-01 8.235863353816975235e-03 5.048631884636257672e-01 -8.631600845087534779e-01
1.061477200885612149e-01 1.199442872042914970e-01 -6.615939807882297297e-01 5.247368557137621278e-03 5.057545908292958581e-01 -8.626614393713892825e-01
2.696068923383171390e-02 -1.098075292675285974e-01 -7.985778768463367427e-01 7.798886211754630926e-01 -5.787269383545139423e-01 2.384300094028553307e-01
-6.379290459437533811e-02 3.809118432518424774e-02 -7.118005129272183540e-01 9.952057334712596445e-03 5.077480587388466526e-01 -8.614481211319339193e-01
-1.033576891383602633e-02 -1.410406894243711740e-01 -8.238931964334865743e-01 -3.217623695628215041e-01 -4.276097180089896144e-01 8.447596738703797570e-01
2.847592198114006629e-02 -5.630198499189507932e-02 -7.659487087032302854e-01 -5.264351094127160506e-03 -4.993605333811295122e-01 8.663782916883775442e-01
4.801081237090637499e-02 1.780871133486707503e-01 -6.304853243769157345e-01 -1.549990737256133969e-02 -5.030538481452914157e-01 8.641160678622147318e-01
1.530978427711640333e-01 -1.078562729271053400e-01 -7.934363244484921029e-01 -2.302000150575390577e-02 -4.976397577277693607e-01 8.670782842738720131e-01
4.442265495357899940e-02 5.732000804197320137e-02 -7.001484053021745924e-01 -2.159192942212118452e-02 -4.994454557474118928e-01 8.660762237338524017e-01
1.648164881328604281e-01 -1.119332253160535418e-01 -7.941446199940193074e-01 1.610737480408967054e-02 5.068522769688591501e-01 -8.618824292259374964e-01
4.702759629679879351e-03 -1.858492833178269354e-01 -8.409970006727025549e-01 -1.904554523807006072e-02 -4.920412931941164358e-01 8.703635062423321633e-01
1.157530961743024611e-01 -1.310268707504930186e-01 -8.060522290634434261e-01 2.219477772880612196e-02 4.959899542445713183e-01 -8.680445594150317801e-01
-1.066232306284875114e-01 1.314946735672869460e-01 -6.600882983223812506e-01 -1.692374779823935596e-02 -5.051029190649934941e-01 8.628931729434902165e-01
1.662676449933082057e-01 -1.187640227406275006e-01 -7.980684683582512928e-01 9.294534276462099870e-03 5.020080407672589118e-01 -8.648130079026341566e-01
-4.016484761788961799e-02 2.050108377923205438e-01 -6.177076606527319713e-01 -8.080385261364934069e-01 -4.486652449353601413e-01 3.818026168928868591e-01
-6.770647630161691355e-02 1.034311787471381139e-01 -6.756311297786080639e-01 1.534540352311582938e-04 -4.895026262459472588e-01 8.720018092585472003e-01
-5.327877037369763841e-02 1.811989810391672340e-01 -6.291547060939753910e-01 4.080418127773884941e-03 4.948290991449076914e-01 -8.689807321381419758e-01
-2.572076419927145363e-02 4.777915742071547206e-02 -7.069173894173473860e-01 -1.246031038298025043e-02 -4.996922524403344390e-01 8.661133837531114210e-01
5.765677236310196713e-02 -1.750766736210089547e-01 -8.324384571031174795e-01 1.395186016558990806e-02 5.011154003118362121e-01 -8.652679938425018591e-01
-2.003470263513531732e-02 -3.264732498442299985e-02 -7.556564921030216597e-01 6.164911446415444196e-01 3.809144921901156944e-01 6.890883965197096561e-01
1.442021996773548143e-01 -7.270137979497300063e-02 -7.733415580755084173e-01 -2.207608455458835717e-02 -5.007101025666323979e-01 8.653334846626766774e-01
1.727995086670400596e-02 -1.522519625233973994e-01 -8.200278572842074620e-01 1.564692149092682116e-02 5.000820975947116720e-01 -8.658366298056057175e-01
6.689100405233540381e-02 -1.788147293760468659e-01 -8.358644389359785043e-01 -1.346414975688667651e-02 -5.016156465127963315e-01 8.649858148229214727e-01
6.945797075433014084e-03 -1.231895632836660787e-01 -8.048898375276326567e-01 -2.177934477000834784e-02 -4.924287689997802198e-01 8.700802075686757675e-01
-1.345043469333812303e-01 -8.296462136566398748e-02 -7.844164297933271524e-01 8.044418621052387697e-02 -2.732638169170593656e-01 9.585695693421767416e-01
-2.752270818591280501e-03 5.533341735188137406e-02 -6.986182151058054624e-01 -2.888328731105164193e-01 5.873015974078668044e-01 -7.560769835756753210e-01
4.119397914832838292e-02 -8.913786067065085361e-02 -7.831861583118678860e-01 1.842203417034827748e-02 4.967508352040420627e-01 -8.676976641556164438e-01
-4.676688894814966073e-03 -2.454931321958046808e-01 -8.668336756553628453e-01 -5.271881698841268671e-01 4.968888994232839029e-01 -6.893286989268201381e-01
3.090776859338824345e-02 5.124617025416746546e-02 -7.025117213311282693e-01 5.514540964489752020e-03 5.003494492834855700e-01 -8.658059935341538838e-01
-9.173696113677429209e-02 4.907738361170028291e-02 -7.073552613070674955e-01 -2.835469286847790843e-02 -5.100769635616800857e-01 8.596612720345324643e-01
-7.494616992000670275e-02 1.714294643985750932e-01 -6.351189785824706835e-01 3.118013763765844007e-02 5.013427215288540628e-01 -8.646868072238284020e-01
-5.973528721311325423e-02 1.925279693900703304e-01 -6.240869824847345981e-01 -2.289272486746059612e-02 -5.004910311438095505e-01 8.654389931663288849e-01
-8.163197462070247157e-02 -1.233709337477552903e-01 -8.065908218113559958e-01 -1.525817035621431644e-02 -5.070176330436075851e-01 8.618006196448445566e-01
-1.590988156652406726e-01 3.708135157342975358e-02 -7.154457257236899181e-01 -7.030872041563250747e-03 -5.043411015371760397e-01 8.634758943587265145e-01
-4.251232707772063801e-03 -9.428064273164760145e-02 -7.889756200873222491e-01 -9.934872261406010319e-01 -5.145998577011840630e-02 1.016612087277813242e-01
-1.215249071421398153e-02 -1.077516698638888992e-01 -8.040217622942403830e-01 -8.287459774241127952e-02 -4.500734331486294093e-01 8.891376191697433207e-01
8.769042729130773015e-04 2.095411761202722878e-01 -6.118566805373544248e-01 1.465795186983736252e-02 5.028196051503316388e-01 -8.642670820547581068e-01
7.025402878349733260e-02 -3.090014952807365947e-02 -7.505678495467571487e-01 -1.516928677596861459e-02 -5.020093066755295652e-01 8.647291765344005121e-01
1.594722287756786538e-01 -9.451447522132465362e-02 -7.856214270644880093e-01 -1.710875197298775130e-02 -4.984627828469057054e-01 8.667422596841838356e-01
-4.767285643921950061e-02 -1.034873454449956737e-01 -7.930877584641039535e-01 1.255661257315045416e-02 4.921372101097055141e-01 -8.704270778796597829e-01
-4.275619778132974669e-02 -2.417515663039675744e-01 -8.740859137409057178e-01 -1.702091794335477970e-02 -4.879055179402915221e-01 8.727304818303192047e-01
8.863066929901107505e-02 4.808787326294542558e-02 -7.033116499303476710e-01 2.307759140737933659e-02 4.980477586912124277e-01 -8.668424625256273552e-01
8.564953515046463961e-02 -5.168031229533018994e-02 -7.608219549443954177e-01 1.542540209078715335e-02 5.011435399988186656e-01 -8.652266808691174704e-01
7.557955791004684898e-02 9.513339953755681200e-02 -6.764134845447973277e-01 1.224077198028931772e-02 5.070764641380600679e-01 -8.618141464483911607e-01
6.062734234034829889e-02 -8.805420470851323123e-02 -7.836970367093786249e-01 -1.597081028075445636e-02 -4.982761058280946731e-01 8.668713027778490732e-01
-8.701653868494563238e-02 -1.185058267061608710e-02 -7.409634696714962887e-01 1.282281923360374838e-02 5.068390677589581506e-01 -8.619453200175359875e-01
-6.543241275968426918e-02 -2.147684872819040358e-02 -7.475645637906379593e-01 -1.298322984970819507e-02 -5.036733869403177133e-01 8.637965935512471605e-01
1.072456100733413659e-01 7.769194599828398162e-02 -6.859034213071323327e-01 1.388582206802246692e-02 5.081690089319786940e-01 -8.611454245982994582e-01
7.053701248538928048e-02 -1.483449626469280358e-01 -8.168076977734740618e-01 2.597105895537808393e-02 4.943674952942331835e-01 -8.688649398457981565e-01
3.106135065356532138e-02 -4.150528935748010878e-03 -7.333030296672010673e-01 -6.985700699980856854e-01 2.233535950164471928e-01 -6.797889590866403875e-01
3.886747535184720964e-02 -6.025280298350879638e-02 -7.680446623148341478e-01 -4.707726813767893967e-03 -4.983379185366068609e-01 8.669701011320106732e-01
-2.928000984948844754e-02 -2.181418926702579641e-01 -8.572060337270320796e-01 -2.688174875530649488e-01 -1.813590751032440329e-01 -9.459630247865682406e-01
8.284157985806811508e-03 2.268979092955376031e-01 -6.016830073810036650e-01 1.205674369313839735e-02 4.929461632138703031e-01 -8.699762727248611105e-01
-1.246155284065758179e-01 -1.053684248871597090e-01 -7.969746487118429812e-01 -1.272552692130712350e-02 -4.940732060700279704e-01 8.693271697170512624e-01
-7.344829139349121072e-02 6.411357348862793681e-02 -6.983251559031821154e-01 -7.709292245222328956e-03 -4.944453595728608430e-01 8.691745240226164126e-01
3.362148344965054658e-02 1.500183205971617091e-02 -7.261734816407879878e-01 -3.537265598738658090e-01 -3.870282636101112228e-01 8.515201958889423439e-01
1.168923861646225387e-03 -7.480916573096851874e-02 -7.724836662307146273e-01 2.731460106781873898e-01 2.906137978073684014e-01 -9.170250145849727641e-01
-1.469312685643437422e-01 5.177374952464478160e-03 -7.336276122279014045e-01 -2.272709131649775643e-02 -5.024577640633205444e-01 8.643029993311255321e-01
1.716154212473764915e-02 -6.275295515960865878e-02 -7.698758041666847740e-01 -1.568471682156357544e-02 -4.933038238872019532e-01 8.697156587048963106e-01
-7.690874002278209887e-02 -2.233043680747449355e-01 -8.626238634996388210e-01 1.506921781641717278e-02 5.002601853326619219e-01 -8.657439954428397533e-01
5.281174137277989955e-02 -1.548877873486556034e-01 -8.190663958006060286e-01 -3.377553395642410305e-01 8.736059541581610022e-01 -3.503340797799341932e-01
-4.596000718031892016e-03 -1.320063643250213303e-01 -8.117438585679465080e-01 -9.714828380080644532e-01 -1.070852329240308959e-01 2.115510537563045634e-01
-8.387859363057382014e-03 -4.276701152899513303e-02 -7.635448986936771432e-01 -6.506038368481746881e-01 -5.064215577816102432e-01 5.659079901295623882e-01
-4.386062580269629169e-02 -5.252352725896255320e-02 -7.636459003944502388e-01 1.743377608674076887e-02 4.900487119332253561e-01 -8.715206959011035925e-01
1.649634332647818280e-01 -9.900553915055529397e-02 -7.881266826465307407e-01 -1.231974225279753275e-02 -4.943067114295595643e-01 8.692002640280998005e-01
-1.207014189569468182e-01 -9.956824307433723154e-02 -7.935267598927677746e-01 -1.316314286014141216e-02 -4.936270686878393432e-01 8.695740616696743253e-01
-7.831057504802358543e-03 1.096484371739193803e-01 -6.709440451671844219e-01 -8.898944697111603463e-03 -4.945337483812770607e-01 8.691128698248813400e-01
-1.256405855379713610e-02 9.414417361153984420e-02 -6.799829629237313933e-01 -7.792364168888388926e-03 -4.997662630832043762e-01 8.661252573066487992e-01
-1.591471896601428515e-01 7.426329749753965252e-03 -7.325633682849802542e-01 4.361844541722730180e-03 -4.938357181878037516e-01 8.695442816522515050e-01
1.200921166660943867e-01 -1.581393904389055138e-01 -8.215753492657820178e-01 2.710915005277397469e-02 4.990556517942012493e-01 -8.661458020424049886e-01
4.441168975296556735e-03 1.204268265486133603e-03 -7.332411150396612731e-01 -1.050513807916935577e-02 -4.870367197351999633e-01 8.733183129326407279e-01
-3.287313539807901197e-02 1.425656935212545051e-01 -6.508805442995958535e-01 -9.965599836683356472e-01 3.742840906519116773e-02 -7.394128174311827284e-02
7.131834671350519017e-02 -1.772738275993639701e-01 -8.334842962116244536e-01 1.477113672810305249e-02 5.032723650946022698e-01 -8.640015856766959379e-01
-2.144420961927271177e-02 5.747066792564164799e-03 -7.265022913997454257e-01 6.181455156874231527e-01 2.532100031595936884e-01 -7.441645085163950402e-01
2.602203097685131319e-02 2.166046697389268083e-01 -6.087198072325867848e-01 -7.703340643950079385e-03 -5.043745629754972093e-01 8.634506116543083643e-01
7.749020826158314890e-02 8.452228831605780590e-02 -6.822997055482781237e-01 8.124996806639324387e-02 6.170460697976787312e-01 -7.827212725079395472e-01
-9.821625836678576915e-02 -2.787701596850130498e-02 -7.504164081175964673e-01 1.405458179911619858e-02 5.052294375785495451e-01 -8.628706068319365041e-01
9.968230318725077033e-02 1.259686999319251932e-01 -6.595884380186762819e-01 -2.178381433401001266e-02 -5.027053401414679490e-01 8.641833176047268861e-01
1.374562029561128829e-01 -1.574592424788029132e-01 -8.222981329943034323e-01 -2.068981001796735969e-02 -4.983075822094969465e-01 8.667534166497099513e-01
4.551690206684309847e-02 1.104008402947644907e-01 -6.681690104115064477e-01 1.570379375449824921e-02 4.910489253786445296e-01 -8.709904383781686965e-01
-1.743412283765752857e-01 -7.385490424672208620e-02 -7.782911743286813344e-01 1.170805222797124782e-02 4.928614819862785490e-01 -8.700290116354256753e-01
-4.340333722348593132e-02 1.973760297786424645e-01 -6.184761017915381132e-01 7.594174746544206656e-01 3.799021536920551556e-01 -5.281661223607966305e-01
1.133310482821334869e-02 -5.786928103084220537e-02 -7.634224314103331688e-01 4.613991567219438150e-01 2.312024757237373662e-01 -8.565373508467063468e-01
8.633878502835028168e-02 -1.636859052441060614e-01 -8.267682771641984285e-01 -1.816084499753661818e-02 -5.052062366883373068e-01 8.628075348072610229e-01
-1.812775953075175250e-01 -4.308175107723077185e-02 -7.620568781517023105e-01 -2.712340556309238149e-02 -4.990406728647576728e-01 8.661539861348845903e-01
3.813786185465949108e-02 1.589970377713197935e-01 -6.416845883456459010e-01 -1.459613990175965756e-02 -5.052970531142412236e-01 8.628220215166227947e-01
1.777189668490463947e-01 -1.334967273698717816e-01 -8.066741938723005489e-01 -8.308153344195423617e-01 4.987151322262169950e-01 2.470406787999318288e-01
1.587917613320767585e-01 -1.860871213627644793e-02 -7.405194846276597076e-01 6.209909362227402155e-03 4.980697861793558778e-01 -8.671147127808197519e-01
8.084404220326578405e-02 1.621794043689933351e-01 -6.384853323572681205e-01 -8.670910737284156511e-01 -4.231289420893247222e-01 -2.628972579295418832e-01
-2.653251762797599264e-02 1.508477533220015654e-01 -6.461044456555999904e-01 -3.278385638264898812e-03 5.034257386397014145e-01 -8.640322782527729562e-01
1.374491770619604425e-01 -1.310176603119527217e-01 -8.056890484618710602e-01 1.281489712416411866e-02 4.907613120923279282e-01 -8.711998123077814293e-01
1.778167187251869855e-02 -8.958288286877581774e-02 -7.852969690767580557e-01 -8.300373894869412725e-03 -4.939997481122697098e-01 8.694224247500286218e-01
1.495523634029091893e-02 1.430950334643468422e-02 -7.240349844111968469e-01 1.282878354838347737e-02 5.045738089077274058e-01 -8.632732439251298295e-01
-3.716616697314406581e-02 -1.282063416643708653e-01 -8.071317784138265505e-01 1.290450221901678733e-02 4.875450142790566099e-01 -8.730024815967671881e-01
-1.943117078609947132e-02 -1.250495373461212208e-02 -7.462254202327722741e-01 7.223633854955864297e-01 -4.016219841138240487e-01 5.629306539635497986e-01
2.687576958158502307e-03 1.149456936304592419e-01 -6.677222554414996569e-01 -9.496869411294024677e-03 -4.929929351093540468e-01 8.699814799199170334e-01
-5.239385381438525779e-02 2.310448081865352360e-02 -7.216308758414961000e-01 -1.418452216681817361e-02 -4.918702534304069118e-01 8.705529582519412335e-01
1.676469527089856359e-02 -1.825990042540201128e-02 -7.442592537577807921e-01 -1.649988325599537412e-02 -5.042593714212041389e-01 8.633946028244736670e-01
8.891793594470864814e-02 -4.633342442629222874e-02 -7.577236182864367509e-01 8.287459774241127952e-02 4.500734331486294093e-01 -8.891376191697433207e-01
-2.724427883648037479e-02 5.607372391619766527e-02 -7.022067896177458524e-01 -3.032911950923585648e-02 -4.922167908150855142e-01 8.699441219696197880e-01
7.464176133518553302e-02 -1.653821928340159508e-01 -8.279918971602305833e-01 -1.627767628092730359e-02 -5.054597616306131247e-01 8.626966249077464566e-01
3.537845749774039955e-02 -9.846974244303173529e-02 -7.881284922353448685e-01 7.822813029343884672e-01 -5.237684472561487947e-01 -3.371981268307379098e-01
-2.396758955754157983e-02 -1.083911385806295702e-01 -7.916047541227286821e-01 2.331643959725340498e-01 6.943801678533539912e-01 -6.807867117847636873e-01
4.232854340236651136e-02 -5.410603642349613024e-02 -7.644550844652994170e-01 -1.744103518917119663e-02 -5.014499930737404965e-01 8.650108176999149467e-01
1.506263325273578778e-02 -2.203496206582166439e-01 -8.592830269958355860e-01 1.326125426613681928e-02 4.996236356376608789e-01 -8.661410750261729907e-01
-1.250345483423389581e-01 -8.392876471437742125e-02 -7.831884355842499978e-01 1.343050359392421698e-02 4.944478486639589110e-01 -8.691035303833460901e-01
5.161008474060761742e-02 -7.111990947145289954e-02 -7.714735606861167216e-01 2.407798776568415844e-01 6.022253132287994637e-01 -7.611502628404134274e-01
1.428055444234673510e-01 -1.092427252095850843e-01 -7.930191109037204589e-01 2.090926995430980248e-02 4.971678737082954602e-01 -8.674023909249674036e-01
-1.217524867673904915e-01 1.264755233634735215e-02 -7.289025379424728390e-01 -1.714963218071832718e-02 -5.055361295943702205e-01 8.626349817801327591e-01
1.054508160799272481e-01 1.254731777779903405e-02 -7.234577341032512043e-01 1.532438394347916504e-02 4.967005989021655021e-01 -8.677866548334230989e-01
-6.186723035698857287e-02 -4.842233830858683891e-02 -7.615972286858563312e-01 1.333372899513814158e-02 5.044572305504838594e-01 -8.633337212320737475e-01
-5.076603758678557149e-02 -5.321270412037280156e-02 -7.641667128488108807e-01 1.864253580155730838e-02 4.879838314862621762e-01 -8.726535601639833217e-01
2.658824123235691006e-02 -1.166992439041105029e-01 -8.044427555355344595e-01 -2.776067911682393308e-01 -4.338757396226769480e-01 8.571384439308206149e-01
-8.672319913426293492e-02 6.573466664044776142e-02 -6.962240069589080704e-01 2.650711174607171122e-02 5.104016130756626746e-01 -8.595275250954110824e-01
-1.016776677705408111e-01 1.672790784283774979e-01 -6.379943599839846824e-01 1.241275657395666740e-02 5.071811185460808336e-01 -8.617501009367980469e-01
1.230568897665510059e-01 -9.244933592866658861e-03 -7.386063478664822712e-01 1.118184194633323192e-01 -6.118290026759777289e-01 7.830465583560408671e-01
-8.115128146747024873e-02 -2.051510910353192829e-01 -8.522612300992890022e-01 2.015577168512018916e-02 5.047445835637911493e-01 -8.630334004143709326e-01
-9.303784497992928504e-02 -1.533591121522588918e-01 -8.240667257910082588e-01 -1.682679044511738858e-02 -5.031945653315450517e-01 8.640093104499010357e-01
-4.136127113255896881e-02 -4.254532770922694190e-02 -7.578607415064264607e-01 1.309036437834010420e-02 5.030314934568979046e-01 -8.641689412093939149e-01
-1.773457743519921137e-02 3.934771261446841362e-02 -7.054345065948781635e-01 5.192800981365862656e-01 3.859623211026129153e-01 -7.624836171147159058e-01
-4.619068213304589748e-02 -1.805547083969124417e-02 -7.401118977374464558e-01 8.287459774241127952e-02 4.500734331486294093e-01 -8.891376191697433207e-01
-6.886520929825250270e-02 -1.484434180926645919e-01 -8.207512329982871169e-01 -1.526099085822318034e-02 -5.065096799479974488e-01 8.620992090687721321e-01
-4.480869202509890625e-02 1.114794586665187638e-02 -7.283732652813013075e-01 -1.199681353659453990e-02 -5.063069022079329518e-01 8.622699097391574030e-01
