-2.371722162202210063e-02 -1.433119170883028759e-01 -8.094317383377790387e-01 -9.034149830066766640e-01 1.356549003555586885e-01 -4.067420761226573367e-01
-4.107066618683456738e-02 7.349442163508711212e-02 -6.948458492214644178e-01 8.984872791214143506e-01 -1.601424216053737581e-01 4.087481058786262555e-01
-3.888815571657838754e-02 1.084958762704976154e-01 -6.839246222153534394e-01 -8.931442416896191450e-01 1.624200546674538226e-01 -4.194199439446060773e-01
2.384399554336378430e-02 -2.251072547153311898e-01 -9.370373159845615252e-01 -7.855480582911912313e-01 -6.147879645327879450e-01 7.035628458475275127e-02
1.482573047357127298e-02 -5.137005790816263906e-02 -8.606929946500967432e-01 -9.012427973535301895e-01 1.450177308104023122e-01 -4.083274151572307553e-01
-1.310815475332172825e-02 2.534124209897637425e-01 -6.906430651422257316e-01 8.924740224058399507e-01 -1.510002250681636571e-01 4.250753478621223658e-01
4.255963847731521893e-02 1.361304352221378300e-01 -8.561144387987272841e-01 8.971401350953741582e-01 -1.506937958334914895e-01 4.152480679044131540e-01
-2.740285413907844053e-02 -4.344181475629602801e-02 -7.647860009243189205e-01 -9.061730759464866614e-01 1.456415347473040134e-01 -3.970376553755738391e-01
-1.510382369141515663e-02 -3.687736884247620056e-02 -7.924522892470784452e-01 8.976092934369069853e-01 -1.633026647486931215e-01 4.094261789647466454e-01
4.865999784746675820e-03 1.058182694421805625e-01 -7.914394754221786288e-01 3.382866698867669775e-01 -3.315704606998269854e-01 8.806947022483024856e-01
-4.597840049621834679e-02 -2.076771332874612908e-01 -7.868924399858998608e-01 9.034195222930976321e-01 -1.511818861899882904e-01 4.012196456154017987e-01
-5.529736587963846040e-02 -1.785300582302723205e-01 -7.573350187528139488e-01 7.853412171350492299e-01 5.232982536986596767e-01 3.307538515947663904e-01
5.805138578565158941e-03 -1.383245709164316328e-01 -8.932911139684783786e-01 9.499801088205498401e-01 -1.429744685419994388e-01 2.776618342344316370e-01
5.346837187939240676e-02 1.099403513434681484e-01 -8.867628358941482825e-01 -8.968384423744709677e-01 1.491826173028171776e-01 -4.164436996449986106e-01
6.113416330973400759e-02 -8.089937781074528142e-03 -9.498499166010402339e-01 8.991766156307501312e-01 -1.507409625386291752e-01 4.108023565119344189e-01
1.447968814517782560e-02 -4.929917307802119536e-02 -8.591883847692953768e-01 -8.994706182360207025e-01 1.618785146082593329e-01 -4.058915537903373116e-01
6.005692949852714513e-02 -1.499546241558628312e-01 -9.962932758304534619e-01 -9.004747080709394336e-01 1.481427019032419412e-01 -4.088997921219374443e-01
-2.527746580982208682e-02 1.834372964704798770e-01 -6.894093617626380066e-01 8.976759914860461542e-01 -1.387216023861586323e-01 4.182512777517371494e-01
2.719844138515279883e-02 -6.849587159206413367e-02 -8.942021326216753607e-01 -8.441012499048851092e-01 1.627406687149720865e-01 -5.108899633533763307e-01
-5.834672150674423408e-02 7.309154847677840072e-02 -6.569316329485157535e-01 9.026537189653728310e-01 -1.562010402962339950e-01 4.010205713530866078e-01
2.779392281031058468e-02 2.476688229148261422e-01 -7.797578295575544605e-01 -9.027707286114362573e-01 1.491947986417314076e-01 -4.034178028057636145e-01
5.465589491629495311e-02 1.335343578825965993e-01 -8.837656965222114858e-01 8.952596439708727649e-01 -1.589820435875651528e-01 4.162149441020442375e-01
1.979480245177233158e-02 -1.659616963066937179e-01 -9.194021700019634480e-01 1.055586544809296867e-01 1.242730329898343034e-01 9.866172427723343130e-01
7.431418201156301216e-03 -3.006454840774567400e-02 -8.461511690736881475e-01 1.283605433261136575e-01 -4.540089509947748403e-01 8.817025821293985599e-01
2.725480484493584057e-02 1.319804031144078127e-01 -8.240223046250206851e-01 8.988091393279907804e-01 -1.587825082000206001e-01 4.085709805531801408e-01
-1.102668230317248137e-03 -1.524672571035912971e-01 -8.656277861847967436e-01 9.004349883600207827e-01 -1.463000143274359177e-01 4.096500183630916725e-01
-1.732634079522244255e-02 -7.726825883600564604e-02 -7.992981950643720523e-01 -8.993435602361400383e-01 1.480575455993640710e-01 -4.114123525769209921e-01
-4.484440604339003794e-02 -2.093479022062528228e-01 -7.900687920841339418e-01 9.028302576772131438e-01 -1.489429733771762410e-01 4.033776351064383148e-01
-3.321908062824083761e-03 7.044737718288261730e-02 -7.719000714131701857e-01 -8.703983811159593520e-01 2.253950121459233624e-01 -4.377256522645848746e-01
-3.073810919175589546e-02 -2.202169544604291596e-01 -8.220424087570198379e-01 -8.988056081088130478e-01 1.444462176688789679e-01 -4.138644331581318170e-01
-4.540346552320905643e-02 1.254831412167329852e-01 -6.662639639949765602e-01 9.017194677856851248e-01 -1.476974121840945176e-01 4.063095812929130024e-01
1.064994485634741285e-02 1.424041953053847842e-01 -7.805649205107314526e-01 -8.978629797772920140e-01 1.383370567559110698e-01 -4.179771863075232297e-01
5.678474656548896521e-02 -1.677103758397681110e-01 -9.986796686052681338e-01 8.995131257687306592e-01 -1.541642578259283247e-01 4.087903107691625015e-01
-2.006103018411349668e-03 -2.575305422685190970e-02 -8.142194844803996023e-01 -9.045998015093358324e-01 1.418847762207222918e-01 -4.019551086701919629e-01
-5.959932854477281022e-02 -5.030282370355810412e-02 -6.993259006937267985e-01 8.989489787824644917e-01 -1.516155999810380739e-01 4.109786410366773612e-01
8.767040437348470189e-03 -1.853136172288822325e-01 -9.173327187880939704e-01 7.019777563895958084e-01 -3.260418200752515094e-01 6.331855660833138888e-01
-4.338952718878694853e-02 -1.417368444284634044e-01 -7.685555359731688352e-01 9.012649241618064799e-01 -1.462915274344775418e-01 4.078238902718928638e-01
2.411524799568596708e-02 7.307432152753666477e-02 -8.386098615996758765e-01 9.031451279140482180e-01 -1.529321114442198926e-01 4.011740859207258980e-01
7.200970045657582863e-02 -7.957181927654786990e-03 -9.737313081816603155e-01 9.037765009190261711e-01 -1.504543111165429214e-01 4.006888277117395258e-01
3.314401203465121987e-02 9.720623489981229659e-02 -8.466856446486616949e-01 -8.961691292729996317e-01 1.564640607208828693e-01 -4.152106567042876395e-01
-9.923328017373210866e-03 2.553987332497282270e-01 -6.969543278982192058e-01 9.006259682192190308e-01 -1.989558958164856506e-01 3.863798867553205896e-01
3.928742873317361828e-02 -1.495713082226793056e-01 -9.535227281307162572e-01 8.983285690170299542e-01 -1.573744544230233910e-01 4.101695541881078544e-01
9.837504934139073773e-03 1.130148713067323923e-01 -7.925038401763301321e-01 9.031670212522455721e-01 -1.420631494161798403e-01 4.051017073529831203e-01
-5.458238538037359783e-02 -1.296012587811824768e-01 -7.364279437168647080e-01 -9.030479752045678099e-01 1.626754895308654969e-01 -3.975437580755404321e-01
-1.560173949421196984e-02 -3.100478537672264959e-02 -7.861874704697616734e-01 -9.005669204396496985e-01 1.454494332137736268e-01 -4.096628909086563741e-01
-5.342746936396349129e-03 8.018825033795156168e-03 -7.975809106320435049e-01 9.001704744052339002e-01 -1.446504073094223852e-01 4.108155019887567150e-01
1.191529807064905036e-02 1.176691997950106844e-01 -7.924697285994353191e-01 -8.954162103610617818e-01 1.631372538906471492e-01 -4.142656715389936850e-01
4.176187836972518330e-02 -5.135636561422247080e-03 -9.060966943768794524e-01 8.701931641697799868e-01 -2.060370081575027545e-01 4.475629657396729688e-01
-6.528458590108621173e-02 -1.186637470192363486e-01 -7.088477497385204940e-01 -8.989351169036594591e-01 1.466584960872056309e-01 -4.128037561879051021e-01
-4.262025783438482679e-02 -1.811082832530304942e-01 -7.815826098548269707e-01 -8.973140875110523496e-01 1.548339018333776962e-01 -4.133447606989348322e-01
6.528303439097306315e-02 -1.000606660909513085e-01 -9.926154848257532359e-01 8.965220342522091102e-01 -1.490970887237936526e-01 4.171550074425215970e-01
1.298776743626083550e-02 -8.444251364457062980e-02 -8.551970975354697968e-01 -4.935170307989106275e-01 3.981617548776452686e-01 -7.732452116011977461e-01
-1.333142576704031933e-02 -1.838315574255220686e-01 -8.500487341283754494e-01 8.837188527848518493e-01 -1.683866693462073572e-01 4.366771333824526202e-01
4.163637512982112932e-03 -9.257962810028254330e-02 -8.715470701619919547e-01 7.429712026151685800e-01 -1.225979705736621184e-01 6.579996426258828413e-01
-6.515712696551388683e-02 -8.859599193261145922e-02 -6.981747263328801356e-01 -9.038493979339163875e-01 1.453860036199795258e-01 -4.023918187611524866e-01
3.882506515472586295e-02 2.872826215477872550e-02 -8.873041472445131195e-01 9.002064830264583373e-01 -1.582027990987823485e-01 4.057094554905580908e-01
-2.243285074364265511e-02 -1.067532371324481089e-01 -7.989373497401138779e-01 -9.117138903718664533e-01 1.205863652704567274e-01 -3.927298188498758447e-01
-2.206684117497129463e-02 7.255414208717680946e-02 -7.340397527277079393e-01 -8.997029747656718479e-01 1.535823768362064301e-01 -4.085914961463862349e-01
-2.346538636258074795e-02 -1.948210942107592991e-01 -8.288487623486184841e-01 -9.049419960221557480e-01 1.429391706160755005e-01 -4.008096522528182826e-01
2.919260283547025700e-02 -2.292297174653118441e-01 -9.603954666667346984e-01 9.007414779237261637e-01 -1.354046165501509857e-01 4.127110124102434385e-01
-4.164779871416344342e-02 -7.245172344665017083e-02 -7.506237235311384870e-01 9.808423168201075848e-01 1.916256857699045746e-01 3.504206169986706643e-02
-5.404456432874504140e-02 -1.320102840961416002e-01 -7.415314687560038420e-01 8.977014313420662583e-01 -1.495154317375868569e-01 4.144602222635227484e-01
2.491409279393832360e-02 4.906573244022045116e-02 -8.461378754721811113e-01 -9.016043395027601992e-01 1.548933412851456193e-01 -4.038782834163218149e-01
2.140167682919963399e-02 1.396290523296440655e-01 -8.052486998192573964e-01 -9.070486055185241758e-01 1.535384472214393614e-01 -3.920315962415915068e-01
2.064232793960081927e-02 -1.785054468566845409e-01 -9.012805952970472934e-01 -7.249985057893564289e-01 3.153072213673825397e-01 -6.123385687320218596e-01
6.856316174698826038e-02 -1.467833093991474935e-01 -1.016946426354414568e+00 -3.844581050441621684e-01 1.913812115101478917e-01 9.030864838689370844e-01
4.761582273250907459e-03 5.311127722308506272e-02 -7.954747700996609439e-01 -4.587551244521786975e-02 9.342280990616562419e-02 -9.945690604212082953e-01
-3.063974474039249385e-02 5.202299761436680187e-02 -7.256635410988345747e-01 8.980986553012517692e-01 -1.538353761102159989e-01 4.120115076100566709e-01
1.774520214863061288e-02 -1.475255700311252360e-01 -9.052987089311587132e-01 9.029622440302397246e-01 -1.520285047593623595e-01 4.019285006024159723e-01
-1.312165151478560630e-02 -9.582956718208773816e-02 -8.153996823717996056e-01 -9.050358383829136821e-01 1.492208740916719512e-01 -3.983004669566102551e-01
6.005302840761430477e-02 -1.973237643613332676e-02 -9.534312618292798414e-01 8.534958326749700896e-01 -4.665952211929417365e-02 5.190065053562031849e-01
-2.029408088992342915e-02 -2.152813406084060632e-01 -8.432682209945799867e-01 -8.994704817839921374e-01 1.513520898292101124e-01 -4.099334059376032458e-01
1.170655445198780578e-02 -5.756782908180871274e-05 -8.315312124770740665e-01 -6.533088772570392333e-01 -3.465934798659289773e-01 6.730976679587983291e-01
4.784288591466900886e-02 -2.924995715636732191e-02 -9.253375625408112315e-01 -9.006354937656382287e-01 1.495933783257975547e-01 -4.080165787447854742e-01
-3.717326012558426485e-02 2.828043832561166412e-02 -7.199961723767782651e-01 8.981350161941519250e-01 -1.540029812236846374e-01 4.118696085658032358e-01
-1.168470822193120023e-03 -1.899493334378765941e-01 -8.840408443973885033e-01 6.216955807513985244e-01 -4.543110919466034625e-01 6.380407797378362389e-01
-5.495350688163503500e-02 -1.717333126769080009e-01 -7.539796374779199617e-01 8.990927035631955944e-01 -1.577925137648693299e-01 4.083305437990006337e-01
8.593535195700661641e-03 -1.029869720381893505e-01 -8.654163981682894136e-01 4.923481066793262695e-01 3.984649296340260216e-01 -7.738339884633095300e-01
4.661935066759622520e-02 -8.860003075148886742e-02 -9.413515215152711280e-01 -7.318471311483830677e-01 6.318550215807271497e-01 -2.552626261972174015e-01
8.831635247022639329e-03 6.805895357351259001e-02 -7.935503522501735629e-01 -7.770629160795842205e-01 2.510614191564489728e-01 -5.771840159472910736e-01
1.268997919169682735e-02 3.805052382237567032e-02 -8.262252559217507786e-01 8.947274805951888066e-01 -1.452274108121513474e-01 4.223407801960223917e-01
-6.204194555313332499e-02 4.818125246483895285e-02 -6.550455510829074068e-01 -9.009648717718065081e-01 1.515904565954077909e-01 -4.065496689242387718e-01
-8.358265862495849186e-03 -2.117316153122928701e-01 -8.713253811861624287e-01 8.994683052732027617e-01 -1.530978599152926778e-01 4.092894001782964031e-01
5.781471423330917896e-03 9.126452961855741064e-02 -7.958526779157819586e-01 1.004424852839623100e-01 -3.316013172763001560e-01 9.380575001195839979e-01
6.547087046807172073e-02 9.462793892311202604e-02 -9.188999426802336723e-01 -8.981183919546646965e-01 1.521137843464572259e-01 -4.126072595635792983e-01
2.849839980234482187e-04 2.496727278876128761e-02 -8.126646714162366614e-01 9.839414146378797632e-01 8.171280009829849644e-02 -1.586893533306623083e-01
1.779178673028558935e-02 8.927795100219802771e-02 -8.157305024882235411e-01 -9.029073658625963450e-01 1.394461833852021215e-01 -4.065870762953099904e-01
-3.894635376100431118e-02 -1.173718329921263487e-01 -7.693126351039414335e-01 8.699467615381892838e-01 -2.539142847497655731e-01 4.227530817028210541e-01
-2.165459102376269054e-02 3.498673703337747132e-02 -7.487485213521558602e-01 -9.003431785555006117e-01 1.371235395833379223e-01 -4.130124643648356297e-01
5.774907796779901042e-02 4.057542830801941225e-02 -9.245977119381046938e-01 9.017421585788412131e-01 -1.543102051616173642e-01 4.037938087991836955e-01
1.595560429001138120e-02 -1.590902189097862240e-01 -9.074948035416379177e-01 -3.372810664346009846e-01 -4.005664744910927277e-01 8.519319114451078256e-01
2.004351493366540726e-02 -1.317377607408024009e-01 -8.842062561522672226e-01 -8.703983811159593520e-01 2.253950121459233624e-01 -4.377256522645848746e-01
-1.148052359752276333e-02 2.346211247990466764e-01 -6.981872882734179164e-01 -8.918996751018393176e-01 1.629066323502176283e-01 -4.218724910319996413e-01
4.519804897743236877e-02 9.912673702111453322e-02 -8.725506758424378395e-01 -9.014442030593984301e-01 1.493807027897013640e-01 -4.063050016978146384e-01
-6.330468791275412066e-02 -3.968304686715861535e-02 -6.842790176398475532e-01 -8.978194483950815430e-01 1.510108363245986907e-01 -4.136616556995547089e-01
-4.581245507732996380e-02 -2.219333336381135724e-01 -7.924443050592436810e-01 9.000807710979997767e-01 -1.586841817485183659e-01 4.058003646652295626e-01
-1.202154113334513719e-02 -9.802685570941502280e-02 -8.186714567677588761e-01 -8.987939540419446205e-01 1.503021185276816885e-01 -4.117993459729353822e-01
-3.880601115715033578e-02 1.682958358261547049e-01 -6.651514656958270599e-01 8.899287951011727316e-01 -1.398951418401121194e-01 4.341152945235975391e-01
-2.406634010704705381e-02 -4.705008084034469074e-02 -7.735136741255643766e-01 -9.006872169987510945e-01 1.453980533581053780e-01 -4.094165888367473638e-01
3.819407339937850362e-03 2.441884561024106892e-01 -7.312999691349626463e-01 8.973647332428860146e-01 -1.496556060145878830e-01 4.151382120695834010e-01
7.568566857973978157e-02 -8.666243444500072723e-02 -1.010559692919037245e+00 8.981605928190842247e-01 -1.434432048970007978e-01 4.156099090201626489e-01
-7.039959027985027984e-02 -1.404836935034293466e-01 -7.085596408508638699e-01 9.042833772690138661e-01 -1.522897044921825149e-01 3.988476143850303579e-01
-5.622398808169320333e-02 -1.974883348849978126e-01 -7.576616895805486918e-01 -9.039709537112713411e-01 1.561378453765774332e-01 -3.980671904182687126e-01
8.933493406784020346e-03 -1.414935571147674931e-01 -8.988786424792194474e-01 6.063275746809555500e-01 -3.640462687773229900e-01 7.069916451916669065e-01
-1.369723074971296653e-02 -1.340714155796132179e-01 -8.310399451330194864e-01 9.019900337084005848e-01 -1.381596183211987183e-01 4.090548850167408657e-01
1.678289245731652557e-02 -2.330784396804966574e-01 -9.235935114243266630e-01 -7.880250980676083150e-02 4.957458338081571769e-01 -8.648850979812349182e-01
-2.038680904497388105e-02 1.854141715914309763e-01 -6.995315289850865259e-01 9.031237443403451470e-01 -1.410051180162039675e-01 4.055675764923910021e-01
-1.686743068967414341e-02 2.045194895199961560e-01 -6.971966839563852325e-01 -9.021235142326293754e-01 1.560470698867473249e-01 -4.022716458418758578e-01
-3.536129378165187714e-02 -1.681116099968201286e-02 -7.374350055196318143e-01 -8.958530495400642835e-01 1.503368789469172462e-01 -4.181460707196314464e-01
-2.108280141203860286e-02 -9.995894604658774052e-02 -7.939850614998059664e-01 -9.645953986194708563e-01 -2.074815920451652251e-01 -1.628100301718167220e-01
-4.785650581854624525e-02 -9.126510580464983202e-02 -7.401573251909198126e-01 1.139864465633849827e-01 6.160816879277589697e-01 7.793910724404893298e-01
6.870718663792980963e-02 -7.446563514507285875e-02 -9.878006925690728801e-01 -9.038267195049392022e-01 1.519813706316964219e-01 -3.999986551100522258e-01
-4.525550142933017781e-04 5.961279713342518966e-02 -7.990249575157266637e-01 9.949607921545046141e-01 -8.499843223092780342e-02 -5.318165655153060667e-02
4.063602513381025377e-02 -1.441388946778837943e-01 -9.543714945503428693e-01 9.048345036480426318e-01 -1.438465872715473659e-01 4.007276885097031394e-01
2.182278472270623298e-02 1.535685163365565209e-01 -8.057525966952976404e-01 2.182674277132025942e-01 1.531117355273845237e-01 9.638029500075490086e-01
4.691066527076520609e-02 1.654213030217513147e-01 -8.519997285754133953e-01 -9.164449679550653594e-01 1.389642234016631173e-01 -3.752566659290839102e-01
2.344251470911508720e-02 -1.919486229806527111e-01 -9.311384040508698945e-01 -8.998789634188675279e-01 1.514177219357818738e-01 -4.090116436972947578e-01
3.937284591212787677e-02 -1.196784084392008563e-01 -9.427360787411075416e-01 9.042586590784927880e-01 -1.439648513611034575e-01 4.019830830447240766e-01
-3.306247549649975886e-02 -1.962348262228385371e-04 -7.394550055183849446e-01 9.027038048191423636e-01 -1.481413025590250787e-01 4.039554371971726399e-01
-2.038269807452080737e-02 -2.547145892982657575e-02 -7.737094706127682908e-01 -9.015089519428522991e-01 1.440534718717011164e-01 -4.080811277290448125e-01
1.562579933451961611e-02 -8.217049293349218408e-02 -8.736734677811400784e-01 -9.014700344463848491e-01 1.539258359823153510e-01 -4.045474187439326852e-01
1.602829005216406880e-02 1.342016587702075936e-01 -7.984726303156621796e-01 8.967047373682949241e-01 -1.470422074476538388e-01 4.174915606454557837e-01
3.193200840749366165e-02 3.790531954269576315e-02 -8.657535492681756040e-01 -9.076398568670527300e-01 5.405556544217354070e-02 -4.162545928528390560e-01
2.115361545976168853e-03 -1.559372239999130549e-01 -8.709712872753171409e-01 -9.005974369991324169e-01 1.478628229082626366e-01 -4.087307696665291590e-01
-6.756157168361939802e-02 -3.201920268566674915e-02 -6.722305550686502595e-01 -9.080813659824273909e-01 1.509978446801429341e-01 -3.906249910815232651e-01
4.618386454109059402e-02 1.836749266058340380e-01 -8.467554064071707298e-01 9.011690716856703975e-01 -1.481033928211283879e-01 4.073815033504317729e-01
-3.380617424800011483e-02 8.135960577561568430e-02 -7.050435357539381886e-01 -9.021073876500828037e-01 1.433831174062355496e-01 -4.069932957556097186e-01
6.144779926178051306e-03 2.562661139872622895e-01 -7.319248254429785439e-01 9.012559058243282406e-01 -1.523106591368846296e-01 4.056343862766781938e-01
2.576893593746289526e-02 2.244958320235160565e-01 -7.869170002648872009e-01 9.063745322791710857e-01 -1.428722842499745571e-01 3.975835982896028242e-01
-1.693686004120399657e-02 -1.135854282442919222e-01 -8.234101451272713978e-01 9.270214076514570190e-01 -1.073233542225517437e-02 3.748548075352580722e-01
-5.692739112919743827e-02 -2.242187306995513038e-02 -6.921153055903960238e-01 -9.011612216505971995e-01 1.471559236037933427e-01 -4.077420590784295307e-01
1.721510831055356530e-02 2.493428613838402641e-02 -8.410149327264809793e-01 8.946664838584520441e-01 -1.619097289370510506e-01 4.163617685809841706e-01
-5.490822003219719000e-02 -6.478198229503176128e-03 -6.905777631262108862e-01 -8.955738768090450996e-01 1.595251226704905989e-01 -4.153301896252933889e-01
6.166441574035523565e-02 -1.349545562015069256e-01 -9.944766670848107504e-01 -9.003862148349396355e-01 1.496275060798337164e-01 -4.085538808523782039e-01
-2.894436501500028194e-02 -1.798388943348490088e-01 -8.142500692798912976e-01 8.988833077142185379e-01 -1.411636480033116592e-01 4.148272213767350003e-01
-3.468251644097229691e-02 -1.361677218034216263e-01 -7.855517263000947326e-01 9.010257605408856785e-01 -1.495902854676381954e-01 4.071551612535802556e-01
5.716802501224252375e-02 3.596736572995355014e-02 -9.250369034189179773e-01 9.013872936678442027e-01 -1.422796118724508341e-01 4.089712200871650771e-01
5.807615591506296721e-02 2.403331444247508095e-02 -9.313743897807748029e-01 9.007401662904660489e-01 -1.419155939594420046e-01 4.105205439708983772e-01
2.060358991699875325e-02 -8.152977031651888196e-03 -8.575965003615579896e-01 -9.012548789680532302e-01 1.433458932932944185e-01 -4.088906920097682418e-01
-3.146790228091188996e-02 1.596495443461618535e-01 -6.815370046969239093e-01 -8.998911317791671305e-01 1.462989683941585961e-01 -4.108437206432813404e-01
-3.448441518753467966e-02 -1.251399241306450083e-01 -7.819591798775669123e-01 9.003197996616717491e-01 -1.495802481004903373e-01 4.087175157922192659e-01
2.914132146529084533e-02 6.087897480910305775e-02 -8.541221918390711210e-01 8.943812932369181734e-01 -1.451710408353081017e-01 4.230927454006401800e-01
4.513706699598345196e-02 2.414197201096084100e-02 -9.027515836371753366e-01 9.006443604889511345e-01 -1.425522258993052183e-01 4.105101689490791572e-01
6.338895032603124313e-02 5.013269660441220521e-02 -9.304201936335847467e-01 -8.945570149817305694e-01 1.487850051724513845e-01 -4.214626545529384649e-01
3.719643798452663963e-02 1.352530593359521031e-03 -8.906745255989493293e-01 -9.001265375460916207e-01 1.600326243183166908e-01 -4.051688235280165862e-01
-4.557467178385057882e-02 -1.209197403444721985e-01 -7.560389831992337939e-01 8.995805957484254156e-01 -1.477633368316014217e-01 4.109996934807842450e-01
3.819069674914858659e-02 -1.964891474303624708e-01 -9.681592194337681478e-01 9.013843506745088385e-01 -1.462817668862421705e-01 4.075633656693560813e-01
4.127417772984370500e-03 -1.024190536619315472e-01 -8.706281747904613955e-01 9.569977761473906774e-01 2.254915837352563790e-01 -1.825069919578829469e-01
4.014357557460559306e-02 7.236744223302087053e-02 -8.769762245917257504e-01 3.138421415915399471e-01 -2.056538402945703448e-01 9.269356008554914261e-01
-1.613848173768779592e-02 -1.074230346715559503e-01 -8.065065533938124975e-01 -9.307603668749511172e-01 3.486223478040902102e-02 -3.639639598104758567e-01
5.434112500249145550e-03 -1.578432698718171545e-01 -8.969688214017186301e-01 9.636072825581972756e-01 1.223789122752334257e-01 -2.376644837394456533e-01
1.123688045887623332e-02 -8.321001746346014250e-02 -8.533019311808319740e-01 -5.167657954612738802e-01 5.745466355522791391e-01 -6.347040855523411462e-01
1.380038247306425783e-02 1.486137905134271402e-02 -8.341322908857290441e-01 -9.011048774179851728e-01 1.412455706312484016e-01 -4.099508368945855574e-01
3.708411857334518308e-02 -1.756861825922966802e-01 -9.552137949727479427e-01 -8.981809167153014251e-01 1.458005035755111645e-01 -4.147448058813857363e-01
1.867168540037919891e-02 1.943604936500894220e-01 -7.793334084434510034e-01 -8.995621918340404033e-01 1.332403823458247483e-01 -4.159745948192936082e-01
-2.793935557494305055e-02 4.119724414133551366e-02 -7.355697699411782864e-01 8.927362479912099857e-01 -1.811137566114807973e-01 4.125770215228355409e-01
-1.155680302675764215e-02 -1.562644190927250099e-01 -8.439760110542346982e-01 8.968143744862174804e-01 -1.426416154209828591e-01 4.187807866473663987e-01
4.801360837389279622e-03 -1.076993735668470287e-01 -8.785043308928186523e-01 8.195644434639445253e-01 -2.233934753084930100e-02 5.725513746045246544e-01
-4.326173144656361019e-02 -9.602406053375105513e-03 -7.174438030799464849e-01 -8.963344227543683651e-01 1.423150038305915632e-01 -4.199178994402261167e-01
-1.631240546323282567e-02 1.521615218570088468e-01 -7.176248208138763518e-01 -9.003839764314391925e-01 1.406267098785471403e-01 -4.117436380252214034e-01
-1.624998757879062353e-02 5.410716109010909464e-02 -7.536100597090715780e-01 -8.987032362658416984e-01 1.494901517195015572e-01 -4.122925995748444317e-01
-2.722761167494931397e-02 1.073206111215276454e-01 -7.100772998036740669e-01 -9.014097114610278849e-01 1.567034963889535060e-01 -4.036143534405383093e-01
-4.359292324819839110e-02 1.390213633312409325e-01 -6.637566385481776798e-01 3.771075183011706189e-01 -3.861789166001525220e-02 -9.253640246327212715e-01
-4.859320291547859078e-02 -2.129685577392687879e-01 -7.801550152449334696e-01 -9.063527244351475831e-01 1.424727328382733027e-01 -3.977766449988984210e-01
3.240793567921383678e-02 -2.458819783123780689e-02 -8.896150131227033020e-01 -9.007348883218674329e-01 1.463762269228734425e-01 -4.089629092614837647e-01
-3.471154546566566912e-02 -6.826013424972197929e-02 -7.577134274500417765e-01 -9.001621562159524137e-01 1.475940456811577761e-01 -4.097854196968403473e-01
5.348950758483951573e-02 2.749863024218584390e-02 -9.169299988133037260e-01 -9.007085047836993486e-01 1.432593998414907754e-01 -4.101230714887526552e-01
5.708720184620601906e-02 -1.545126883568129494e-01 -9.914660772618598683e-01 -8.990063360666484815e-01 1.499113787492664940e-01 -4.114780507311591728e-01
5.060832165151944728e-02 -5.195985547470107629e-02 -9.389987435537939797e-01 -1.961335144651608353e-01 -3.801402260288421764e-01 -9.038943815835372986e-01
4.183179275884817139e-02 -7.417178131520635320e-02 -9.314618682050224141e-01 8.976715725889109487e-01 -1.413219877108238820e-01 4.173893189280405980e-01
7.204182235673950788e-03 2.441656790410076661e-01 -7.388257173425366586e-01 8.961510591217205501e-01 -1.574154304871061560e-01 4.148899389953649153e-01
-3.080362171200598086e-03 2.486005920345454312e-01 -7.115245685323244862e-01 -9.067589001520139913e-01 1.471940316743696187e-01 -3.951230365779178078e-01
3.926258707876280341e-02 4.762687705354429202e-03 -8.939232705142667879e-01 -9.004321364494927149e-01 1.593613878913048842e-01 -4.047541422868443650e-01
4.282405094056185996e-02 2.099833594599435360e-01 -8.296584475881246812e-01 8.996999528502610532e-01 -1.431599624703679963e-01 4.123653962042896359e-01
2.597412981661953446e-02 1.491221856100834464e-01 -8.148635213079290507e-01 8.971879916509439834e-01 -1.457626344120322714e-01 4.169016215447116092e-01
7.958445320905682685e-02 -1.047678089791860209e-02 -9.912259916600035803e-01 8.922069132848727824e-01 -1.454296979578967031e-01 4.275710781128144733e-01
-3.331356612059611921e-02 -1.083110190604066048e-01 -7.784187541088769535e-01 9.000480762928557699e-01 -1.485731912434933577e-01 4.096821538769463977e-01
-3.268788626847754508e-02 1.772472399027798240e-02 -7.336658908678623803e-01 9.037379075643615645e-01 -1.491065786096130164e-01 4.012792327625802069e-01
9.647595756434694525e-03 1.350694039037649286e-01 -7.809894992266075420e-01 9.987236722159094082e-01 -2.312221945137208842e-02 4.490422611749786408e-02
-1.908911155019267850e-02 -4.549862959957746977e-02 -7.838885837252449473e-01 -9.002584469667079814e-01 1.454034571514817298e-01 -4.103566294255378555e-01
5.212660191104290935e-02 -7.582199507295045438e-02 -9.517061234406748449e-01 -9.031617498826642887e-01 1.436264870470781163e-01 -4.045618441813305100e-01
3.678283497941728375e-02 1.454411623946842980e-01 -8.400264048103343040e-01 9.005361971722494197e-01 -1.543402657678372702e-01 4.064648077573962959e-01
-6.373563710135221605e-02 -1.651842157530648281e-01 -7.322946798533261914e-01 8.980924435903596681e-01 -1.639671860379449952e-01 4.080989152995811442e-01
5.597626717114485492e-03 -1.509777433798192292e-01 -8.974219816932365035e-01 9.813680693287086809e-01 -8.795965932976215762e-02 1.708209906089848962e-01
3.681387984314988832e-03 1.482477301835504087e-02 -8.251800951623368130e-01 5.051257570399861896e-01 -3.041175290207999149e-01 8.076883669566276014e-01
-8.588855456764623794e-03 -1.197979700223431171e-01 -8.378185685974556263e-01 -1.393842913694076369e-01 -9.378402881474195985e-01 3.178484123713906095e-01
4.286238182662740342e-02 -1.215030075099562817e-01 -9.481396093175843420e-01 -9.007868894595670861e-01 1.637567350756868878e-01 -4.022023265660072955e-01
5.270803361529289265e-03 1.506888093464063827e-01 -7.687233285287978779e-01 8.777677169995846684e-01 -1.704585939548459161e-01 4.477361977105201452e-01
2.341544767975754435e-02 7.951424156416723663e-03 -8.546073059023278073e-01 -2.240086945128868245e-01 -3.316854366092054640e-01 -9.164086838981790883e-01
3.888897973353446641e-02 -1.443670384567265763e-01 -9.476750242260085777e-01 -8.973039799488207180e-01 1.586456616436731082e-01 -4.119188289088610566e-01
1.143164944516566507e-02 1.397116517602025321e-01 -7.832931632114354947e-01 -9.044550774820161454e-01 1.477266688942524553e-01 -4.001722680476598182e-01
-8.339238621470252549e-03 -1.466507633667120739e-02 -7.961665422668943171e-01 -9.002129099371951604e-01 1.421876366308605644e-01 -4.115815748691110110e-01
-2.131515506473378660e-02 -1.845991947183441562e-01 -8.298087970868937013e-01 -9.018765683989502513e-01 1.582873607813876093e-01 -4.019499555787964251e-01
3.201875766722523525e-02 2.207375091462678851e-01 -7.989617099134802558e-01 -8.976292307539956994e-01 1.602115646852376174e-01 -4.106020197674362104e-01
6.281775536572589171e-03 -2.301903070080530134e-01 -9.102514422159102558e-01 8.997462197288852437e-01 -1.568683790970608338e-01 4.072456896310154284e-01
9.228571650655851763e-03 -2.356516714976508997e-01 -9.401454396097422839e-01 9.389356331771814279e-01 -1.859593738814816488e-01 2.895150911710354658e-01
-2.526578928770318450e-02 -1.360973967875830082e-01 -8.063848497197352305e-01 9.009969011333118782e-01 -1.516161652444765195e-01 4.064690917950941063e-01
3.636073459465177793e-02 -1.258859651104909660e-01 -9.301080553370467685e-01 -9.751190298874626849e-01 2.025229744798344167e-01 9.015166309710490045e-02
1.936436127302370441e-02 -4.447364290067127440e-02 -8.680944664855351212e-01 -8.996723408588226389e-01 1.618068285699906239e-01 -4.054728465899141709e-01
7.438328909712542403e-02 -6.504168403548715727e-02 -9.968168404530237670e-01 -9.045182617782504542e-01 1.422657119911132917e-01 -4.020039568229571425e-01
4.618470586494555566e-03 -1.945809248493131360e-01 -8.846109665186580040e-01 -8.703983811159593520e-01 2.253950121459233624e-01 -4.377256522645848746e-01
-2.503876869121543502e-02 -1.592225471087084232e-01 -8.123497903823522215e-01 -9.016051178833071056e-01 1.537438957750290880e-01 -4.043155029411378276e-01
4.140677547546237069e-02 -9.852444745345867450e-02 -9.313889655326338390e-01 -8.703983811159593520e-01 2.253950121459233624e-01 -4.377256522645848746e-01
-4.063138950259840426e-02 -1.932014712761231101e-01 -7.903438675971619087e-01 -9.048211126443292951e-01 1.436622388353206992e-01 -4.008240452441712565e-01
-5.367673903956273612e-02 -1.943108566142430493e-01 -7.650557264419857173e-01 9.006762407964075123e-01 -1.627585584001031149e-01 4.028547640681094388e-01
-1.845525883250272517e-02 -1.325891293172215268e-01 -8.201273265976000149e-01 9.001615206332694852e-01 -1.528162138161508199e-01 4.078681668947656824e-01
-3.733000182691348368e-02 1.431014315273782256e-01 -6.746614413111242659e-01 -9.033792499764484729e-01 1.491827555933605554e-01 -4.020577522515404456e-01
1.261247152839868775e-02 2.398838170144203252e-01 -7.491880970222455360e-01 -9.000436939971546701e-01 1.518403976570873448e-01 -4.084921572506550191e-01
-6.455641723728543224e-02 -9.816914858834846491e-02 -7.029586075838408776e-01 -9.038202132627018992e-01 1.438476435458678482e-01 -4.030097735093590705e-01
-1.458662430357154406e-02 -1.494740076390188854e-01 -8.347862930288686423e-01 9.024453909146374908e-01 -1.401949334837460925e-01 4.073545102762645143e-01
-2.383000427305094829e-02 -1.796633658168479142e-01 -8.254993134430866908e-01 8.959546880842024219e-01 -1.588283032403934869e-01 4.147755621896223599e-01
4.479466485156822358e-02 -3.877189151549605833e-02 -9.250925101791251937e-01 9.008282198424959475e-01 -1.494673081403342096e-01 4.076371451826763526e-01
5.537058362791429794e-02 -1.956083908712448471e-01 -1.003348324915536605e+00 -3.157799545191387613e-01 4.547182242127976171e-01 8.327750938234468325e-01
-4.187274604319128624e-02 8.136638724883442364e-02 -6.871590805055302065e-01 -9.013053690681916974e-01 1.471832776951567112e-01 -4.074134441274137597e-01
3.070956527514023468e-02 2.539215854584624399e-01 -7.839570663533171890e-01 -8.977207040188074361e-01 1.484299011277870062e-01 -4.148085124815691915e-01
-1.009733071187598162e-02 2.554006692601132888e-01 -6.935594598194479987e-01 -8.960936953253195725e-01 1.186617654267027311e-01 -4.277095680763190466e-01
3.974135669617993166e-02 -2.091032410655876972e-03 -8.975744333400555997e-01 -9.006715576913941756e-01 1.451069421041751573e-01 -4.095542949584745074e-01
-3.017024168279706237e-03 1.317539754688736853e-01 -7.573662535263666618e-01 9.036624874249985506e-01 -1.554901157543842061e-01 3.990199653194718143e-01
4.950469638024134617e-02 1.077744539877597274e-01 -8.771799520639552705e-01 -9.718101114217105874e-01 2.355196316340008866e-01 1.075223016434604870e-02
-3.775145113741227437e-02 -2.134764853481801450e-01 -8.071800300113001203e-01 9.023207751398218956e-01 -1.501044417236473139e-01 4.040864701099296519e-01
4.012699615370355494e-02 -7.550397169681574705e-02 -9.253245009068168381e-01 -8.961841255964402286e-01 1.591133327924023899e-01 -4.141702069881879056e-01
-2.120550169914744293e-03 -6.652980848212079745e-03 -8.099688319564108951e-01 9.003566056540127649e-01 -1.432473709480321100e-01 4.108992253237542802e-01
-7.187792991902304529e-02 -1.880385789848248168e-01 -7.197414604473642008e-01 -9.129896584514325397e-01 1.361900021791170035e-01 -3.845805076537143763e-01
-7.219365776453909311e-02 -1.931020488410668812e-01 -7.207792355454403221e-01 -9.057128932370115404e-01 1.496728678345215224e-01 -3.965881839621947513e-01
5.574974924807039184e-02 5.240781203844071395e-02 -9.128067511114412724e-01 -9.006281747882028954e-01 1.428742134979157086e-01 -4.104337338657997880e-01
2.291212299666593993e-03 -7.100197280959728852e-02 -8.526636329361939604e-01 8.922570007435095540e-01 2.067076833655748513e-01 -4.014341518379248575e-01
4.627971529984976212e-02 -1.683360838989000213e-02 -9.203919450112187928e-01 9.008862752301058929e-01 -1.477093257272412974e-01 4.081493283042738063e-01
4.247574826689230060e-02 7.045360276442476366e-02 -8.731709421033188034e-01 -7.264691399867934107e-01 1.636392563465628169e-01 -6.674314814489895609e-01
-5.111693802410181148e-02 6.129155287887541939e-05 -6.996510712363782636e-01 8.957105362631510026e-01 -1.568072718185343495e-01 4.160698435743774848e-01
-2.435550622017643163e-02 2.925573028971034661e-03 -7.575092470831104041e-01 9.024438575735339585e-01 -1.460113917308764886e-01 4.053094588245034213e-01
4.898133431117052128e-02 -1.740835023033747431e-01 -9.837803756701583024e-01 8.979223531651230328e-01 -1.577395639341703515e-01 4.109180911766550093e-01
3.393182254377117429e-02 -2.145946162133187396e-01 -9.654705572199869801e-01 8.976545147360177612e-01 -1.520275310385661161e-01 4.136471950592224833e-01
-5.657614328117033936e-02 -1.139669625238005773e-01 -7.263352051999844017e-01 -8.986260966046530907e-01 1.489104891796085017e-01 -4.126703341813831027e-01
5.371867546147632982e-02 -7.576170769583367992e-02 -9.582451349433932508e-01 9.027656099039276238e-01 -1.424482601090285849e-01 4.058605016094817830e-01
-3.748765492497518198e-02 -8.264350427268933597e-02 -7.569156068269830007e-01 -8.799074596664618886e-01 1.716350783768663957e-01 -4.430623684018773489e-01
-5.205043731759951414e-02 -1.640179070054207516e-02 -7.036073644968685592e-01 9.021556053891465199e-01 -1.395945647190378336e-01 4.082016917723945149e-01
6.331378997651522511e-02 -8.732024588134612575e-02 -9.805865061739260646e-01 -9.017084022913528507e-01 1.441554539122608947e-01 -4.076041736102880564e-01
-3.222894629713664305e-02 -1.883405916846377093e-01 -8.070797241714686709e-01 -8.986564448320768506e-01 1.400927148111425491e-01 -4.156809177946667044e-01
6.678712368186554872e-03 1.760151807000216728e-01 -7.649479746384127976e-01 2.598930100180390362e-02 -4.576414033140890902e-01 8.887569421423098248e-01
2.695090560774549438e-03 -1.087634058383520480e-01 -8.549388232582332270e-01 -9.033281059744785457e-01 1.542189751941464293e-01 -4.002684607193385813e-01
1.857832635722127951e-03 1.649827954833423260e-01 -7.559939532661725803e-01 9.038795580631866500e-01 -1.590265963663771986e-01 3.971300620245510338e-01
1.983993265360129918e-02 2.677339364691384005e-01 -7.579964842135269443e-01 9.102231874098214437e-01 -1.229080241449558020e-01 3.954584260099766047e-01
-2.688387610250704204e-02 -1.084325937802179361e-02 -7.539252520934253132e-01 -8.936105256711190936e-01 1.665145605597642964e-01 -4.168130630527010494e-01
-3.572703770352459590e-02 -2.107797628271589618e-01 -8.076400043108915572e-01 -9.007890081071513455e-01 1.612469182701090076e-01 -4.032103597648842297e-01
-5.736378166454702415e-02 7.055859729730491574e-03 -6.833390562992086581e-01 8.974686903997228793e-01 -1.416526622888196196e-01 4.177133862096069628e-01
1.515382493514661442e-02 -2.096559350703530028e-02 -8.532846759806150816e-01 9.018976293906100228e-01 -1.432340395397848909e-01 4.075103385396659506e-01
-3.365761601275443771e-02 -8.395558842995567983e-02 -7.629830734843148221e-01 -5.139563822816999306e-01 6.330443843930517733e-01 -5.788813734266540223e-01
1.120285999078905487e-03 3.890071326292847496e-03 -8.077238501603910548e-01 -8.584376119943845085e-01 7.541585781319135040e-02 -5.073433893367285119e-01
9.282986045015449716e-03 -2.385263154366808191e-01 -9.199664415564815512e-01 8.997089697297169231e-01 -1.481697320390869543e-01 4.105721621047344616e-01
3.374461742712004525e-02 -8.718973975475172167e-02 -9.184657302907864862e-01 9.014124438277077989e-01 -1.577705866303307780e-01 4.031923214879976070e-01
-4.785095653666157633e-02 -1.491953109579526593e-01 -7.584212052546074334e-01 -9.003282239327998759e-01 1.444404702001632068e-01 -4.105435905703142541e-01
1.413967976552392772e-02 -2.833341139970377981e-02 -8.370801959056874963e-01 -9.891977786662481398e-01 -1.217525232436706961e-01 -8.163380283656830605e-02
-2.365450262782571589e-02 1.963016674308593404e-02 -7.528841826897898493e-01 8.975676755129188278e-01 -1.498280606335352372e-01 4.146369738953933348e-01
3.777160842661105022e-02 1.511678334121693279e-01 -8.400989819102347989e-01 9.003887322176121755e-01 -1.406738658567037725e-01 4.117171290588861887e-01
-6.608895916551069116e-02 -2.103177170740764546e-01 -7.435180022010401402e-01 9.086840559420713559e-01 -1.378941557784776617e-01 3.940539154466146110e-01
3.371972530933412676e-02 2.004752881394392117e-01 -8.101725058771189758e-01 -8.992224490249802749e-01 1.601192703901525849e-01 -4.071373311540490980e-01
-1.038486453781554270e-02 -1.442670627610832257e-01 -8.391851085463897242e-01 -8.998108316434296761e-01 1.562076333378343285e-01 -4.073568982405382788e-01
3.931808017957234141e-02 7.110000351227425963e-02 -8.698529592246545539e-01 -9.007862566189704934e-01 7.322827774191263683e-02 -4.280440856095732438e-01
-4.811082000868485697e-02 -2.019216116460512411e-01 -7.771256420787943098e-01 -8.878620064238412768e-01 1.693108309993105187e-01 -4.278257823639824431e-01
-3.991454409279046600e-02 1.924964950137726238e-03 -7.235687600620470672e-01 9.029522552669574376e-01 -1.503022983212659869e-01 4.025996073366942540e-01
4.023016968626021107e-04 -4.921736676434467807e-03 -8.148715242514481538e-01 8.989457010234003231e-01 -1.416197633977739345e-01 4.145364510229540000e-01
3.472882536817917254e-02 5.473038148446438683e-04 -8.855106084022819068e-01 -8.998873275121627158e-01 1.594349535579168420e-01 -4.059350851638750535e-01
-4.331009699460013074e-02 -1.976036140809163122e-01 -7.890694479005968542e-01 9.024716179924247017e-01 -1.618314344359809420e-01 3.991936441710062788e-01
8.344626509266074577e-03 -2.047023519736368702e-01 -8.969942902947066754e-01 -7.674362369027832864e-01 4.280578894462463424e-01 -4.772924319233650681e-01
7.037484252139963870e-02 3.628996946246206608e-03 -9.628720853386645295e-01 -8.958390479416940000e-01 1.407837560252152009e-01 -4.214882373475588584e-01
3.591032926128001623e-03 1.969736496355311006e-01 -7.532999484870787077e-01 4.881676991534286136e-01 -1.118553854491108196e-01 8.655522342697050675e-01
-1.746563190077251790e-02 -9.753314861706602681e-03 -7.743344714155394604e-01 -9.014422075092768383e-01 1.440843453165507881e-01 -4.082176477756723210e-01
-3.605219145479060874e-03 -1.352929770970842938e-01 -8.465108713966456033e-01 -2.936645005425513322e-01 6.537241533003592675e-01 -6.974280554385680064e-01
-5.742233308436214823e-02 -1.155490174049657835e-02 -6.899245067220620697e-01 9.035965995624305469e-01 -1.440343580299920656e-01 4.034442823564370340e-01
4.777924614492356364e-02 9.362075735637989671e-02 -8.802601595990146022e-01 -8.989520158776063141e-01 1.489010581500212205e-01 -4.119632848099352151e-01
1.546313481025416922e-02 2.300097437735536821e-01 -7.592219320418699402e-01 -8.965916021586303186e-01 1.501983662157645449e-01 -4.166100691590826077e-01
-3.192290618299754856e-02 3.675671934060727869e-02 -7.254957838139759474e-01 -9.058174276626027588e-01 1.218158519361120518e-01 -4.057778776125985365e-01
9.134313777879397855e-03 -2.395799589869306301e-01 -9.409436704344881219e-01 9.794306775530565723e-01 1.011524451415544978e-02 2.015272430625187350e-01
2.046360391593662550e-02 1.567037888941898854e-02 -8.485270734226229017e-01 -9.005747764084052198e-01 1.589725802527793275e-01 -4.045896573378076067e-01
9.438553078240140629e-03 -1.587269384427339169e-01 -8.880046429456335266e-01 -8.983249506509952687e-01 1.515656239098172597e-01 -4.123592422714868477e-01
4.260592079123019099e-02 -1.853310019411465448e-01 -9.709375931220501910e-01 -9.015412414343474401e-01 1.528878468263811796e-01 -4.047822825739893493e-01
1.719785660305302860e-02 -8.553690281743259183e-02 -8.814725094783261161e-01 8.960106891765267090e-01 -1.545141467897112875e-01 4.162814232262267988e-01
7.333865990493686204e-02 -8.455907128142796381e-02 -1.004707580065618666e+00 9.010333040032090235e-01 -1.501826853475335122e-01 4.069203191029719946e-01
3.489962922227322906e-02 3.764679308343669983e-03 -8.846477316708661887e-01 -9.003501767109836074e-01 1.434857663643822057e-01 -4.108301280910721665e-01
-5.465037130914435215e-02 -8.362496363784414910e-02 -7.225425608346691675e-01 8.987644199292276204e-01 -1.488369245059284196e-01 4.123955472272897160e-01
-2.011341921357651108e-02 -1.645037281543449414e-01 -8.251362300635340929e-01 -9.012999694059967704e-01 1.549520671303775132e-01 -4.045345745925461034e-01
5.734465372364343227e-02 7.782342691200071216e-02 -9.100593222900205115e-01 9.050117279785996338e-01 -1.434635866537561921e-01 4.004646944808359366e-01
1.737043256357436588e-02 1.186629784267338727e-01 -8.070821755037759226e-01 9.057447526353892275e-01 -1.556816776851312478e-01 3.941949496208703718e-01
-1.386769156675547558e-02 -2.278407207240246146e-01 -8.650230357824323368e-01 8.966006269107897886e-01 -1.615223048934427696e-01 4.123322214490257598e-01
-5.214403626022902360e-02 7.943487503340918368e-03 -6.913665716428791796e-01 -9.038959482793362810e-01 1.554189166841296876e-01 -3.985186005959205913e-01
5.445665430299232584e-02 3.917166387283444601e-02 -9.177965659478245497e-01 9.014230639093859798e-01 -1.555745088109810048e-01 4.040210787328268882e-01
4.178730354744782105e-02 -8.046459925181277673e-02 -9.307672144600716013e-01 -9.033438116916627791e-01 1.416911700957984577e-01 -4.048377084650850999e-01
-1.585289765271834760e-03 2.635568378489151070e-02 -7.960744914927848637e-01 -9.017034426261715252e-01 1.404548451680275312e-01 -4.089050476882574170e-01
-3.163332455276489288e-03 1.250256780464190920e-01 -7.564863200484162054e-01 -8.994449283196868095e-01 1.355245313481216463e-01 -4.154899786070243017e-01
9.787116953307391579e-03 -2.142648108499066104e-02 -8.293625726707575252e-01 -2.680557323370346134e-01 4.410422618593409227e-01 -8.565207806091177378e-01
1.173713313937724614e-02 6.865632747676678194e-02 -8.098886993731596595e-01 -9.012347698749633151e-01 1.469880469526492484e-01 -4.076400417297936229e-01
5.397448706978136973e-02 -1.915072022657174078e-01 -1.001223154137331539e+00 9.015177375187118924e-01 -1.535266396617431528e-01 4.045928074661193641e-01
1.194061547863938672e-02 -2.388354387530602363e-01 -9.290058783718406765e-01 4.923481066793262695e-01 3.984649296340260216e-01 -7.738339884633095300e-01
-3.471423458278922319e-02 -3.958524012875450082e-02 -7.471539327941695285e-01 -9.008712809071769412e-01 1.476348080135094776e-01 -4.082093809547699959e-01
-6.626461210346812347e-02 -5.925023014474684740e-02 -6.878928793309238010e-01 8.988178124031422911e-01 -1.553381124733976271e-01 4.098738963632984067e-01
1.840110153978750593e-02 -1.761015571374551780e-01 -8.983083759252779021e-01 -3.726512146244653212e-01 4.248216672719539178e-01 -8.250197714328958432e-01
4.220795002470485030e-02 8.899863549207788493e-02 -8.696277280375170893e-01 -9.017417674348688905e-01 1.492915435054785744e-01 -4.056769896126606323e-01
1.866715645804473134e-02 1.499270130931504852e-01 -7.984646478596484354e-01 8.867919713965849438e-01 -1.703037146268590041e-01 4.296471159577958110e-01
-3.143374094413339814e-02 1.131934094262212059e-01 -7.015624434698515266e-01 9.038717677988153953e-01 -1.446655924933092086e-01 4.026011596168150297e-01
-5.511325495119718393e-02 -1.946888692442944740e-02 -6.979959333048428860e-01 9.000333537824021235e-01 -1.577843954039116758e-01 4.062561342875005144e-01
-2.584252728295327942e-02 -1.773089167348120831e-01 -8.227939228636985680e-01 7.589379852737433430e-01 5.876880155491681634e-01 2.804209886733018964e-01
2.599011833149614953e-02 2.031532095217712663e-01 -7.951737112541108488e-01 9.050265586039901722e-01 -1.412457014916186915e-01 4.012188679904757915e-01
2.369666525111100916e-02 1.910694109346263228e-02 -8.606169876029082788e-01 8.369689341996620069e-01 -4.092395321569632927e-01 -3.633263113299556313e-01
1.618386310997346755e-02 -1.804891356126763491e-01 -8.990839487965377463e-01 -2.245356908487669279e-01 3.117985640252826651e-01 -9.232363613976859451e-01
2.822395364011694163e-02 1.050459244530135144e-01 -8.328903011783166388e-01 -9.044902022605287861e-01 1.496930593331658454e-01 -3.993613176087351668e-01
-3.378716380900310956e-02 5.388042437293721898e-02 -7.151234739599617862e-01 -8.983611258660169074e-01 1.548602258413274979e-01 -4.110542518757296926e-01
2.138872419179257706e-03 -1.199452937320629881e-01 -8.608576936772451837e-01 9.035608129560703805e-01 -1.561875731492695374e-01 3.989778180349214387e-01
-3.375896170665906859e-02 -1.050902667225425274e-01 -7.762741137771310695e-01 9.003823033616312754e-01 -1.484377688677126217e-01 4.089962549544665094e-01
-1.803257577367555972e-02 2.304163581980388231e-01 -6.851688292118330859e-01 -9.051515235104674595e-01 1.619770646513224721e-01 -3.930192743538425404e-01
5.352769140038456802e-02 1.027226335958619785e-01 -8.925890458452561127e-01 9.046084462266652526e-01 -1.554066108718064609e-01 3.969034445714944570e-01
-4.045688598535855662e-02 9.370979815279573133e-02 -6.888553489098454552e-01 9.025714763818523112e-01 -1.460969829578659951e-01 4.049943229139049139e-01
6.167378391507938318e-02 7.630529963812900107e-02 -9.171208210073855671e-01 -8.983361913723637571e-01 1.517913014486300949e-01 -4.122517290141147761e-01
