1.108391125010116662e-01 5.426275791364597312e-02 -7.156657847180283305e-01 3.311785657534753735e-01 4.911598900975118198e-01 -8.056567010488219216e-01
-8.485178188737653449e-02 6.012498543594192724e-02 -7.944465800327187299e-01 3.487563337960492560e-01 5.058483098290574853e-01 -7.889781410661669270e-01
1.069140200394461254e-01 7.825618575518053510e-02 -7.024231030893485217e-01 3.407003968927964643e-01 4.919098900139122210e-01 -8.012165123508075970e-01
-1.395425788331038780e-02 -1.733276108603028776e-01 -9.037023413273364003e-01 7.904255366800538862e-01 4.315217169155822208e-01 -4.347602543865718427e-01
9.491955248469184647e-02 5.077891345090373987e-02 -7.260465861302535240e-01 -3.299387178702786749e-01 -4.911323907251726739e-01 8.061820000661715779e-01
9.093456632949418333e-03 -1.691456333483275579e-02 -8.043233948411642187e-01 -3.374871959877668304e-01 -5.040016116242875821e-01 7.950375890638350374e-01
-5.102193086400978739e-02 -2.017361416915290917e-01 -9.430418287647427400e-01 3.347035213390215369e-01 4.990705840838355889e-01 -7.993135210325660323e-01
-7.632166317158645130e-02 -1.772879346351951546e-01 -9.385006523032455306e-01 3.426609768802479361e-01 4.950914481487522223e-01 -7.984158771551611578e-01
-9.238591919823746501e-02 -1.412703761448626527e-01 -9.243244906831901142e-01 -3.383128160782562510e-01 -4.974689189140112378e-01 7.987922841338196411e-01
-9.011081042413103190e-03 -1.269648360382056307e-01 -8.887327374435670668e-01 7.319196784043760506e-02 -5.564408925133196293e-01 8.276572170788003557e-01
5.126993909221016360e-02 -2.540161272899554151e-02 -7.918407804641732772e-01 -3.434689006054227889e-01 -4.848562666497741036e-01 8.043279896953388075e-01
7.457490468495175939e-02 -1.253701823726373621e-01 -8.441702795324574904e-01 -3.467587025614019547e-01 -4.960327945071218436e-01 7.960589607380776922e-01
-1.290142028121181728e-01 -1.595451165903528368e-01 -9.512007256545186307e-01 -3.339906953775275689e-01 -4.933833547310613188e-01 8.031332894828598912e-01
-7.578186915559427528e-02 9.948742814994808448e-02 -7.677117262026865729e-01 -3.435764822115832118e-01 -4.907677375590555613e-01 8.006885965481709277e-01
-1.481427502374190464e-01 -2.207150377803044836e-02 -8.722175207444972100e-01 3.261454816289214853e-01 4.954430255797332983e-01 -8.050871587706752708e-01
1.028120336224850190e-01 -6.434612091564682890e-02 -7.927982698749784785e-01 3.452761833600039854e-01 4.830271369886738331e-01 -8.046546725999133010e-01
9.915598570801802819e-03 -1.986303432704965843e-01 -9.125437059549527108e-01 -1.209562571526788394e-01 7.340285644163266898e-01 -6.682601667588166094e-01
8.062966292634707322e-02 5.374546298033854030e-02 -7.302543983440347164e-01 -3.337668344709641688e-01 -5.088364458941126989e-01 7.935270452461463675e-01
9.228510510659452756e-03 2.226568928211859200e-01 -6.538991202387572921e-01 -7.951275783062898839e-01 -3.008114159725973624e-01 -5.265782242339078767e-01
4.204135469139613779e-02 8.814973646972294741e-02 -7.235687159482242503e-01 3.526618421295261152e-01 4.943503752590432399e-01 -7.945107498247283573e-01
5.409290675793957531e-02 -1.527819577173565313e-01 -8.711535875071247936e-01 -7.795773429866160731e-01 -4.186540467465915127e-01 4.658196597875948752e-01
-1.147973702340496782e-01 -8.980681763129429174e-02 -9.018075549106183697e-01 -3.422149584992246196e-01 -5.030618679002037963e-01 7.936105337280572325e-01
4.442691260665720954e-02 -1.726269493354690432e-01 -8.846735178934806987e-01 3.879504022509535077e-01 6.378344784667038248e-01 -6.653282373929660931e-01
5.476110254670724098e-02 -1.994538496116257664e-02 -7.869766293312789873e-01 -3.360693870815818496e-01 -4.998359063123002932e-01 7.982615071689046493e-01
1.474688657031762995e-01 -2.395500790568609248e-02 -7.488798043926908621e-01 3.260604769065979514e-01 4.960567753219945475e-01 -8.047435871484691638e-01
-1.749964288404596419e-02 3.237087561359926202e-02 -7.890850470749536383e-01 4.778419984410836041e-01 -5.062749511899757859e-01 7.178806992275379439e-01
6.171851573423765835e-03 -2.127572263288715904e-01 -9.273061687076064041e-01 -3.491607668160507383e-01 -5.860481574504983193e-01 7.311869227942353611e-01
8.404685562356190021e-02 3.511525890856146553e-02 -7.388513025936296330e-01 3.444140808783588414e-01 4.940788951030035681e-01 -7.982887862838300430e-01
9.927729844034209605e-02 4.118820773236419458e-02 -7.286512123075763459e-01 3.443297812151425163e-01 4.933206029951763272e-01 -7.987939561794440424e-01
-1.062169837689334595e-01 1.839597694815568174e-01 -7.256674194808397926e-01 2.149859263467876203e-01 6.030556892882776854e-01 -7.681828474327279110e-01
-4.649639762106276553e-02 3.754722813577045237e-02 -7.923223910646137735e-01 3.332277347117535427e-01 5.038228353321840824e-01 -7.969453101792568495e-01
8.317027020726835973e-02 1.142083105574976665e-01 -6.915570958576015004e-01 -3.310473595615774367e-01 -4.973980473383979861e-01 8.018745713833655975e-01
1.177109776394254098e-01 -2.520208096275020765e-02 -7.637407795004419464e-01 -3.460765869304419651e-01 -4.919850288711223318e-01 7.988627712850668861e-01
-4.244449623939224037e-02 4.724556128276762718e-02 -7.846208376476971891e-01 3.460902981448416016e-01 5.037716806716463491e-01 -7.914768469660242722e-01
-6.325987674250052595e-02 1.804921003192339890e-01 -7.105240121361260375e-01 3.420959688411110422e-01 4.901102777222309803e-01 -8.017245560500806389e-01
6.382012478928077159e-02 -1.506379236247085314e-02 -7.801164515442358116e-01 -3.350813020530764574e-01 -4.997522816627129050e-01 7.987291017531081838e-01
-1.319105778652304439e-01 5.804893925768544322e-02 -8.156180915125478270e-01 3.479731434180834970e-01 5.047783385528992195e-01 -7.900085571609414270e-01
-5.939316300846714247e-02 -7.208665060235733280e-02 -8.674431233076382863e-01 -3.450929741759490854e-01 -4.959181061590034467e-01 7.968538580932297277e-01
-1.206948070933026307e-01 1.790621746705466921e-01 -7.371518097975715555e-01 -3.198761873613455431e-01 -5.163809174373541477e-01 7.943739502688426102e-01
-1.047488282524559368e-02 7.214133387518818774e-02 -7.572145034401625008e-01 -3.380079285981555381e-01 -5.009123114760843931e-01 7.967669021843655219e-01
-1.341609799728609841e-03 -2.098829100650392453e-04 -7.986962700603131848e-01 -8.536394339660474673e-01 4.101699402771172287e-01 3.210301183241097700e-01
1.859629198912149351e-03 -2.306371207254835076e-01 -9.348491157220296666e-01 -6.197313645487395606e-01 4.969406410001099839e-01 -6.074397378480907994e-01
2.071273308303952024e-02 1.857591423299366218e-01 -6.734002566719534677e-01 -3.395819580114037839e-01 -4.851357088920761340e-01 8.058085614778015549e-01
1.520187112814816999e-01 -7.917274063884045809e-02 -7.812752607216300049e-01 3.393609778212073325e-01 4.986402845350852431e-01 -7.976164450229215053e-01
1.033833522020921880e-01 7.014862249398005033e-03 -7.497154678082916801e-01 -3.291028389528511400e-01 -5.069795310601002969e-01 7.966574398568397886e-01
2.668696726433137170e-02 -1.258364132169871308e-01 -8.666575226914794428e-01 -9.132375864232340490e-01 1.674351286532629601e-01 3.714331547354533525e-01
-4.280062642809984164e-02 1.175565303094850550e-01 -7.390438641934374830e-01 2.881139366865303683e-02 7.955628524052311967e-02 -9.964139205539022104e-01
4.123880380712431626e-02 1.640900157690583228e-01 -6.782219890748582003e-01 -3.352746491153668074e-01 -5.013246458084323898e-01 7.976619015382502287e-01
-8.604641228028168942e-02 1.279824660685582594e-01 -7.527722800202205633e-01 3.158545119173267746e-01 4.911823953868741932e-01 -8.117732329680990011e-01
7.340006904088750006e-02 1.550126992871419911e-02 -7.570788828885380850e-01 -3.455081595742731104e-01 -4.966925322047985314e-01 7.961913338636534831e-01
-5.372321677940340018e-02 8.752427807426510498e-02 -7.643516986214138331e-01 3.282629019344708854e-01 5.043917069973889999e-01 -7.986441467423522900e-01
-2.574857788404353448e-02 -6.509006624582229505e-02 -8.489236643525713832e-01 -3.349711886076933154e-01 -4.957630153226277869e-01 8.012573465753465296e-01
9.301295937272939171e-04 -2.224196997651795848e-01 -9.282915957304452848e-01 -6.404734324052799854e-01 3.672715824755110048e-01 -6.744667279332116072e-01
-2.247053123029413638e-02 1.312424992543175517e-01 -7.255035399095897120e-01 -3.458031651273594798e-01 -4.921192362037739576e-01 7.988985094153787658e-01
-2.303099113256471681e-02 -1.852857154771281045e-01 -9.209560288234248659e-01 3.378504581172968035e-01 4.974386229852527652e-01 -7.990068111802728357e-01
1.106706348379682264e-01 -6.434244514310509533e-02 -7.910358871604828979e-01 -3.383738819813115750e-01 -4.983562452478018101e-01 7.982131098994867946e-01
1.329229978351444408e-01 -8.776041645975074523e-02 -7.946721693307887691e-01 3.410425040972380750e-01 4.984650139225007548e-01 -7.970085572277918473e-01
-9.456296800481491308e-03 1.704764301600139031e-01 -6.940972557351507977e-01 3.293553796433861258e-01 4.869619926739849336e-01 -8.089456419259223319e-01
-2.088702849863459735e-02 1.545918597374380532e-01 -7.087942847455460660e-01 3.314735079007473662e-01 4.884926264428265386e-01 -8.071556649562474650e-01
-5.875339752171492708e-02 -1.125526532844378230e-01 -8.923773911772450163e-01 -3.350186382255965212e-01 -5.051692182109065454e-01 7.953405390231583771e-01
-4.385189715812463918e-02 1.216341896467096756e-01 -7.404653552894019386e-01 -4.219785842808326803e-01 -5.236210397281297890e-01 7.401047771514358553e-01
-7.503756664565870704e-02 -1.244715663709356109e-02 -8.369963653873094822e-01 -3.348427194268841500e-01 -5.029431776110553365e-01 7.968240165439940403e-01
9.358021740756623796e-03 -6.192376854667566016e-02 -8.289512740656552747e-01 7.601235533773854636e-01 -3.644761336996614753e-01 -5.379306010669808735e-01
-1.729512464806487113e-02 -9.731294175780107192e-02 -8.681684883878293402e-01 -6.662009064750818998e-01 -7.262677219978597165e-01 1.694448234553623811e-01
-1.093300309151344490e-01 4.118984259162003503e-02 -8.180878656203002253e-01 -3.388795919220820019e-01 -4.931841758420537070e-01 8.012053362763613684e-01
-6.172570716042633659e-02 2.398966299600667484e-01 -6.735401071220211699e-01 2.111143530825067838e-01 -8.554261187060110405e-01 -4.729449073180977403e-01
-7.126106252113036110e-02 1.572232418491022188e-01 -7.283559883412559222e-01 3.360223588679007722e-01 4.897059881870370890e-01 -8.045352816841589982e-01
8.982573346600146794e-03 -1.885428935646092374e-01 -9.110156547487685552e-01 -3.322602689291453970e-01 -4.978309370323284466e-01 8.011039082570036163e-01
1.368683358824794583e-01 -7.815409801691066338e-04 -7.389137113501992316e-01 3.325577277163682122e-01 4.915417795993698435e-01 -8.048552892566527284e-01
-8.197148080675610571e-02 1.369609845110479618e-01 -7.469821209820282082e-01 -3.450792825285610710e-01 -4.994958499512536787e-01 7.946220388656787259e-01
-8.532741590112134789e-02 -1.900858321036533183e-01 -9.517211547501696067e-01 -3.325863722942551948e-01 -4.986030467259279231e-01 8.004881677824907671e-01
-1.039040197498194013e-01 -1.863740132311730580e-01 -9.572993793146470365e-01 -3.307985473456602210e-01 -5.045603979544914797e-01 7.974905177430049452e-01
1.957101380495394199e-02 -4.557204689075679271e-02 -8.176860142067511328e-01 5.826869694835424829e-01 -7.995261001117822675e-01 -1.457186015377915367e-01
2.868196761375029630e-02 -1.696961973621388675e-01 -8.933792936737952051e-01 1.347290788314628174e-01 -7.780561764480085074e-01 6.135769402514494875e-01
-4.096640429781860104e-02 -1.708740054861492275e-01 -9.211538486111278123e-01 -3.415455818899514884e-01 -4.941261019596265291e-01 7.994910949182856275e-01
-4.567712075212826406e-02 -2.091565377044916907e-02 -8.298777224087305893e-01 -3.348588136401648430e-01 -5.013664470650011085e-01 7.978102911625786220e-01
-1.605610235625180154e-02 -2.289458420275438111e-01 -9.451706492536223747e-01 3.385376701424210322e-01 4.992677208722461346e-01 -7.975738140069381643e-01
-3.011729481520907317e-02 -2.070887000882273288e-01 -9.352435787562173308e-01 3.923506569940338751e-01 6.018273016209312321e-01 -6.956039541147092109e-01
-5.751968615217546016e-02 -1.519417724900486988e-01 -9.147881711513325964e-01 3.442254053613902354e-01 4.893073563033082940e-01 -8.013034265315817084e-01
2.676015512641469890e-02 -1.088470194847876577e-01 -8.524900206788681434e-01 3.329684925081894398e-01 5.121161158985197970e-01 -7.917506342490906457e-01
-5.866710277400901535e-02 -8.779795041151738921e-02 -8.769586772708936051e-01 -3.284320942102217922e-01 -5.055714092442884500e-01 7.978282457067009670e-01
-8.243360068811202146e-02 -1.907402713931316274e-01 -9.493879006742574900e-01 3.395175504557391144e-01 4.932578401303167603e-01 -8.008898401668668177e-01
3.365722960434271160e-02 -9.752062697450333828e-02 -8.425092344300170177e-01 3.389392440275016960e-01 4.943142420521148828e-01 -8.004833658249924655e-01
-1.381785110342692302e-01 -1.392224226919863972e-01 -9.423807021538652684e-01 -3.297568700844477618e-01 -4.865025172876090709e-01 8.090585314456106847e-01
4.734246224394666330e-02 1.554562860115398237e-01 -6.795232980166793224e-01 3.386729577696288018e-01 5.010100866581270740e-01 -7.964229534251175968e-01
4.929687230448519947e-02 -1.893599305356033768e-01 -8.945518816419052444e-01 -3.358899469126886417e-01 -4.956898985958873016e-01 8.009178909182825823e-01
2.315628620269531007e-02 7.471536302672865046e-03 -7.832384806588115200e-01 -3.341942953853811460e-01 -5.027559453132476319e-01 7.972142951453210502e-01
9.332233990473889906e-02 -4.924249818073609189e-03 -7.613287554674907920e-01 -3.362609577868442279e-01 -4.957217658773586666e-01 8.007424674036636159e-01
-4.027063285655597957e-02 1.454443631123820135e-01 -7.249033138442074753e-01 7.425092051603774390e-01 -3.203359096047971311e-01 5.882728833371222432e-01
-8.648562001721619985e-02 -1.706623403891416868e-01 -9.401373009431363004e-01 -3.370458410532922167e-01 -5.590659504810064906e-01 7.575258174091805685e-01
-1.170790174635491510e-01 8.633675758912862097e-02 -7.917142490464427196e-01 3.340177777259239478e-01 5.032552372820211506e-01 -7.969732055165039686e-01
6.508591425685261549e-03 -1.310183861271594363e-01 -8.748553918932014950e-01 3.472922022726910862e-01 5.020944092322615626e-01 -7.920159912895008425e-01
-7.727905062528669933e-02 -2.162888290272744207e-01 -9.631370636840074217e-01 3.302195602438138256e-01 4.815862825520653145e-01 -8.118064390543254794e-01
1.456930827791415028e-01 -1.570163467551606296e-01 -8.338091140370617049e-01 -3.355295039150477110e-01 -5.037555397685042902e-01 7.960215500569470803e-01
-1.562993872573712750e-01 -8.898377357612204108e-02 -9.187792892507468112e-01 -3.174385721799202753e-01 -5.042703861015066513e-01 8.030841366839533979e-01
1.770047860856058600e-02 2.012702307847643035e-01 -6.634624827336503827e-01 3.441331394062725479e-01 5.003998425970520580e-01 -7.944635799652671748e-01
8.879803538446183475e-02 -7.454316755850487475e-02 -8.065518065488469501e-01 -3.374665713814621326e-01 -4.991795698773928147e-01 7.980827464724831177e-01
9.300116470277437764e-02 -5.128888255705651988e-02 -7.903409355235314626e-01 -4.069620430912673781e-01 -4.865793474300706412e-01 7.730604336903473817e-01
-8.773669855442456367e-02 -7.077008060208522799e-02 -8.770610764056757658e-01 3.435985491384702106e-01 5.080554385318490906e-01 -7.898225803357035169e-01
-7.669257876218306402e-02 -4.805432400699811112e-03 -8.313592575060935186e-01 3.486666930960384270e-01 5.016255395120914340e-01 -7.917091355003275099e-01
-1.579012829936280587e-02 -8.860873846396702391e-02 -8.537461400796416688e-01 9.730131977105179741e-01 1.103514235804845395e-01 -2.026521166800700768e-01
-8.555212454100868946e-02 -1.248528996031462307e-01 -9.113026375848526373e-01 -3.304632341811126195e-01 -4.980718738103605547e-01 8.016972367256826049e-01
3.550213626208752801e-03 -3.207936325866291710e-02 -8.145485725388486031e-01 3.279776026662707955e-01 5.030473530754716593e-01 -7.996086872421080960e-01
1.210962432454419785e-01 -1.325175912141251522e-01 -8.289927860647190450e-01 -3.268112908978983988e-01 -5.009615875423581999e-01 8.013937034620931543e-01
1.126679138779834999e-01 6.834709955857898311e-02 -7.076822142527695592e-01 -3.286297483864715763e-01 -5.009057075753774457e-01 8.006846823774355082e-01
6.558952914767195164e-02 -1.814343626584565550e-01 -8.812426707799125847e-01 3.261436573113552506e-01 4.982093570774035474e-01 -8.033789587212831762e-01
7.824768570553916613e-02 -5.126781902160024856e-02 -7.965721607485228839e-01 -3.377753612692973584e-01 -4.989479502495360874e-01 7.980969541736028239e-01
-2.429444515227176943e-02 1.789661178803753777e-02 -7.952318985425272935e-01 3.521801635774640116e-01 4.475912961166393367e-01 -8.219678606996609904e-01
-3.402880817081863768e-02 1.766075598779477118e-01 -7.050623797628103873e-01 -6.616363516700011216e-01 -4.877379765574173520e-01 5.695164654094616585e-01
-4.628955273735663872e-02 1.460673269866315585e-02 -8.080639293508101728e-01 -3.328047580935740712e-01 -5.037595048675574949e-01 7.971620627236790657e-01
1.083122476283437940e-01 5.306989045215710493e-02 -7.189697706089603901e-01 -3.224720454378067758e-01 -5.054720394743428269e-01 8.003185598377721144e-01
-1.945302203600524429e-02 2.381665078669013835e-02 -7.841190101266841683e-01 6.418568893734198921e-01 3.162074435736633715e-01 -6.985932909729992701e-01
4.421957306747147098e-02 1.585533070925174703e-01 -6.789059901136689223e-01 3.384391946607248625e-01 4.999217325864203643e-01 -7.972058534689717701e-01
-1.477525433053154535e-01 -6.744030268261910765e-02 -9.002393123408529707e-01 3.423457688728402393e-01 4.975335541436709530e-01 -7.970318293744803606e-01
5.009985253212363016e-02 -4.083875775374357087e-02 -8.018648328462617547e-01 -4.001019976841128645e-01 -4.382841616742176871e-01 8.048760060249716686e-01
-8.023377033229735222e-02 1.856696779121795315e-01 -7.144486153941277395e-01 3.223145173629075599e-01 5.109603888953285766e-01 -7.968894734384751599e-01
1.302095371569498283e-01 -5.043677283056208563e-03 -7.444088092065365148e-01 3.379575526431831123e-01 4.953811570439100587e-01 -8.002388405077992539e-01
-5.812517312972542705e-02 -1.274625119483547842e-01 -9.013724221270724701e-01 -3.377073027842925068e-01 -4.787700101080888393e-01 8.103906805160450144e-01
-9.430266503664717914e-02 1.551150093589643841e-01 -7.409517244025727312e-01 -4.470419846187061452e-01 -4.730847726555416632e-01 7.591734069826358011e-01
1.211323866375827313e-01 -4.250584471070848608e-02 -7.715329500121678175e-01 3.395855260453680136e-01 4.975669775622036384e-01 -7.981909378965061919e-01
7.828302806011291914e-02 1.000650883983853212e-01 -7.024744375402440788e-01 -3.343170321615618890e-01 -4.976825517195700987e-01 8.003400525530273146e-01
-5.999067034254780550e-02 -1.419044064090385360e-01 -9.096103390107576070e-01 3.446936825747211053e-01 4.880777082033738168e-01 -8.018518665863537676e-01
-9.030921871014974123e-02 7.124757501565939788e-02 -7.898473898994474718e-01 3.492073978900999132e-01 5.064006628031512136e-01 -7.884241003237751899e-01
-7.181066249995064765e-02 5.132735364852529514e-02 -7.959486280963097293e-01 -3.325064066854243605e-01 -4.931542603041469963e-01 8.038895229178053548e-01
-3.958316603164986625e-02 1.546270798996235152e-01 -7.197688538107774869e-01 2.173606550981977137e-01 -7.967093748799193298e-01 5.639224393422651582e-01
1.722892119110000231e-01 -1.548469046206566169e-01 -8.212826402511164137e-01 -3.381209505799013249e-01 -4.959323304849476699e-01 7.998283230535865318e-01
-8.328851582169073675e-02 4.004311170920153706e-02 -8.078614183728903830e-01 -5.627656519576483829e-01 -4.471454876369112541e-01 6.952378973147477215e-01
1.064647438032512577e-01 -1.437868227479110195e-01 -8.421568101664558270e-01 -3.312128028083464737e-01 -4.916181852425133281e-01 8.053630480688179771e-01
-3.241524514113473115e-02 9.813716878659309306e-02 -7.443099959566190638e-01 6.038225495356707162e-01 5.011086746354701527e-01 -6.199100135320647631e-01
-1.204229278918777374e-01 3.575330301016736018e-02 -8.261201339747996641e-01 -3.372043664133816399e-01 -5.024910292248843113e-01 7.961130452519077361e-01
-1.941452249086984827e-02 -1.404599037445989906e-01 -8.931259160496998195e-01 -3.313561056834661844e-01 -4.950201950195267098e-01 8.032173664389467005e-01
1.728080365030321142e-02 -6.807697607023863173e-02 -8.326543545966149651e-01 -3.303831034432448410e-01 -4.966713598877965929e-01 8.025986327090378625e-01
1.401326668273952525e-01 -1.458978350793160017e-01 -8.277771081095681716e-01 3.449161616582894774e-01 4.950968901937614630e-01 -7.974408509396664346e-01
-7.529367672659043054e-02 -1.146005670896484002e-01 -9.005872287540391818e-01 -3.377662880700862402e-01 -5.041152444385793574e-01 7.948470009806837266e-01
9.977012429754521239e-02 6.392949162770097948e-02 -7.158234030555604699e-01 -3.303396250444596283e-01 -4.911904951585219781e-01 8.059824002987977520e-01
-1.657874175587150181e-02 -6.811058116545064267e-02 -8.469730460329849553e-01 -2.548946787029142680e-01 -6.006652925493143336e-01 7.577795913691426355e-01
-6.217326235554129082e-02 -1.034769074618263202e-01 -8.866194546066443749e-01 3.350462212077339186e-01 4.874855801650922471e-01 -8.062889300899034328e-01
-9.355735618230271236e-03 1.309584009521741997e-02 -7.918787431187250814e-01 1.922688824551845865e-01 6.294006216342213911e-01 -7.529193411819687931e-01
-8.983945138246117457e-02 5.703965748922664412e-03 -8.319330043504625793e-01 -3.498179060568799015e-01 -5.011584899351410050e-01 7.914970628927874285e-01
2.390248810395216583e-02 -2.184187906789853695e-01 -9.218256871963830257e-01 3.305682978527657578e-01 4.982084141727841642e-01 -8.015690715728523985e-01
6.494644620960443593e-02 9.356070479905463644e-02 -7.120972000976137917e-01 -3.317185437358879940e-01 -5.014720600110573745e-01 7.990548046098014945e-01
4.211194149249372111e-03 -2.155102899291547747e-01 -9.363657387233460527e-01 -8.868102232678480856e-01 -3.244954122807370833e-01 3.290446099184478612e-01
-6.237686079246904276e-04 -3.215749809565936201e-02 -8.163523252901752070e-01 3.397034137296122691e-01 5.041293110221225504e-01 -7.940121085152340719e-01
2.229551640332342807e-02 -8.756854003833358657e-02 -8.411864642304642814e-01 3.408165248090412325e-01 4.953197301339846148e-01 -7.990634901915395494e-01
6.502263568590065101e-02 8.801586126247255837e-02 -7.140216137772353866e-01 3.324482915134805427e-01 5.017906257264915793e-01 -7.985513768085206188e-01
8.600577497883284128e-02 7.270510722267747861e-02 -7.146701105878044968e-01 3.417296670992985841e-01 4.920046513194039628e-01 -8.007198372116642870e-01
-2.366887171204910129e-02 2.178590945569885279e-02 -7.940575214229268486e-01 -3.179989697253500225e-01 -4.534060199650948864e-01 8.326461651344032600e-01
8.289082669943407741e-03 -1.357178192048748844e-01 -8.731972553148465988e-01 6.998892357970909472e-01 1.698861022119229069e-01 -6.937533927056528382e-01
2.917676475155331697e-02 -1.433141666317553076e-01 -8.744258962063633511e-01 -3.342310466798744661e-01 -5.007477770584009003e-01 7.984618157472187505e-01
-2.875128531263021134e-02 1.867406241842384795e-01 -6.921341953393085333e-01 3.290445005523502942e-01 5.024664546481056870e-01 -7.995356018399789599e-01
-6.923201286431271417e-02 -2.042041995133740406e-01 -9.521774369055316933e-01 3.361612373267378051e-01 4.981555429352510500e-01 -7.992725927753570048e-01
-1.891030408122831158e-02 -1.625316636705557427e-01 -9.022997543246803476e-01 -2.332394262317811773e-01 2.437091279349651654e-02 -9.721138969589319112e-01
-1.552207638480175957e-03 -4.838680197377353415e-02 -8.283462381152985055e-01 -3.538838061718070915e-01 -4.472838743993300947e-01 8.214033037623351685e-01
-7.951636765179932731e-02 1.751852604961152693e-01 -7.222017119248298478e-01 -3.266457180542425842e-01 -5.036505020568984303e-01 7.997741847888453215e-01
-1.354935572023038652e-02 1.001127638612913928e-01 -7.395770974938298270e-01 3.304505637093473891e-01 4.976959072796886541e-01 -8.019359131634036242e-01
-9.915704673247248413e-02 1.740249283904952982e-01 -7.312131469833927921e-01 -3.299095291896637083e-01 -4.961641810362238392e-01 8.031069717083195725e-01
1.524791336023595123e-01 -4.385930367376277006e-02 -7.591646304507342347e-01 3.386044926680418787e-01 4.994825618985232474e-01 -7.974109153405826156e-01
-4.705725935076995187e-02 1.228182989061087499e-01 -7.395456803646042188e-01 3.451606715888549393e-01 5.045045173305584552e-01 -7.914160111985292234e-01
2.990137557050785017e-02 1.669973169286114723e-01 -6.812137320820952358e-01 -3.436069982336165118e-01 -4.890812860279232233e-01 8.017067583737561565e-01
-7.596055813836563586e-02 -1.545249447000881238e-01 -9.241341000289229335e-01 3.411071869761973518e-01 4.872534885426267337e-01 -8.038842733231107429e-01
7.305129197440261846e-02 2.969354587035491835e-02 -7.468569409966385741e-01 3.307170265671520726e-01 4.946801211279705512e-01 -8.036901306470036754e-01
-2.665594746928008976e-02 -1.497353268950658844e-01 -9.047999483979126678e-01 -6.718924152698561025e-01 -7.254476040723574215e-01 1.492861549123534748e-01
-5.647766541305926369e-02 1.507706509879830348e-01 -7.277073691026334501e-01 -3.287677211152482126e-01 -4.959440847424113619e-01 8.037109246250780936e-01
-1.603643612998120749e-01 -3.214318229126401916e-02 -8.851885957223178947e-01 -3.368972655503442715e-01 -4.941984183868810554e-01 8.014163435621998177e-01
-2.480162981632459337e-02 2.096426270409269543e-01 -6.777459022126539612e-01 -3.298073885025721297e-01 -5.019392852495778712e-01 7.995524000415833443e-01
-3.956314076354367978e-03 -4.879899678613283664e-02 -8.328461811495532219e-01 -8.779215775344858530e-01 -4.569343429460240302e-01 1.430549192997042363e-01
-4.121904369716501704e-02 -9.662862241278860620e-02 -8.735247596186759278e-01 3.342911937327486260e-01 4.905621005387195144e-01 -8.047348776508778112e-01
-1.674452682125245756e-02 1.617339816986821388e-01 -7.041803184373373048e-01 -3.344259501352118136e-01 -5.099464636124143579e-01 7.925363639135766247e-01
9.297368268854415418e-02 -1.667211875709455338e-01 -8.621116755957158873e-01 -3.354494020733678195e-01 -4.868489633197417565e-01 8.065059116727617550e-01
-5.044675457778575317e-02 1.866787077176504731e-02 -8.057155558668969153e-01 3.350711743044649249e-01 4.901156021329222123e-01 -8.046825490192452968e-01
9.547132824589414646e-02 -1.409581792523666721e-01 -8.466832625383247102e-01 -2.088571369790010734e-01 -6.273848569150434207e-01 7.501779373232894121e-01
1.431911910542488231e-01 -3.462388635261093306e-02 -7.572993280050505094e-01 3.412287139632924071e-01 4.938809065210381655e-01 -7.997778534949031570e-01
-4.123694365103918597e-02 4.125813471311279984e-02 -7.893253296465786439e-01 -3.477404067311795632e-01 -5.046063072592954502e-01 7.902209084810216666e-01
7.184810686573411646e-03 -2.192530224114255244e-01 -9.293620477644567446e-01 3.330914241395072639e-01 4.967591329524781441e-01 -8.014240244670839397e-01
-1.386655050001662191e-02 -4.996415418835500714e-03 -7.992614117298455501e-01 -7.270213868440195126e-02 5.998149269314004828e-01 -7.968289982555809559e-01
-6.313522224050008291e-02 -4.427192087612402682e-02 -8.502338273093601462e-01 3.333553147249000426e-01 4.998721342063345841e-01 -7.993760589288790852e-01
-4.005550786838156518e-02 -3.159438909309228438e-02 -8.341225925293802579e-01 -3.342308823546557561e-01 -5.021856833552366117e-01 7.975583092874540814e-01
-7.185559507960610770e-02 -1.086206030867029187e-01 -8.954555499292451426e-01 -3.365330677722989661e-01 -5.047845881632248011e-01 7.949452898461933925e-01
2.685778962486921884e-02 9.437338778728170119e-02 -7.276379618782400360e-01 -3.359496901974229899e-01 -4.920092961185981162e-01 8.031591736319378949e-01
-4.394665614775382367e-02 9.584437642066354068e-02 -7.565170579848088384e-01 -3.458965243798456379e-01 -5.019858585901935122e-01 7.926952707045810120e-01
-1.342113473941719537e-02 -2.969089900089242479e-02 -8.279056782559411909e-01 1.287908012798516244e-01 -4.742476507755190585e-01 8.709202576812614671e-01
-1.104038019656920083e-01 -7.144010880475228087e-02 -8.869864730392851282e-01 3.473218843130613798e-01 4.922216352972930697e-01 -7.981762777873587789e-01
-5.475739608565367150e-02 -1.099769742690433205e-01 -8.890462826074027047e-01 -3.368340387775800027e-01 -5.058848192174189018e-01 7.941179887183911212e-01
-8.927570200006713919e-02 -1.024147589813935444e-01 -8.990603316402763223e-01 -1.265233609065193610e-01 -9.717639115757249479e-01 -1.991651056384259877e-01
4.634146807627832071e-02 -1.284427579112103757e-01 -8.563874008588719944e-01 3.380751112984967666e-01 4.917378401343683869e-01 -8.024332468813186736e-01
1.087275884501334167e-01 -1.554036993168387282e-01 -8.464958120297996214e-01 5.894384027511968549e-01 7.827318957533975219e-01 -1.997326931987102039e-01
-4.288115793571232494e-03 -4.630651508675788508e-02 -8.313884873334020931e-01 -9.962177151117583840e-01 -8.688846673066624726e-02 -8.114472878230472681e-04
1.194399913665991214e-01 3.769183751172696523e-02 -7.223169305182488564e-01 3.478654932217205564e-01 4.914493199325620232e-01 -7.984154085207970653e-01
2.953493028168444317e-03 9.530313260161166200e-02 -7.356164083492171546e-01 3.242475044009098251e-01 5.084184749421585270e-01 -7.977306627097090486e-01
1.556345980203332757e-01 -6.627060588263614105e-02 -7.717669853169922822e-01 3.325519953895258451e-01 5.011306852413024426e-01 -7.989225285796033305e-01
-1.424201035677965035e-02 -1.631295707989190713e-01 -9.085523481172909088e-01 -7.703166717534263297e-01 -5.473077776850608922e-01 3.272100574618145297e-01
-6.163617198371658390e-02 2.280607535384171491e-01 -6.817979663242178523e-01 -3.289385147680767840e-01 -4.925764887238327505e-01 8.057095359114669897e-01
1.394768907861861085e-02 2.917815784554897776e-02 -7.736489193737651204e-01 -3.309866898346395248e-01 -5.025470163609805363e-01 7.986828578972909876e-01
-1.538702426759714914e-01 -3.201726565348239628e-02 -8.808574708596175196e-01 3.378688221868078601e-01 4.893596060170545825e-01 -8.039725337304328701e-01
4.688020317891974931e-02 1.829778425186099622e-01 -6.640990267466998498e-01 -3.386709147747372084e-01 -5.082609675787679304e-01 7.918161404780386103e-01
-8.597564981061932288e-02 9.947615040261821584e-02 -7.704710328126057606e-01 3.322713632393498595e-01 4.997708738298355935e-01 -7.998905017828542574e-01
-1.055865807780780180e-01 9.848317138600201637e-02 -7.793433043461284182e-01 3.414746064612800280e-01 4.855609061279322347e-01 -8.047519491012962156e-01
-1.612200714999692530e-02 -2.023468189305522302e-01 -9.302465245776289082e-01 -3.357584400504285971e-01 -5.039287750990228965e-01 7.958153426279875875e-01
-1.200108482132571791e-01 -1.352299149112651810e-01 -9.307379655814463915e-01 3.365103466029183421e-01 5.027404871068209546e-01 -7.962492004723018546e-01
5.291441614603120680e-02 -1.651787694155334718e-01 -8.780043608179852743e-01 -3.439240674101760042e-01 -4.936295566192027695e-01 7.987778769394966449e-01
9.891663728589454585e-02 -1.463042640030931263e-01 -8.448374801080907881e-01 7.400596195597354265e-01 6.678081872399271868e-01 -7.964913403434907557e-02
-8.844387744790217776e-02 2.560809683970107636e-02 -8.164967625581772692e-01 1.703282357084317036e-02 9.954456107875490067e-01 -9.379722216040382865e-02
-1.164718249697898819e-02 -2.242148223355505676e-01 -9.312332701571978122e-01 5.401494862582516543e-01 2.780910581065848541e-01 -7.942945901213898097e-01
2.009235516425690246e-02 -2.222147932056350028e-01 -9.272871935444414460e-01 -3.344467042285066971e-01 -4.980842228813112116e-01 8.000359422847264090e-01
4.307530531725794337e-02 1.495171672718579314e-01 -6.849962211124702716e-01 3.232752660048812121e-01 4.976487033283880090e-01 -8.048843832905739903e-01
-4.512399426902167360e-02 -1.582195747118786133e-01 -9.149682814935737873e-01 -3.381742403177447898e-01 -4.876171091949737524e-01 8.049023158159337443e-01
6.382618154263013099e-02 1.312531890186531824e-01 -6.891002664797625243e-01 -3.294703032134230214e-01 -4.959792996756920425e-01 8.034014274281973123e-01
1.295381145806175083e-01 -1.586656212116891451e-01 -8.401570168101926139e-01 3.351664876779624769e-01 4.945851009007358745e-01 -8.019033629463260260e-01
6.741926197779953001e-02 6.812121919605514109e-02 -7.249970409912656066e-01 8.744612273392385893e-01 8.445465443845570630e-02 -4.776871080781159851e-01
-5.211346104193439327e-02 6.714204001392669492e-03 -8.138469509715143824e-01 3.327778348704087397e-01 5.038553348932632847e-01 -7.971127361412312373e-01
2.222642911998658904e-02 -2.036333920277613382e-02 -8.022198770738299123e-01 5.095175869471559871e-01 -6.524123298084226752e-01 5.610258287329497051e-01
1.648785249686826604e-01 -9.102246189099770513e-02 -7.847552445532093301e-01 -3.543269557877866682e-01 -5.117825679692602492e-01 7.826436044106853673e-01
-7.743907755863126390e-04 -2.358529727132374076e-01 -9.543428331467209702e-01 -3.715477674470701319e-01 -8.117947959373815470e-02 9.248579072473714913e-01
-2.000532177523249924e-02 1.264143434458777637e-01 -7.274481253198300523e-01 -3.364429970373969403e-01 -5.071375082651022881e-01 7.934845036011461961e-01
-9.992537216477541395e-02 1.873093521995198296e-01 -7.217454370992872903e-01 3.293254290090408265e-01 4.949339180541890149e-01 -8.041052036689854132e-01
8.101175175233486792e-02 -2.764253581898330758e-02 -7.806413282467792314e-01 -3.369672700280509359e-01 -4.988162787006825694e-01 7.985207442722108695e-01
-3.418508703161991097e-02 2.203122511508747439e-01 -6.750196649012846217e-01 -3.341447576218754545e-01 -4.979377627819961960e-01 8.002532507584574351e-01
1.671682223447668869e-01 -1.031061492170071564e-01 -7.897478426967862175e-01 3.451956670525299642e-01 5.028834417866034912e-01 -7.924318238340876119e-01
-1.311100351102326700e-01 6.093401863828389053e-02 -8.149687306072557202e-01 -3.472302155009852065e-01 -5.049540559900203007e-01 7.902231196202544883e-01
6.310184300878750319e-02 -1.349312869926762859e-01 -8.534449408643631774e-01 3.283777397390385544e-01 5.051311181799731376e-01 -7.981294465750089495e-01
-7.246877365276849225e-02 1.124174761578277809e-01 -7.582618105294834931e-01 -3.428284464903371132e-01 -5.029437248772984370e-01 7.934206109520790529e-01
1.255061766188458328e-01 -9.306800141628940315e-02 -8.025815749549480849e-01 -3.404768689587525099e-01 -4.983339472567299699e-01 7.973322887702285477e-01
-1.072931938156641563e-01 1.721680069290297821e-01 -7.342708104867575747e-01 3.418628733190374747e-01 4.941623258162779475e-01 -7.993330792541356589e-01
-9.033969105726902260e-02 1.768974499487142582e-01 -7.241424397007679703e-01 3.420455618548366439e-01 5.013750230553122300e-01 -7.947502248327420471e-01
-1.386914020281822604e-02 1.670077808873737801e-01 -6.996024029794610799e-01 -3.299519373542404987e-01 -4.871057811972954177e-01 8.086159019957223082e-01
-7.139016640037382233e-02 4.298840762372239943e-02 -7.994530317771412209e-01 3.481610575616740366e-01 5.039990247004138002e-01 -7.904232164470930133e-01
1.374773777660088236e-01 4.116062735052886806e-03 -7.371678117322757462e-01 -3.337797681508550829e-01 -4.946597738387822907e-01 8.024355267053711049e-01
1.561161074845679175e-01 -6.239142262268614070e-02 -7.706540845427704012e-01 -3.335977020502364221e-01 -5.019747703829476881e-01 7.979560784189744238e-01
1.289612061863184000e-01 -1.261959118254551149e-01 -8.217649043419946731e-01 -3.323471908983008372e-01 -5.038336412985474633e-01 7.973060934157312207e-01
-4.749701683825748033e-02 -8.434292759737289924e-02 -8.685273654595485615e-01 3.348870690396311134e-01 4.910726834679347008e-01 -8.041755222223858635e-01
-1.458857813598900613e-02 -1.611524316610111474e-01 -9.024057767438278255e-01 3.614738997353202365e-01 4.811974790241542177e-01 -7.986148045152546837e-01
1.037951363353763617e-01 4.889917993336491409e-02 -7.234722012916300349e-01 -3.442338786470504064e-01 -4.935209215319745213e-01 7.987115479331935441e-01
-6.952107937300378016e-02 2.208659318914162895e-01 -6.880240598065417990e-01 3.356301793877183304e-01 5.047018818510203841e-01 -7.953794020090074746e-01
7.650224294175879403e-02 -1.153802211898268953e-01 -8.371161417335374333e-01 -3.340871895799391589e-01 -4.964802244782443585e-01 8.011823365880016423e-01
-2.071883948323779967e-04 -1.883698046215933619e-01 -9.071783104849968637e-01 -5.401749814340699452e-01 3.528863210598868205e-01 -7.639909906808590723e-01
5.821664987561799703e-02 -1.696446430666976590e-01 -8.770271726312008909e-01 3.393023550349533179e-01 5.016554014567059516e-01 -7.957485595695700242e-01
-5.896313041400034344e-02 -1.978905868799192003e-01 -9.439472408853032404e-01 3.304861666589611335e-01 5.013870871515406780e-01 -7.996185856298981820e-01
1.146199807561496253e-01 -1.074390668750469235e-01 -8.160989224694438215e-01 -3.355013554371448770e-01 -4.987952192378081184e-01 7.991509055024247354e-01
-3.132408371697670280e-02 -5.686731669912806209e-02 -8.461489793928181902e-01 -3.340332322316241220e-01 -4.999526288208360758e-01 7.990426576222504629e-01
-1.198982676312452672e-01 -1.452758583484369537e-01 -9.384153011279693368e-01 -3.349749283093958474e-01 -4.930166450757300645e-01 8.029485569339960271e-01
-7.618964997527780114e-02 -1.852545537698588873e-01 -9.449159209830826356e-01 -3.315410090130479492e-01 -5.004200102733310507e-01 7.997877047446085852e-01
1.669207688306713344e-02 -5.349414387890664979e-02 -8.209939737956357675e-01 -6.749881395226080549e-01 4.216954822268741410e-01 -6.054452343302836326e-01
1.515900887979255429e-01 -5.455843032006407051e-02 -7.661708998199429077e-01 3.454537929406536478e-01 4.862949654925211029e-01 -8.026075525931359866e-01
-8.122271494373188572e-02 4.943128313219845305e-02 -7.990621583674062389e-01 -3.620963276949263343e-01 5.636295014520855684e-01 -7.424338587124930111e-01
1.026256402893346853e-01 -5.356616894358967769e-03 -7.576890414010216679e-01 -3.372998743585433612e-01 -4.956113225953753254e-01 8.003737949689341269e-01
-1.699463095421899217e-02 -1.887145741532120224e-01 -9.220660094670896090e-01 -3.378148588473442460e-01 -4.957060005026655003e-01 8.000979203869988954e-01
-8.445845942825734587e-02 -2.031608489873898415e-01 -9.594843572999783854e-01 -3.294246300788655213e-01 -4.960218489578869239e-01 8.033938874884483106e-01
8.049782002017004390e-02 -1.257733376319050689e-01 -8.403354022123898925e-01 3.339276022989122183e-01 4.935402835167828073e-01 -8.030631014864728634e-01
-1.119981272799717570e-01 -1.827068761925489115e-02 -8.561219904259658176e-01 -3.364988549911547278e-01 -5.023554207105817015e-01 7.964970507618569506e-01
1.623194767404243510e-01 -5.831042731031119836e-02 -7.648635902722752400e-01 -9.322270505120600070e-01 4.124357658330805865e-02 -3.595159157592355825e-01
-6.507685920811426272e-02 6.921386696765628732e-02 -7.819808278442719196e-01 -3.293580849258774257e-01 -4.925546179081746190e-01 8.055514882807247590e-01
-1.015908688576753482e-01 -1.320673923436189445e-01 -9.210059106548497132e-01 3.937350171680873978e-01 4.687322357375932613e-01 -7.907356242361180954e-01
3.247425665383578408e-02 1.539693292677609682e-01 -6.866562192334100256e-01 3.458570058807545200e-01 4.900312273391994600e-01 -8.001576892810799979e-01
1.510260615558631780e-01 -6.424538626330306146e-02 -7.724066521515995376e-01 3.442294277413087134e-01 4.862465824943481008e-01 -8.031627245393414549e-01
-1.301355580021920644e-01 7.882722645450340737e-02 -8.018829205013292549e-01 3.390998632604005358e-01 4.944769257469615042e-01 -8.003148459454012542e-01
-8.819018666383476868e-02 -1.050553207355160446e-01 -9.000778084530020040e-01 -3.949967510636660517e-01 -5.725404739286231726e-01 7.184531803553629858e-01
9.812464675791653101e-02 6.277246965128549343e-03 -7.508714755594259049e-01 3.483959052819740054e-01 4.953836011387161009e-01 -7.957483150504255365e-01
-1.067019262879099865e-02 2.322862650849513433e-01 -6.577118044733188951e-01 -3.290497423989388603e-01 -4.864708790052216236e-01 8.093654001173258283e-01
-4.924836773760496444e-02 -2.242876604912176497e-01 -9.562983052261393446e-01 3.435213615498091122e-01 4.865021086651997728e-01 -8.033111305237088384e-01
-6.432920512269116320e-02 -1.468423502856846252e-01 -9.144654067138299203e-01 3.360147218963939197e-01 5.023718911629961870e-01 -7.966910252024956840e-01
-1.664163487434784372e-01 -2.835085856018485992e-02 -8.853331071863107526e-01 -3.450201812515797384e-01 -4.894516371049311698e-01 8.008733791707837169e-01
4.250730315168821383e-02 -1.523847312167392609e-01 -8.729215041679138087e-01 3.303224966378344729e-01 5.014519460776937221e-01 -7.996455427186731635e-01
1.488168987660362930e-01 -1.540743550422345176e-01 -8.307406848344429662e-01 -3.407559201086703959e-01 -4.869966617403017062e-01 8.041888176073423988e-01
5.032703816228138033e-02 -9.566291285469054329e-02 -8.326646113867737231e-01 -2.051154433977706304e-01 9.044328438909373657e-01 -3.740706962207642206e-01
-2.108270298350296054e-03 -1.943191786307279512e-01 -9.095492891044054673e-01 -2.271565421799696116e-01 5.981392079044407506e-01 -7.685241657308428120e-01
1.001264563602816543e-01 -1.127799235604375581e-02 -7.624093113949123035e-01 -3.372431509764748925e-01 -4.957433320968139268e-01 8.003159412388375360e-01
7.069848988825863656e-02 -1.130068336024304780e-02 -7.733567229001693244e-01 3.346762013417527437e-01 4.985141535660608247e-01 -7.996721071475286768e-01
-2.418986037837441653e-03 -1.699362190336029810e-01 -9.141971227175026415e-01 -4.001019976841128645e-01 -4.382841616742176871e-01 8.048760060249716686e-01
7.472053921418451983e-02 4.349626702432108499e-02 -7.375569238384087623e-01 3.346677728069913926e-01 5.090121314255396934e-01 -7.930347608434555884e-01
2.967670707675121658e-02 9.198833598994712868e-02 -7.263989961713530619e-01 3.362825292464707849e-01 4.909651618821262997e-01 -8.036586777616814281e-01
-1.243134552560308664e-01 1.731134310595622283e-01 -7.424196584830540235e-01 -3.137199732045357625e-01 -4.961259069210378070e-01 8.095917878130454159e-01
-1.471985842470039385e-01 9.394451148604026497e-03 -8.522948903360783035e-01 3.290375602103766672e-01 4.999161101728686329e-01 -8.011355483065464300e-01
-8.472453031415672076e-02 -2.475534232399738757e-02 -8.471761446583565558e-01 3.357577158299932529e-01 5.001854844071537132e-01 -7.981736887726922358e-01
-5.461629923477726023e-02 7.249320071966738888e-02 -7.739938506446913946e-01 1.563746458764636305e-01 7.189896485989734076e-01 -6.772007496559164785e-01
5.720990221416560884e-02 1.312603383197649409e-01 -6.904008533254050173e-01 3.424099189912925278e-01 5.034830128927326731e-01 -7.932592912187240719e-01
3.138518664876496778e-02 7.366938559866326175e-02 -7.370761598334429898e-01 3.375391169904820021e-01 4.945749262728290074e-01 -8.009138448069874627e-01
-1.875358318484713141e-02 -1.656321689981263001e-01 -9.029723415788907248e-01 3.116628306178963193e-02 3.381859694805335881e-01 -9.405630828639958141e-01
-6.924683680556771581e-02 -2.181939151872641647e-01 -9.609721617900641721e-01 3.365847919303075475e-01 5.143396667637809561e-01 -7.887746097806106471e-01
2.676911580216785949e-02 -2.072529898095919476e-01 -9.136224230569877092e-01 3.402370012512714870e-01 4.962191811927558205e-01 -7.987523440941710628e-01
3.729007411434534514e-02 -1.728954334183724351e-01 -8.894184582063834332e-01 -3.397222677335787755e-01 -4.897620655402356027e-01 8.029457640237703808e-01
-8.372890218552063446e-02 -7.312017074894676394e-02 -8.783791341586918433e-01 -3.763983754231615686e-01 -6.425355313801047741e-01 6.674371535155132484e-01
-3.625319431195862113e-03 1.258537119096960442e-02 -7.913631279677700858e-01 -3.342478349168127583e-01 -5.047411404879186270e-01 7.959364082339607238e-01
-1.224728444358065375e-02 -1.775006300015851413e-01 -9.034616347986306195e-01 8.413980297397392061e-01 2.584433473757182242e-01 -4.746118327089185462e-01
-3.501309460365863158e-02 -2.107567305246842160e-02 -8.239799731900634416e-01 3.356835554413907796e-01 5.032102218692882101e-01 -7.963014650322377541e-01
7.567633798473294426e-02 9.961044041317533571e-02 -7.023175976915098095e-01 3.319679415098349962e-01 4.992049886992425134e-01 -8.003697052409665114e-01
-1.862206729245021938e-02 -2.179571096607416936e-01 -9.409737277833718494e-01 -3.407709146449167115e-01 -5.093471101232719400e-01 7.902156067435889275e-01
-5.605839901375016254e-02 -1.954740396559054294e-01 -9.412433605525049041e-01 3.514680840705627363e-01 4.934910052664136515e-01 -7.955732609891513762e-01
6.531943938373424227e-03 9.367602610599578758e-03 -7.890074914368299108e-01 -4.000116307796634518e-01 -4.195205036837135748e-01 8.148578049144263868e-01
6.220564038803274437e-02 -1.599962864153974818e-01 -8.686756309018133226e-01 6.383103221041965813e-01 7.590526273750634045e-01 1.280587426544932406e-01
3.514040944665041463e-03 -6.106140531028141777e-02 -8.325825430036475350e-01 3.325811642747804608e-01 4.984859221750126967e-01 -8.005632733038398063e-01
8.026383377734888636e-02 5.059340676985814300e-02 -7.323743815185002060e-01 -3.283515126462839828e-01 -4.923365469822344465e-01 8.060955332021800812e-01
8.321431999284069347e-02 -1.534372303027465023e-01 -8.579578752882522918e-01 -3.274005606164108184e-01 -5.030325533372744795e-01 7.998544387518530252e-01
-6.183564464170510783e-02 2.664039194633763957e-02 -8.056117594597177467e-01 3.353496286232225954e-01 4.904268297141507471e-01 -8.043768714220927984e-01
3.069205537897429226e-02 1.117939317943715677e-01 -7.151841861062315786e-01 -3.356566302130247759e-01 -4.868851131634243656e-01 8.063978628281922578e-01
-6.641396446565588259e-04 1.476625663787721754e-01 -7.061359049125546239e-01 -3.362330506630697990e-01 -5.056481386963431746e-01 7.945233133613696097e-01
1.373739285503319286e-02 1.465939823030051603e-01 -6.991893208150704586e-01 3.321484283288596018e-01 4.865865274185714462e-01 -8.080290668617089445e-01
-1.096432343037450075e-01 1.348931792976478250e-01 -7.584450837421214953e-01 3.492439223806596549e-01 4.843408386342652472e-01 -8.021487609609756486e-01
1.215978406869682310e-01 5.135238945263442822e-02 -7.144554912409807335e-01 -3.403338876476733610e-01 -5.064468232318179997e-01 7.922653975512373714e-01
-8.400661720467048066e-02 -7.705998900240525196e-02 -8.785323177159370944e-01 -1.265698584024148310e-01 6.165312373123005285e-01 -7.770902807024139269e-01
2.490565500930338669e-02 1.602429214868039409e-01 -6.874869142215146445e-01 -3.330803798361565704e-01 -5.038673165304012880e-01 7.969787876102186752e-01
7.429240212593175852e-02 3.647799457755178387e-02 -7.420865720812314104e-01 3.436714949977743849e-01 4.955338857734774560e-01 -7.977067578855231433e-01
9.917194501106788018e-02 9.831775898693282181e-03 -7.497367908176008067e-01 -3.487416059321604700e-01 -4.945770488749345883e-01 7.960985083631409998e-01
7.698003356381569184e-02 1.217097894970072536e-01 -6.895220180851241443e-01 -3.447611279766066295e-01 -5.013641663153740602e-01 7.935828484608192790e-01
2.288386843725020298e-02 1.161682924107417109e-01 -7.157536322783595306e-01 -3.254588160807602715e-01 -5.019092528895566785e-01 8.013511470629818279e-01
1.486730763378323918e-02 -1.588051274571572746e-01 -8.885603923580088770e-01 3.381728216781720309e-01 4.967795091220664205e-01 -7.992804651651770342e-01
1.955677756017815128e-02 -5.499792736884780847e-02 -8.220153216882090108e-01 3.382312739824134273e-01 4.998592020165782412e-01 -7.973332950903174732e-01
4.934058783483673966e-02 1.776513533182084714e-01 -6.648533949652020159e-01 3.417129406469556763e-01 4.904293157365681721e-01 -8.016928042963661349e-01
5.158936432780982656e-02 -5.155141604090159729e-02 -8.063637501531764062e-01 3.382727217561677380e-01 4.999871665823190647e-01 -7.972354727234975957e-01
-8.691634681958482211e-02 3.031704827063642915e-02 -8.139023031269290165e-01 -1.960336190006355950e-01 6.606599917499240693e-01 -7.246372854901297345e-01
-3.255858199590200286e-02 -2.031620513808400641e-01 -9.392632318714250195e-01 -2.881139366864739551e-02 -7.955628524049275507e-02 9.964139205539047639e-01
1.054236153806109022e-01 -9.835397351794859799e-02 -8.128588073418615556e-01 3.236155956305554193e-01 4.979483154801407907e-01 -8.045622545056230202e-01
1.638610303590581629e-01 -9.944211661664920099e-02 -7.888549561950635169e-01 3.445302690596757644e-01 5.054311482171487402e-01 -7.910993920573835547e-01
