-4.160288326227917083e-02 1.762503404426854492e-01 -6.089422192488783692e-01 -3.813169035367665050e-01 3.584036625622750733e-03 9.244374363679774831e-01
4.319022560251750860e-03 5.583841801508274832e-02 -6.211524489939037608e-01 -7.350585067983733678e-01 -3.484685906628238738e-01 5.816000626760718939e-01
1.514803295175257310e-02 -1.385503461624304766e-01 -7.142078476861631886e-01 6.297292715471063396e-01 5.022665215276154171e-01 -5.925954656503035212e-01
9.809887009915212175e-02 -9.570298187919602795e-02 -5.926982575470510772e-01 -7.367597023987479954e-01 -3.458546155467585037e-01 5.810075092684361397e-01
-2.970117050576076209e-02 1.017742941919483335e-01 -6.368570303811140754e-01 -7.418419605543241646e-01 -3.490684221545150567e-01 5.725571955844006578e-01
7.144177535384574340e-02 -1.344177254950555955e-01 -6.491455678346554903e-01 -7.415016113318612101e-01 -3.448568839923831231e-01 5.755424310642243135e-01
-2.301290035371847918e-03 1.591510363167625841e-01 -5.664757585477548929e-01 7.331904114613588819e-01 3.546964175050930090e-01 -5.801915821090269931e-01
-3.581152415975339537e-02 -2.095330663023076134e-01 -8.260813570935566785e-01 7.380746854210251673e-01 3.436747228085982320e-01 -5.806319347427315591e-01
1.118281357896439288e-01 -1.401751048364897334e-01 -6.017397306620653197e-01 -7.328167093841564395e-01 -3.424289943919178736e-01 5.879813383493701640e-01
-6.704521301130846565e-03 -1.777294721471112948e-01 -7.589548587787032785e-01 9.377972188239395157e-01 1.519565591101130486e-01 -3.121627468316785503e-01
-2.883153166531935221e-02 1.112856708386638221e-01 -6.300945205664997273e-01 -7.292464072075275361e-01 -3.523933188255222726e-01 5.865310106226664377e-01
-5.672349782727403866e-02 1.109771882495336759e-01 -6.632052928559606375e-01 7.250975885661983256e-01 3.435565416107153047e-01 -5.968269345228723877e-01
6.749151826998614490e-02 -1.501269427318020488e-01 -6.611796017370629164e-01 7.318052478502671265e-01 3.432996857385934852e-01 -5.887328808471564701e-01
8.243752456322580441e-03 -1.888925264464221543e-01 -7.744150496333579436e-01 -7.795021576400985586e-01 -2.741648768516435353e-01 5.632139971053222727e-01
-4.764167749617763403e-02 1.845347923393754197e-01 -6.113013754264063904e-01 -4.373408009691110432e-01 -3.015237225579888228e-02 8.987902192697937442e-01
9.686843611865424142e-02 -5.891531688452842502e-02 -5.705330941049046034e-01 7.282149670106768946e-01 3.458317508113268879e-01 -5.916953286552218971e-01
-4.154585850180401996e-02 -6.144999453845876453e-02 -7.458744332209811256e-01 7.404839429636117520e-01 3.411834265233027463e-01 -5.790314323755494375e-01
-4.496538893152250693e-02 1.518979414877444645e-01 -6.243211131861865493e-01 7.344888610022167752e-01 3.454560245328165968e-01 -5.841115032060643086e-01
1.271371563190710208e-01 -1.494228075929855126e-01 -5.859091885399881905e-01 7.593798141130234658e-01 3.431338525457383604e-01 -5.528123163920910521e-01
-5.054268050692344028e-02 -1.267471683710311992e-01 -7.957052786906875230e-01 7.294894901080035687e-01 3.470360956233426442e-01 -5.894158397570183894e-01
4.560210928443408397e-03 -1.357969713361362185e-01 -7.361662750142267120e-01 -9.053892297712707871e-01 1.347803810988183228e-02 -4.243685722374992420e-01
-4.109358448693849891e-02 -1.629631689232630964e-01 -8.073127194493248115e-01 -7.365876445702734809e-01 -3.407715293483687402e-01 5.842203408406714260e-01
6.469496387812789795e-02 -1.644869636123845180e-01 -6.777587528911384052e-01 -7.795021576400985586e-01 -2.741648768516435353e-01 5.632139971053222727e-01
6.552157933886675056e-02 -2.083713364487633779e-01 -7.000960687939556948e-01 -7.340193581122839150e-01 -3.493636010522556123e-01 5.823750133515612770e-01
-8.456864741336453731e-03 4.798030732841918056e-02 -6.498249568399777631e-01 -7.795021576400985586e-01 -2.741648768516435353e-01 5.632139971053222727e-01
1.824991007442603938e-02 -1.417422666239788742e-01 -7.215585862712119436e-01 -7.528613769310629200e-01 6.312885281970815887e-01 1.862110128113435015e-01
-6.726136076848154843e-02 2.305975415840295639e-01 -6.058895410802412895e-01 7.304716307527711061e-01 3.483750380735346486e-01 -5.874061878399398084e-01
-3.597652017324030199e-02 3.285389612046617225e-02 -6.832885382300144528e-01 7.309485207722964395e-01 3.533929269162213171e-01 -5.838045042532458151e-01
-4.816462870453368933e-02 1.558777616581813741e-01 -6.259974506418624074e-01 7.353118016822116632e-01 3.465033390819149406e-01 -5.824534232983294979e-01
1.232713055668376162e-01 -1.652220019048078192e-01 -6.000910559257243149e-01 7.316121466221325864e-01 3.450033191691672663e-01 -5.879765103107543744e-01
1.229972308286373002e-02 1.522081841087816467e-01 -5.542802840969667244e-01 -7.311487230331140674e-01 -3.340775811011840180e-01 5.948224227554206323e-01
8.043084812728820698e-02 -1.551839927642105210e-01 -6.479178872124436994e-01 7.313336703162949259e-01 3.423858798820966221e-01 -5.898499571238937644e-01
3.218040153326345854e-02 -1.765461614177111019e-02 -6.274520519181103761e-01 7.385139951537000869e-01 3.313344944897185229e-01 -5.872091039173041871e-01
-2.390412221029490636e-02 2.555074589237849025e-02 -6.712755088286913585e-01 6.153906887422755378e-01 6.809057005933451256e-02 -7.852757314970981728e-01
-7.436855086960041106e-02 -5.234929554112171396e-02 -7.801300221273896884e-01 8.579251728226314766e-01 4.841237899762885211e-01 -1.720132373285619409e-01
-1.037504628123421258e-01 1.247257324534670718e-02 -7.825080587641368712e-01 -7.351068507123731388e-01 -3.555758500335080008e-01 5.772206968817772399e-01
4.645306734120183828e-02 -8.969193349875141663e-02 -6.490476349163663006e-01 8.677289771860623446e-01 -3.251167700966666740e-01 -3.759594498792935835e-01
8.042887460907606478e-02 -7.144556336328639068e-02 -6.006366521189889784e-01 -7.355985818404336962e-01 -3.458360626794961257e-01 5.824878918438444186e-01
-3.359354100152104217e-03 -1.736441984289583684e-01 -7.689386104286387580e-01 1.961198671382025915e-01 3.539564745325751716e-01 9.144680485671240477e-01
1.025794711364791112e-01 -2.233545181207240507e-02 -5.417458415539224692e-01 7.365719734911615468e-01 3.518236132704334884e-01 -5.776520345438694859e-01
-2.378126213024364666e-02 -1.180124658845169150e-01 -7.568948491011767699e-01 7.340610162489862311e-01 3.525354807292791492e-01 -5.804077525761364154e-01
-4.645555609873733283e-02 -3.553181836759234519e-02 -7.405050958758406798e-01 -8.483885219176755532e-01 -5.193508803220663328e-01 -1.025259917632423412e-01
-2.622786330613092673e-02 -5.543881513517145976e-03 -7.000002016168918040e-01 -3.587426103806536926e-01 7.081391222550081910e-02 9.307465440884503671e-01
-9.470623285740685515e-02 1.227180630149935121e-02 -7.712874714479923677e-01 -7.346957152902501287e-01 -3.535880892317098123e-01 5.789625800409002876e-01
-3.387247719457253670e-02 2.018138579852940262e-01 -5.857364979717907261e-01 -2.172352571197633808e-01 -4.272315087105303943e-01 8.776571546048229644e-01
-1.436418494817801907e-02 -1.140361264306629166e-02 -6.727859876728741195e-01 7.795021576400985586e-01 2.741648768516435353e-01 -5.632139971053222727e-01
-3.207696308015410558e-02 -1.300651055746602225e-01 -7.784074495978261510e-01 3.058611033367204107e-02 -3.811762064681890883e-02 9.988050544780405771e-01
-5.579628516281649048e-02 -1.147301580160416529e-01 -7.952101924498534702e-01 7.449439777769238935e-01 3.523923001464291938e-01 -5.664610637734979193e-01
-6.948649386404276949e-03 2.840603493499494273e-02 -6.598775281087835287e-01 -8.602138636865785948e-01 -2.484934668811165648e-01 4.452899118987672100e-01
-8.357330790152595057e-02 -2.879130183870421897e-02 -7.814433705767537264e-01 -7.358717665357685789e-01 -3.425124972860261185e-01 5.841043848649118964e-01
-6.781952954395410738e-02 8.964471566219636700e-02 -6.919019355683928563e-01 -7.420735263089899281e-01 -3.519740491679982930e-01 5.704744957170516662e-01
2.037861668879293806e-02 -4.345710281780493928e-02 -6.574170201107282230e-01 7.795021576400985586e-01 2.741648768516435353e-01 -5.632139971053222727e-01
-1.003121893655354036e-01 1.103069435200016990e-01 -7.184029270469172168e-01 7.462275687458311824e-01 3.354012109198936109e-01 -5.750221242327591131e-01
3.913447986984154581e-03 -8.626150724946277104e-02 -7.124969201117696826e-01 -9.700429753054439219e-01 2.170845028728767834e-01 -1.090456082242555885e-01
-6.443695479971633944e-02 -7.582538204943697208e-03 -7.428211476767169197e-01 7.329116478213496544e-01 3.503957128768794282e-01 -5.831495184644305274e-01
-3.021774201400548310e-02 -4.032472905349197834e-02 -7.212390812658573402e-01 -7.352284777777507996e-01 -3.350857722356732071e-01 5.891999751441218125e-01
-5.506035115095960636e-02 -1.221776461903337913e-01 -7.986483995057209739e-01 7.349915528475152726e-01 3.496530158619610140e-01 -5.809734810999839238e-01
5.070789270834392959e-02 3.915602673273738121e-02 -5.706555388485162750e-01 7.403360278619243173e-01 3.528250157296719536e-01 -5.722036998525827922e-01
-5.406145900808957683e-02 -4.981532341797823005e-02 -7.547596166628340875e-01 7.323543432939357833e-01 3.439999493204021208e-01 -5.876403242852454856e-01
1.129297436191544065e-03 -5.357993302148358200e-02 -6.987791347522861463e-01 -9.774281738860987057e-01 -9.246855946793697267e-02 1.899571804476229142e-01
7.124487776570632980e-02 5.438800618883033594e-02 -5.358432877241691150e-01 7.299710282887609258e-01 3.378513549287455731e-01 -5.941369874295486797e-01
-2.723755201108401212e-03 -2.230707337155686532e-01 -7.964288581268048617e-01 3.320168446537773987e-01 -1.203123251661230297e-01 9.355692167227769307e-01
-1.858232089838423098e-02 1.351961456483461443e-01 -6.010275796821020755e-01 7.294575348807283977e-01 3.370958610897050733e-01 -5.951958377222752450e-01
-2.605653702561779722e-02 4.531646885376894307e-02 -6.655713207221644057e-01 -7.308030947640513642e-01 -3.532887960856111453e-01 5.840495383472742441e-01
1.144439913527454250e-01 -1.788863270826722141e-01 -6.192573257016651400e-01 7.324059189491843869e-01 3.474098112866046417e-01 -5.855663864242945937e-01
1.032647507646346219e-01 -2.582185562217789027e-02 -5.449906423276221767e-01 -7.282178164426493794e-01 -3.431873716961319487e-01 5.932295000451350830e-01
7.738454230895662478e-02 -2.666086029543913993e-03 -5.638593106804690169e-01 -7.431832125837741776e-01 -3.376011500595637038e-01 5.776713390952683547e-01
-9.170523197597200971e-02 -6.655972928722161952e-02 -8.140142615117286207e-01 -7.390320402667486244e-01 -3.501324504012930383e-01 5.755335877558779289e-01
5.679270248792987752e-02 -2.376743553726875721e-02 -6.022591468510790635e-01 -7.328442804749979445e-01 -3.445987245978162083e-01 5.866779180953046735e-01
6.800610947200350608e-03 -1.439057541880947588e-01 -7.411634761100672764e-01 -4.580375472071824827e-01 -7.912937656581313650e-01 4.050380004135442635e-01
3.052349781549880403e-02 -1.894001329231444486e-01 -7.329147625573398939e-01 -7.255087700787036242e-01 -3.547266230163352851e-01 5.897508350670760402e-01
-2.136380418517914558e-03 -3.191784534108960125e-02 -6.839428228678926525e-01 -9.176665083638028131e-01 -4.059341878205668941e-02 -3.952725057210167425e-01
9.731655857551467503e-02 -1.277504143029649930e-01 -6.105447304726917546e-01 7.279783336658890436e-01 3.483839982697874427e-01 -5.904880485349319752e-01
5.781091288580905707e-02 -1.351189214682161632e-01 -6.665746953201525660e-01 -7.336714991241121142e-01 -3.425833997641334894e-01 5.868242885046814905e-01
-9.284237745545524667e-02 -5.982596014066800943e-02 -8.114090597672592997e-01 -7.407457234696305237e-01 -3.368066480246315608e-01 5.812547247187461741e-01
2.093233671914378202e-02 -1.476987802869819399e-01 -7.182201884340443376e-01 7.372309920362994928e-01 3.353765769568032851e-01 -5.865262278960002851e-01
-1.999822800961646024e-02 -6.145640981341148057e-02 -7.187925692165474389e-01 7.396180811755704854e-01 3.448060640096456964e-01 -5.779912388785347632e-01
6.157044607060278146e-02 -1.845784392129265483e-01 -6.889295550025457127e-01 7.351850749756646541e-01 3.365458558198942129e-01 -5.884214411996570027e-01
3.453363895995574528e-02 -8.314745420881151927e-02 -6.631035454206477553e-01 7.453511691349419266e-01 2.759243583549723100e-01 -6.068915744476700569e-01
-6.283406296700637210e-03 -5.542808283398490549e-02 -6.905220424404956425e-01 1.076540747979003176e-01 4.351400751207863959e-01 -8.939036386564742642e-01
-5.504188344275592198e-02 -4.923229471621863584e-02 -7.577227889899618152e-01 -7.327652172299092825e-01 -3.438915540309718799e-01 5.871913959554981854e-01
3.367314823995225942e-02 1.402682863975363015e-01 -5.324456767791948542e-01 7.282242512514163213e-01 3.450651751123596234e-01 -5.921312901831740083e-01
-4.618810592368727957e-02 -2.126476318329078019e-01 -8.409199070246897723e-01 7.300159237904687570e-01 3.299534158428154562e-01 -5.985043812588228818e-01
2.537381898878305828e-02 -1.972888977812467613e-03 -6.287732077810627151e-01 -7.318890439527647729e-01 -3.488531731743706454e-01 5.853545002031508293e-01
2.270882510724101661e-02 -9.762205133639031973e-02 -6.865102545813819290e-01 7.371739749782222351e-01 3.424427016826367964e-01 -5.825010958608609624e-01
-4.738817397334983000e-02 4.556660750683096811e-02 -6.900664433129254371e-01 7.335963897562621794e-01 3.394064245768305677e-01 -5.887610855793293796e-01
5.377394722926238241e-02 8.415505275664472706e-02 -5.402704387156591626e-01 7.420099163142720444e-01 3.482194658098770046e-01 -5.728564285424148084e-01
-5.940003956339710151e-02 -1.635078875695805678e-01 -8.306418266128593464e-01 -7.375125842545634525e-01 -3.350615550645282270e-01 5.863522340572223657e-01
-4.606456239841072442e-03 -2.274798971634767186e-01 -7.838517460259400993e-01 9.214167453464484625e-01 1.700733149648612774e-01 -3.493798061308367453e-01
5.290663863908793424e-02 -6.950538961324981280e-02 -6.340405668342120604e-01 -7.252435731423283460e-01 -3.488219011692128002e-01 5.935865908866572171e-01
7.134769965323650015e-03 -2.399937505837674845e-01 -7.854794822976827184e-01 -4.898708724283575289e-01 3.815704734403914111e-01 -7.838561743998418985e-01
8.308995961790417717e-02 4.611155572524904683e-02 -5.258387342920727292e-01 7.282530328138958620e-01 3.367546306430766467e-01 -5.968616581233940899e-01
1.384025597688850855e-02 2.957553386011785301e-02 -6.226005003045410602e-01 7.383004737622291813e-01 3.480641171776771570e-01 -5.777229273412921584e-01
9.848322604763128096e-03 -1.958889417101092323e-01 -7.765969120208220389e-01 -7.795021576400985586e-01 -2.741648768516435353e-01 5.632139971053222727e-01
1.428892437802706597e-03 -1.000649685638491659e-01 -7.282181211630492923e-01 -6.761523942881031424e-01 -4.615686186872945962e-01 5.742580865269273360e-01
4.587958740469214730e-02 -2.814916741879809267e-02 -6.185314883692659693e-01 -7.329717333066956275e-01 -3.478565367546785914e-01 5.845923947593049119e-01
8.476736154987106475e-02 -1.117791752884992051e-01 -6.189866252151248194e-01 -7.359343696314684102e-01 -3.456317638213499133e-01 5.821849254600085510e-01
-3.053359041133612423e-02 1.627004303384536887e-01 -6.059165344170699408e-01 -2.171231081568483490e-01 -4.558986783114969410e-01 8.631419066515886307e-01
3.125082524222175251e-02 -4.965489583817269542e-02 -6.474516282856658256e-01 5.668827895320986965e-01 6.394499346876857393e-01 -5.193723942993317966e-01
-2.100256176192069613e-02 3.606812675301993010e-02 -6.646776369968643294e-01 -7.311004304214936411e-01 -3.520921928794157885e-01 5.843999044754122352e-01
-8.826194986318623703e-02 1.920189291040650670e-01 -6.550791628695548097e-01 7.393581634293756588e-01 3.421116190271660251e-01 -5.799216725532438943e-01
4.462411723630410609e-02 -1.790568575541152674e-01 -7.069523399043832201e-01 7.354283392346868675e-01 3.490309036304112267e-01 -5.807947883387458710e-01
1.100528258056988201e-01 -1.880352219745237696e-01 -6.301192115557117113e-01 7.419624126284135590e-01 3.381975248243284660e-01 -5.788905012602308942e-01
-4.149742338188676383e-02 -7.342172098064150831e-02 -7.549296976618032895e-01 -7.358331459084866966e-01 -3.553898847065117828e-01 5.764092393696615968e-01
3.449306069303034739e-02 -1.237071561006928555e-01 -6.870466605148338735e-01 7.356524168217077886e-01 3.409419143704818800e-01 -5.852983279061810817e-01
-1.113692590488167961e-01 7.350629842148001525e-02 -7.558076645421474282e-01 6.865427531389364235e-01 -3.932717362681150131e-01 6.115524422035051311e-01
-6.205093801016307170e-02 6.074441393483626800e-02 -6.980167208469127971e-01 7.795021576400985586e-01 2.741648768516435353e-01 -5.632139971053222727e-01
-1.555815486151686071e-02 4.892722441507574987e-02 -6.406449267619647170e-01 5.416718183291691080e-01 3.679125758604762653e-01 -7.557989003377030279e-01
-6.448785058030424844e-02 8.584725781728035077e-02 -6.898609856126469708e-01 -7.301995010598034686e-01 -3.440436377803303136e-01 5.902903217526871416e-01
1.255585395046756106e-02 -2.130403770001428054e-01 -7.771140852603581894e-01 -9.766541980623676400e-01 1.158998756327150187e-01 -1.808695558558015837e-01
1.148549625645773307e-02 -2.033553383651111879e-01 -7.582517725428065125e-01 6.660395553907986210e-01 3.264754691516708052e-01 -6.706750917523502942e-01
-7.416850336651889530e-02 6.386905867758360666e-02 -7.129205294913576463e-01 7.345338080010892501e-01 3.551959245855508263e-01 -5.781833100853348562e-01
2.315162772917497488e-02 -1.220969575350043940e-01 -7.036382018059995636e-01 1.632218282208623417e-01 -8.011989920092332795e-01 5.757072259366108335e-01
3.499214842821313926e-02 -2.012532771109949992e-01 -7.321759459424712624e-01 7.360259690378645470e-01 3.415286644111452663e-01 -5.844860514053449307e-01
-4.895760902147816562e-02 3.139350609590909474e-02 -7.004633358620674377e-01 7.299053754703317409e-01 3.552179687894885807e-01 -5.840020012881667055e-01
6.589130303884934044e-03 -2.519565179874244110e-01 -7.957506871226303069e-01 -2.917042885401119334e-01 9.421213820891868318e-01 -1.652752536154993013e-01
-6.868423757244379591e-02 -8.795804840766873606e-03 -7.509867439721625848e-01 -7.336982927672570653e-01 -3.493095904353600289e-01 5.828118265961091948e-01
-3.826567767855316299e-02 2.099552311302133878e-01 -5.814043967368852650e-01 7.259342764841504314e-01 -8.316179618379999916e-03 6.877137975800600156e-01
-9.170990684068458521e-02 1.731737578562138336e-01 -6.715246872521215549e-01 6.683033734195790165e-01 -1.851762257161707337e-01 7.204723218177948585e-01
5.506489527031337150e-02 -1.658633037107968763e-02 -5.981017986747618753e-01 7.324735001427589154e-01 3.458673727072105186e-01 -5.863943486129681304e-01
-4.942787371341812730e-02 -1.519602466608009073e-01 -8.091507358172489450e-01 7.490548057879382604e-01 2.687048418634994662e-01 -6.055696540325528066e-01
8.253370026166824414e-02 -1.104378468378189732e-01 -6.189153281465170631e-01 7.350998325532899225e-01 3.468066598186544947e-01 -5.825404508577520790e-01
-3.785916841185976711e-02 2.926066058676530385e-02 -6.897909539983340110e-01 -7.340683726797172515e-01 -3.373029277866799180e-01 5.893813359259737483e-01
-3.192548106813949960e-03 1.721364626668590858e-01 -5.598991376584653290e-01 7.396177378835184779e-01 3.393062998579644551e-01 -5.812373324940198760e-01
8.931724963407254581e-02 -6.173919871019390576e-02 -5.837965582241328999e-01 -7.368247695441135781e-01 -3.447561865136699044e-01 5.815775364014807991e-01
-4.756106308339860117e-02 3.906779553404898103e-02 -6.962501522534200182e-01 -7.334565319933119554e-01 -3.384655729249428924e-01 5.894765233840393304e-01
-1.437294739205187584e-02 1.056425464679173337e-01 -6.152611253813299319e-01 -7.327474395735366075e-01 -3.460877606953572938e-01 5.859218819051729144e-01
3.136571858983772110e-02 7.550270880944430496e-02 -5.756139638618911203e-01 -7.367988983869681041e-01 -3.399584460748578119e-01 5.844276159441115226e-01
-2.025322052454232163e-02 -7.666629193381302443e-02 -7.302174362905261562e-01 -7.363255994532695858e-01 -2.375357966535178444e-01 6.335624333070591918e-01
-2.621359287737816748e-02 -3.773905597039040744e-02 -7.125884517378857641e-01 7.400790520698584674e-01 3.498062140759646277e-01 -5.743854187574924941e-01
2.280485750543323129e-02 1.582769047808049445e-01 -5.375425350510992795e-01 -7.324057623366857506e-01 -3.504557967592473733e-01 5.837486906313873458e-01
1.843179282229480756e-02 -1.980574179370006016e-01 -7.499646970872715368e-01 -2.440048562531886289e-01 7.060556691466109980e-01 -6.647909612733855500e-01
5.666977947941151394e-02 -1.876482432944527601e-01 -6.989961083984974621e-01 -7.347432840660284015e-01 -3.519518544597434184e-01 5.798984382305362173e-01
3.200258807978771658e-03 -2.152580916351403695e-01 -7.703105616250357501e-01 1.731223970302857296e-02 4.376181173673676095e-01 -8.989942545468827539e-01
2.354960718674755857e-02 -1.036389864961008017e-01 -6.910688987658039073e-01 -7.369036034550272563e-01 -3.415331045757799555e-01 5.833765659450380614e-01
3.208800125854652935e-02 1.530176691271796811e-03 -6.182923390587075074e-01 -7.309257160684069499e-01 -3.478412634458115105e-01 5.871576049361092453e-01
-2.581059686581209378e-02 -6.316781201926577327e-02 -7.292653390365444466e-01 -7.327290085169186895e-01 -3.428518169893031708e-01 5.878442239785524048e-01
8.388459421086059964e-02 -2.082900587238263046e-01 -6.749298724087617884e-01 7.353017282156026901e-01 3.381091856623874570e-01 -5.873785381284074569e-01
-8.289318065447714989e-02 -8.626639696931576867e-03 -7.666998041671108099e-01 7.348822449412970581e-01 3.482575253816072025e-01 -5.819491232789331114e-01
-8.917121119826124098e-02 -9.464199928291103237e-02 -8.252814897486804302e-01 7.327602662917124254e-01 3.483554006557628147e-01 -5.845604391147775081e-01
9.808494411160974258e-02 -4.449102773559390073e-02 -5.625337146445892333e-01 -7.299238375812791002e-01 -3.443909931942388813e-01 5.904286875968207671e-01
-2.619198800658492990e-02 -1.521948541623024675e-01 -7.801679539176231692e-01 7.380616280569870513e-01 3.519102894908609502e-01 -5.756945208531414337e-01
9.112943548248951531e-02 -1.230086951619499547e-01 -6.155421222629554601e-01 7.356248385019169556e-01 3.464924522428554088e-01 -5.820644960120492373e-01
-9.294300444291518637e-02 3.585879838135848634e-03 -7.741648959068697655e-01 -7.355954296535157644e-01 -3.512968859913014885e-01 5.792148666649311606e-01
-9.963660059968895352e-03 8.978579282785409399e-02 -6.169521426282993382e-01 7.388229968269740544e-01 3.316345442067875626e-01 -5.866507550905949442e-01
-4.781512358812555624e-02 2.516543585865647636e-01 -5.690490607668449163e-01 7.389970562449942326e-01 3.341560766408024907e-01 -5.849983481218206105e-01
2.998865499310720412e-02 -1.415473055828241900e-01 -7.054102717959110924e-01 -7.364631186500265603e-01 -3.367431714694455458e-01 5.867078585948686253e-01
1.239311447427350610e-01 -1.942993778836430152e-01 -6.184877574972914571e-01 -7.413509877443102969e-01 -3.426059186629310527e-01 5.770787619274033720e-01
1.036827848859429441e-01 -9.509735029710754406e-02 -5.833084494437179579e-01 7.371961883401628723e-01 3.458414728486487455e-01 -5.804614160774272946e-01
9.942319538759834818e-02 -1.541908094098211612e-01 -6.235484296969155960e-01 7.381781215411176156e-01 3.409967443379910423e-01 -5.820775560257563930e-01
-7.658684938946364040e-02 2.402333307426847697e-01 -6.119769955199366729e-01 7.357462626866989597e-01 3.474368295252348582e-01 -5.813476467932143787e-01
9.351118165652365366e-02 1.335127472006025166e-03 -5.412611851013414688e-01 -7.357919613916641399e-01 -3.344612762819079155e-01 5.888512921097186492e-01
-7.817155185588391120e-02 7.957626408180991373e-02 -7.107559419595109729e-01 -7.364453527409494660e-01 -3.426596265266237951e-01 5.832946277610423502e-01
-9.497565829601001958e-03 9.234827203703385723e-02 -6.169984235493543023e-01 -7.392192019259804514e-01 -3.315746945054375283e-01 5.861852893646704032e-01
6.455604157554749312e-02 1.007780177304640062e-01 -5.182725572054307506e-01 -5.656359111149226182e-01 -1.578501741999700503e-01 -8.094067818854931984e-01
-3.816838160368807992e-02 5.953339466468607344e-02 -6.702899137958202580e-01 7.323086399839016103e-01 3.382743616309061285e-01 -5.910114314191657892e-01
2.238997228396120628e-02 1.411098607769739610e-01 -5.481004269100130388e-01 -7.351544657494516466e-01 -3.507637285521690851e-01 5.800971627415690834e-01
-1.270335915497327814e-02 1.886316666383817259e-02 -6.553124179724729714e-01 2.139265348836068559e-01 5.606809552657986417e-01 -7.999201860654125973e-01
-6.379886680474249061e-02 -1.509828655128241659e-01 -8.288002855836303917e-01 -7.382500407702098366e-01 -3.428456518973609368e-01 5.808990758108134589e-01
4.657235610484655730e-02 1.265288599709300243e-01 -5.243626668029061078e-01 7.326985773110378242e-01 3.277420076244796365e-01 -5.964377345915132800e-01
-8.235777577246808367e-02 9.967552026695813971e-02 -7.021225426718218365e-01 7.485310402044452749e-01 3.250171829797861012e-01 -5.779836612036152177e-01
-5.946735341820907211e-02 2.476421991195743577e-01 -5.860380891795444747e-01 7.440246816145374975e-01 3.383956528200610658e-01 -5.761212158052075871e-01
-8.215014970001360134e-03 -2.205404030615489008e-01 -7.999668416712877317e-01 -7.367271132900939934e-01 -3.568120014607152890e-01 5.743851984137854361e-01
4.425330713582345532e-02 -1.537260533572643306e-01 -6.946593391117017458e-01 -7.346423523598776262e-01 -3.460175223137414435e-01 5.835858877414744628e-01
-5.466821638981735759e-03 -2.224095312692138393e-01 -7.838007947299923117e-01 9.866498832111818551e-01 1.617631017451673092e-01 -1.883366329590471094e-02
-1.215368558496940626e-03 -2.081868944646332042e-01 -7.852770274903483338e-01 6.178936478997588688e-01 -4.842124501233700529e-01 6.194721487126371162e-01
4.619011949399961375e-02 -1.766502269364619016e-01 -7.056652221274263281e-01 -7.445114704304963693e-01 -3.322400856851635553e-01 5.790675227133146308e-01
-9.995603613007010557e-02 -6.862776030327433392e-03 -7.891123006217641844e-01 -7.407751485892889454e-01 -3.442071277002612950e-01 5.768653503833047758e-01
1.238307836937686118e-02 1.782808214342416738e-03 -6.408575796411402070e-01 7.322242196851889151e-01 3.497930063827017211e-01 -5.843736345799382947e-01
-4.312787989831165384e-04 1.249966025040619710e-01 -5.842379646864214182e-01 7.332809236449627788e-01 3.562787615504434680e-01 -5.791066664151540699e-01
-5.753403810595787704e-02 6.581300315214601293e-02 -6.929989589746164969e-01 -7.242198963819501678e-01 -3.590421346808491676e-01 5.887225893477643357e-01
-1.172715939657924117e-01 3.101234259442825145e-02 -7.880495981677048123e-01 6.669492133312866500e-01 -5.787597580820756926e-01 4.692716582764775990e-01
7.818280418559772627e-02 -1.539648653661409849e-01 -6.521395394506707133e-01 -7.400526212884184218e-01 -3.427866266178846710e-01 5.786358495081960207e-01
-7.248228862426898955e-02 1.973991002986941745e-01 -6.341970926318293289e-01 -7.410377859929202504e-01 -3.460033357241780738e-01 5.754517281218751723e-01
-1.554440524025772763e-02 -2.421455932454213110e-03 -6.692161587364594544e-01 7.795021576400985586e-01 2.741648768516435353e-01 -5.632139971053222727e-01
-8.559597087851320008e-02 1.144986179073403665e-01 -6.974548855813008652e-01 7.276546804860930528e-01 3.406181536954203670e-01 -5.953972953749491204e-01
2.894854476318036753e-03 1.848726334392538084e-01 -5.469123072581837386e-01 -7.282274870418083967e-01 -3.539974328808569992e-01 5.868309336005862464e-01
7.585433789365182700e-02 -1.591542596354425868e-02 -5.736373369656114773e-01 -7.339817991611673476e-01 -3.411821477424007432e-01 5.872524674805704725e-01
7.358100356586864954e-02 -1.706281205490461916e-01 -6.677781395352977434e-01 -7.273068097832102730e-01 -3.537725181819708076e-01 5.881069714109468105e-01
-5.300263041016940041e-02 1.298320532222385082e-01 -6.494995332354579487e-01 -7.223395796732949847e-01 -3.404821008981429586e-01 6.019115139332312792e-01
-3.239000546298181210e-02 1.987445816904893081e-01 -5.866347057371897877e-01 -3.593211484963995672e-01 -3.245360736608400298e-01 8.749655131123934559e-01
-2.954271284787183399e-02 4.699135415923712950e-02 -6.668326243342107551e-01 7.315825817041419210e-01 3.532742128998242470e-01 -5.830816895145242151e-01
3.189170183686630689e-02 -1.911923004100850587e-01 -7.301793517060258809e-01 7.369477496854306420e-01 3.423005256784870665e-01 -5.828707955917942218e-01
-7.710178288797229877e-03 -2.111019828191179892e-01 -7.916668106577011699e-01 7.261512257569970874e-01 3.448856265115581299e-01 -5.947758417734705372e-01
-4.076275083108564512e-02 -1.951998073944276602e-01 -8.258266164257136444e-01 -7.341154100900614266e-01 -3.460126855058276441e-01 5.842514750835858806e-01
-6.947275674491303066e-02 -5.347528954492466319e-02 -7.803473840957061425e-01 -6.195558064481111460e-01 -6.336985122996500186e-01 4.632243497546744138e-01
1.655176380667575803e-02 -2.119608356042976538e-01 -7.637143826445768058e-01 -7.322546304771423431e-01 -3.439084055045976140e-01 5.878181391961878610e-01
-5.963169032046618939e-02 1.571323471623740087e-01 -6.430515344201231942e-01 -3.074524829066873077e-01 4.640412312751272111e-02 9.504312853180285625e-01
-7.349723431793583894e-02 -1.193864280725017019e-01 -8.201854566127152468e-01 7.385362298398249203e-01 3.447793382527040706e-01 -5.793888548531157534e-01
-8.460617312257431855e-02 5.722264071455757800e-02 -7.299502981681719183e-01 7.351334434341630919e-01 3.381450316546876222e-01 -5.875685133768487889e-01
-2.122911011679133597e-02 4.006553246529875878e-03 -6.838244130710720015e-01 -7.323167054306664037e-01 -3.515518179063774618e-01 5.832011336356400788e-01
3.637084880588953295e-02 4.048246698046158859e-02 -5.878652796188840179e-01 7.204369636840149971e-01 3.985814593569378395e-01 -5.675415417523642647e-01
6.353797202117241784e-03 1.019266128372494917e-01 -5.914219993318076130e-01 -7.323398168284950271e-01 -3.417614813254587491e-01 5.889630570501294127e-01
3.096370959724527999e-02 -1.002421415086400397e-01 -6.776185953540315721e-01 7.358434781555239779e-01 3.435779681013813036e-01 -5.835139719760847887e-01
-6.504822706423595002e-02 2.510899298558162962e-01 -5.910964934866042020e-01 7.339426464568232777e-01 3.461347073597029200e-01 -5.843962320831368462e-01
2.904334918434322774e-02 -1.511462966502168936e-01 -7.122133963354619901e-01 -7.319890692645123487e-01 -3.507038823585988396e-01 5.841222383849797861e-01
4.060406077761304772e-02 -1.941343618433187534e-01 -7.229923391234437391e-01 -7.352385828743757124e-01 -3.511373329843425761e-01 5.797644346090249368e-01
-3.606007236574209490e-02 -1.629242727909077093e-01 -8.009437112390134228e-01 -7.365966717245630013e-01 -3.407806965222151541e-01 5.842036118359164032e-01
-7.069231903520818705e-02 -1.245943794026434454e-03 -7.490281617162511951e-01 -7.354075841139665615e-01 -3.369466181655632053e-01 5.879138216902620728e-01
2.472423061605302438e-02 1.094793052159413888e-01 -5.638581344262856287e-01 -7.369338402773928376e-01 -3.546644406672139205e-01 5.754490851328432077e-01
-5.747601643974473845e-02 2.080028240798940942e-01 -6.090146985423686710e-01 -7.316292669742476829e-01 -3.352121005876208537e-01 5.935920007263911780e-01
7.791208969303350246e-03 -7.676913396898857322e-02 -6.959323514150272949e-01 -7.775353609635894392e-01 6.209379921424045268e-01 9.937188921108196238e-02
-4.757820947401929235e-02 2.452997741258710618e-01 -5.725127496830770824e-01 7.358551256332586110e-01 3.374614875789708202e-01 -5.870579004495631859e-01
-7.972300937011711497e-02 9.246335314922744797e-02 -7.065132489155980799e-01 -8.923527833120384889e-01 -4.513171913867897733e-01 -4.393503613034468666e-03
-3.002325392030478698e-02 2.178306154991740129e-01 -5.686911831193744993e-01 -7.471307274780700780e-01 -3.443865852935074079e-01 5.685011485722498703e-01
-5.164313772878051378e-02 2.260848857672140277e-01 -5.888948751818211536e-01 7.411337774658067756e-01 3.434198342382643876e-01 -5.768739388731535245e-01
-3.123531872012760488e-02 -2.008624549191153838e-02 -7.106518217641341062e-01 -7.414977633589694417e-01 -3.482045660527107733e-01 5.735282443905347360e-01
-7.463282165755756245e-03 1.705095512920414835e-01 -5.682963858721590267e-01 -7.326118063704717409e-01 -3.558285743160681247e-01 5.802292364805385905e-01
5.070867047454002963e-02 -2.043026156708699081e-01 -7.142663162864174575e-01 7.333772848494802821e-01 3.467957480947699844e-01 -5.847140045955742105e-01
-6.876842823125116355e-02 -1.268312867206917716e-01 -8.186136840179545349e-01 7.351444066119722232e-01 3.303240628338208751e-01 -5.919870901802580798e-01
2.801122133792639454e-02 3.985309248228096485e-02 -5.987177445923971275e-01 7.372122008627401968e-01 3.451205701443655904e-01 -5.808700052183299878e-01
2.160465509079714103e-02 -1.513612780338140403e-02 -6.368202512843998964e-01 8.357901051009183346e-01 -2.395288090551230820e-01 -4.940453924975214406e-01
-3.712719850739677752e-02 -5.004350669882234176e-02 -7.335810376245501807e-01 7.310901589303969716e-01 3.481247401355546667e-01 -5.867847516940768449e-01
-4.313205491464358610e-02 -1.905836506690563592e-01 -8.239826757804544766e-01 7.337185861752743010e-01 3.453528103512676362e-01 -5.851397035609852137e-01
6.842699750673365833e-02 -1.556843720977383050e-01 -6.633296286414631648e-01 7.352766673989061808e-01 3.562805251601153245e-01 -5.765695185928497724e-01
4.337669978022461355e-03 1.801481562658334423e-01 -5.457179766465607429e-01 7.292236672276811715e-01 3.528203528430344238e-01 -5.863025172850008238e-01
6.601251218794830511e-02 8.870248588640110288e-02 -5.222160080383160263e-01 7.271343824330400718e-01 3.546733628703671592e-01 -5.877775051445456311e-01
2.484365397876264411e-02 -1.205428142212403991e-01 -7.020564937570832331e-01 1.935457044033504770e-01 -7.578226632953068975e-01 6.230929876856413641e-01
-4.537610301261869178e-02 5.893058403183959459e-02 -6.797172858161489861e-01 7.302430891295095261e-01 3.552175876540275001e-01 -5.835798970148341480e-01
5.299923337490546581e-03 -1.414877969909749955e-01 -7.488192115880664135e-01 -9.080023756729276307e-01 -1.833741640690691177e-01 3.767035992982937231e-01
2.230099373813506508e-02 -6.634280768467340494e-02 -6.706606981379522603e-01 -7.274566834228526346e-01 -3.481584809155792715e-01 5.912634319066076838e-01
2.488034373691647150e-02 1.659720280792590652e-01 -5.303276874307658595e-01 -7.342534152271601444e-01 -3.486867374017754706e-01 5.824856061632396331e-01
1.090461098489011599e-01 -1.580278884559182528e-01 -6.157683711681403160e-01 -7.395769571980334023e-01 -3.408142802251152848e-01 5.804063669329743158e-01
2.792679220880413954e-02 4.423691011101695686e-02 -5.983114623095997509e-01 -7.385362993603640236e-01 -3.430991540291815078e-01 5.803853073877376367e-01
1.162418049106788420e-01 -1.656687762813914278e-01 -6.091133972169352484e-01 7.344707810314239360e-01 3.523645161221392041e-01 -5.799930340867039957e-01
1.205154066203895091e-02 -1.906508853912571300e-01 -7.568138316143780964e-01 -7.371310759240785604e-01 -3.363715318492651596e-01 5.860818794915853003e-01
8.389512862422585093e-02 -1.696511033068236196e-01 -6.521413937411443262e-01 7.390933351594747291e-01 3.393955255986251807e-01 -5.818519735521030523e-01
-7.774619897316316364e-02 1.672555082183929953e-01 -6.584878379286677186e-01 -7.351141336977375929e-01 -3.503254002863853134e-01 5.804130635607789301e-01
1.175429255781985788e-01 -1.730768924299933564e-01 -6.118682358350855388e-01 7.300872445820476564e-01 3.495786913559792985e-01 -5.871689312697278007e-01
-3.530875219282127164e-02 2.209644190750922332e-01 -5.752299402289040575e-01 -9.504391498244655345e-01 -1.123054314878063481e-01 -2.899188033558439681e-01
-5.007361117182665411e-02 1.264434431564196437e-01 -6.478927282883774064e-01 -7.241344014153656694e-01 -3.398562140436124923e-01 6.001059260353563962e-01
-4.473435706502802700e-02 2.012117174450690771e-01 -5.950037383597688301e-01 7.268407737923456846e-01 3.439252179022870837e-01 -5.944896416623322022e-01
-1.913679562407121296e-02 5.661131879076136686e-02 -6.501654779410335205e-01 -7.323508555542782572e-01 -3.462229318779733167e-01 5.863377062843021514e-01
4.652011434834130849e-02 -1.961702805063963440e-01 -7.146845192786800416e-01 7.332974537035197304e-01 3.472010165951731064e-01 -5.845736039774740433e-01
-1.002776058562766803e-02 -2.734364809641770533e-02 -6.919367541295935453e-01 1.036938418279538532e-01 2.562952034591945427e-01 9.610204762910982135e-01
1.014310275953189400e-01 -1.194626074780670427e-01 -6.025953594343174125e-01 -7.388034580063517209e-01 -3.442340615270356174e-01 5.793723857092756280e-01
1.815247722506631300e-02 -1.602402445921868868e-01 -7.291616675459442476e-01 7.344945738213422004e-01 3.456156383521801767e-01 -5.840098899448703529e-01
5.387309486089443544e-02 -2.030774243605496798e-01 -7.116502996759890287e-01 -7.329427668185843903e-01 -3.478638544336395966e-01 5.846243574697259637e-01
1.075773793858079801e-02 -1.276150238449158536e-01 -7.213200970158547554e-01 -7.389578682936028819e-01 -3.359065803589332266e-01 5.840445515185819225e-01
-8.675195458454038056e-02 -4.218329306244283927e-02 -7.936984698646103453e-01 -6.540217219680798388e-01 -1.505520651869231841e-01 7.413431478484575621e-01
-6.209513979066290552e-03 5.755017732362920774e-02 -6.281314415549034136e-01 4.823206006123139100e-01 5.391107108113268875e-01 -6.904538215648331478e-01
3.146032715255497186e-02 -1.035530994725752246e-01 -6.789416506901405635e-01 7.365192398198481261e-01 3.413540837369585246e-01 -5.839664364424503873e-01
2.774195802803438443e-03 -2.471846771570067325e-01 -7.889192485827343226e-01 2.453599049918412378e-01 5.390447849563900773e-01 -8.057476260180440608e-01
1.815713650358419598e-02 4.250144528213433553e-02 -6.095662795308313120e-01 7.275826408183543315e-01 3.490855195941682809e-01 -5.905614284640157141e-01
-6.390354013325159899e-02 7.871516684150492438e-02 -6.933785994265885266e-01 -7.425264434880132214e-01 -3.518091027469849030e-01 5.699866980425100094e-01
-5.900077408217839492e-02 1.981013638353547046e-01 -6.146833534658252551e-01 7.448636070150840283e-01 3.420277985550216338e-01 -5.728832271589767711e-01
-4.875056589142461039e-02 2.145857126490774702e-01 -5.941547811887962771e-01 -7.393625152724611072e-01 -3.437549243707263558e-01 5.789435404086101800e-01
-4.921791082898702846e-02 -9.991438239575330116e-02 -7.803501224236563116e-01 -7.338870340409389126e-01 -3.528003317091738533e-01 5.804668355836449800e-01
-1.090001653538552884e-01 8.772202325358562092e-02 -7.446830902235810346e-01 -7.284269448524123280e-01 -3.526694715097936639e-01 5.873826945680160616e-01
2.216343439054285509e-03 -9.475365337614516381e-02 -7.134755835762561782e-01 -7.669579420770186173e-01 2.808604871363142852e-01 -5.769687182599563258e-01
2.094704555650585189e-03 -1.069500177008613356e-01 -7.314065274062273581e-01 -7.795021576400985586e-01 -2.741648768516435353e-01 5.632139971053222727e-01
-9.338367561988896587e-03 2.129958365920019137e-01 -5.435878140791131630e-01 7.336944206161001292e-01 3.487133660364024057e-01 -5.831736323809292299e-01
4.944807256385840011e-02 -5.365347554550639608e-02 -6.290764313727036372e-01 -7.340802372620955918e-01 -3.477274262390279147e-01 5.832768144735455129e-01
1.127505985132928740e-01 -1.464595565150288159e-01 -6.042723090632353689e-01 -7.355571373880106512e-01 -3.435081688103552855e-01 5.839159490869484381e-01
-2.804901850715722095e-02 -9.017980874321622486e-02 -7.458823463873702764e-01 7.327337210655289201e-01 3.385116351385661360e-01 -5.903483436830139208e-01
-1.754124915911661406e-02 -2.325859003890319854e-01 -8.187655495677569339e-01 -7.359133005828363272e-01 -3.328085564627552007e-01 5.896355474108161410e-01
5.740268465533789055e-02 2.111378779311969336e-02 -5.728933596999700173e-01 7.395976804618876743e-01 3.412111901332310904e-01 -5.801467010879742814e-01
5.988204890648092527e-02 -7.944328098748322520e-02 -6.290372985034969888e-01 7.342949893341538248e-01 3.467655590028919654e-01 -5.835790569650067816e-01
4.641775750200103495e-02 7.308793406379061885e-02 -5.560071568431549371e-01 7.318365216112402427e-01 3.538110445514003333e-01 -5.824371643271122334e-01
4.553211054769829014e-02 -1.087720800858788112e-01 -6.665385032923063502e-01 -7.347956163109619077e-01 -3.436763543635931173e-01 5.847751411453325776e-01
-5.886227661364384911e-02 1.543750764838647781e-02 -7.222669126700974607e-01 7.322445804384644097e-01 3.533856255350680819e-01 -5.821825092560629633e-01
-4.287629433922816868e-02 -1.348578243984442041e-03 -7.142177124070568928e-01 -7.325160167566003855e-01 -3.501103799848417353e-01 5.838176145183644472e-01
6.865844229433751278e-02 4.537350468786699453e-02 -5.444199050007595408e-01 7.328948855042154431e-01 3.544059810690675660e-01 -5.807421866751498740e-01
5.403478152824294639e-02 -1.730300463246010889e-01 -6.916006518900078559e-01 7.416940320609334281e-01 3.365624611181075587e-01 -5.801858948400222538e-01
2.004154225015233881e-02 -1.375073002325793818e-02 -6.387049879103736671e-01 3.158203540803427439e-02 3.380504098189278106e-01 -9.405979457030194668e-01
2.952131486246500555e-02 -7.363448550665845083e-02 -6.658978457149776764e-01 -7.271212266625676213e-01 -3.472943712200880495e-01 5.921835369676925476e-01
-1.144607488875164746e-02 -2.123931627704513658e-01 -7.947019488889642824e-01 3.672699722518530940e-01 -2.145585978471409583e-01 -9.050289363175034740e-01
-5.133530955047284176e-03 2.283272930704942638e-01 -5.292040381168074958e-01 7.323626638563978108e-01 3.394911270608501064e-01 -5.902463072617349926e-01
-7.915257011822260380e-02 -6.806534820933740626e-02 -7.991570945629609124e-01 -7.327725136664168248e-01 -3.404254967853728719e-01 5.891985440863148904e-01
-5.222318275963815787e-02 8.825987450409360224e-02 -6.730175322183213904e-01 -7.293402145370484480e-01 -3.423871924737099115e-01 5.923123009772992553e-01
2.346417029643053584e-02 4.386322282653130726e-03 -6.295654793018884421e-01 -9.211073734549088954e-01 -1.342253199396056806e-01 3.654377786355834656e-01
1.658257552279727596e-03 -7.594124107190730610e-02 -6.954122854479574123e-01 8.764012813249361100e-01 6.034023052373169854e-02 -4.777864069564487504e-01
-9.930412428878034048e-02 5.143140899743810918e-02 -7.539281985578059064e-01 -7.391575798688694299e-01 -3.458087206542338476e-01 5.779813153051556185e-01
1.493508106435361901e-02 -6.934469410459490057e-02 -6.816962903206535973e-01 -7.348103144010899035e-01 -3.387113845883421570e-01 5.876464922043008743e-01
-4.244097270473370931e-02 -2.028684677324407992e-01 -8.303824262327024197e-01 7.340950160295360849e-01 3.459787428952185717e-01 -5.842971991249309438e-01
4.114361633348875141e-02 -1.738553826909050859e-01 -7.055732031128456594e-01 2.799317156682539776e-01 8.789098231270551231e-01 -3.862068841615804993e-01
4.353666127181194355e-03 -1.331659914183045967e-01 -7.349619922127385019e-01 -8.410845827980797385e-01 2.367447037022532286e-01 -4.863421325037679543e-01
-2.159797804088904648e-04 -4.161629770007107404e-02 -6.913850266371529552e-01 -9.799731247583606253e-01 -1.912173373976426283e-01 -5.557521596800830965e-02
-2.778008269696356086e-02 -3.953057833218477646e-02 -7.156623198251885754e-01 7.361169015563446827e-01 3.348545099100476152e-01 -5.882213566642990887e-01
1.166831889530107191e-01 -1.527595062140743587e-01 -6.030703715807199661e-01 -7.324873590076713681e-01 -3.407907548883630788e-01 5.893419468157566898e-01
-7.678742635417577789e-02 -6.339186956692960395e-02 -7.933765243913840637e-01 -7.330875852334396425e-01 -3.398341641274417180e-01 5.891479723027208681e-01
-9.824689329533139656e-03 1.139227272694084137e-01 -6.046614340120819442e-01 -7.301487629330132290e-01 -3.421011318568590309e-01 5.914808530879475112e-01
-1.231482555195011382e-02 9.963663535143671424e-02 -6.162455749407915739e-01 -7.291672707682792520e-01 -3.477718019688180173e-01 5.893809167216903511e-01
-1.076710461852957296e-01 5.756352024760592878e-02 -7.608427463132461099e-01 -7.210646225793825304e-01 -3.455943730500645183e-01 6.005250530832046962e-01
8.804758436572451830e-02 -1.985972582880094484e-01 -6.639634200741827419e-01 7.422541966164920568e-01 3.409733289431520764e-01 -5.768846475289760578e-01
3.417398376922268447e-03 -2.713828672294588433e-04 -6.554159663317856710e-01 -7.315206901199230449e-01 -3.339800530135085266e-01 5.944197204968603154e-01
-2.927452695046612111e-02 1.555069326132484109e-01 -6.022837922910635466e-01 -6.263995420132671965e-01 3.411753980025445387e-01 -7.008729995964849691e-01
5.588792350772950335e-02 -2.027099379550527103e-01 -7.068081679162410147e-01 7.337489011820160778e-01 3.491387049835194545e-01 -5.828505080178063569e-01
-1.728482874497570473e-02 1.312809673108487896e-02 -6.667284959418862123e-01 9.900065038186304234e-01 -6.052544549226804294e-02 -1.273726534416801948e-01
8.266418051298182051e-03 2.120759542839280032e-01 -5.240625572757434680e-01 -7.288847747546504108e-01 -3.524909752772917848e-01 5.869217132454089825e-01
4.806696825269776707e-02 6.171769544896255066e-02 -5.603536084492729552e-01 7.642212106150717554e-01 4.459498407271234033e-01 -4.659342022233262104e-01
-6.571016065337020873e-02 2.656437753246719113e-03 -7.384344439282437556e-01 7.331645468098564322e-01 3.513575453316777897e-01 -5.822521984841241283e-01
6.223403809056878705e-02 9.668188977566205544e-02 -5.242579711350963123e-01 -7.385114547829697562e-01 -3.463567279251348885e-01 5.784789090151305491e-01
1.006989052383263916e-01 -2.035673854764442070e-01 -6.531126861744732670e-01 -7.379803387566820083e-01 -3.422248037028525203e-01 5.816074306085822210e-01
2.537534468324252265e-02 9.808288202073146833e-02 -5.677246146199523835e-01 7.349097151655042959e-01 3.364146571505606809e-01 -5.888402915983484975e-01
-1.151726227999931851e-01 -2.015590533158189215e-02 -8.140587898904567687e-01 7.321288554699624251e-01 3.395150683468034503e-01 -5.905225290822593287e-01
-3.954211367744066286e-02 2.147222976011565199e-01 -5.787630946495683215e-01 9.890977524249343622e-01 4.314392138270844307e-02 1.407985731307876964e-01
8.345209687252219677e-03 -6.202814911773648493e-02 -6.801123904070047743e-01 9.475066031394274724e-01 -4.684752399044019716e-02 -3.162855458334267178e-01
6.633950517086116550e-02 -1.938044999488519049e-01 -6.904739177772054592e-01 -7.359447396755881554e-01 -3.500415827436248462e-01 5.795310435983292985e-01
-1.203757673772078152e-01 1.314686009469173168e-02 -8.029905643765493650e-01 -7.422644057482018498e-01 -3.409536283013331337e-01 5.768831556800952942e-01
1.907286621805918611e-02 1.496557856996858504e-01 -5.472800645609949832e-01 -7.335283098477125563e-01 -3.512558278996256167e-01 5.818552758362740551e-01
1.261737140605964369e-01 -1.917145641709343262e-01 -6.124931772791114559e-01 -5.688081213337703446e-01 7.654450654793033548e-01 -3.009172192449811600e-01
1.079620141185696908e-01 -6.883344685137582353e-02 -5.624681265569195787e-01 7.281617454067459416e-01 3.465463274476771049e-01 -5.913426379508996966e-01
4.746352534020185920e-02 1.395307306355716981e-01 -5.166919251836512572e-01 -5.657857700172557180e-01 -1.579780435421380969e-01 -8.092770849372785680e-01
-2.528439973208043701e-02 1.619215176033908521e-01 -5.936501921907455515e-01 7.213856299463157207e-01 3.550051799256059848e-01 -5.946209676196636540e-01
9.860850128968230710e-02 -1.764764201675108890e-01 -6.377266920299068387e-01 7.329609664810259329e-01 3.370326593501184465e-01 -5.909121831089516608e-01
1.655237094494420996e-02 -9.683176569651244514e-02 -6.958344365113616758e-01 -7.297618249142570068e-01 -3.417475233808578428e-01 5.921624010023459617e-01
8.996235722073066265e-03 9.952226657133116799e-03 -6.402041280996512151e-01 7.323659287655646111e-01 3.510760519308905869e-01 -5.834258754494613397e-01
-1.982101438923155462e-02 -1.186340808788919482e-01 -7.523094872324529447e-01 7.331356216581572660e-01 3.337390437498173323e-01 -5.925625797608762291e-01
-9.117362791278661033e-03 -7.341327235920022155e-03 -6.822360931763615799e-01 2.025143290090054490e-03 -5.289000115403826863e-01 8.486817286752658118e-01
-2.928465398211661016e-03 1.159977954493958408e-01 -5.948014789662542379e-01 -7.306179860127416381e-01 -3.403465008275919357e-01 5.919135223063410889e-01
-3.607242126746474514e-02 3.990328558847978935e-02 -6.813232421156999452e-01 -7.338491164516863785e-01 -3.377273714234416135e-01 5.894113138331259494e-01
