2.989697692205151719e-02 3.257562335848004920e-02 -7.653078585995342076e-01 -7.552319228239648963e-01 -2.584405768765845601e-01 6.023563820292062720e-01
9.421376423955625523e-02 -7.753125772865569754e-02 -7.284682349823138336e-01 7.559730081230009446e-01 2.538552784381803984e-01 -6.033757606985344912e-01
9.957453467702971628e-02 -4.333033293037608091e-02 -7.075118386721555019e-01 7.603165843664875245e-01 2.394858111490839325e-01 -6.037923797097336509e-01
-1.524153455571970392e-02 -1.985453678579881809e-01 -9.133720839241158407e-01 -9.730835054266273598e-02 1.424166945413971042e-01 -9.850119644098584981e-01
-6.315675396367456673e-02 -2.662312865683661225e-02 -9.063498489699670646e-01 -7.563475375887944718e-01 -2.487072201866688814e-01 6.050480319862112655e-01
3.728902277621168760e-03 -2.169366426749092525e-01 -9.150250292765571558e-01 -8.875176641566802083e-01 -2.111983583046917190e-01 4.095212439657716086e-01
6.638786056691110826e-02 -1.677399151946704359e-01 -8.006329746469803554e-01 7.521321679845052177e-01 2.486537359769340760e-01 -6.103019920233270224e-01
4.710129665809696838e-03 -1.025088365996178891e-01 -8.615483220713823220e-01 -3.205304950839428790e-01 -1.783901081674697520e-01 9.302887568004036822e-01
7.893011151699060035e-02 2.693357887731310618e-04 -7.173441097021412416e-01 -7.578318946343453044e-01 -2.501454092790445505e-01 6.025928091933540065e-01
3.804817028595230965e-02 7.851080659864843186e-03 -7.633395877822233277e-01 7.527636025597262970e-01 2.446963024406640652e-01 -6.111224740043272874e-01
-1.375853582021111443e-03 -2.095604788738858748e-01 -9.162149150516547547e-01 -1.410751428402048091e-01 -4.531337268547739883e-01 8.802088557037577310e-01
-8.131665642254395920e-02 3.997702752878144056e-02 -9.013697897717293239e-01 -7.575806988546759380e-01 -2.498616727057701159e-01 6.030262259931450375e-01
-7.661136653159729415e-02 -9.038583796204024967e-02 -9.513948444411515215e-01 -7.585933792276683407e-01 -5.425361540233021307e-01 3.608193544830308186e-01
-1.496524676618348620e-02 -2.736860470484733451e-02 -8.413878907881898739e-01 2.380280002698759445e-01 1.583711526355021937e-01 -9.582594894392781892e-01
-9.543128599525762049e-03 -1.357633627065193971e-01 -8.865169428210545322e-01 -8.083307053494603878e-01 -4.603340289467399149e-01 -3.670068835633822357e-01
-6.876422782218051533e-02 1.239848214286645295e-01 -8.488448245317291585e-01 7.520350360145283686e-01 2.605528143161453536e-01 -6.054383003730132717e-01
7.078176164177184260e-02 -1.234102926102025044e-01 -7.767581546952906368e-01 7.284559537774686344e-01 3.140162792879900300e-01 -6.088889059165764062e-01
-5.743781578181419295e-02 -5.728332888317342469e-02 -9.118395884976833177e-01 -7.562076439270206674e-01 -2.521049658709226260e-01 6.038154398900092978e-01
-9.036568539853165327e-02 4.230964444248227346e-02 -9.097813984048170877e-01 7.590736476821612344e-01 2.498366615024338044e-01 -6.011562525365732323e-01
3.554812956374334837e-02 -2.672713771324648491e-01 -8.805295627075407916e-01 7.508079253486649174e-01 2.508365064713067860e-01 -6.110388745856548676e-01
2.722004957270048736e-02 8.503197938773922326e-02 -7.468534200756866692e-01 -7.782275993782465928e-01 -2.275125972412574415e-01 5.853202727246926695e-01
3.481048526771775981e-02 -8.025274195383422238e-02 -8.059315083034767069e-01 -7.628566479740050976e-01 -2.409356623555246601e-01 5.999997843726023738e-01
-2.806434520774236593e-02 1.589224689532300061e-01 -7.854367258449330702e-01 -7.506069097704480830e-01 -2.541100540578439815e-01 6.099322482305540305e-01
8.535510894440757890e-02 1.235554917465150199e-01 -6.581305303711587618e-01 -7.525785682486401118e-01 -2.476452304006496186e-01 6.101617314062198760e-01
6.685396696005285744e-02 -4.661884302236926625e-02 -7.497866057160561537e-01 7.547898939729305035e-01 2.439701651800986471e-01 -6.089094961144287943e-01
6.678352860529551682e-02 8.727237158299173958e-02 -6.944099597862640749e-01 7.590247417028557209e-01 2.443771393693569827e-01 -6.034577493383966873e-01
-6.437713838909844832e-02 1.469048051380617004e-01 -8.338980468131896862e-01 7.561097183580886005e-01 2.459856128661966068e-01 -6.064562408511379177e-01
-9.721093955335928516e-03 1.991591291062806690e-01 -7.457896930580918404e-01 -7.607697143708286314e-01 -2.324592190350965037e-01 6.059638216772688102e-01
-1.183288817052459072e-02 -2.022948173446973419e-01 -9.037489146795465444e-01 9.625574762922852745e-01 -2.471526352541723037e-01 -1.113493588699329545e-01
-8.024632200567900775e-02 -1.261173667715909386e-01 -9.689588454529967088e-01 -7.529879398971272009e-01 -2.512087601189455510e-01 6.081967783612327594e-01
-8.268359961165026861e-02 4.679065750348197078e-02 -9.002635322539039864e-01 -7.576060989663856438e-01 -2.499264728180402018e-01 6.029674593157315909e-01
-5.933335199596005000e-02 -8.513967828609525501e-02 -9.258340736996277798e-01 -7.554219241587090128e-01 -2.551138919070001787e-01 6.035351014285889049e-01
7.621623646653417905e-02 -8.987737005065306317e-02 -7.580801006021516963e-01 -7.562757280837116847e-01 -2.468101119569174329e-01 6.059140134930579569e-01
-1.653143101984470842e-02 4.743025831709104384e-02 -8.172316259567596886e-01 -7.520703983713412644e-01 -2.518398525787582387e-01 6.090704430085910337e-01
7.969747872001010924e-02 -1.684175941864551884e-01 -7.842689594224603322e-01 7.557048932868564162e-01 2.568700235128130727e-01 -6.024349801288331197e-01
6.553680260230633492e-02 -3.666104838860869547e-02 -7.473285714245149203e-01 7.561755916292867141e-01 2.576034748239234839e-01 -6.015304849986728986e-01
8.733207676754321802e-02 -1.708519856279404059e-01 -7.777695748869938308e-01 -7.540648112065092556e-01 -2.440002774157391530e-01 6.097951501292330212e-01
1.128013335793991018e-01 -1.073135618014591092e-01 -7.195394112667645725e-01 -7.556131498394371704e-01 -2.507786526926931159e-01 6.051105974475756710e-01
-1.534101174282064429e-03 -2.438327879788997343e-01 -9.311159872471755916e-01 -2.126110352469510467e-01 -3.329419445803136757e-01 9.186654501124436045e-01
-2.017387339184570361e-02 -2.208149191648832721e-01 -9.330921544512686960e-01 -7.626525497470333370e-01 -2.505464745115258962e-01 5.963116236282791638e-01
-1.046505895053343599e-01 -6.934019960001586158e-02 -9.739030837641167171e-01 7.510653321241863578e-01 2.530666727848325248e-01 -6.098017104000282851e-01
4.836012949861374921e-02 -2.735343130633420272e-01 -8.684085250987036986e-01 -2.991149524718563768e-01 9.542152116509946547e-01 -1.890783331451900695e-03
8.257182009928441813e-03 -2.368850583710020441e-01 -9.001622732194578536e-01 8.340884034294115956e-01 -4.228091012677600569e-01 -3.543007185283768568e-01
5.738737804665578618e-02 1.328089705682495847e-01 -6.892726592876613489e-01 -7.572064749954914298e-01 -2.531651722860019382e-01 6.021177208539050252e-01
-4.700113436611907947e-02 1.470712584021416081e-01 -8.140215101364022265e-01 -7.533737712936027231e-01 -2.505031292596926473e-01 6.080099859031561360e-01
2.492983908962385572e-02 1.020802317724281011e-01 -7.461700752499689226e-01 -3.160543155197897275e-02 -4.913964913741529217e-01 8.703623297004442483e-01
7.493664308257752538e-02 -2.456311610729608186e-01 -8.242843101252921301e-01 -7.569469312175740594e-01 -2.434516616340468564e-01 6.064343589935508039e-01
8.433664480774138994e-02 9.548690140207498692e-03 -7.046770003903428670e-01 7.598528538012530031e-01 2.448845052306380943e-01 -6.022086180619113938e-01
5.598360321947793219e-03 3.014071945196451774e-02 -7.947274063224112339e-01 7.572326545097867179e-01 2.553261881050964410e-01 -6.011715600490288303e-01
8.957666116063911499e-02 -2.915879861582342664e-02 -7.161961690367301125e-01 -7.569039765321101676e-01 -2.461158153154804351e-01 6.054117406868445572e-01
1.712257686080364411e-02 3.238539360366671227e-02 -7.864754705231605802e-01 -9.899988857650958707e-01 6.466264615367091351e-02 -1.253832061173818513e-01
-1.115547261465316548e-01 9.050453148706031833e-03 -9.501245558464044283e-01 7.532173257636405328e-01 2.490529635286815036e-01 -6.087990485595810020e-01
-1.498865431339042702e-02 -4.800292866845518036e-02 -8.495927176198185826e-01 9.946001080677178141e-01 4.756892267472917490e-02 -9.223785896935136897e-02
-2.775016987744454572e-02 -7.872815707975337751e-02 -8.836634904310777250e-01 -7.577635863175581354e-01 -2.505101263515049914e-01 6.025271975990011963e-01
-8.602923892485364599e-02 -1.785415851027898765e-02 -9.292329057966133288e-01 7.582477952369870433e-01 2.477105092705537137e-01 -6.030752727605163122e-01
1.183268516632751330e-02 -1.721555802628695342e-01 -8.727856831253143488e-01 -7.526603022300251133e-01 -2.438285807558674134e-01 6.115963478092284467e-01
-9.248171820909643903e-02 -1.226384093282460452e-01 -9.829156342770151156e-01 -7.555502972445705678e-01 -2.285003118081367357e-01 6.139473559167961669e-01
-1.062435731643229797e-01 -1.358716426857051532e-02 -9.527920257252997516e-01 7.592444052201864357e-01 2.488039874014246755e-01 -6.013688626749783550e-01
1.730081406522530549e-02 -1.197033766879734423e-01 -8.441623484824013479e-01 -7.551120535011630608e-01 -2.527506801561801852e-01 6.049155976976003934e-01
-2.310148665481408931e-02 -3.441736842157359921e-02 -8.594291792585720957e-01 -7.574905825813417204e-01 -2.456032419578525750e-01 6.048859932585414212e-01
4.368155274275677818e-02 9.325498163567731702e-02 -7.208050661315398289e-01 7.594502029940028986e-01 2.443972854426048613e-01 -6.029140536101756931e-01
5.477372203485453284e-02 1.331445538860957789e-01 -6.903929121877985242e-01 7.555146455682457685e-01 2.538555170989261200e-01 -6.039494985264285409e-01
6.236645207668123879e-03 3.822056073839616430e-02 -7.904693236798383538e-01 7.431739195976517776e-01 3.223681905383898871e-01 -5.863201130430946151e-01
-4.091576659161870466e-02 -8.977446747601276755e-02 -9.026914384963715676e-01 7.571979987483752339e-01 2.540038170176786014e-01 -6.017750839241398086e-01
-8.144415349637122714e-02 -2.271298540656112308e-02 -9.256049120594334045e-01 7.484981618506638679e-01 2.553462423011415572e-01 -6.120039201254057204e-01
7.036446697023948649e-02 8.086432735499535229e-02 -6.926010158682920359e-01 7.558894730333430845e-01 2.591465503096103129e-01 -6.012272199593128308e-01
2.448819901811957050e-02 1.172349237066524913e-01 -7.345883766759091493e-01 7.548043115266269698e-01 -4.902184137603485814e-01 4.358398307992312759e-01
-3.935324343344219836e-03 2.197744594225145565e-02 -8.120370802449530245e-01 -7.541482830787776814e-01 -2.452020732390763902e-01 6.092095783953092036e-01
-5.998970403979635158e-02 -7.644031313036120379e-02 -9.230024719575768977e-01 -7.548419849009541105e-01 -2.524044551958524174e-01 6.053970340430093744e-01
-9.357624007068950089e-02 8.884808596847305895e-02 -8.964859536118584549e-01 -7.567335071151750636e-01 -2.452309481103374933e-01 6.059836477150783995e-01
9.460024515921512667e-02 3.630568091568357053e-02 -6.827344822926442180e-01 -7.508473666562183180e-01 -2.503374580374541081e-01 6.111950499544056559e-01
9.754420635344093760e-02 -2.526541219843069300e-02 -7.025463809789983527e-01 7.480183263271951155e-01 2.499067908023389628e-01 -6.148293904731116921e-01
8.758984003265479767e-02 -6.528990841120765887e-02 -7.337007465863303324e-01 -7.650133936049933192e-01 -2.390109289339746312e-01 5.980203035475386564e-01
-5.139131954739261732e-04 -1.024009090635822350e-01 -8.606130549128355733e-01 6.002797096283207789e-01 -3.665885608231990167e-01 7.108284584075925672e-01
1.069792070014299046e-01 -8.486081787688858069e-02 -7.174815336595969928e-01 -7.539299279454452218e-01 -2.476368152484198781e-01 6.084945944556909847e-01
4.858593380523763133e-02 -1.840711126839967848e-01 -8.317593595147595442e-01 -7.516386064964053482e-01 -2.532631354634736764e-01 6.090132916770800708e-01
-1.331199878664946108e-02 1.528793004281974455e-01 -7.674725635956884950e-01 7.630442646120370043e-01 2.509459705056751866e-01 -5.956421493897494646e-01
-1.041176789473685638e-01 -7.560512112357298253e-02 -9.759073406879172907e-01 7.630034558902873965e-01 2.555651496438511305e-01 -5.937273621680193569e-01
-1.582767213412094448e-02 -1.046343832690315445e-01 -8.774238609183729887e-01 7.604338912184187560e-01 2.527844867128222761e-01 -5.981975429268739930e-01
4.183859922769580381e-02 2.288781422106397623e-01 -6.669362743081053146e-01 7.523601804849515684e-01 2.687194773584666851e-01 -6.014515785238605527e-01
1.079435881692020760e-01 -1.316137185917680696e-01 -7.357260381425779761e-01 -7.547078901032850951e-01 -2.574920932166469556e-01 6.034184473039893026e-01
3.292041391751440726e-02 -1.331835913350475908e-01 -8.302963884361145297e-01 -7.498268157982084237e-01 -2.483856207108094405e-01 6.132408415410911529e-01
4.428172826275125762e-02 1.016823530165355816e-01 -7.143019182304051196e-01 8.567799046255091255e-01 -2.500590944274849736e-01 -4.509973883782586457e-01
-1.864214103784179663e-02 9.100261814382552827e-02 -7.997947279745254434e-01 7.562979819729669373e-01 2.503771554944547173e-01 -6.044209149840229500e-01
-6.951817143025532109e-02 -2.813394932259464729e-02 -9.149243773882941300e-01 -7.566149170205739294e-01 -2.481813459267664390e-01 6.049296544854853019e-01
-3.124054567341062738e-02 -3.015535647167251129e-02 -8.658579786993200189e-01 7.569201544593592290e-01 2.460255317937789510e-01 -6.054282100123909993e-01
8.479602688623726070e-02 1.037356114888661890e-01 -6.670032138385166842e-01 -7.582542790311449510e-01 -2.528204430745227271e-01 6.009428191555006293e-01
5.169499325090152336e-02 -1.024872714903445475e-01 -7.940065631379978894e-01 -7.552643621979641120e-01 -2.503139100307000819e-01 6.057381361932271391e-01
2.052967389510106447e-02 -1.541968835288011208e-01 -8.544802694427844347e-01 -7.616172723520661103e-01 -2.550856654202257601e-01 5.957100248880485838e-01
5.787469659855575682e-02 -1.953487384298483176e-01 -8.228338158693564441e-01 7.708223444168551541e-01 3.164625318781597030e-01 -5.528873115427483942e-01
-3.632779714537999124e-03 -7.346090637021944481e-02 -8.557245406641272867e-01 -5.159345774374881621e-01 -2.912098043623270738e-01 8.056105520955243460e-01
9.302662303632108776e-02 4.111840417407425230e-02 -6.806985838882682049e-01 7.491326643974031141e-01 2.474137253056983288e-01 -6.144808375069187312e-01
-4.675634463708238514e-02 -4.269706133739498144e-02 -8.962261853528158406e-01 -6.532516095513877241e-01 -1.648702806161110590e-01 7.389723439940673044e-01
-9.297436032154349217e-02 1.988856232821522782e-02 -9.243642429655091197e-01 -7.599230496404240087e-01 -2.460022985247862781e-01 6.016642151114852677e-01
9.572281907266334822e-02 -6.731095868808963101e-02 -7.243230290202973265e-01 -7.519589904270574943e-01 -2.555758976713742303e-01 6.076500944173311991e-01
2.518043217690297056e-02 1.268376859900760198e-02 -7.774223471610983704e-01 7.529458509288241563e-01 2.448941357067121183e-01 -6.108186374575774735e-01
3.487490199536440877e-02 9.226036175104537773e-02 -7.323254975580457682e-01 7.494700418544484322e-01 2.510695629534998585e-01 -6.125836521823202485e-01
9.779443033890747317e-02 -1.733781184498143779e-01 -7.657491596982756166e-01 -7.589017505971766830e-01 -2.451050772575164849e-01 6.033171919008502027e-01
6.518773631379401468e-02 -6.237706651959551429e-02 -7.605185938633017839e-01 -7.551575508636979572e-01 -2.448853547367391137e-01 6.080857146891407439e-01
5.868132661615980267e-02 8.517751184815514076e-02 -7.054464571124799965e-01 7.611171250701788127e-01 2.413681805374893741e-01 -6.020316630783862921e-01
-8.432672112673521292e-02 1.097222585433048486e-01 -8.742306307169550594e-01 7.457123138861153633e-01 2.643316788368079151e-01 -6.115896569448588949e-01
-9.861061837829192267e-02 2.645601933425531516e-02 -9.286556951134605775e-01 -7.610990746055679157e-01 -2.460159773823363816e-01 6.001702570997350383e-01
7.476494246431190926e-02 7.316871873246083569e-02 -6.902408517738389815e-01 7.531001802942756118e-01 2.564966183285626866e-01 -6.058461877628192882e-01
-1.283549021788139149e-02 -1.101339223492288355e-01 -8.779902583633776292e-01 -7.612335522627925455e-01 -2.535458917476766105e-01 5.968567329663341248e-01
8.293606916901770029e-03 -5.503859587471050807e-02 -8.233401975110549165e-01 -3.883792564539121361e-01 4.223748239982720865e-01 -8.190000373679690027e-01
5.878801602968237311e-02 -3.179718237506708178e-02 -7.558550263185288554e-01 -7.548773468859417690e-01 -2.441331892229692546e-01 6.087357202253400601e-01
7.501366745469964167e-03 -1.657466979979904664e-01 -8.801404528280789563e-01 -9.682161348124419531e-01 1.146416983588701838e-01 -2.222943932856808469e-01
-7.123353817877813021e-02 -1.236182106209312605e-02 -9.084913337312553461e-01 7.527476591294441910e-01 2.697541033000771526e-01 -6.005028604660542779e-01
2.595098830059738501e-02 1.234749144620636563e-01 -7.254000824806440262e-01 9.018821281304083559e-01 1.980016097845770373e-01 -3.839322719981767551e-01
8.975509833575051610e-02 -1.473380252972759930e-01 -7.650276624679004378e-01 -7.517415167298301393e-01 -2.492384917478574491e-01 6.105447291198144999e-01
-8.950756413604495088e-02 -2.544398737894316975e-02 -9.367648685673207742e-01 7.491941637851402547e-01 2.546514173094746036e-01 -6.114415430869578616e-01
-5.394457990258119673e-02 -1.223349610095318396e-01 -9.309031729061953975e-01 2.210103396978407020e-01 -2.850606343867969628e-01 -9.326815450461329871e-01
-4.862093689477860886e-02 -6.531569735665808396e-02 -9.021219636345914061e-01 7.573635599828177911e-01 2.508940786369307507e-01 -6.028703005747408916e-01
-3.820571847814913796e-02 -7.951465578274734269e-02 -8.950003793733981583e-01 7.576145085252454781e-01 2.402163855927132163e-01 -6.068907187993762831e-01
9.774067946157186017e-04 1.473200440825224999e-01 -7.518588676178483698e-01 7.450693051180955484e-01 2.546462258330288719e-01 -6.164633243266239848e-01
2.369256960567327208e-02 -5.342144190783180112e-03 -7.867209493189448732e-01 7.633621675803702322e-01 2.383465164194189245e-01 -6.003908220632011572e-01
-1.982642607128416029e-02 1.713651495958204152e-01 -7.699965680934482970e-01 -7.577028793783567862e-01 -2.426034516859655599e-01 6.058299363780258462e-01
-3.842005419161892421e-02 1.835441930883638106e-01 -7.861504421774025975e-01 7.614876499439825475e-01 2.430201009781327581e-01 -6.008974866841838569e-01
-1.040117266780915817e-01 -4.693407992326727174e-02 -9.658634655307715144e-01 -7.573961888668210296e-01 -2.596703929736346450e-01 5.991012436165803479e-01
-5.697914251031378080e-02 1.582607900518554767e-01 -8.199128597565177312e-01 7.541044846722748662e-01 2.538342040448218206e-01 -6.057182703651052824e-01
6.160476521265640694e-03 -1.099908464986432549e-01 -8.494807965745271305e-01 -4.317709318267325957e-01 4.134293991521483802e-01 -8.016545355364543823e-01
1.309473502017457699e-02 -1.412419297839085097e-01 -8.563681932271027808e-01 7.573343498635741744e-01 2.429802934320327290e-01 -6.061396369817770857e-01
4.959214988665307244e-02 2.593106763194186551e-02 -7.414183541243561937e-01 7.521468984394532598e-01 2.592508060397110126e-01 -6.058581209620542696e-01
1.085526287949042656e-01 -6.115594564380733011e-02 -7.037228264624794116e-01 7.367497282434626316e-01 2.520102882913727860e-01 -6.274477289212886388e-01
-3.175420594658025231e-02 1.008523144613590328e-01 -8.121165031949234558e-01 7.523125134514107026e-01 2.427550242676333181e-01 -6.124507166272580294e-01
7.727648145603646657e-02 -9.633277437866062665e-02 -7.574368417991721447e-01 7.587763557517569479e-01 2.598941643956865777e-01 -5.972549415996076805e-01
7.979944570005240156e-02 1.282880107998113917e-01 -6.630940474433235643e-01 -7.598843759309886758e-01 -2.510418360937234361e-01 5.996279944654552274e-01
-6.420862277845959531e-02 8.827089062927082064e-02 -8.599553857080195485e-01 -7.529810126047339347e-01 -2.591582969403707915e-01 6.048607871103200972e-01
-8.359424952374273909e-02 1.414462965427990826e-01 -8.601475480066427259e-01 7.408912846544392083e-01 2.647641948129093592e-01 -6.172357940594230818e-01
-1.053503243644910992e-01 -1.117680733064733804e-02 -9.527010136233649007e-01 -7.592468849667229902e-01 -2.487954442630117280e-01 6.013692664098310159e-01
1.085056491907674669e-01 -4.846293254522995170e-02 -7.003669133370582500e-01 -6.605560659650492328e-01 1.959165660135772369e-01 -7.247636738125229350e-01
2.114725426957050208e-02 -1.354164694156505810e-01 -8.458877075663689959e-01 -7.492497706683699521e-01 -2.494025782605842900e-01 6.135333202935016050e-01
8.196577864264127655e-02 2.645731599119152330e-02 -7.006357140243354431e-01 7.540961240007175714e-01 2.465138285561968845e-01 -6.087445836290130696e-01
-1.097603460195896857e-01 -7.618347601371694769e-03 -9.547536421648864513e-01 7.571308578264833722e-01 2.507892553223689536e-01 -6.032061119897454970e-01
3.846605608185206093e-03 -2.234472685742594777e-01 -9.040842914457377644e-01 -7.557290005200738570e-01 -2.431359052529281639e-01 6.080777987640804128e-01
-3.074457219519320314e-02 1.320605437651367620e-01 -7.979364568274474045e-01 7.506416851255734990e-01 2.497436997290563288e-01 -6.116903996283432621e-01
9.312038794774994688e-02 8.503151282711425910e-03 -6.941492650333507264e-01 7.555719949669991164e-01 2.506241302598494203e-01 -6.052259956025375365e-01
-6.553620412459150446e-02 -8.587695890002042254e-02 -9.338804948547850815e-01 -7.544473740461453692e-01 -2.560930694942191721e-01 6.043388946211427637e-01
-9.257058389910387264e-03 -1.788274014391927069e-01 -9.020339134601359499e-01 -7.555127946878124057e-01 -2.549861225561887990e-01 6.034753469420037764e-01
8.179886770655944717e-02 -1.525215628849835303e-01 -7.770521343008929271e-01 -7.509976068463047882e-01 -2.481092801002938719e-01 6.119186054037230038e-01
-1.524220047811860332e-03 8.005331620048118657e-02 -7.828510435646064414e-01 7.664531225195979625e-01 2.784947837668467208e-01 -5.787834365240727141e-01
2.426715705741497309e-02 -2.322017888939885422e-01 -8.846825865154284152e-01 -6.667088273474306437e-01 -3.416210600096282191e-01 6.624155726542907408e-01
-8.488984597473614446e-02 -8.084721976908296193e-02 -9.560388703227561402e-01 -7.855265392518142598e-01 -2.435254729331351731e-01 5.688966515666626922e-01
8.114554580504873549e-02 -7.006672729346474955e-03 -7.155634853221619629e-01 7.591126838056715398e-01 2.513012635013039398e-01 -6.004961350816497845e-01
1.213397860064398259e-02 -2.223222228040634962e-01 -8.912629989312437218e-01 7.617716815313402279e-01 2.490476906036482863e-01 -5.980628336737737749e-01
-3.835702331231891603e-03 -9.840469562877192378e-02 -8.618034369932970895e-01 -7.458437004095338496e-01 -3.053205119357593200e-01 5.920274989818457012e-01
-1.075641452899300521e-01 5.268433883967086478e-02 -9.289936399431593106e-01 -7.693110737879506056e-01 -2.306555014599423747e-01 5.957839469081833705e-01
-2.487904041238664724e-02 -6.588818082736136450e-02 -8.747146081294397968e-01 -7.588769109760413745e-01 -2.496046898083028875e-01 6.015009000933932981e-01
-6.088857482479762689e-02 1.552886797395691409e-01 -8.280722203921194735e-01 -7.567727170663681724e-01 -2.529203877205598028e-01 6.027655698356270131e-01
4.782473753608645212e-02 4.943634474575816368e-02 -7.338449607926768037e-01 7.630409575835104263e-01 2.527371406195562109e-01 -5.948885902431563233e-01
1.290103756613517755e-02 6.288605171228747737e-02 -7.719922484192448531e-01 7.774154832502887524e-01 2.990003121309448009e-01 -5.533750805270487572e-01
4.747452423085089107e-02 9.641915922023644447e-02 -7.167678820310757759e-01 -7.602384924838102576e-01 -2.428467116759371325e-01 6.025470182268998220e-01
-1.280451387329526076e-02 1.561520170530624474e-01 -7.654688507960439869e-01 7.556636039712093522e-01 2.415931185265746683e-01 -6.087735890409893269e-01
-4.012204110886224279e-02 -8.051663814715281919e-02 -8.978012635985139767e-01 7.566039537694471129e-01 2.526122416784481461e-01 -6.031065515268672073e-01
5.444262571792610889e-02 1.759427208228828698e-01 -6.750639610588126116e-01 -7.525054818840828386e-01 -2.537139164250091228e-01 6.077538550652624716e-01
-2.574950916932835718e-02 -1.291970806647590453e-01 -9.000343618294432968e-01 7.586146809638697475e-01 2.577185500995382017e-01 -5.984019675441228925e-01
-6.026294443277561280e-02 -1.845253116543803511e-03 -8.903851369817328276e-01 7.563186039137123062e-01 2.486349482779241782e-01 -6.051138999137659624e-01
-4.598438479131992246e-02 3.290342077953905403e-02 -8.581213594092352848e-01 7.548209682302066126e-01 2.502443404372358127e-01 -6.063192855246700708e-01
-9.842717706219288737e-03 8.815457249066796508e-02 -7.899386205365722669e-01 7.568909430220496226e-01 2.495622438785215780e-01 -6.040155517877910940e-01
-1.018798993121180912e-01 1.218228406534255584e-02 -9.387254189898339707e-01 -7.527892027026440447e-01 -2.644241880714087722e-01 6.028169415810191722e-01
8.808879426031240856e-02 9.903645452409629013e-02 -6.627987669401886883e-01 7.550219769754433763e-01 2.515476990404693636e-01 -6.055291647737029992e-01
9.198589637958407006e-02 -1.921837055704559427e-01 -7.808137378926757188e-01 -7.565723507570343287e-01 -2.501761123555613087e-01 6.041607326503707354e-01
7.541573604803490649e-02 -2.034721607468437110e-01 -8.061802665304553805e-01 -7.491747082871367258e-01 -2.445279803414270314e-01 6.155837256564100635e-01
5.478014722926947272e-02 -1.392468432431194780e-01 -8.081146363111774145e-01 -6.599644482943755053e-01 -3.802558959228770075e-01 6.479601689945072573e-01
5.768519137064865437e-02 -1.473214203640753894e-01 -8.030559796704811459e-01 7.632304343282818593e-01 2.522907273785791049e-01 -5.948350132548095859e-01
-9.051307125168008005e-02 -7.588916830618140652e-02 -9.589393894119498940e-01 7.669242496683104093e-01 2.067741461155453708e-01 -6.075126729286278726e-01
7.194118731291826441e-02 -1.598188493051114212e-01 -7.904799239191409033e-01 7.554363677253663756e-01 2.590289279209890827e-01 -6.018470809250540121e-01
5.209269161254741903e-02 1.030841409183901602e-01 -7.045868709804316010e-01 3.287954009286228607e-01 7.111459726402215020e-01 -6.214217488355067154e-01
2.491115104942442926e-02 1.908226822217526653e-01 -7.038024147148916887e-01 7.661588733801424356e-01 2.292521727755379712e-01 -6.003699043244640210e-01
3.675246587910324658e-02 -2.697327079217099952e-02 -7.752072029163287192e-01 8.573307672516833344e-01 -8.766468219896582370e-02 -5.072463494384109595e-01
1.079761822108255866e-02 3.016360676886116823e-02 -7.939322047338016608e-01 5.558527752688972173e-02 -4.576472942116973641e-01 8.873946309410322142e-01
5.224678967716337580e-02 -6.629221538096040367e-02 -7.783447366140811008e-01 -7.550752573072018192e-01 -2.464620891288563098e-01 6.075506517358881808e-01
-2.703742541531233695e-02 6.603605918498547944e-02 -8.241343160113739907e-01 -8.847069847409474441e-01 -2.414473982535642604e-01 3.987439090784532514e-01
1.158493823689194097e-01 -1.170838831466119584e-01 -7.177887280872380371e-01 7.429768434991373960e-01 2.592999436407121827e-01 -6.170485793290360066e-01
2.990460619235504533e-02 1.495809115409494350e-01 -7.110731621252014412e-01 2.492743444376372963e-01 4.159469944987067569e-01 -8.745572588302488182e-01
-1.006093561895463583e-02 1.252412535699512219e-01 -7.768911994056618697e-01 -7.544780412466014496e-01 -2.584899248238064495e-01 6.032792421766841606e-01
-1.159587150266504652e-03 -1.981102300428400631e-01 -9.103773935755427038e-01 -2.268893819431767045e-01 -4.243482944820544112e-01 8.766126472573931849e-01
-7.047858742452524361e-02 -4.916638428575281772e-02 -9.247856199680847267e-01 -7.611072193947588937e-01 -2.614839235494428871e-01 5.935839943178787825e-01
-7.816853730810431611e-02 -1.031190305353903436e-01 -9.531899819898087545e-01 6.542742476338508917e-01 5.061002814385434645e-01 -5.619499212661083209e-01
8.782952463175201113e-05 -1.156561690365029982e-01 -8.658514785832217564e-01 6.002797096283207789e-01 -3.665885608231990167e-01 7.108284584075925672e-01
2.522195197403897561e-04 -3.652942380275413931e-02 -8.290299830122164204e-01 7.638010824345659033e-01 2.562194112198650786e-01 -5.924183655035781815e-01
-5.850317365863375724e-02 2.833771759359327014e-02 -8.756071666576522583e-01 7.546480094937579874e-01 2.503999014799797584e-01 -6.064703381913456592e-01
1.839421895414071603e-03 5.811249387546393169e-02 -7.878278150604881569e-01 7.640261329707305205e-01 2.289556955942432248e-01 -6.031942950598487840e-01
-3.336486053139472996e-02 -7.808817893645421393e-02 -8.872443725894032518e-01 -9.027834661115304027e-02 -2.872869259413312615e-01 -9.535806427965787258e-01
3.454321401458598350e-03 1.638661203302901881e-01 -7.439103247615413972e-01 -7.626651447405663475e-01 -2.510488017953570461e-01 5.960842022021440867e-01
5.362548090610332052e-02 -2.012531940082989690e-01 -8.306215424802244618e-01 7.735068055169993517e-01 3.180661874338188144e-01 -5.481980684298349837e-01
9.136500402650811481e-02 -1.286125586912514607e-01 -7.552563228126790706e-01 -7.561494728736458670e-01 -2.461787543487660712e-01 6.063282902687268106e-01
5.029959405660105326e-02 -7.054241003024511181e-02 -7.824970494023545386e-01 -7.553634768502971442e-01 -2.470827216498512335e-01 6.069399859151913823e-01
-5.870794443996949635e-02 1.637689651282757952e-01 -8.197873986664580004e-01 7.603121885875603336e-01 2.448338957792516590e-01 -6.016491829652464984e-01
-6.416883206144465002e-02 -7.459606993179945800e-02 -9.274445953158891864e-01 -7.547878904027159885e-01 -2.525621641067545275e-01 6.053987064432251319e-01
-1.001673796147131701e-01 6.397059535157409438e-02 -9.129905438625092184e-01 7.565983102800379889e-01 2.486174183552433692e-01 -6.047713420556279917e-01
9.036866663986559134e-02 1.286642480125741450e-01 -6.477254682356474724e-01 7.603782973549682023e-01 2.434918685805519678e-01 -6.021100853222032256e-01
3.283730758390360216e-02 -2.398474645633194013e-01 -8.726324311081891105e-01 7.527187846781006053e-01 2.490284707844936940e-01 -6.094253456588917262e-01
-1.233226296335379751e-01 -2.409785000314317721e-02 -9.786185018176809525e-01 7.680290449125745100e-01 2.373442089318003323e-01 -5.948101484147830798e-01
4.277773883215799100e-02 -1.966562203893603977e-01 -8.442615348606261616e-01 -7.550919688283490583e-01 -2.461118839824257276e-01 6.076718350997919460e-01
5.056014234966167697e-02 -1.519715296718007203e-01 -8.140041268709421463e-01 7.095207911697793968e-01 1.809672374302542519e-01 -6.810514707969379522e-01
-5.137409647779299371e-02 -1.110368293635575349e-01 -9.245620717353431051e-01 7.482602936600764032e-01 2.465506779811878491e-01 -6.158890290618537211e-01
1.630853282746925342e-02 -1.921537606617565730e-01 -8.735440693796662215e-01 7.576796714519354881e-01 2.490150408277403415e-01 -6.032520409497558189e-01
-2.221692979847977433e-03 5.228313231213602835e-02 -7.973531436380852933e-01 -7.513186854197869691e-01 -2.487639244554402662e-01 6.112583274104421704e-01
-1.121164929353024586e-01 -3.508740204535900492e-02 -9.711468135195413520e-01 -7.586374888923348436e-01 -2.539139304318280832e-01 5.999973969775147520e-01
5.094411527896375996e-03 6.736881523862797011e-03 -8.050607242503010630e-01 7.534828796377752713e-01 2.635503587842008000e-01 -6.023327639083607687e-01
1.752793321248912253e-02 1.200995545995221098e-01 -7.444275201424344068e-01 -7.506953002296421484e-01 -2.630921690962247372e-01 6.060025385865729364e-01
1.908521022310562601e-02 6.696966509200788509e-02 -7.701269828905178416e-01 -2.300289287888488965e-01 -4.460645700331173913e-01 8.649353104605134179e-01
6.053596292622527575e-02 1.106029992851595284e-01 -6.919194827334789188e-01 8.361692823238368044e-01 -4.417201536633688641e-01 -3.251218804473940405e-01
-5.989429204163476683e-02 1.353783870296233760e-02 -8.835943980883713689e-01 7.558106703457087017e-01 2.491978607387012601e-01 -6.055168509586048575e-01
7.728640126755598194e-02 1.452815765871647291e-01 -6.592480306481353081e-01 -7.517043294864604874e-01 -2.571678120115277189e-01 6.072934360723113434e-01
2.468382682491311163e-03 -1.138675400788842634e-01 -8.660442541872230837e-01 1.768802164187070758e-01 -3.151646476613658709e-01 9.324079761049658410e-01
-1.086237973245160193e-01 -3.921714925862205409e-02 -9.664479977914657294e-01 7.574883439533258711e-01 2.508781908188299492e-01 -6.027201192479962888e-01
1.881608082479685126e-02 6.603127803837229026e-02 -7.593444908552172690e-01 -5.505960704576983583e-02 5.752607953735973112e-01 -8.161148552612562668e-01
4.317263714471755026e-02 -9.187955591294842683e-02 -8.031547385464308242e-01 -6.903418802731742243e-01 -3.316128678802297003e-01 6.430093266797515250e-01
6.155935647022719309e-02 1.987350144418658926e-01 -6.546776471660712415e-01 7.642578708505436413e-01 2.475996841878001231e-01 -5.954866104566040041e-01
2.800616286807540087e-02 -7.922899246775570725e-02 -8.119990346556922312e-01 7.531208941719389482e-01 2.479913742344893035e-01 -6.093514561129302898e-01
2.462122492959646636e-02 9.110841246406921562e-05 -7.853603742697293777e-01 -7.565961499564060055e-01 -2.606241259466282045e-01 5.996976995501147600e-01
-1.095835267722769374e-01 9.939168670964896452e-03 -9.472778778154001822e-01 7.555660738059176706e-01 2.625848475149746841e-01 -6.001409050956685309e-01
-8.425519042804592573e-03 -9.679788732046565314e-02 -8.648660344407704814e-01 7.563931491497587478e-01 2.369176019421808943e-01 -6.097043987124228792e-01
5.886637055047076739e-02 5.120300052177586408e-02 -7.192703827781756765e-01 7.502886831104050858e-01 2.471830430510356669e-01 -6.131618344486912120e-01
-2.234109924711759343e-02 5.916587349592099254e-02 -8.196925726285629876e-01 -7.534110982118934485e-01 -2.584018124043755416e-01 6.046488405986425452e-01
1.090793214345390366e-01 -8.508984323487890633e-02 -7.149614297054653900e-01 -7.591842912239499253e-01 -2.451107610317016239e-01 6.029593077358115227e-01
8.319694692613304257e-03 -2.222651490942537389e-01 -8.960369412789745969e-01 7.568707031022430254e-01 2.427999092971352690e-01 -6.067906911207677778e-01
8.453688295622974191e-02 -1.262047938811557413e-01 -7.607544389732587842e-01 7.555986165897580209e-01 2.423848654144280246e-01 -6.085394873183445075e-01
2.703229141099474167e-02 -2.277643449112859153e-01 -8.748129217636471111e-01 8.027307791822612115e-01 2.659775217100880940e-01 -5.337408117226931648e-01
2.837764478606508156e-02 -3.932418892783866825e-03 -7.823116097093156807e-01 -7.539233702046131969e-01 -2.453825620265687457e-01 6.094152526090850230e-01
8.873844497315169777e-02 -2.073525623778766924e-01 -7.911380085663883843e-01 -7.527641709820135363e-01 -2.548123689965576810e-01 6.069734421637607014e-01
-2.647458568277142460e-02 -1.189122868512922093e-01 -8.986866547307159614e-01 -7.543446903484680721e-01 -2.455311246311250861e-01 6.088337662945844109e-01
-8.656023504630661579e-04 -1.321992478333359755e-01 -8.746910795467696120e-01 4.318134591335443528e-01 -3.883817953719537752e-01 8.140618634568140832e-01
5.770992317232663711e-03 -1.005539788731104195e-01 -8.604024300328451114e-01 -4.454857323809320313e-01 -3.291466674748707022e-01 8.325892946316397758e-01
-5.405205271890997296e-03 -1.373370544571267671e-01 -8.713304927406188005e-01 9.901060435256634484e-01 -6.431702820944895649e-02 1.247130404418963778e-01
3.955270385044665910e-02 2.059239295826348348e-01 -6.840311946514205932e-01 -2.493955873301193227e-01 -4.438726672919372507e-01 8.606851318870366585e-01
4.756738622902720662e-03 1.955063204165033153e-01 -7.291881397269901477e-01 -7.526190392394237483e-01 -2.442363087767807917e-01 6.114844292779821888e-01
7.230157118710567321e-02 5.255847307137047342e-02 -7.019227491396848873e-01 7.615696552104002093e-01 2.487928581910607839e-01 -5.984260806280378153e-01
-2.802025790584810813e-02 2.192278086977776652e-02 -8.421925985816394178e-01 -7.537912533994312048e-01 -2.489156749011892655e-01 6.081445001699841146e-01
6.924662154578679896e-02 1.532429133428817869e-01 -6.639524586639045101e-01 7.527651833848049145e-01 2.376552727868170289e-01 -6.138929466936924317e-01
6.024160290887498048e-02 -2.590281377647618011e-01 -8.482361776805631415e-01 -7.604347179148621683e-01 -2.464266481766902994e-01 6.008435294302053586e-01
-1.075053852120858022e-01 -7.633166538240354626e-02 -9.824383337246308523e-01 -7.640259363751448207e-01 -2.603229523138305690e-01 5.903357765244237054e-01
6.872699020931084812e-02 1.384810280510618274e-01 -6.707294219533495028e-01 7.627896646005087877e-01 2.424787453958074657e-01 -5.994630811066835596e-01
6.204659678176781962e-02 -1.859002030560731322e-01 -8.156652128807427848e-01 -7.615811409273536281e-01 -2.562769301290387935e-01 5.952447403105936008e-01
8.349728747735832290e-02 -2.449251944784385654e-02 -7.218719296936688679e-01 -7.570958595915026068e-01 -2.570203755700500303e-01 6.006216662186223409e-01
2.922010027630287526e-02 -3.989761712832062823e-02 -7.942297052211221287e-01 7.539828532659157423e-01 2.466752438263863367e-01 -6.088194979336498669e-01
1.050974233588955475e-02 1.285771919431267507e-01 -7.497383447463158435e-01 -7.557277175957826110e-01 -2.400691092267219218e-01 6.092966762198507302e-01
1.641288740578003905e-02 -1.822967346234380948e-01 -8.683628097038834648e-01 -2.237273201953363447e-04 9.763115434233951007e-01 -2.163694066274481909e-01
-1.242780074249515421e-01 -5.792338546137391908e-02 -9.938222362630984019e-01 7.361184697669361787e-01 2.591999803051527884e-01 -6.252559225451548297e-01
-5.327779904204327449e-04 -3.807498534508534094e-02 -8.326855269214270550e-01 -7.561197357325730728e-01 -2.625709290669411833e-01 5.994492909701596428e-01
-8.258850009892980404e-02 -7.367971612992513242e-02 -9.501210946369670340e-01 -7.665763938070003780e-01 -2.559995271967410724e-01 5.889183937804113311e-01
1.066499329424652059e-02 -2.524363029560246496e-01 -9.055495676863432042e-01 7.564035386304132080e-01 2.591254892897935092e-01 -6.005894334299547443e-01
1.048261812699595452e-01 -9.397692882170834150e-02 -7.240071490145492117e-01 -7.585540041175551362e-01 -2.513840912072028422e-01 6.011670828689416046e-01
-3.215252485206635327e-03 -2.670152896639971934e-02 -8.313169919885750048e-01 -7.631468711653284220e-01 -2.558819646842226958e-01 5.934064991048816351e-01
-2.548377944163366174e-02 1.702193171645535463e-01 -7.755184952758462646e-01 7.580874016145532357e-01 2.431828576947744902e-01 -6.051161782969435299e-01
-5.170205194935065252e-02 6.087231081610670197e-02 -8.557380441305062480e-01 -7.623141393012893285e-01 -2.461565917629674194e-01 5.985683631407311411e-01
-6.634860829547378769e-02 4.527746168598210247e-02 -8.785258034220830847e-01 7.557226658149049925e-01 2.518197603579592214e-01 -6.045411984859869747e-01
6.166799820675098603e-02 -2.370511529708516363e-01 -8.353156781202740744e-01 7.582064475845700091e-01 2.488208286293948912e-01 -6.026700408028990985e-01
4.929698854323267404e-02 1.763067169569857984e-01 -6.793487927407809712e-01 7.585502126208267804e-01 2.487657124971464628e-01 -6.022600727415738930e-01
8.815315129536821503e-02 -1.691565710539674194e-01 -7.739886081742924917e-01 7.548433082605346955e-01 2.532563401333291497e-01 -6.050395079303192425e-01
7.332309392129578163e-02 1.580654439294904290e-01 -6.568367903575956790e-01 7.617263641358978932e-01 2.486008964596811699e-01 -5.983063934638742642e-01
5.725996783129539552e-02 -4.417294638285905461e-02 -7.608707117412897292e-01 7.558156825744403173e-01 2.445028584849950060e-01 -6.074216049558983643e-01
1.037835104674644446e-02 5.623925136258798446e-02 -7.798826393733579998e-01 -8.110766645845663980e-01 -2.638734318918156685e-01 5.220397074054905495e-01
-1.396603377821363165e-02 -6.817842676568644511e-02 -8.600037968314158121e-01 7.597935370181829740e-01 2.467159822580108353e-01 -6.015355394354219287e-01
-6.348289496858096348e-02 -1.232512764406896444e-01 -9.448217576818086494e-01 7.553101352801395718e-01 2.603974301018738280e-01 -6.014148135350816382e-01
-6.855154578113310804e-02 1.409927260197673393e-01 -8.415277165539418736e-01 7.519605408422463944e-01 2.614798611409954177e-01 -6.051310826869844561e-01
-5.570755285596535288e-03 1.391737660399388066e-01 -7.655096768670553997e-01 -7.557645200232954164e-01 -2.400980340002333846e-01 6.092396280144460885e-01
1.034132797467367110e-01 -1.932850237057770204e-01 -7.649566886542417121e-01 7.553609919770035708e-01 2.534077931487725421e-01 -6.043295972985158748e-01
9.239562042952818854e-02 -1.229392512146160604e-01 -7.495228139346669094e-01 7.592428958729370292e-01 2.550960390572954428e-01 -5.987288500847067763e-01
-1.719121686825128212e-02 -1.163358390275793797e-01 -8.859921211105374894e-01 -7.578747589784058381e-01 -2.479972101675447516e-01 6.034262452467060722e-01
-4.843499028931014944e-02 -4.028682580148919279e-02 -8.968050778932673550e-01 -4.731779025113879711e-01 -2.006256892329983665e-01 8.578181656940518929e-01
1.625941952988553887e-02 -2.190261291487829998e-01 -8.866818509653370262e-01 -7.598787079945588108e-01 -2.515412365786920401e-01 5.994258548285873456e-01
-8.441558781319875859e-02 1.415436733323341932e-02 -9.139834609544960076e-01 7.491225256511647723e-01 2.564793176005362163e-01 -6.107649312175538192e-01
-9.686063000916735402e-03 -2.570702574920057382e-01 -9.344821223338025673e-01 5.369005163866128472e-01 7.005226784865555001e-02 8.407321305106929543e-01
-1.970407433782547096e-02 -7.582511336383977729e-02 -8.703308116352761470e-01 7.511945575979268597e-01 2.573015354095911644e-01 -6.078673017288575009e-01
-2.808761819875272084e-02 1.908761164148710388e-01 -7.701404552678728921e-01 7.583583698320430777e-01 2.451054077252274588e-01 -6.039999354383543961e-01
-9.902172570470335611e-02 -2.911628976434830693e-02 -9.522491362140854676e-01 -7.616316872610208177e-01 -2.457565104537853817e-01 5.996006258581699777e-01
-6.564928410397703751e-02 -4.914084198804805764e-02 -9.187372063774223996e-01 -7.567687502600454197e-01 -2.503177915704973278e-01 6.038559943008913189e-01
5.904812604410922261e-02 -1.636944843492584012e-02 -7.455035392159371499e-01 2.077706540991730855e-01 -1.806824669123840987e-01 -9.613455161624548939e-01
-9.376438562214414740e-03 -1.847315152894470625e-01 -8.986919770016518205e-01 9.262242374149577406e-01 -1.727878249253666232e-01 3.350418325860830548e-01
-4.570503877238446533e-02 1.332402524078946937e-01 -8.161107325092198383e-01 7.595609456477118160e-01 2.569988356035525778e-01 -5.975104755108247012e-01
2.248424300462376416e-02 4.046884747761176487e-02 -7.676475153386309591e-01 8.053525118917113090e-01 -4.190946962142620968e-01 -4.192457121960658228e-01
-6.126720848068504394e-02 9.614201087221919961e-03 -8.889524804045983997e-01 -7.563496316460242008e-01 -2.487124514844726575e-01 6.050432638956552145e-01
-1.351885069099706925e-02 1.590622993350126191e-01 -7.671865003606039846e-01 -7.640214716159673403e-01 -2.509544914798455539e-01 5.943845843524745431e-01
-3.372953330523199150e-02 1.762916494699259540e-01 -7.853610303222793299e-01 -7.562562951013241941e-01 -2.538103779899814616e-01 6.030395576943538005e-01
3.786041719086193774e-02 2.993913915093664516e-02 -7.564306289561346652e-01 -7.515733341963487524e-01 -2.444461943605441001e-01 6.126855485382617372e-01
-1.051837802911353148e-01 -1.001944776609046545e-01 -9.874191861728925934e-01 7.518526450532954097e-01 2.518466462403362027e-01 -6.093364152123672550e-01
-7.118578909941436494e-02 -1.100791453659528962e-01 -9.509544364202924260e-01 -7.545372282303621780e-01 -2.609253138049014153e-01 6.021557537965208651e-01
1.841195343209147892e-02 -6.848717908284998601e-02 -8.195170745422922787e-01 7.537730308770073107e-01 2.455368065144022671e-01 -6.095390837093214165e-01
-8.732315479326338212e-03 -1.697944728758094268e-01 -8.856908306076672899e-01 9.908299868230424634e-01 -1.103505448031105868e-01 -7.796598279959335298e-02
3.652621308007820977e-02 7.743634830926121593e-02 -7.363480072619671413e-01 7.483779860634620640e-01 2.502623894802165627e-01 -6.142467959926604104e-01
4.916775409407447145e-02 -2.492655944919909897e-02 -7.656603688723347956e-01 -6.380193142659205119e-01 7.698486881039754426e-01 -1.625890673546784640e-02
4.329315937757237560e-03 -2.077685454913569540e-01 -9.102280432194820303e-01 -9.018821281304084669e-01 -1.980016097845769540e-01 3.839322719981765886e-01
4.450432945406476021e-02 4.852105245269758976e-02 -7.383516528199982609e-01 7.596724644400848492e-01 2.558316245748222806e-01 -5.978694896371073986e-01
-9.956278810867232043e-02 4.687662148207799584e-02 -9.213960792921127574e-01 -7.588529569016173593e-01 -2.491389843004180038e-01 6.017241529998844651e-01
7.896263544082712804e-02 -6.030850512864196350e-02 -7.424174355540098524e-01 -7.547107444452073599e-01 -2.446838313158079536e-01 6.087212127990760946e-01
-8.989886576767708304e-02 8.671182586609355036e-02 -8.907942896210295780e-01 7.585717992054664682e-01 2.448986304001223024e-01 -6.038157718032262089e-01
1.557217052922729369e-02 4.793373246717269089e-03 -8.032535911495586323e-01 -7.997901413549300953e-01 -2.751417696537444835e-01 5.335098278225686164e-01
3.563156192717981813e-02 -2.221348350116880976e-01 -8.617844053902899981e-01 7.609589291117161425e-01 2.525492950902893941e-01 -5.976289498966292912e-01
4.791593052168031941e-02 -1.479467422790977926e-01 -8.126200746686742526e-01 6.667088273474314208e-01 3.416210600096278860e-01 -6.624155726542901856e-01
-6.328073294059906317e-02 6.362305722419725473e-02 -8.690703141371427520e-01 -7.633556565768510049e-01 -2.470384823171074273e-01 5.968753050902547708e-01
4.093184752168649299e-02 7.706193221460079512e-02 -7.310133915432834861e-01 7.618037905642827123e-01 2.567297768267140512e-01 -5.947644965634684144e-01
2.212390703724705782e-02 8.149985030190179391e-02 -7.488404309799793213e-01 6.944942546872225064e-02 5.847563501152315268e-01 -8.082306529091662917e-01
-4.721491861133732953e-02 -1.353815514071366778e-02 -8.788780556734456795e-01 7.556249433881120359e-01 2.482711143264729470e-01 -6.061290281126648916e-01
-3.655433268589460688e-02 -1.898266192354257365e-01 -9.386761889332331243e-01 7.573380307953051505e-01 2.581893415825057270e-01 -5.998144471453497051e-01
-7.277857326297182405e-02 1.116168681183870859e-01 -8.609864393965462881e-01 -7.472363316884841344e-01 -2.499996217174724478e-01 6.157418726592001068e-01
9.889420052999142730e-02 -2.063489296498901560e-01 -7.780018157519561495e-01 -7.541142952765397256e-01 -2.539565514899065901e-01 6.056547693322675840e-01
-1.413920529545726300e-02 -1.377844522197684170e-02 -8.375682624408570254e-01 7.547436041462540768e-01 2.646126555505881606e-01 -6.002851276874917597e-01
-2.054215135218332919e-02 -5.583434234863850210e-02 -8.630814696030330024e-01 7.586125168127865193e-01 2.468644109645158902e-01 -6.029635245469764371e-01
-7.604558166862397661e-02 -1.203968207007456576e-01 -9.593665017998659339e-01 7.554310829978407860e-01 2.621957886751350442e-01 -6.004808466901615516e-01
-1.097951516800715344e-01 5.983256825407291292e-03 -9.492063946425906007e-01 7.585451249507328964e-01 2.460754271817529593e-01 -6.033706800556313254e-01
-4.258876137804461920e-02 1.240326545199676445e-01 -8.180857428938309583e-01 -7.527719748481196405e-01 -2.435790339423303530e-01 6.115583439926096654e-01
7.070219133562370695e-02 5.025944320741906890e-02 -7.068625983589390538e-01 -7.464547563062411406e-01 -2.560282775972383962e-01 6.142107275669984601e-01
-6.204103283766627952e-02 -9.661365481185991977e-03 -8.980262283733352335e-01 -2.865085240555152457e-01 -9.008113819122136601e-01 3.262693976776526172e-01
4.086029910484921535e-02 -2.139278975953370354e-01 -8.518163384769650293e-01 7.520566303676748943e-01 2.391472046320057276e-01 -6.141819268235723106e-01
8.162483220289570851e-02 -7.641952249172316580e-02 -7.457455635622733947e-01 -7.556873418369454143e-01 -2.451212211639283434e-01 6.073320577102085949e-01
5.297533824933409879e-03 -2.093230584159993801e-01 -9.047770566949030480e-01 -9.261010792953373594e-01 2.844782742979377055e-01 -2.478081967580547940e-01
-3.944845245362274544e-02 -3.012142008209255095e-02 -8.781371108607941567e-01 -7.570207139676071728e-01 -2.481630098636041504e-01 6.044292838367537612e-01
-6.213599358999393613e-02 6.052776372987282716e-02 -8.668779869552271089e-01 7.498882534004368550e-01 2.606397767953835820e-01 -6.080579858566902418e-01
-5.784826048105595753e-02 1.140584485423157546e-01 -8.392845476685627526e-01 7.507888745409294629e-01 2.608697192698956058e-01 -6.068468138118634503e-01
