-2.747106013946177573e-04 -1.394750648881685484e-01 -1.087502036779534720e+00 9.920333633603881651e-01 1.028205833946092967e-01 -7.278553159981679399e-02
-1.259745486561849453e-02 9.398986450835722373e-02 -9.270904563915591812e-01 9.922517332856030103e-01 1.085961325238379294e-01 -6.036039920826660743e-02
-2.010659360656247199e-03 4.859175981929813454e-02 -8.664859194860199398e-01 -9.924271282027171681e-01 -9.211190968980834115e-02 8.126371453855736615e-02
-2.003860078807336367e-02 8.207676272656698468e-02 -1.041732166421071915e+00 9.850093482133359668e-01 1.332428194505860253e-01 -1.095579070500962565e-01
4.221410934817051985e-03 -1.418575788348842293e-01 -1.031568011906683235e+00 9.918318068536398080e-01 1.099198924041489417e-01 -6.470922783733766559e-02
5.321286641925735382e-03 -3.803912176287085889e-02 -8.735379607654014666e-01 9.901203900479678133e-01 1.116204237104835434e-01 -8.486750981354411472e-02
1.951751657367710446e-02 -2.241585140998809123e-01 -9.471260588566763339e-01 -7.029208796078383059e-02 9.943996376961925510e-01 -7.892010466157650672e-02
-1.297420933721502023e-02 1.927050531020124413e-01 -8.274418594743825350e-01 -8.710096497601180765e-01 -3.932229278876402945e-01 -2.944790637859128202e-01
-1.084459835715573641e-03 -1.470914705770934583e-01 -1.108835205402761259e+00 9.917419573763730511e-01 9.938190202776717164e-02 -8.106249150268844683e-02
7.337031602012210850e-03 -1.828487217692735534e-01 -1.063427830656461515e+00 -9.534447436507333951e-01 -1.321715227274581905e-01 2.710605271608024780e-01
1.057031567960119676e-02 -7.093460477960546184e-02 -8.498562240433159554e-01 9.914463328388042340e-01 1.070675252600826050e-01 -7.463721682356826148e-02
1.394299186238807595e-02 -1.678612420612564382e-01 -9.978072992130774255e-01 -4.889677161194611599e-01 3.443514220892756050e-01 -8.014565931465107429e-01
3.863255336292161553e-03 1.106990900016517274e-02 -8.251565486897985968e-01 9.922512213967598083e-01 1.041394995561299580e-01 -6.776782620710916638e-02
-1.769057097027113435e-03 7.364197299389761697e-02 -8.124654630574846825e-01 9.900844571083604606e-01 1.176856350794102668e-01 -7.669979848995071847e-02
-1.934033746751872770e-02 2.249548765461873434e-01 -8.176676530922680763e-01 4.712993321199032692e-01 3.789493281061425689e-01 -7.964134267271215650e-01
-1.988553358894763756e-02 1.629383211285129751e-01 -9.279203037119478914e-01 9.943940764242541475e-01 8.575399486297623219e-02 -6.186010941952028996e-02
-1.777852659907576622e-03 1.407841800346092964e-01 -7.352522895370305900e-01 -9.916836093169123512e-01 -1.037575504690862876e-01 7.614453186432014464e-02
2.684397587988524014e-03 -1.583993920097437336e-01 -1.091301779721933762e+00 -9.918302939028514897e-01 -1.025944605198597093e-01 7.580926570823683097e-02
-1.510973769638202652e-02 1.607257858327712785e-01 -8.847632126798263830e-01 -9.899147440576073764e-01 -1.019198344633989034e-01 9.839281904852185956e-02
2.300748343940302656e-02 -1.670214407131190293e-01 -8.346622709112608840e-01 -9.930001163273418641e-01 -9.362054684617783507e-02 7.201362497547370012e-02
4.942253535721597042e-03 -1.059885872823136815e-01 -9.885995268245434398e-01 -9.905051273539331458e-01 -1.116183091241396003e-01 8.025550295049328764e-02
2.791986424797202396e-03 -8.051179661749718885e-02 -9.377315656587336123e-01 9.523311009969213092e-01 -9.466707014399307341e-02 -2.900062411472273394e-01
-1.248521811851571045e-02 5.888299140670118226e-02 -9.905698828257523125e-01 -9.920307508641257321e-01 -9.801604416171991185e-02 7.916971912825308821e-02
1.549434505226880178e-02 -1.148203338593235118e-01 -8.805774429747585952e-01 -8.346300328805479340e-01 2.945493192434585628e-01 4.654389398697000857e-01
4.215535503809082415e-03 -1.631109456845593886e-01 -1.077220033017107115e+00 -9.915003056123818936e-01 -1.038382559040075120e-01 7.838852327584044932e-02
7.207436668906036688e-03 -5.133896059653680899e-02 -8.666912850951408176e-01 9.914547410133743854e-01 1.078505837267059037e-01 -7.338765640018383996e-02
1.234344562913493662e-02 -1.759774000848321751e-01 -9.875474645642984273e-01 -9.922073382653334717e-01 -9.996168029230025065e-02 7.437916620641722709e-02
-1.282139666229001156e-02 -1.384732489600451607e-03 -1.078237698160909197e+00 -9.916269867137504912e-01 -1.053514667015049144e-01 7.467923195138599646e-02
-1.120869051450485224e-02 1.112307719984432786e-01 -9.015661560752042947e-01 -9.909077813127089573e-01 -1.003602588843157534e-01 8.960796488369524027e-02
-1.915424874906985347e-02 7.327975931456973124e-02 -1.042866044018699867e+00 9.936485482332508834e-01 9.989341850277769219e-02 -5.180605692176872001e-02
-4.249347924747030360e-03 1.044054262291710944e-01 -8.024299256482299025e-01 9.900858184698779763e-01 1.127121189487468450e-01 -8.382153844278331101e-02
1.826385867578196164e-03 -6.147246359146378569e-02 -9.679765911652616905e-01 -9.916300643632874889e-01 -1.020821915856910955e-01 7.905087989342279853e-02
-1.645884880186333082e-02 2.495004665803699229e-01 -7.793004242115204594e-01 -9.881138194344349923e-01 -1.212941484805428322e-01 9.443944825692740519e-02
1.978179828160910730e-02 -1.759060616137390620e-01 -9.099715861580683907e-01 -9.642458244146033808e-01 -2.437088652238162401e-01 1.040960090989149350e-01
7.592472217797974383e-03 -1.370992076627421119e-01 -9.803857686717830644e-01 9.756529343508305585e-01 2.190241029459036592e-01 1.139271790908719280e-02
-1.032664892033570425e-02 -2.596409843282003124e-02 -1.063569878554902814e+00 9.922085614072114756e-01 1.065903190153140306e-01 -6.450329109778103753e-02
7.196469757894097784e-03 -1.443133641635496456e-01 -1.012401566521139884e+00 -9.913408873388480647e-01 -1.030961927629126251e-01 8.132908537551332417e-02
1.644619669423020430e-02 -1.969747821939021315e-01 -9.471870518737576239e-01 9.913643517362994428e-01 1.099201577217337467e-01 -7.151420161685197174e-02
-1.601601976277147385e-02 2.324881492110749959e-01 -7.800408173631977471e-01 9.909791135585606092e-01 1.069472676310284226e-01 -8.076310071404128876e-02
-1.930437609641213938e-03 1.931799021546877493e-02 -8.897710547298414152e-01 9.929792779865519448e-01 9.188510259837251448e-02 -7.449349911094443888e-02
-1.251537346659593701e-02 1.388753977661536521e-01 -8.643622484927194760e-01 9.908244609310863371e-01 1.072587250423399780e-01 -8.223413842750411373e-02
-1.481588534281076501e-02 3.424796359030484946e-03 -1.081671689954605942e+00 9.921209577276380864e-01 1.091835469495708449e-01 -6.144068939314311500e-02
-9.561425212843012444e-03 2.260047274417592220e-03 -1.030974575684820538e+00 -9.927271678773492702e-01 -9.130225437046958492e-02 7.846444102322341907e-02
-1.698831032140188033e-02 1.897461060932103816e-01 -8.684037804207737077e-01 -9.897967875933967319e-01 -1.128858548815614982e-01 8.694310229944186841e-02
7.302184605449235644e-03 -3.875708980752713001e-02 -8.647882695355516569e-01 -9.912800626869241460e-01 -1.082623896942574576e-01 7.512051848261010190e-02
4.582050658799544270e-03 4.281624782767101678e-02 -7.874568199027220938e-01 -9.905050469522540535e-01 -1.169719650166743952e-01 7.223095847523326729e-02
-2.421237003545352075e-03 5.364256234011227642e-02 -8.490473307142656356e-01 9.937286601696652122e-01 8.645584168734823938e-02 -7.091359104948914693e-02
-7.491519838829329217e-03 1.389999358717135258e-01 -7.974690789963937432e-01 9.896271914614688248e-01 1.134657208061202183e-01 -8.811102156956616971e-02
1.155173335430509547e-03 -1.267672056623634080e-01 -1.075080003578716692e+00 -9.322270803613715850e-01 -1.763767605380058001e-01 3.159808680648748536e-01
-4.795578539816891701e-03 -3.602634226998692370e-03 -9.593334357011563673e-01 9.910738826998897189e-01 1.102582671344220361e-01 -7.493779793054841654e-02
2.920266982931422808e-03 -3.432228986624819705e-02 -9.000102753895043994e-01 9.909765166454203023e-01 1.105734228457421475e-01 -7.575659454783813251e-02
-1.042783435816276895e-02 1.883137986776297623e-01 -7.677834976415787160e-01 9.907639512879643506e-01 1.188531208632828684e-01 -6.527425594610788973e-02
9.944608354392547173e-03 -2.098026549008936703e-01 -1.066484748369546320e+00 -9.901189045179483728e-01 -1.150403564016543312e-01 8.018897252838376455e-02
-1.081675429965547712e-02 -1.412494448531313729e-02 -1.069578571026578162e+00 -9.919907513377163033e-01 -9.803704504582086421e-02 7.964349979198780127e-02
2.200726419403756587e-02 -2.318021902352664643e-01 -1.047322834149904125e+00 -9.670299836589432152e-01 -1.580789117503129115e-01 1.996598817099239365e-01
-8.865653348764147151e-03 -7.918697341759152464e-02 -1.117477893832440561e+00 9.912018860160316525e-01 1.045569752924020573e-01 -8.115824096150439648e-02
2.624733242608719846e-02 -1.621213426982826000e-01 -7.853403911703905615e-01 -9.913823541707237341e-01 -1.093222731746108789e-01 7.217803285522227108e-02
9.983642074119865664e-03 -8.830668367738724045e-02 -8.815364255523898684e-01 9.916366443569208933e-01 1.065958187181407918e-01 -7.276054562985992402e-02
6.219804366273011705e-03 -2.366289290997575234e-01 -1.052034333677022149e+00 8.727129410495124695e-01 -1.043928258715948604e-01 4.769426175456046857e-01
-1.185451446803286769e-02 1.864507055437003569e-01 -8.313176827909610767e-01 -8.109565425322022847e-01 2.851799719889998030e-01 -5.109029944133912648e-01
2.746807849095511764e-03 3.774068975870553677e-02 -8.192023993992072484e-01 -9.921654867815948853e-01 -1.025261273387064881e-01 7.138655372244950836e-02
1.468785765405363278e-02 -1.948658980638582616e-01 -9.830850800778058174e-01 -9.915264843494047131e-01 -9.897757819078678576e-02 8.413483136725323497e-02
-1.147476568637686989e-02 -4.016177274453260060e-02 -1.098175087553757479e+00 9.909729941393214947e-01 1.102779077971048072e-01 -7.623193516133236480e-02
1.499652856949646590e-02 -1.964172067811979228e-01 -9.553482667127898287e-01 9.694655730295369533e-01 -5.266291299238961415e-02 -2.395059922124432583e-01
-1.522039470017349377e-02 1.896157009033604679e-01 -8.454817436083214011e-01 -9.921170648303234696e-01 -9.275525281202257055e-02 8.426264147438991547e-02
1.058551498331698239e-02 -8.372096966577025762e-03 -7.625632279923182377e-01 9.932612823531187241e-01 9.368605518795937448e-02 -6.822717963947015629e-02
-4.878956556523471669e-03 1.511881412924426515e-01 -7.463496008908393486e-01 9.911491879572271735e-01 1.001123943764190144e-01 -8.718254242650642916e-02
8.980908335676761898e-04 8.899724875986532793e-03 -8.826312360629083864e-01 -9.930658248866266469e-01 -9.109851641393489075e-02 7.430563740002291140e-02
2.208817941073806454e-02 -2.104870399577950801e-01 -9.073538963984457695e-01 -9.918847378737403186e-01 -1.094321869986222551e-01 6.472451793439516765e-02
-7.057246387531130108e-03 -6.938376055055406333e-02 -1.096559235972890622e+00 -9.912275193602692047e-01 -1.101121606471846398e-01 7.309799546154022165e-02
7.799895202950848233e-03 -2.749424030915554804e-02 -8.421048446505380314e-01 -9.913326929718313529e-01 -1.062815921521849949e-01 7.722509316804583579e-02
-1.264948443558232619e-02 1.337802005554744322e-01 -8.894020033103793299e-01 -9.907804312150823023e-01 -1.003272665761880539e-01 9.104162071605351181e-02
2.059485542669484484e-02 -1.281643255791692637e-01 -7.966723616401297781e-01 9.902777076461533046e-01 1.082742944831719401e-01 -8.733120228905026650e-02
-5.042417458782121661e-04 5.410585986647235834e-02 -8.196969614474329813e-01 9.125300791797671396e-01 -1.310415629709613394e-01 3.874493042532086151e-01
2.159409584708731067e-02 -1.226383211165633230e-01 -7.761877703630005731e-01 9.924372105010911271e-01 9.431411789481473906e-02 -7.856990758894770444e-02
1.034222122087318646e-02 -7.754587152617798892e-03 -7.652345178843763529e-01 9.932087732294556659e-01 9.379638173929912004e-02 -6.883728315858554658e-02
1.272962335863437634e-02 -1.693614255838553351e-01 -9.737507305923250867e-01 -9.916621660271121019e-01 -1.040251667141988273e-01 7.605861660916218847e-02
-7.089935091333747323e-03 1.615870589533650870e-01 -7.609004900306197694e-01 9.921337993657692866e-01 1.096708927391260996e-01 -6.035577388988032366e-02
-2.293255725078104101e-02 2.433597733755946124e-01 -8.566997909660677424e-01 9.911286080407767374e-01 1.094735131969536007e-01 -7.536333479529973289e-02
2.223559482927972217e-02 -1.293036620366714295e-01 -7.927451419101141372e-01 -9.919673720664458072e-01 -1.045318569556159538e-01 7.123077731571018922e-02
-1.319077481383522724e-02 2.104682306413710458e-01 -7.899530622343570174e-01 -9.904916150823455112e-01 -1.167534386813737363e-01 7.276671634505119113e-02
-9.845899190663179659e-03 8.262179510458707299e-02 -9.225769548873249404e-01 -9.952992116921491883e-01 -9.215866591791527229e-02 2.977011087007265522e-02
-2.558293061717758186e-03 -8.201874839321803001e-02 -1.038665408305464499e+00 9.930519434708837689e-01 7.664408383012799586e-02 -8.929457980493908653e-02
1.823265251335247014e-02 -1.715998637612682343e-01 -8.827549783806102335e-01 6.531679214533174793e-01 -4.766334803780405416e-01 5.883809920171357843e-01
-1.777409937108998016e-03 6.458413607120140620e-02 -8.804405962343407888e-01 -7.215410810275745268e-01 1.176148803595451625e-01 -6.823087338643475386e-01
-8.958930714095274597e-03 -4.139019395176393029e-02 -1.082511096471232337e+00 -9.920751559602353220e-01 -1.079437823087311121e-01 6.430415839865880057e-02
-1.242947343099975836e-03 7.143151180387481702e-02 -8.813993097362473605e-01 -9.543154877906718792e-01 -1.880900291627154441e-01 -2.321725450875288810e-01
1.242241532188395831e-03 -9.106912335993473662e-02 -1.000929942246520987e+00 9.919445094310328503e-01 9.549904927406480115e-02 -8.322272404444241989e-02
-1.466559452509871159e-02 2.191416609014644190e-01 -7.813492799187043980e-01 9.886611168678208772e-01 1.203844126870852876e-01 -8.975961884755470632e-02
-3.837193709941627649e-03 -3.973138305814030019e-02 -9.916388687970901783e-01 2.819308154424128854e-01 -2.872234035179608846e-01 -9.154330842696997150e-01
1.811528019056537001e-02 -1.299625780439772338e-01 -8.315514156212734376e-01 9.919206909819731077e-01 1.051082477805436177e-01 -7.103238029482496219e-02
1.184032026004166495e-02 -1.823950274306281316e-01 -9.757786334214854085e-01 6.050103105419971650e-01 -7.713694580767763709e-01 1.973618080688776810e-01
-2.168295084723348767e-03 9.288876177558237635e-02 -8.072824288983795338e-01 -9.911678708936895177e-01 -1.137174880435490171e-01 6.822451627630193860e-02
1.942616478936533969e-02 -1.887686803600764629e-01 -1.014604466313519859e+00 -9.932732294072723622e-01 2.634795471722256935e-02 -1.127567160973886456e-01
-7.258270418484845561e-03 -2.739190555159397994e-02 -1.041488350326288392e+00 -9.919431166765386720e-01 -1.112008854816233239e-01 6.068950771045599629e-02
-2.393663984456818883e-03 -3.376219836362193832e-02 -9.855000164039490196e-01 -9.925019095131437652e-01 -9.217710480652302474e-02 8.027042395708657019e-02
3.964226003792564734e-03 -1.522004370886951841e-01 -1.049296306610052909e+00 9.913933603263878069e-01 9.545453014572204131e-02 -8.959708575289765387e-02
1.813165395941193636e-02 -1.395087929859202547e-01 -8.449624309874614880e-01 9.930974709320327110e-01 8.824605661955241265e-02 -7.726607741757583747e-02
-4.270045178978049702e-04 6.112350820947604763e-02 -8.833859018146364983e-01 -9.453920488255029841e-01 1.588604145175307458e-01 -2.846001453211788323e-01
-9.942446300360523528e-03 -5.330204732097493692e-05 -1.023050897297364870e+00 9.914962628252724786e-01 1.081376652141619876e-01 -7.239755635066646988e-02
4.028757513251361548e-03 6.073844300438406910e-04 -8.533540207564298541e-01 -9.923170903564366707e-01 -1.056299040016545898e-01 6.441362873753235518e-02
1.048460209828171522e-02 -1.651958195493468395e-01 -9.813444217327691454e-01 9.919126146742542893e-01 1.031667326157301584e-01 -7.393233481690199282e-02
1.204214246955717486e-02 -1.541359271304237333e-01 -9.614833938219582432e-01 -9.912220355063029453e-01 -1.078425448478947390e-01 7.647785200612841616e-02
-7.877059090456483073e-03 8.025340812563269699e-02 -8.841468762753877941e-01 9.791501611600345045e-01 1.970638734905116596e-01 4.930305938979858554e-02
-4.561194039031641820e-03 1.814801339619963663e-02 -9.648916000957065142e-01 -9.869925268310336675e-01 8.590750710591348038e-02 1.358883814111365995e-01
-1.849947109466494252e-02 5.790882983000127104e-02 -1.067266018765502977e+00 1.431670830148208950e-01 -7.323350323191857303e-01 6.657241071037496294e-01
2.668057241647639119e-02 -1.760276985595976285e-01 -7.984829965388453576e-01 -9.907695926676480802e-01 -1.106766387644972371e-01 7.827065782894324086e-02
1.492779161456347405e-02 -2.065507225894085142e-01 -9.799572461805390322e-01 9.911269879975838082e-01 1.104953443867908031e-01 -7.387876915380882370e-02
-4.734156851984951120e-03 1.120216837402236432e-01 -7.984439036737214224e-01 9.933034127731029672e-01 9.448811208232781034e-02 -6.648553864130095359e-02
2.086637793079060277e-02 -1.611877872023908531e-01 -8.387306413989829013e-01 9.915057350372918910e-01 1.095375508420491084e-01 -7.012775729826954685e-02
9.407237674109364400e-03 -9.073312487149588768e-02 -9.084428069538673656e-01 -9.921080600527230065e-01 -1.029036095740118034e-01 7.164107980106072804e-02
-2.002134380083338619e-02 2.482401820841231010e-01 -8.277506187242394953e-01 -9.910405254675425102e-01 -1.133051808788193698e-01 7.071501161023074911e-02
5.227745291731697615e-03 -3.260599307328674451e-02 -8.670703147461585880e-01 9.913843930197435705e-01 1.080168113092067061e-01 -7.409017310997279004e-02
1.947697718050611995e-02 -9.033340001860258595e-02 -7.749210686979254303e-01 -9.908612055378538397e-01 -1.043375575027540303e-01 8.548535227997015873e-02
5.306833541216263161e-03 -1.078167232351529004e-02 -8.692174497161041513e-01 -9.358550222364011573e-01 1.924260626075101899e-01 -2.952077027861491620e-01
-3.924424257995531330e-03 -7.612427810121838445e-02 -1.034578387940059185e+00 5.219237141874004671e-01 8.232917979636478201e-02 -8.490097424193002729e-01
-9.152425297386490924e-03 2.288847881860428535e-03 -1.008991092348742180e+00 9.913982841146988800e-01 1.084306213362637300e-01 -7.329558384420174766e-02
-4.975894388882073048e-03 6.773691294261498241e-02 -9.012895460416732174e-01 -9.794430760133242542e-01 -1.945190865854642126e-01 -5.341896483004937579e-02
-1.902652755054211765e-03 -3.297397888823386941e-02 -9.778351254073671672e-01 -9.909717777374731362e-01 -1.098533170711381013e-01 7.685821007738703747e-02
6.676440012555162271e-03 1.383607724805977456e-02 -7.996285178685959005e-01 -9.925858951464695545e-01 -1.000442593401336400e-01 6.902453860306304034e-02
-1.585593194956643956e-02 1.679498803591047140e-01 -8.844951384744986767e-01 -9.920445944432744190e-01 -1.052026161229118184e-01 6.913705371777123521e-02
-5.082738596633980342e-04 3.658024656157735782e-02 -8.468607132922202352e-01 9.919497957621593587e-01 1.065587672168578359e-01 -6.841660483123883363e-02
-6.523999518023122605e-03 -3.543266375425287856e-02 -1.042522750753636540e+00 -9.987931059760211117e-01 -2.393881627941333440e-02 4.288664745480821189e-02
5.928998093141012692e-03 -1.574946212203743867e-01 -1.047357110122845159e+00 -9.895434584239308773e-01 -1.183768888397357527e-01 8.240543719337281581e-02
8.711386621224944532e-03 -1.059823312530493306e-01 -8.962103265866191437e-01 8.553090769013075301e-01 -3.840463675330761939e-01 3.477855237856839477e-01
3.934596788265238296e-04 -1.502858865888707096e-01 -1.109968197021555580e+00 -9.912610411442868141e-01 -1.070201472250301156e-01 7.712481051826042266e-02
2.094342046326140225e-02 -1.418497147481648513e-01 -8.267613102485269483e-01 -9.919013771523605971e-01 -1.059218641433757463e-01 7.008720781742307226e-02
5.957986592372581727e-03 6.285010736676763590e-03 -8.197828732127676599e-01 -9.911793673400612903e-01 -1.046451571702623484e-01 8.131944933511847662e-02
6.619093994523803093e-03 -1.267188027974323339e-01 -9.383189270681576710e-01 9.774269448726589093e-01 -1.920655316130047696e-01 8.801931039899167641e-02
2.246256151099293094e-03 -1.189047031252669778e-01 -1.042224181582141140e+00 -9.911209163010152867e-01 -1.123995524708635840e-01 7.103287883075674880e-02
-1.873694003552739754e-02 2.539114380970984297e-01 -8.032453809994724026e-01 -9.897241502103921729e-01 -1.112108084011764614e-01 8.987915545371719106e-02
7.671656878018822366e-03 2.477152782902766314e-03 -8.028638535222237804e-01 -9.913547805807080282e-01 -1.025251524617034893e-01 8.187974189309879525e-02
6.119619125332436023e-03 4.456596236014509493e-02 -7.646692887723581800e-01 -9.927992394253226660e-01 -9.611714514918212604e-02 7.149240942136278476e-02
1.215301497257464947e-02 -1.830346265414329598e-01 -9.612258694940783998e-01 9.184056556585024067e-01 1.380554352535729168e-01 3.707718280174782666e-01
1.464479821292349535e-02 -1.093828833889936014e-01 -9.006208098237750148e-01 -9.987931059760211117e-01 -2.393881627941333440e-02 4.288664745480821189e-02
3.584903568104797975e-03 -1.693453188212591387e-01 -1.077722789697571182e+00 9.918590936646174416e-01 1.028737597863089714e-01 -7.505016896871322118e-02
-1.298078663710893095e-02 1.729135974839229040e-01 -8.460291196378709744e-01 -1.155898222412285320e-01 -4.841314761031046410e-01 8.673267589786851639e-01
-6.609508883326412065e-03 -4.686986063579837332e-03 -9.851026434930906239e-01 9.911877077358519639e-01 1.095028966924453534e-01 -7.453887341052858884e-02
4.134156638011378046e-03 8.160124825284159611e-02 -7.394590689262444672e-01 -9.931991213477574520e-01 -8.989119380729319875e-02 7.399377426474561259e-02
-6.351332659395090077e-03 5.969203946752813655e-02 -9.089823116409149195e-01 -9.905589382879752547e-01 -1.137620941240012062e-01 7.649297822886276521e-02
-1.546690248170159813e-02 2.427712992317769894e-02 -1.061838473228271518e+00 9.930949462726113008e-01 9.431710579245514148e-02 -6.976181794315727824e-02
-2.306470663804874050e-03 5.694470515647693382e-02 -8.429946674860984146e-01 9.919646685051649593e-01 1.047057627728056606e-01 -7.101267266906087505e-02
7.683990169432889511e-03 -5.324247122231277884e-02 -9.122424785891902754e-01 -9.571482435483561479e-01 -2.579841949070368901e-01 1.315727747311906670e-01
-3.345700173619839380e-04 -7.204398271702038004e-02 -1.011690902231733524e+00 -9.928450270249865595e-01 -9.726386573380003953e-02 6.927115369524906863e-02
2.212418474282329406e-02 -1.221441598634016718e-01 -7.842677265202936399e-01 -9.929467379799347126e-01 -9.112961408600596391e-02 7.584305486689214837e-02
-1.306714295894655445e-02 9.314414360809820936e-02 -9.344904215201778053e-01 9.933536845150748862e-01 9.354704083389685232e-02 -6.706272147434803876e-02
7.815128621128125674e-03 -1.203048500095779544e-01 -9.710039891052562044e-01 -9.933215998231642585e-01 -5.623530924528534480e-02 1.007461627995656778e-01
6.998974234586457718e-03 -1.014851279649597177e-01 -9.390842156790247808e-01 9.911175605667944533e-01 1.141266052530458264e-01 -6.827224259933183104e-02
3.796153045284487559e-03 -1.058381882854920741e-01 -1.030727246110755946e+00 -9.372259457724667620e-01 -7.367100816787902628e-02 -3.408520340652716474e-01
6.016614812448532051e-03 -4.592342464165145854e-02 -9.453292737993115313e-01 -5.979536499079841638e-01 -2.507866470978812878e-01 7.612867332346746618e-01
-1.062486965474651081e-02 -5.526326775263899066e-02 -1.107717601985658495e+00 9.921358192610557625e-01 1.046051338563238203e-01 -6.873341334528787483e-02
-9.258564319476185467e-03 1.677419483148674673e-01 -7.972399820047167962e-01 -9.927983284819185128e-01 -9.628831307910185044e-02 7.127439742214101981e-02
-2.492165708655888490e-02 2.265822665188536311e-01 -9.174953327859850516e-01 1.175662657594976623e-01 -7.585620649947565353e-01 6.409069875623590873e-01
8.701455566996502133e-03 -1.589824279565621723e-01 -1.012269850855658238e+00 -9.636850867111900198e-01 -2.400078943254570496e-01 1.170780265972486411e-01
-1.155094269510845845e-02 1.473594834865370462e-01 -8.396648751423875234e-01 9.898645481589773976e-01 1.114063005182197169e-01 -8.807276822530173133e-02
-1.777806917097091155e-02 1.904614525154581517e-01 -8.618318413452177307e-01 9.978230263349217033e-01 6.587598774098657461e-02 3.092305768744193790e-03
-1.750661854847545759e-02 2.033675493854983640e-01 -8.410829071757982556e-01 9.932308907653740748e-01 1.017881154650375486e-01 -5.596049659802541237e-02
1.112992059002869231e-02 -2.188251744257910802e-01 -1.063254892359718928e+00 -9.895801135365781542e-01 -1.211834194220833827e-01 7.775459954307591126e-02
1.620072890783406938e-02 -2.135843192794987244e-01 -1.021111726880727044e+00 -4.161630980925611345e-01 4.431865679263448099e-01 -7.939735145429402952e-01
-1.458615326414846800e-02 2.248382153614114365e-01 -7.886731802467591423e-01 -9.923921466764079602e-01 -1.085954757728514186e-01 5.800732588784573984e-02
-1.530837134546451754e-02 1.055928648915123030e-01 -9.467079854334117250e-01 9.910064496927246669e-01 1.053940610343810785e-01 -8.245185605007328278e-02
-4.619714901522012883e-03 -1.254808812679271690e-01 -1.125908593999147778e+00 9.913988878993078568e-01 1.025338792175727598e-01 -8.133294956296542588e-02
8.040473690361250175e-03 -6.011476054813309766e-02 -9.184045370305782274e-01 -9.694655730295369533e-01 -2.315030039295404296e-01 8.088795882027491335e-02
9.230654598035478373e-03 -7.127976502726791896e-02 -8.838723481342558586e-01 -9.916797087885114159e-01 -1.055770597570289404e-01 7.365351064405235848e-02
1.723854071059073220e-02 -1.818222734252948058e-01 -9.149158934521408604e-01 9.919629314864395475e-01 9.626914092844734983e-02 -8.210843477821251624e-02
1.591178576081749355e-02 -2.319440756181130880e-01 -1.002491609442001330e+00 9.915563892349639197e-01 1.012837437534276908e-01 -8.097857876383537934e-02
-1.863024389595600849e-02 2.211029044059535098e-01 -8.306707964307583625e-01 9.914665150427648399e-01 1.023423355958967690e-01 -8.074772996023828198e-02
-1.465926086308474464e-02 2.107281715688235635e-01 -8.088865845824882994e-01 -9.938622320828476298e-01 -9.565673374159600062e-02 5.556665303209578494e-02
-1.025871694271672865e-02 1.563080531237766024e-01 -8.493955058992597174e-01 -7.409832749753578751e-01 3.272995327607887139e-01 -5.863606416373480235e-01
7.810884442681154734e-05 2.664126050520762568e-02 -8.695624670631402209e-01 -9.905906702846850598e-01 -1.126233868804846772e-01 7.775665034263631870e-02
-1.251534377394935248e-02 -8.415590644924043559e-03 -1.067828239651183786e+00 9.914675515619180146e-01 1.082453803130018349e-01 -7.262941443181930579e-02
1.527482353992771179e-02 -7.534704568138256287e-02 -7.938732730510466018e-01 9.921325884298302089e-01 1.023680916827159615e-01 -7.206733504691474612e-02
1.394911876392039736e-02 -9.329799836983158901e-02 -8.268032645284317805e-01 8.765431017286755555e-01 -2.930215798279609540e-01 -3.818514692481864148e-01
-1.140233699813157989e-02 -3.533048428250209171e-03 -1.062500043947013806e+00 -9.921021662835981525e-01 -9.964382094042162352e-02 7.618661695983686144e-02
-1.147267849162640282e-02 1.014477493106747119e-01 -9.185012446494627003e-01 -9.901698207296494303e-01 -1.141592248286353584e-01 8.081706195314934671e-02
1.741777238924059753e-04 -9.942380050784055401e-02 -1.026096516404372494e+00 9.916007182100938788e-01 1.119724298810492041e-01 -6.473168151499983369e-02
8.382378200767209506e-03 -2.006922643484001234e-01 -1.053858835365111046e+00 5.077506694463354009e-01 4.106273124566824917e-01 7.573469930892974267e-01
5.809106771469086175e-03 -1.137804615726926843e-01 -9.877956997348817936e-01 -9.931005464414643935e-01 -5.715525067014708832e-02 1.023942477803192336e-01
-8.646362694092249706e-04 7.425990811119188850e-02 -7.993287584410531110e-01 9.922864183692751139e-01 9.760986002358384983e-02 -7.641975625485793178e-02
2.017369775480353736e-03 -1.156236959028686812e-01 -1.024384686300769731e+00 9.910149875746822046e-01 1.107733179404017942e-01 -7.495709729456516424e-02
-1.202086515111038673e-03 5.757179867156729525e-02 -8.271384257820473263e-01 9.918821238738252388e-01 1.032494022309185799e-01 -7.422542205004628579e-02
6.885288331125167041e-03 -3.936907250566905325e-02 -8.712848322909365617e-01 -9.913602240335652738e-01 -1.088224992489002924e-01 7.322956958321122367e-02
5.784317972642725666e-03 6.126750191962509334e-02 -7.454760876248019974e-01 -9.915558658192299424e-01 -1.061526686924709195e-01 7.448876350795236023e-02
-7.304244132830046109e-03 4.384932090145499811e-02 -9.267731367882839910e-01 9.809103914029011495e-01 1.657867246274105366e-01 -1.016344723758726976e-01
4.136045467245548220e-04 -8.669503804517061929e-02 -1.005351171306544833e+00 9.902066593956068141e-01 1.140214152372324291e-01 -8.055984456223269641e-02
1.215278452954401608e-02 -2.088113499149548205e-02 -7.591652209000669949e-01 9.899160293314600567e-01 1.106978939414448027e-01 -8.838682678750431343e-02
-6.840724165642596277e-03 4.978281776167062245e-03 -9.447296316884842282e-01 7.304029455998726217e-01 -1.362299180921125730e-01 -6.692928704802149076e-01
9.252533381628735842e-04 7.917257003591109121e-02 -7.692232900696598374e-01 9.926491401440803442e-01 9.231684945111508223e-02 -7.826419282556808243e-02
1.147441520136352130e-02 -1.573816563112830080e-01 -1.016708591482005986e+00 -9.587291917096391058e-01 -2.704208005576431706e-01 8.781188751840755813e-02
6.576459343400232506e-03 -2.058660958730837778e-02 -8.258535773223554255e-01 9.686603619681498634e-01 -2.073680701536516346e-01 1.367318054897352364e-01
1.129177414334659596e-02 -1.268422117823349571e-01 -9.173860720773743260e-01 9.920074126530623593e-01 1.007105017276194170e-01 -7.601768270046102560e-02
5.502357260801121405e-03 -1.251616688143257494e-02 -8.519659469326752443e-01 -9.912082674266096127e-01 -1.084447524997356888e-01 7.580175618288641226e-02
7.603030696690827629e-03 -1.998581083874985675e-01 -1.067229373905598910e+00 9.921224695365800095e-01 1.002629340801034080e-01 -7.510226022089237785e-02
-2.017585083354425483e-03 -7.390013401395599535e-02 -1.020245215591803811e+00 9.921623482282355688e-01 9.533254030740170859e-02 -8.078107152527122525e-02
5.619836998030329836e-03 -3.979601382166532940e-03 -8.222105800828246602e-01 9.911550188838728070e-01 1.057427756166409161e-01 -8.018849011048004294e-02
-1.830589935461658310e-02 1.149726231432717377e-01 -9.732017558806398405e-01 9.916567634843109769e-01 1.069040180807436236e-01 -7.203050988305757796e-02
-3.488397751381976889e-03 1.134356374830931963e-01 -7.962153540417171715e-01 -9.933030304244265807e-01 -9.448841816680952910e-02 6.649081577168700075e-02
-1.257457926093664274e-02 1.926855938744734820e-01 -7.900451071661446223e-01 9.923969620213676235e-01 9.804800043966659107e-02 -7.439663554585818073e-02
1.603256778893643458e-02 -1.065759585670632004e-01 -8.267507885390829037e-01 9.932736104593554716e-01 8.751021817890135279e-02 -7.582543425076777865e-02
2.209792808136697075e-04 -1.193188426211837239e-01 -1.074255457120644630e+00 -9.295474862699002472e-01 -2.995584590927217235e-03 -3.686902456565243069e-01
3.867621342697382097e-03 -6.621690846110261930e-02 -9.314973945513502773e-01 9.927604934230691569e-01 9.302123416716817639e-02 -7.598455561758013510e-02
-1.393841678697414939e-03 -2.787192338913791270e-02 -9.641608636645775388e-01 -9.937975444421812687e-01 -8.858152868585142392e-02 6.722911152445944227e-02
-6.058975958938522637e-04 -2.648444834164195155e-02 -9.523466844333534631e-01 -9.925876138702253160e-01 -9.171767643547588944e-02 7.973516552117947132e-02
5.932192126548623337e-03 -5.128584251816504375e-02 -9.002731253320134241e-01 -9.935000428275335693e-01 -8.750663088750175456e-02 7.280284645813908662e-02
9.590929355494834082e-04 -5.719068693897723377e-02 -9.576775136703404856e-01 9.915997116433860059e-01 1.045542058704261451e-01 -7.614742217276969372e-02
7.082161212952925271e-03 4.343545908009870810e-02 -7.374927284392192028e-01 9.921287931813931316e-01 9.700654370589756326e-02 -7.918452006969620149e-02
-5.824913416044720516e-03 -2.683393143516578372e-02 -1.021320468692130889e+00 -9.915596944765170395e-01 -1.041341883441761207e-01 7.723628103123529598e-02
-7.258590749029660873e-03 8.448237507017543335e-02 -8.699880896447794720e-01 9.942543816378330845e-01 4.358119654782796615e-02 -9.776964713769556448e-02
-1.194685540074493825e-03 -1.274314377948424781e-01 -1.100576439390259953e+00 -9.630334670434470556e-01 -7.319498423372991502e-02 -2.592470552143291140e-01
1.393518406077136600e-03 9.647359417912983182e-02 -7.394354761533291631e-01 9.917455109929516066e-01 1.040137182788948983e-01 -7.497991621179696253e-02
-1.878771193579197377e-03 8.609717685611481541e-02 -8.130484354444803552e-01 -9.919319546558738043e-01 -9.910337538578845029e-02 7.905389503194093503e-02
4.484063563327995300e-03 -1.723271047339458295e-01 -1.086361514350302482e+00 -9.931062787795001956e-01 -9.462669322441637221e-02 6.917881162715662502e-02
1.047872785744250607e-02 -2.215423598766035618e-01 -1.047076757931380664e+00 2.317700006033517057e-01 -1.782934418368980756e-01 9.562918568189707758e-01
-8.543545062836282664e-03 1.401314527078346972e-02 -9.571646859201020652e-01 8.157917783047990978e-01 5.565430357152252316e-01 1.573010611762520050e-01
-5.917681578576221811e-03 1.225097506843068201e-01 -8.161821748622104522e-01 -9.895158860034232173e-01 -1.153240416923061312e-01 8.694065076022437777e-02
-9.836445282926745484e-03 1.793998902507766280e-01 -7.887575975318379395e-01 -9.891667065554162752e-01 -1.113483626948784388e-01 9.565965067613650674e-02
3.067371653129483382e-03 -9.905349977216006130e-02 -9.874653746004762311e-01 9.928910734041190844e-01 9.608581501949864379e-02 -7.024836301619109824e-02
-1.949137409807242703e-04 5.420622637798881011e-02 -8.349004051692008321e-01 -9.916681074294046994e-01 -1.054495453580471948e-01 7.399160824825744276e-02
1.266892426201193279e-02 -1.239256031395526425e-01 -8.954690508448774899e-01 9.918044264921930253e-01 1.028616379781244483e-01 -7.578563863258819255e-02
-2.327053306245672679e-02 2.240739830052463910e-01 -9.042880782914977100e-01 -9.932615257945303089e-01 -9.638436630416104267e-02 6.435522751468600311e-02
7.645726090975790527e-03 -6.183011020155236570e-02 -8.759865716213632858e-01 9.931306280793203989e-01 8.932842053875227062e-02 -7.557770077758420302e-02
7.215219981951534987e-03 -2.445264842308649267e-01 -1.046502393287984667e+00 6.601263577449070219e-01 7.158062965627529639e-01 -2.277159142694226701e-01
1.795597537247028627e-02 -1.642442888707417448e-01 -8.739860846241439551e-01 9.792132954626175945e-01 -1.485770937628348165e-01 -1.380802998194531894e-01
7.950043349154896355e-03 -1.622063664945597172e-01 -1.026804298504077506e+00 -9.910743282434349988e-01 -1.125309498374662820e-01 7.147350016265986705e-02
6.226845960545034954e-03 -8.081416891394439805e-02 -9.209074365195223377e-01 9.909217559735409298e-01 1.058868815577139050e-01 -8.283744233314102590e-02
7.082242844139260973e-03 2.733576817270471498e-02 -7.762187630920402981e-01 -9.925492549042757018e-01 -9.846262250188919651e-02 7.177108442135839150e-02
3.637412648420369505e-03 -1.599074943696708051e-01 -1.080571350540862285e+00 -9.926602779575385282e-01 -9.521168738358089245e-02 7.456746710753422991e-02
-3.376941996530556482e-03 -1.026136752410321956e-01 -1.074367266842461976e+00 9.987931059760211117e-01 2.393881627941333440e-02 -4.288664745480821189e-02
1.502898978134201841e-02 -6.169265918234734941e-02 -7.947625838471412685e-01 -9.904514431351236770e-01 -1.063245324679232273e-01 8.775552738732983471e-02
1.030289362723826700e-02 -9.806548050103175429e-02 -8.906908925469421145e-01 9.987931059760211117e-01 2.393881627941333440e-02 -4.288664745480821189e-02
-8.334006635816010658e-03 4.187614179303052186e-02 -9.648771421297580586e-01 -2.984408478290621614e-01 3.312580147204116643e-01 8.950984236555007412e-01
6.052749006940635196e-03 4.964639847026933867e-02 -7.588740665999651469e-01 -9.927036840058417466e-01 -9.602585810002875477e-02 7.292756911746617332e-02
-1.044835244817443262e-02 8.062209756019196594e-02 -9.175272452107918753e-01 9.961593440784413112e-01 8.724552962231113540e-02 -7.401267873259777426e-03
3.964134358272771927e-03 -1.291734016767248916e-01 -1.034265960360325032e+00 -9.913094947620677555e-01 1.532624132473500364e-02 1.306544753210916454e-01
-1.267666194054883552e-02 1.891161612219929844e-01 -8.130819662481597598e-01 -9.917362272061966966e-01 -1.071602534306656390e-01 7.054031281114576946e-02
1.622390534667769724e-02 -1.599364555762300411e-01 -1.006897217882771978e+00 -8.189226304242870347e-01 -4.154589616070407665e-01 3.959287519230778596e-01
1.530137331042741820e-02 -9.906719169009015058e-02 -8.263927946036464522e-01 9.934076665277602469e-01 8.687292708939560459e-02 -7.479507084554833096e-02
-2.013071380847458389e-02 1.501988262507355787e-01 -9.493190616587486863e-01 9.916876308990960620e-01 1.088426195690737897e-01 -6.862162113415737341e-02
-1.789519040814473811e-03 3.005960441041849798e-02 -9.064500331872219485e-01 -1.996990993462923747e-01 -5.133606360442442007e-01 8.346143583000048549e-01
1.273889107137526552e-02 -1.068008124684269033e-01 -9.764221652256472872e-01 -9.511483793076771498e-01 -2.862315851188538818e-01 1.157075633687240368e-01
-7.769665354186629062e-03 1.481629565740690685e-02 -9.495978191226982501e-01 5.911043106216027354e-01 -4.208599571186157906e-01 -6.880934460221785898e-01
1.047116064532388827e-03 -1.573303025261269805e-01 -1.095081676661939341e+00 9.915761347760994049e-01 1.018708553339943285e-01 -7.999436090132312771e-02
9.578703694858123341e-03 -2.037582538347341432e-01 -1.062995670070797649e+00 -9.907574537757892763e-01 -1.061955609530832179e-01 8.439295362513812848e-02
-7.083877773160146074e-04 9.911223076237100915e-02 -7.797100477655295458e-01 -9.904237328547101926e-01 -1.102817251491788608e-01 8.305883755665216528e-02
-1.191769477358244587e-02 5.272514993535337008e-02 -9.628339604981525079e-01 5.478508576312689504e-01 -2.103078608628518587e-01 -8.097098501636090795e-01
1.366205294849951249e-02 -1.064393326180999577e-01 -8.579628499773471750e-01 9.916428619401499445e-01 1.057265943927061663e-01 -7.393457649347105753e-02
-2.008910186853150870e-02 2.468334847845846391e-01 -8.309541405483014120e-01 -9.910405254675425102e-01 -1.133051808788193698e-01 7.071501161023074911e-02
1.954690988381019984e-02 -1.515239336670830272e-01 -8.423632055466546698e-01 9.916457178354486368e-01 1.065730843924304061e-01 -7.267013128997128202e-02
-9.523484323460625067e-03 1.018501706709592711e-02 -1.002285961398323266e+00 9.912337278046905453e-01 1.102864233075943889e-01 -7.275026939080508903e-02
1.484337873052820472e-02 -2.231040250970904582e-01 -1.020168271386983072e+00 -9.926536219021331320e-01 -9.639322726995251667e-02 7.312409083920347330e-02
1.007744937320561619e-02 -1.017337669660152988e-01 -9.147898941855934218e-01 -9.921350755082726236e-01 -1.012249541872372316e-01 7.363083997881540721e-02
-2.176730137711801669e-02 2.037241408664121900e-01 -9.127670449149046794e-01 -9.929317934874029028e-01 -1.022780022672542810e-01 6.021348465343027978e-02
1.049966084999379157e-02 -2.262586298054589107e-01 -1.065594921339192203e+00 9.909184201900107514e-01 1.104337985907316716e-01 -7.671414900104683854e-02
-9.193110478615861350e-03 3.017502262920094755e-02 -9.703376407341842702e-01 9.921569384686755866e-01 9.631824944359439200e-02 -7.967059854542227204e-02
-1.162304906532361966e-02 5.915908364933525343e-02 -9.626954262755291758e-01 9.200827783616757349e-01 3.223529914732721213e-01 2.225673602541304863e-01
-8.640470215761962905e-03 6.652754380494496633e-02 -9.033235574389050226e-01 6.012872883187354578e-01 3.744584612178586958e-01 7.058572502486994971e-01
-1.120444344960545326e-02 1.874020294218826377e-01 -7.799551567782478934e-01 9.926264436231854171e-01 9.481226055906230576e-02 -7.552071681113511903e-02
7.011574452942626132e-04 -1.347143079566886226e-01 -1.084442034531982735e+00 -9.925768062433187877e-01 -9.334013299591524537e-02 7.796732187344787568e-02
-1.319669406647164082e-02 5.169172633803621741e-02 -1.010003560570735370e+00 -9.911105208551880263e-01 -1.118436520046231647e-01 7.204812944432902044e-02
-5.339050024729190616e-03 2.007330176255894480e-02 -9.338572945620335908e-01 9.910070012905087822e-01 1.121296455357559257e-01 -7.302099687911149661e-02
-1.927726542770429388e-02 1.702223780841822798e-01 -9.260742310439336045e-01 -9.910227751101418070e-01 -1.083758012056507541e-01 7.828502363815526000e-02
1.430454599172485122e-03 -1.477870749926008254e-01 -1.092816043342508037e+00 -9.929872067431535498e-01 -9.424186523342956145e-02 7.137841467666362905e-02
-1.640154032457178529e-02 4.517359764550524237e-02 -1.061492205093512720e+00 -9.940488594159195834e-01 -8.646895934008726192e-02 6.625695559374550347e-02
8.787873257222716949e-03 -2.299158453503841459e-01 -1.031890592370305004e+00 4.595806976795475673e-01 4.944544890078126920e-01 -7.377671317024113717e-01
4.631285060816482668e-03 -1.484479075543265192e-01 -9.872903512489635824e-01 6.270856047840683845e-01 7.380756220247695065e-01 -2.490140968807768862e-01
1.716539592366643843e-02 -2.357211455613691387e-01 -1.055321714814275280e+00 -2.829292244690860270e-01 -3.765872562299672488e-01 8.821185251350900369e-01
8.675675078368487794e-03 -1.305056620567573988e-01 -9.567703039457172709e-01 9.928806584855039974e-01 9.404433072295260987e-02 -7.310035474786519272e-02
-6.174298769296672311e-03 1.760910918104967859e-01 -7.390830869752823551e-01 -1.746556456103625851e-02 -3.851418761373783806e-01 -9.226920880228379751e-01
1.408879222208424438e-03 -1.872338456393548775e-02 -9.398058463277070285e-01 -6.609290109304176708e-01 2.280515662318355063e-01 7.149582684672907140e-01
-5.136283918451417518e-03 7.439836821267925560e-02 -8.723839057895772520e-01 -9.892451126528575278e-01 -1.131077138457737413e-01 9.274024024670904365e-02
-5.272237506368274498e-03 3.340767029303152308e-02 -9.141795365080003233e-01 9.909834999938329503e-01 1.113472823516418048e-01 -7.452171128521258014e-02
-1.253023508982427023e-02 1.670964596331671603e-01 -8.411115564214173279e-01 -9.900079318256062022e-01 -6.872888207177219044e-02 1.231285332144843037e-01
-1.844714591372316817e-02 1.367805067735199942e-01 -9.453760762876756152e-01 9.924339519353893024e-01 1.022306310234983029e-01 -6.799815531647027123e-02
1.232833048509803398e-03 9.579814128813728125e-02 -7.422072966715822506e-01 9.908636036734166375e-01 1.035784067325510871e-01 -8.637611113077812985e-02
-6.244629490614835021e-03 4.196954160725811095e-02 -9.317954038900095881e-01 -9.907200532498202650e-01 -1.132877756531056601e-01 7.509764294733071999e-02
-7.170101068961639255e-03 -3.032568427435599137e-02 -1.048828895705645303e+00 -4.776943506937634809e-01 3.139891448260452855e-01 8.204991921060450499e-01
1.479989211355636249e-02 -7.223933694093685742e-02 -7.959557977771358761e-01 9.919919233476207632e-01 1.033629221410898996e-01 -7.258188713131626113e-02
-9.772984166479047746e-03 1.467829096356655094e-01 -8.330718480850581864e-01 -9.912619953284153018e-01 -1.129456312189909967e-01 6.813912977190231257e-02
-2.501617925035458032e-02 2.314624990247355074e-01 -9.009120804460936105e-01 9.908781037665911340e-01 1.132502740843693984e-01 -7.304080295108700271e-02
-7.620044638916442618e-03 -2.437323103206248329e-02 -1.047717089673411150e+00 -4.624189179953872020e-01 -8.759492513476563325e-01 1.374105285029340318e-01
6.340796064163881779e-03 -4.585387558634843042e-02 -8.705594986664072499e-01 9.930696515961615622e-01 8.956545828127039643e-02 -7.609662122291617481e-02
6.386746068775716462e-03 3.110880428183723442e-02 -7.635477205889192875e-01 9.926724165376642484e-01 9.743562540097373825e-02 -7.146868088887053938e-02
1.410646212952378596e-02 -2.423189527320866732e-01 -1.038435450244805880e+00 7.379177982654426537e-02 6.373895640590311329e-01 -7.670002065571228655e-01
1.148811190020554863e-03 1.023833732568203703e-01 -7.504976083242860252e-01 -9.923250873938457284e-01 -1.055427210127680288e-01 6.443333741175873153e-02
4.761207180131922338e-03 5.103879184789261725e-02 -7.734985311868314284e-01 -9.919502586277155753e-01 -1.000273154325962699e-01 7.764805584015481432e-02
1.485855469651184077e-02 -2.301973738640322731e-01 -1.029864649617611594e+00 -9.919701851826013828e-01 -1.051607602327808977e-01 7.025927850511226591e-02
7.270643277034812707e-05 -8.634143660740886683e-02 -1.009490831670268873e+00 9.919162306587837596e-01 9.691918631768396686e-02 -8.190764725706559113e-02
3.300377533626870294e-03 -4.929737260432911355e-02 -8.978213491847474303e-01 7.056834313717477158e-01 6.351298090078392189e-01 3.140398388693090848e-01
1.589306000717536152e-02 -6.848390509993045050e-02 -7.755704287125635421e-01 9.922383973204582652e-01 1.015210809888989762e-01 -7.180830730336015821e-02
1.779137635167935341e-02 -1.358045162062749001e-01 -8.445272423045595556e-01 9.915694016290403923e-01 1.068943332815648628e-01 -7.323744442098110985e-02
1.230956710926493780e-02 -1.810690892686327436e-01 -9.791424589965640468e-01 9.907316850032169553e-01 1.115032944623323835e-01 -7.757411717017967390e-02
-5.867961014093420538e-03 5.790757859607582880e-02 -8.666350199048312719e-01 9.275118615126309862e-01 3.461805496352849953e-01 1.409991978969593884e-01
-1.837662714958819207e-02 1.446077135847335382e-01 -9.499724931279875939e-01 -9.929173738080530054e-01 -9.115897774597137015e-02 7.619140086931650013e-02
3.506376144550845970e-03 -1.513108235668644275e-01 -1.070575346890698221e+00 -9.934779488060139219e-01 -8.707320456074664483e-02 7.361944229425727848e-02
2.818374370543982876e-03 -9.245529609149620576e-02 -9.983996625330294750e-01 -9.920098805930852581e-01 -9.553036447081539317e-02 8.240355738538067409e-02
-1.276657783530046018e-02 1.744981743023527598e-01 -8.341293554731918913e-01 -9.825658443927860475e-01 -9.061465697941045727e-02 1.623371349174157763e-01
2.572667441014971426e-02 -2.219886539485329546e-01 -8.584460154073659810e-01 9.923162825241381713e-01 9.862992522743883883e-02 -7.470296705690140926e-02
7.277199316973264297e-04 -1.287357640102658740e-01 -1.059920925788162771e+00 9.907383070326634122e-01 1.139821065700080266e-01 -7.379489386072070334e-02
-7.783741526963873850e-03 1.165903488363638496e-01 -8.324922866333709370e-01 9.895276028026920301e-01 1.165607210380483760e-01 -8.513942449093669929e-02
2.412472317411604519e-03 -1.321732028730543407e-01 -1.042205244877447257e+00 9.913168603794844103e-01 1.109720214755671175e-01 -7.054142596366892726e-02
1.100646862573702138e-02 -1.028562375608024909e-01 -9.046737643990385713e-01 -9.905593414599814794e-01 -1.062036993822508685e-01 8.667736315724033913e-02
-1.287830137692760890e-02 1.008934255170094441e-01 -8.741415853260532387e-01 9.890641342878496722e-01 -7.188448396566560206e-02 1.287818280287109374e-01
1.056831457316942911e-02 6.685027068613699427e-03 -7.421870826980797586e-01 9.908429033959205157e-01 1.057934646863820244e-01 -8.389328709493802660e-02
-6.144305828293802549e-03 -4.479388991860285690e-02 -1.034520272803811647e+00 9.924668297730936395e-01 9.799079568920207595e-02 -7.353499684056750973e-02
-6.988714174960081182e-03 8.194291414282070529e-02 -8.699226520159751841e-01 9.912550830982120864e-01 1.102323929621030763e-01 -7.254088346446561919e-02
-3.852681192692167071e-03 1.435281472133024226e-02 -9.380879098690544371e-01 -9.922656536969077790e-01 -9.488424332179926091e-02 8.003657203240008289e-02
-9.972899405693493469e-04 -5.717224934695362693e-02 -9.512023273503665832e-01 5.950855623372444114e-01 -3.917038183164792686e-01 7.017416135687380985e-01
-1.189412516060660990e-04 -1.428953626251105169e-01 -9.948067703192092770e-01 9.809535312950802277e-01 -9.467352762400982336e-02 1.696086454368937180e-01
8.895063888404414199e-03 -7.022010250277515263e-03 -7.992784018876490926e-01 -9.911315408163855478e-01 -1.158431902484919201e-01 6.510471620388917635e-02
-4.945098504997041781e-03 1.157230658095560194e-01 -8.123898880823211544e-01 -9.916851261923272931e-01 -9.759157773629363597e-02 8.388381514838610942e-02
-1.280250518768917198e-02 1.271257996320057371e-01 -9.003289826146657626e-01 -9.906455433968948121e-01 -1.012106349794220511e-01 9.153040322719491195e-02
1.532959671397793669e-02 -2.138417399316078216e-01 -1.000758697929015950e+00 -9.910678389210583195e-01 -1.034199490054634740e-01 8.419532530996366726e-02
