5.429636835963867064e-02 1.524911878083858308e-01 -8.022268125185129106e-01 5.410459556563312900e-01 -4.195403795356570376e-01 7.288725154696148456e-01
-3.492923236843800423e-03 -2.066961160922340390e-01 -9.266139950026690553e-01 -5.994903764009040792e-01 3.551065592859887765e-01 -7.172939565859793865e-01
8.967737534119664400e-02 -1.302359223832309509e-01 -9.678180320219652577e-01 5.958773195563655811e-01 -3.673303718503909687e-01 7.141418752282869820e-01
-1.653737144128671413e-02 2.102680180499195278e-02 -8.062068654198770723e-01 6.000352523639476132e-01 -3.453286074095360814e-01 7.215995072234487884e-01
-6.672756748635219615e-02 2.422771667910123689e-02 -7.615340795994771650e-01 -5.955960442243335429e-01 3.389588025584235331e-01 -7.282666285588578203e-01
9.509046408029254993e-02 -2.599195968245156252e-02 -9.196938868921107346e-01 -5.945353342911107175e-01 3.647170958161283782e-01 -7.165955458267977418e-01
6.417099195517404764e-02 1.898282086045159633e-02 -8.738288995165317541e-01 5.961365940648448714e-01 -3.606552669500033281e-01 7.173206672318788168e-01
4.226655491593905162e-02 9.411325014079563456e-02 -8.189693919606563233e-01 6.159005499262160122e-01 -3.693615700152719783e-01 6.958725049866807399e-01
8.172963611658498606e-02 -1.327367131048869282e-02 -9.024031835813489666e-01 -5.962441416110716430e-01 3.474742012324538720e-01 -7.237089215094315575e-01
1.156409222971732931e-01 -7.654858703812909837e-02 -9.630237089927192740e-01 5.977298932239328844e-01 -3.444226729488404914e-01 7.239419846267253211e-01
5.858037662159990000e-02 3.209224670931087875e-02 -8.627884049544034539e-01 5.968340021070930312e-01 -3.443493282287819479e-01 7.247156091027822100e-01
-1.151262512736860033e-01 -4.974076701400424044e-02 -7.577375044385055158e-01 -6.052163270757037195e-01 3.386880393172890247e-01 -7.204190512919582678e-01
3.107582691047109172e-02 -2.249567115203529588e-01 -9.658351747079088057e-01 5.895643073938993117e-01 -3.433460724995621161e-01 7.311138091612532364e-01
4.877830874907198438e-02 5.477113829090859976e-02 -8.436126199481990273e-01 5.988375215008254759e-01 -3.580969977886050426e-01 7.163519826297237714e-01
6.351626013529548809e-02 2.325048351323679985e-01 -7.688664871389568889e-01 5.913526291952945213e-01 -3.635155206023598651e-01 7.198322959030162282e-01
2.489405278550868659e-03 1.723573020060546468e-01 -7.479178947545305212e-01 6.098922260333108358e-01 -3.450198602194330388e-01 7.134372913426207941e-01
-1.012335381900306697e-01 -1.875423397318137786e-01 -8.365973637150787567e-01 -5.928523310271923696e-01 3.550043239135632911e-01 -7.228402614674268589e-01
-7.755224668641871877e-02 -1.226154303635506107e-02 -7.721497092581280919e-01 5.969765634397660170e-01 -3.541835832268762640e-01 7.198423244546109379e-01
1.065371050032378891e-01 4.001089855368680608e-03 -9.144054742247874623e-01 -5.953427946302726204e-01 3.597854752061600547e-01 -7.184158744853113010e-01
1.258397218400930107e-01 2.376766501135913964e-02 -9.223418279597027647e-01 5.994134769184805700e-01 -3.514188201307122394e-01 7.191719520020479761e-01
-1.737108080948179464e-02 -1.989739281308844365e-01 -9.113618234937677087e-01 -6.004885110335609344e-01 3.585769704193457197e-01 -7.147279932964571980e-01
-9.974590965328404210e-03 -2.168110639216923596e-01 -9.261964841407973603e-01 -5.976707260008191636e-01 3.393865976231777992e-01 -7.263652253759240729e-01
-1.231356599448393679e-01 -3.114862754830555538e-02 -7.419830587955185131e-01 -5.815337287956307000e-01 3.517377986700503389e-01 -7.335523452759162844e-01
1.245589578257313979e-01 5.086373756899802839e-02 -9.080867447288064609e-01 5.955378689275133697e-01 -3.614888700461841298e-01 7.173983854916380354e-01
-2.396298264866008818e-02 9.967723375167462929e-02 -7.598392375386676667e-01 -7.949890493282725235e-01 -4.683699856579875420e-01 -3.855151981217679880e-01
1.043750610263037837e-01 7.278992439795273217e-02 -8.789537036155393723e-01 -5.891069891901145050e-01 3.593614258574551745e-01 -7.237487968163089924e-01
4.691879295179316595e-02 -1.339147600029567675e-01 -9.343578120659422614e-01 6.000446075409859858e-01 -3.917776842035609053e-01 6.974644902223188225e-01
1.226731960465440724e-01 -3.932071343597638019e-02 -9.489404903882967535e-01 -5.987633252219518587e-01 3.499065972284602366e-01 -7.204497578493253007e-01
-1.098986569091488091e-01 -1.061169453326603757e-01 -7.912843828854391193e-01 5.918921073571622449e-01 -3.521039223966361820e-01 7.250424546750355859e-01
-5.057504150495412826e-02 1.863054555483723840e-01 -6.955324476834661152e-01 -5.943648407716474180e-01 3.483590955201541495e-01 -7.248285153212962184e-01
4.590420737704347526e-02 -4.718808064958917442e-02 -8.911140250056073242e-01 5.985831534364023376e-01 -3.478849876736042623e-01 7.215776075887254670e-01
-3.074717601881502352e-02 -1.282720152241373923e-01 -8.674282117879633658e-01 5.994675328695803218e-01 -3.421518252356130496e-01 7.235819273055380529e-01
-4.109971626036922759e-02 -1.020921964374388591e-01 -8.493808020918689472e-01 7.635849818711094583e-01 3.007324221712915149e-02 6.450066476893453471e-01
1.079493677421674430e-01 1.142668290233688350e-01 -8.617065984584660887e-01 -5.863394212127652771e-01 3.614428859016814433e-01 -7.249587045914707151e-01
3.434553607828842725e-02 -1.588992675327423332e-02 -8.645400174765011103e-01 -5.975708535230379592e-01 3.482446100397060262e-01 -7.222428723068444745e-01
1.050538716863027716e-01 -1.630013045745401790e-01 -9.948310986071203788e-01 -5.942920726128577691e-01 3.466527024119012701e-01 -7.257057505215454007e-01
1.485197805865180222e-02 -1.140318729739552422e-01 -9.058301407760016577e-01 -3.922984918269005125e-03 -3.487735345118749275e-01 9.371988219227682659e-01
6.491803588456382390e-02 1.140594225795261013e-01 -8.279494316663117415e-01 6.006410378824088570e-01 -4.300724931542025953e-01 6.739940609854592202e-01
-3.033109532438546529e-02 1.867428107150440053e-01 -7.120920806382614598e-01 -5.930323294698889303e-01 3.411767259994431534e-01 -7.293223552310856839e-01
3.434376403540666256e-02 1.318017888361050216e-01 -7.910567640326140459e-01 -2.894704285153613665e-01 -2.682139730250599485e-01 -9.188406476039497894e-01
4.576756083588826712e-02 1.263939437001025123e-01 -8.044512739515096156e-01 -6.077131434098093088e-01 3.583573311498048364e-01 -7.087063979802622482e-01
2.434719864806005052e-02 -2.159211365101162128e-01 -9.470431019901206504e-01 -9.659362703403865380e-01 -2.515080080616088343e-01 -6.091669329326346305e-02
5.383957584392475015e-02 1.002477040113968210e-01 -8.238488611396831418e-01 -6.044728823584621935e-01 3.546999051173626016e-01 -7.133025387610691936e-01
-3.370942136773624753e-02 3.417112475523810533e-02 -7.839070559143436201e-01 -5.956652065643518457e-01 3.681962773666976330e-01 -7.138728619452862079e-01
-1.310612778766532538e-01 -1.043223935113112705e-01 -7.729584867732679498e-01 6.013775570249024760e-01 -3.504316229156066442e-01 7.180130302212447413e-01
-8.532477646743974464e-03 1.149177289555946141e-01 -7.669071054904570417e-01 5.877043890197825027e-01 -3.563455198380841016e-01 7.263755375962284155e-01
-8.141970871380270480e-02 -6.759060117038490079e-02 -7.959471379846789763e-01 6.016949223990818441e-01 -3.661987723712513132e-01 7.098321488020610248e-01
6.762018871528506503e-02 -1.922036430598939027e-01 -9.782889252000328550e-01 -5.951079563194235922e-01 3.536621670454642707e-01 -7.216436737933930035e-01
-9.171848058430023820e-02 -4.318155711772227873e-02 -7.755884242358322966e-01 5.943717848367366940e-01 -3.531471528046258301e-01 7.225020898627063648e-01
-2.224826340224353438e-02 4.195282669626279604e-02 -7.912465178228845764e-01 5.920971859369477119e-01 -3.502744154006712796e-01 7.257608120595003820e-01
1.131828946424544569e-01 -2.713589169750454250e-02 -9.372073924326480565e-01 2.549061250829449954e-02 7.842558474230185150e-02 9.965940278427219967e-01
-5.199556185290403476e-02 1.587349159683627484e-02 -7.794439635135582689e-01 5.834774739959610601e-01 -3.691982866115976480e-01 7.233579076103012762e-01
-3.941271416619140933e-02 1.773732903705965425e-01 -7.091385284306239711e-01 -5.893069608925163294e-01 3.445486619933686989e-01 -7.307554483972085180e-01
2.450183371222945661e-02 6.272224398748142693e-02 -8.205458750480407737e-01 5.977789891009223089e-01 -7.347417021994164799e-01 -3.206476434321378077e-01
7.777935565380854691e-03 6.042826408330826543e-02 -8.085407016530465896e-01 9.825719202216013359e-01 6.723534597804126101e-02 -1.732969412403120857e-01
7.704670023635219744e-02 1.891245053602602644e-01 -8.021523913839143649e-01 1.785331949156323539e-01 -1.576929679460708222e-01 9.712151286782841897e-01
1.962033913427697895e-02 1.853595984367665261e-01 -7.532643600914905591e-01 3.401091646020271142e-01 7.762815229839789000e-01 -5.307661945031774131e-01
2.341042038334793796e-02 2.202004196612986353e-01 -7.440185263187393261e-01 9.459586477017588590e-01 -1.890459483089477755e-01 2.634840911065225999e-01
-1.290196564143590852e-01 -1.936300357059454191e-01 -8.183316701824526751e-01 6.020112956279936034e-01 -3.568809082936856281e-01 7.142957491346132448e-01
3.314365023711193792e-02 1.812824751002153345e-01 -7.688379210381329765e-01 5.767679722769660788e-01 -3.513174778531574782e-01 7.375057531371622677e-01
1.677927078580965931e-02 -2.132289594722944562e-02 -8.449323064275273687e-01 -6.662648813639567846e-01 2.475028281725605017e-01 -7.034439977053300597e-01
1.746253465607332939e-02 -1.614025375009821572e-01 -9.289648181509194691e-01 -4.432616337283986629e-01 -4.471770225023501411e-01 7.768859855927146008e-01
1.257005889184849290e-02 -1.540566836071276258e-01 -9.256760704692593711e-01 1.265359019851636235e-01 -4.183928778384016778e-01 8.994087309354413806e-01
1.176279564868749489e-01 1.016170012808439438e-01 -8.775230784164315123e-01 5.927716738284338760e-01 -3.600794073313488552e-01 7.203919510395304648e-01
-9.094947107297914404e-03 -1.322453248896447442e-01 -8.876301796752678053e-01 -4.321550601505962375e-01 -8.236905297723207120e-01 3.671183939135003738e-01
7.049786841505727673e-03 -1.442332270076402967e-01 -9.143037469033282738e-01 9.475773337675073016e-01 -1.813930380863758851e-01 2.630470723346997608e-01
4.807653519741177800e-02 -4.980865049890861873e-02 -8.941850849881783914e-01 5.993994885420983465e-01 -3.496374830661702626e-01 7.200513062071510761e-01
-3.339596473069840910e-03 1.444677521079226756e-01 -7.567536228322314651e-01 6.010406874272633537e-01 -3.620642959197822308e-01 7.125023071380713890e-01
5.449244400559134088e-02 1.192367896765458846e-01 -8.150744516867924894e-01 -5.913041395282371271e-01 3.608398945899508048e-01 -7.212170166108701208e-01
-1.963551338083010731e-02 -1.332813077921268796e-01 -8.774232907765870948e-01 -5.966215424636065467e-01 3.492687044910978700e-01 -7.225331183630665510e-01
-1.112083000477380595e-01 -1.579017790652484654e-01 -8.138525251905155411e-01 -5.940731904270660779e-01 3.539874335279789008e-01 -7.223364460693380007e-01
6.841857957795424369e-03 -2.396591636998893216e-01 -9.521434432940001358e-01 2.881431472679855110e-01 9.389688413041266113e-01 1.879123246157256011e-01
1.096316829630336331e-01 -2.821683795496082378e-02 -9.344552009608080301e-01 5.942023589156367747e-01 -3.543155681062770124e-01 7.220692728932722737e-01
-6.629816041559824513e-02 -2.733161802687920569e-02 -7.887150776836404642e-01 5.965904262223885590e-01 -3.520437146779634152e-01 7.212108473224243532e-01
6.277669402160324097e-02 -5.702512349848750522e-02 -9.080978252781639615e-01 -5.975042355325288490e-01 3.541442748843444677e-01 -7.194237423711633550e-01
-1.546038014848855665e-03 -1.688843695856230565e-01 -9.097434626376349476e-01 -5.956905922407228493e-01 3.541598127996428147e-01 -7.209185427727730078e-01
-3.703697903344630588e-02 -1.230637547533408455e-01 -8.597562049288806074e-01 5.952164174519670725e-01 -3.559877415454910099e-01 7.204097058375783513e-01
4.354156043284511390e-02 2.280124077570360175e-01 -7.529241505316431882e-01 -5.893249629519787813e-01 3.537365404060039964e-01 -7.263377644204107586e-01
3.860950238681612467e-02 -1.966076109519665494e-01 -9.581207943263111426e-01 4.964017641588001628e-01 -3.659285721171623429e-01 7.871985573210392717e-01
-6.833191055370335665e-02 4.540048573857261016e-02 -7.515357547703221952e-01 5.909057863310603897e-01 -3.562968248982475439e-01 7.237975713194253480e-01
7.938167047423483336e-02 -8.513856228455567166e-02 -9.356132320455397000e-01 -6.016271685372710509e-01 3.470407189681669613e-01 -7.194494349541765699e-01
1.028696014363254946e-01 9.892149136664576958e-02 -8.650267372577470359e-01 -5.885919330633548885e-01 3.481021048467554113e-01 -7.296468056080295250e-01
-8.001507799097012236e-03 2.061885583623037366e-01 -7.227021106747542056e-01 6.011829244458039012e-01 -3.530818417889940442e-01 7.168767706891348013e-01
1.257841492585876630e-01 -7.757487807686402892e-02 -9.701678277837860742e-01 -5.941423627994717460e-01 3.510756147400474481e-01 -7.236993612419171384e-01
7.286127142053223232e-03 -1.171304261787365908e-01 -8.985986054227820263e-01 9.995225507657026220e-01 1.541374340519930351e-02 -2.677848063393851313e-02
-9.562924690728374921e-02 5.927113395086269776e-02 -7.221627888022120745e-01 6.016194717603574604e-01 -3.599876267463757440e-01 7.130658593624437103e-01
1.661132546336412108e-02 -1.685333161884382813e-01 -9.327780761725872338e-01 -2.311172028536313816e-01 -3.782585357620024680e-01 8.963845819001456938e-01
-1.221084971575073508e-01 -7.280411564396412072e-02 -7.649231198597109538e-01 5.890123286746108411e-01 -3.522112291080857216e-01 7.273319233743859025e-01
-1.110749399651372177e-01 -2.948230993226178334e-02 -7.528385050937700385e-01 5.928735657434699435e-01 -3.552653979722573130e-01 7.226945634541864782e-01
-6.566473044976878226e-02 -8.734679739476079730e-02 -8.169443982010317074e-01 -5.955384447239079337e-01 3.508935368833948631e-01 -7.226393890657293317e-01
-1.057782909042291192e-01 -1.475232828681559694e-01 -8.132549113638563032e-01 -5.981601619057476116e-01 3.429534503053137118e-01 -7.242840269069659165e-01
-7.300863990298471495e-02 -3.018549839736524298e-02 -7.829377466119266105e-01 -5.804163384511471513e-01 3.692803061868032977e-01 -7.257747098938789332e-01
3.459349812015691250e-02 -2.132393276164983031e-02 -8.691292345662530172e-01 5.943462061929430940e-01 -3.637478859029562583e-01 7.172447718074951295e-01
-3.011455883611734684e-03 -6.809600093064126225e-02 -8.558146933487605912e-01 -8.007807982622411336e-01 1.265347104548938395e-01 -5.854392198892929278e-01
-2.560531217984519589e-02 3.928322323354477980e-02 -7.880969087776690252e-01 -6.029553350584306859e-01 3.488063303361494949e-01 -7.174810156666199257e-01
3.114834485090265878e-02 -1.968854503276047940e-01 -9.521511423726420897e-01 5.932137057380233447e-01 -3.548775307454663519e-01 7.226060043319336712e-01
-1.176289801242618310e-01 -1.156842296481857546e-01 -7.895992760378712783e-01 5.933389300848130876e-01 -3.380779156954144549e-01 7.305150491022437409e-01
-3.249801466707775977e-02 -9.404100747446333952e-02 -8.475749504498896192e-01 -6.046577368852593670e-01 3.522831758250603018e-01 -7.143427645433291229e-01
2.038729088587469540e-02 1.409204844699396553e-01 -7.826871200719212052e-01 7.287353256437538729e-01 -2.986382745493887381e-01 6.162467088212768562e-01
8.702697100333230129e-03 -2.323592789227886812e-01 -9.492062048879404967e-01 -5.410459556563312900e-01 4.195403795356570376e-01 -7.288725154696148456e-01
5.787196711514871333e-02 1.600105026565561694e-01 -7.997102197036555227e-01 5.957663251140774552e-01 -3.477352374258642076e-01 7.239769958447885845e-01
-9.197642959982710309e-03 1.053039846805597646e-01 -7.710751337092002222e-01 5.866183013949383129e-01 -3.554056487609734694e-01 7.277127134366341288e-01
1.133505459303799784e-01 -5.671218823337818155e-02 -9.497267497945743875e-01 -5.895233160073038992e-01 3.491035022619325412e-01 -7.284154066137022987e-01
-8.396098255432114799e-02 -1.916304843599797025e-01 -8.544971878175146029e-01 6.004473829893003378e-01 -3.520826499402401333e-01 7.179838075279683096e-01
9.396547612930591931e-02 -1.343752570178791406e-01 -9.734350238605025130e-01 5.948379764618483279e-01 -3.527453965830703586e-01 7.223146592366971319e-01
-8.066967452508860825e-02 -4.165973411601684578e-02 -7.822575350110912984e-01 -5.959538412982734457e-01 3.519746936600449683e-01 -7.217706242739101441e-01
9.692950509036477036e-02 2.515874596189140305e-02 -8.978105465950524389e-01 5.962377357062083050e-01 -3.459065580328127276e-01 7.244647787365690039e-01
-7.337469664893113419e-02 -9.217418286735219735e-02 -8.146269451932544037e-01 5.956660097315077396e-01 -3.508902545383474902e-01 7.225358358729045971e-01
4.577860564451109032e-02 -6.351417722364222952e-03 -8.693742291793384869e-01 -5.855124008886637421e-01 3.493902952365179337e-01 -7.315064251256659933e-01
-3.238560840549209452e-02 9.923964212205267643e-02 -7.548867038100353088e-01 5.879499246239899835e-01 -3.573563356052740225e-01 7.256799125905409875e-01
1.055984195686198723e-01 9.126805441973424859e-02 -8.709852947463697648e-01 -6.012949266035871876e-01 3.543769607009693012e-01 -7.161434081000329632e-01
-1.112739761470008248e-01 -1.625544462066333962e-01 -8.177622469195667820e-01 5.952744306185735468e-01 -3.746702111333388707e-01 7.108238777229085592e-01
-3.069500467428991006e-02 6.045597442266024274e-02 -7.735492126032681437e-01 -5.941379734830164461e-01 3.544390697781339417e-01 -7.220616416070760879e-01
-4.960287345476432908e-02 -1.869397627820065799e-02 -7.983371228132556396e-01 5.976768230497261358e-01 -3.497849235142629354e-01 7.214103703657908095e-01
-2.326840407509224093e-02 -3.341673954167508065e-02 -8.272650548995876818e-01 5.903167328120718649e-01 -3.656784206907082169e-01 7.195869979392556237e-01
5.092551850886486986e-02 -1.180172484539273974e-02 -8.779686096073454626e-01 5.974601121719607111e-01 -3.468142596851684356e-01 7.230223258257634233e-01
8.318286478781343821e-03 -1.085510247054792682e-01 -8.983935096935321551e-01 8.920844313119363767e-01 -3.082260306730850163e-01 3.304271196896121365e-01
-2.579206395868276561e-02 -1.765486546895248809e-01 -8.908962626778785809e-01 -2.392229188857304678e-01 6.810749663288884204e-01 -6.920327198333141583e-01
2.506883757474941826e-02 -2.314021610065698231e-01 -9.640126597632291405e-01 6.135362087940907649e-01 -3.422230902617424686e-01 7.116576965018203138e-01
-3.136369513147124581e-03 -1.753044746223258177e-01 -9.115868268062915503e-01 -5.952801814358069654e-01 3.550359861011279095e-01 -7.208265770370515524e-01
-5.992889961647538885e-03 -3.993252054843911270e-02 -8.430210672540237038e-01 -5.927722969316868706e-01 3.482845731841836545e-01 -7.261672397404352886e-01
1.363519706191286540e-02 -1.675721470952204473e-02 -8.549178012492596457e-01 -1.903334231618031835e-01 -3.408475631929131500e-01 9.206498393487954068e-01
4.519329770990297007e-02 -6.227470316372044068e-02 -9.009875591825274865e-01 5.410459556563312900e-01 -4.195403795356570376e-01 7.288725154696148456e-01
4.175482961485447141e-03 2.363859374930089852e-01 -7.163032058701048754e-01 -6.059533884096587331e-01 3.451056490077007988e-01 -7.167444329032677253e-01
6.990039562747440982e-02 1.197726971376807115e-01 -8.292868184588785274e-01 5.761266222893468569e-01 -3.526085722328979322e-01 7.373908799797739277e-01
-1.188341709990972358e-03 5.703403512722440838e-02 -8.017456156914145593e-01 8.938429448426653545e-01 4.426539273937331598e-01 7.143031931816715141e-02
3.499606854834696329e-02 1.953973935685261384e-02 -8.494306060528225011e-01 5.953127949569798627e-01 -3.611854778272923228e-01 7.177379234561730437e-01
5.137976453813320951e-03 2.378174079880742142e-01 -7.181256193059126769e-01 5.818504441248436576e-01 -3.643386253998150970e-01 7.271227040283472220e-01
8.810030244874045291e-02 1.917170223283460317e-01 -8.074134755775275174e-01 -5.825312198395132812e-01 3.477757123153433771e-01 -7.346491896380502595e-01
-5.911449069680165674e-02 -5.531737994723227858e-02 -8.066669701414077576e-01 -5.957702960063162578e-01 3.499316655942346088e-01 -7.229146449000677377e-01
1.072408486872314902e-02 -2.079844360097022060e-01 -9.521505163953596362e-01 3.939466437536277010e-01 -2.802976011386882349e-01 8.753509562861909732e-01
-1.117692177775023339e-02 5.302404928237769433e-02 -7.932827700621524203e-01 -5.567052651613284553e-01 3.949105276185926883e-01 -7.308385067288529768e-01
-1.312387832667347501e-02 2.139866097317681404e-01 -7.147181120344835437e-01 5.709603573710202440e-01 -3.675888722121967156e-01 7.340862969273584948e-01
-9.871228661644577962e-02 5.187061491766390559e-02 -7.215837882348362653e-01 -5.991355466325950507e-01 3.587050092129439594e-01 -7.157983746326918029e-01
-3.758532165817714266e-02 1.873130158140998841e-02 -7.882789019158735755e-01 -5.901255757367198651e-01 3.503541918458967230e-01 -7.273264364213729571e-01
1.325785422668443458e-01 -2.390482120276898447e-03 -9.389993557905250698e-01 -5.931683299008913002e-01 3.562801860797163989e-01 -7.219527418118097950e-01
-9.194090388240917788e-02 -1.111012876623182488e-01 -8.085346534295949628e-01 5.945684609782925234e-01 -3.509762075348849542e-01 7.233975718471371552e-01
-5.260419567628980830e-02 8.862016161629281130e-02 -7.416655319480901509e-01 -5.936344826013754128e-01 3.609955284330944592e-01 -7.192220307512192656e-01
-5.992102479711945012e-02 4.606035309680711273e-03 -7.767014406401063775e-01 -5.979101131285921022e-01 3.542648025075040841e-01 -7.190270831636825788e-01
-4.437149089834181714e-02 -1.998903568913185658e-01 -8.912447471129492094e-01 5.964630527275009975e-01 -3.486336729057128436e-01 7.229705311057033068e-01
-8.124220768850093366e-02 1.150655120784619886e-02 -7.574401132193643305e-01 6.071249778013217968e-01 -3.746527570024044129e-01 7.007385910596344303e-01
-7.303413349170033431e-02 6.464464159525784570e-02 -7.381869773715076244e-01 5.927330758501118124e-01 -3.551223467353221142e-01 7.228800866274178727e-01
2.027870300996022918e-02 8.709104490599378634e-02 -7.971966302601143362e-01 -7.015737873089752386e-01 3.101145712622050965e-01 -6.415786574160639022e-01
3.765591434839868357e-02 1.385964810080316523e-01 -7.917531618137321203e-01 -5.904619147506706689e-01 3.510932515746523208e-01 -7.266968115574123921e-01
1.436575845423055352e-02 1.252567013429250753e-01 -7.807296807298138575e-01 6.022533942721952638e-01 -3.568429056849734549e-01 7.141106285092841954e-01
1.173686423254928640e-01 2.030466210288816090e-02 -9.154068311583561934e-01 -5.988567515127479757e-01 3.550034089636590062e-01 -7.178740633229340196e-01
7.297522850484306975e-03 5.950461360398987681e-02 -8.053183064935428570e-01 -6.002226215611118354e-01 3.436199970695537620e-01 -7.222590270673162616e-01
2.631308866614288228e-02 -2.405948734516237808e-01 -9.666755953634460496e-01 -8.409930284300383141e-01 -2.699078564373291744e-01 4.689141447701047904e-01
4.012309493610748991e-03 -2.111650777342747032e-01 -9.345955167687309828e-01 4.834121120949119721e-01 7.820776030745095753e-01 -3.932777042360343644e-01
2.389062196517522871e-02 -2.503302276905490786e-01 -9.696240448869427597e-01 -8.098916593955843846e-01 3.119823929441116750e-01 4.967318054386417048e-01
1.142909337602068809e-01 1.977653957929675910e-02 -9.148075352369758884e-01 5.982877324777828854e-01 -3.558824856872874753e-01 7.179132576764621909e-01
7.323264443985440242e-02 1.796185408623863500e-01 -8.041052332671134728e-01 3.919221219059051409e-01 -3.363935793101308636e-01 8.562922457664154940e-01
4.575183336387930039e-02 6.711942988961781820e-02 -8.333790267716884026e-01 -5.863864287535175412e-01 3.620603891314609912e-01 -7.246124693901359048e-01
1.235040015818749809e-01 2.518673074484579708e-02 -9.180580135404229347e-01 -5.854148968538073206e-01 3.596613449729001988e-01 -7.265900601260180114e-01
-4.222757771520142811e-02 7.346510062905700633e-02 -7.576774758838732415e-01 -5.965095862260240134e-01 3.513684329402351758e-01 -7.216069136819441843e-01
-5.329437648173795949e-02 -1.815049205082297501e-02 -7.950150870510028778e-01 5.978863934936908819e-01 -3.497750847480019520e-01 7.212414648123299798e-01
-1.947357583661359429e-02 7.769143265611315984e-03 -8.102725944333827313e-01 5.976408538518569458e-01 -3.465979603795107389e-01 7.229766688268620678e-01
-5.117912122133386893e-02 1.743906978261114959e-01 -7.009619696677784617e-01 -5.927234408705386315e-01 3.601639140891033652e-01 -7.203893930580915761e-01
-7.674033342280174586e-02 -1.358510344927608693e-01 -8.331685847915395460e-01 5.872133153082359502e-01 -3.535039539268241549e-01 7.281589640200909486e-01
1.271570005561311056e-01 3.517060394630689563e-02 -9.178877584382282295e-01 5.884938460757517253e-01 -3.571608207469083585e-01 7.253351923451418770e-01
2.431080032962232990e-02 -1.739802298812943848e-01 -9.285785977612236453e-01 -8.504401773885273963e-01 1.242531334933335424e-01 -5.111875032710189171e-01
1.305831717981491280e-01 -1.192170045947630180e-01 -9.945170688784645829e-01 -5.952678582152863829e-01 3.495299027326139729e-01 -7.235226493148054772e-01
-1.162321639666724221e-01 3.740900841816776137e-03 -7.306000947054021033e-01 -6.135879276610162192e-01 3.650361148757766960e-01 -7.001846112740969241e-01
8.268020041508488977e-04 -7.129653891416332101e-02 -8.668288395814391922e-01 -4.199213585523512982e-01 -7.444845596021810730e-01 5.190460414505575493e-01
-5.928644705170634660e-02 1.540745857051898093e-01 -7.058418253678115928e-01 6.014190132997025984e-01 -3.537021515658221316e-01 7.163727789491446396e-01
9.548925990794117358e-02 8.852296928887158634e-02 -8.640092977415867459e-01 -5.940700184952597551e-01 3.518285426344106570e-01 -7.233930395799976765e-01
-3.259806729945567000e-02 -1.084413271020698011e-01 -8.601131836853832535e-01 8.216995596047361738e-01 -1.433108992476271326e-01 5.516083936111008112e-01
-4.969021769918040982e-02 -1.797619833382645693e-01 -8.741295501521052502e-01 -4.817971272367518321e-01 5.637199630237590409e-01 -6.708884642583331503e-01
-7.335184982846040813e-02 -3.549407930538273082e-02 -7.846132707918808125e-01 -3.931786908707670669e-01 3.854960016153916591e-01 -8.347474766560815107e-01
5.861752408822446664e-02 1.507338254273802580e-01 -8.047995285065850934e-01 6.124646632074043362e-01 -3.588490458021897367e-01 7.043538873670667222e-01
1.260240450315008587e-01 -2.175130482324482556e-02 -9.430727828321165962e-01 -6.006149643856171227e-01 3.459677833847396022e-01 -7.208106252101960099e-01
-1.254839101521689620e-02 -2.057164350307063017e-01 -9.203340868799788632e-01 5.870895942155691660e-01 -3.631733465319327836e-01 7.234852650417941122e-01
1.823634524584040809e-02 1.287535479152392415e-01 -7.869745871395711356e-01 6.715698707586644778e-01 -3.456861011819574170e-01 6.553587018868431979e-01
6.012573363024951989e-02 -5.924056928437537728e-02 -9.069926717792838877e-01 -5.876960072983924421e-01 3.549898945712590681e-01 -7.270457879376058807e-01
3.093696888097667835e-03 2.204504725692063294e-01 -7.231729489749868511e-01 -6.032496010418160193e-01 3.595528697764108217e-01 -7.119070533984312998e-01
1.109318443551939731e-01 1.599719151963921449e-02 -9.121936242033144016e-01 -5.970564462642127257e-01 3.576274045123467582e-01 -7.180711939049718717e-01
2.006986008461368945e-02 -5.551799684276083335e-02 -8.721465867578257480e-01 -5.975682478563673072e-01 3.487550879311885343e-01 -7.219986688325541468e-01
6.546568981459043382e-03 -2.560195883498981792e-02 -8.539883756423197747e-01 9.772491375116386658e-01 -1.058061717688809772e-01 1.838183267478309957e-01
4.067207925408814623e-02 -1.982646324441611763e-01 -9.589814307842901009e-01 -6.015281150716844660e-01 3.558727639076725291e-01 -7.152052171838654271e-01
1.855663131190850301e-02 -1.682553716060539856e-02 -8.509461500516377619e-01 -9.306836860076337370e-01 -1.824965524992126220e-01 3.170534417494098589e-01
1.019165593144446685e-01 1.382754325084159241e-01 -8.449783643882222695e-01 -5.764659710964016304e-01 3.635087058519872460e-01 -7.318117277945851429e-01
1.130606532773301490e-02 -1.735260282193382131e-02 -8.417615726896814365e-01 2.289819029740298717e-01 3.618981702005491519e-01 -9.036575692793626935e-01
8.624645945094464722e-03 -4.517708741138347361e-02 -8.552330133092257425e-01 5.564051643219398713e-01 3.198729317177065323e-01 -7.668732624561860334e-01
2.848663694553674880e-02 1.362172436781144969e-01 -7.870431249893522496e-01 6.037850217897097194e-01 -3.507985619199583405e-01 7.158100421321907936e-01
8.917353410230677291e-02 9.713594681093420946e-02 -8.545615613181868353e-01 -5.842655695291919526e-01 3.569072146295441672e-01 -7.288696621537416043e-01
8.498477845554290588e-02 -8.383710398497336291e-02 -9.395299550721745163e-01 -6.016117079826004410e-01 3.462255107699042100e-01 -7.198550190909120960e-01
-1.457754586862455015e-01 -1.620727857114482862e-01 -7.873266383104912114e-01 -6.116891796236783030e-01 3.446887423665445094e-01 -7.120575948735335947e-01
-4.268852843019860233e-02 2.015792847423583320e-02 -7.850632248678479641e-01 6.011245127755762141e-01 -3.499453073914544077e-01 7.184619697485918888e-01
-3.048673301893414789e-03 1.236111342305980104e-01 -7.672029849238830579e-01 5.886132534817263284e-01 -3.564253882631269743e-01 7.256000140760308081e-01
2.580649393281350332e-02 2.196884468088257658e-01 -7.463503420983071956e-01 -1.575543406922853829e-02 -3.997772282471456218e-01 9.164769140967597982e-01
3.559365482929929131e-02 1.559498394902102403e-01 -7.832455914761694560e-01 5.919695274874672286e-01 -3.595630034016115140e-01 7.213088971523068382e-01
-6.644322619882692127e-02 -1.807687709541138388e-01 -8.636387096819800879e-01 5.936846668003997740e-01 -3.443141455188886146e-01 7.273144337916688240e-01
1.250887662676868350e-01 -7.997930305626306524e-02 -9.707641447563988280e-01 -5.940761604981557031e-01 3.514311322847061825e-01 -7.235811459600499651e-01
-1.338349156927314682e-02 -1.754468512811406811e-01 -9.048713958457771378e-01 5.934995630542017064e-01 -3.538365194031098393e-01 7.228817235144102682e-01
-5.370023958632166167e-02 -2.006262155892231946e-01 -8.839132604493042944e-01 5.947770962060728861e-01 -3.468761535099912918e-01 7.252014478438284506e-01
-2.615666064328435111e-02 -1.936535899641381175e-02 -8.163409466823869920e-01 -7.601936252090369939e-01 2.222849913822984025e-01 -6.104875386096865197e-01
-1.178167307625520993e-01 -9.874380544862441933e-02 -7.794136874851943508e-01 -5.930080692986468005e-01 3.516424390131343003e-01 -7.243542122688217955e-01
-1.266082213085351904e-01 -6.932455527774795956e-02 -7.595001917699850669e-01 6.011463164380810298e-01 -3.536044462842156122e-01 7.166498460203279963e-01
7.218108136807854791e-02 -1.940225023700303808e-01 -9.846231946473523733e-01 5.872475518477496825e-01 -3.598419210065227913e-01 7.250200719532942095e-01
-6.592824140104744379e-02 -1.324164943259903693e-01 -8.387331589597312176e-01 -5.982308011669789094e-01 3.549896997595921588e-01 -7.184025484362572822e-01
9.350624556281313116e-02 -2.460489123503533868e-02 -9.176735541253905337e-01 -5.945353342911107175e-01 3.647170958161283782e-01 -7.165955458267977418e-01
-6.121333282586087499e-02 -1.099542680279606416e-01 -8.333285634608362802e-01 5.959797952830437895e-01 -3.540496236630318871e-01 7.207336176413909890e-01
7.422307532072172642e-02 2.271250742001195699e-01 -7.803341285237482827e-01 6.017394972951032317e-01 -3.510122065070144237e-01 7.174259601367330985e-01
6.264279153370705400e-02 1.224853654296957223e-01 -8.219558138624680765e-01 5.913815933232262623e-01 -3.599937929083876775e-01 7.215762469385444966e-01
-3.520312098818939583e-02 -1.089901930302779876e-01 -8.525839082016801740e-01 4.642630931509168501e-01 8.503909124994859514e-01 -2.475784244966319492e-01
-1.997830256093815343e-02 -2.777005529414393326e-02 -8.298823350227741980e-01 8.051220199130773025e-01 -1.534896704601032558e-01 5.729044022462518315e-01
5.381349547324389138e-02 -1.742194535292243551e-02 -8.813676836828668870e-01 -5.964879917922294439e-01 3.479417707978913477e-01 -7.232832085578239090e-01
1.214168592036534849e-01 8.177613767035725456e-02 -8.904151299470015601e-01 5.910012132871534929e-01 -3.585162435044619844e-01 7.226227709092495344e-01
-8.122520003033462110e-02 6.875780020552106631e-02 -7.294226603070695925e-01 5.900185200265699592e-01 -3.597081416528609688e-01 7.228334516707852764e-01
3.463746195653595594e-02 1.698686205844197328e-01 -7.739459248178562900e-01 -6.102405416679466121e-01 3.568429120085551132e-01 -7.072974038225120497e-01
2.067425064109148364e-02 9.660361214849998157e-02 -7.929412038832953646e-01 -5.305392087773254106e-01 2.414230988319549798e-01 -8.125534045835421937e-01
4.803068723827944725e-02 -2.042949075073115239e-01 -9.679767517199565630e-01 -5.858302317581733920e-01 3.603349594158576918e-01 -7.259212468174057742e-01
-3.968664619452700465e-02 1.608919775983039535e-01 -7.186892885172265766e-01 5.973602515936128343e-01 -3.458226274301642866e-01 7.235796018222965253e-01
-8.445018762918150845e-02 -1.886632154315705245e-01 -8.526397684809405852e-01 6.010592411194868312e-01 -3.502074013318352552e-01 7.183888673394578372e-01
5.829774040387240841e-02 -1.573114946804828052e-01 -9.534245891497469261e-01 -5.976360659891538640e-01 3.621131857995724124e-01 -7.153357067133527813e-01
5.438291607136495898e-02 1.373223621728521526e-01 -8.062093885015615413e-01 -6.114298710088819089e-01 3.585480304394539908e-01 -7.054054314407073312e-01
-3.423139808255542399e-02 1.191170334051411539e-01 -7.436247156256833302e-01 5.978895487986815027e-01 -3.619862132625337736e-01 7.151881352799137614e-01
4.148720947628611877e-02 1.945964851865492340e-01 -7.692252064947024959e-01 6.118183191932105025e-01 -3.449407377008441022e-01 7.118245793550488365e-01
1.699894294309297477e-02 -1.991035026312924436e-02 -8.564749225575610803e-01 7.025832556813030871e-01 -6.994931206459745754e-01 -1.307139740242674875e-01
-1.103653248835316687e-02 -1.826660311128812941e-01 -9.114578749100223920e-01 -3.782323784225081198e-01 -8.190034775251543442e-01 4.314783560209669022e-01
-5.860426586634490814e-02 -1.035395848230104693e-01 -8.340354693516488505e-01 5.430671309159218474e-01 2.115180710830856237e-01 8.126119596240506393e-01
5.785873246340025866e-02 -4.893690408256915619e-02 -9.018563758029726207e-01 5.827178874270279030e-01 -3.535063101665004703e-01 7.317603107200114643e-01
-5.931700983381311965e-02 5.534971221803535596e-02 -7.546715556601090169e-01 6.926280459464511097e-01 -2.104298594253916077e-01 6.899171430183558273e-01
-6.365442087209556565e-02 -4.198157331784908158e-02 -7.964531585596047458e-01 -5.961876245044283040e-01 3.509434028009295603e-01 -7.220796662545422295e-01
-1.012993224370936779e-01 -1.692099004593914935e-01 -8.275252289792827121e-01 -6.008489489390140825e-01 3.389756695781740437e-01 -7.239309607917805423e-01
5.912265408324404725e-02 -1.658449470629125289e-02 -8.870365684947408846e-01 5.973385312568610939e-01 -3.476064967996069788e-01 7.227422794181898036e-01
-2.881792858746444821e-03 1.554479606903690636e-01 -7.500317955237445489e-01 -5.957370942895434673e-01 3.438630456027150228e-01 -7.258481386325082996e-01
1.878208899213282962e-02 -1.373706392867914475e-02 -8.445188447912068685e-01 -9.345292890922642925e-01 2.717040329881482696e-01 -2.298519660274465914e-01
-3.566772678225649945e-02 -1.075843661291251835e-01 -8.560377007559282214e-01 8.360215937983741519e-01 6.533288827882986760e-02 5.447930877057566290e-01
6.868162249343190418e-02 -8.158524669068299706e-02 -9.267570325160428002e-01 5.915215534750840609e-01 -3.441891179804021927e-01 7.291338031104416251e-01
1.089633568815688291e-01 -1.339794222004271791e-02 -9.249439434489378220e-01 -6.055731728768506406e-01 3.462915192025116107e-01 -7.164937655138954309e-01
1.455709895022221610e-02 -1.008748920012952355e-01 -8.986731531423831631e-01 3.089774281114339785e-02 -4.986249066600622060e-01 8.662670096150612009e-01
-4.488975002046436541e-02 2.603080433344862402e-02 -7.803445382520360907e-01 6.005717670281440768e-01 -3.521321207695561895e-01 7.178555022920889428e-01
1.340307230815014454e-02 6.813477217452491852e-02 -8.125976334691140668e-01 1.759120874763802078e-01 -4.232812767843956991e-01 8.887563773067813644e-01
7.601363446569092555e-04 9.329993788067553195e-02 -7.835027398937272070e-01 -5.993891704120852815e-01 3.496563973898762501e-01 -7.200507108232344633e-01
-1.265297091341746616e-01 -5.648850868060784070e-02 -7.533242249669531709e-01 5.984086372546488786e-01 -3.550070573683947184e-01 7.182458437594101408e-01
-7.425085665352249009e-02 -1.032053376894480762e-01 -8.175818678186907995e-01 -5.954363389225283409e-01 3.519108175547431272e-01 -7.222287330053327459e-01
8.422652441658341760e-02 -1.257473518539120594e-01 -9.594450901671075504e-01 -6.009273827273456936e-01 3.497015380638960336e-01 -7.187455147437149527e-01
1.382133889590990705e-01 -9.901863611040566393e-02 -9.909289398646284885e-01 -5.897315779132912272e-01 3.518673638284001148e-01 -7.269154175585711419e-01
-1.727750638358223605e-03 1.177721040669398173e-01 -7.694566529209702077e-01 -5.963941100476271018e-01 3.401320655538312421e-01 -7.270655015076585848e-01
6.597299637240348902e-02 7.806171726183419590e-02 -8.464162882787065190e-01 6.006028003820562677e-01 -3.534587937020035597e-01 7.171772147300528033e-01
5.015104480009132532e-02 -6.332980109026156712e-02 -8.981640969569260058e-01 -7.635849818711066828e-01 5.728487047609640559e-01 -2.979636503243100476e-01
9.492254296062541119e-02 7.762026905424890266e-02 -8.705499509958235516e-01 5.923831815046001203e-01 -3.544934587736878195e-01 7.234753305795267320e-01
-5.043380721161311309e-02 -7.389426763750939209e-02 -8.246426597077125553e-01 5.951253787594877886e-01 -3.521242112277309100e-01 7.223810098719540829e-01
-1.896617554288019527e-03 -1.438459258260823825e-01 -9.037378600568355402e-01 7.081449455982866681e-01 -1.280793495663557213e-01 6.943532359240928153e-01
-1.327588598955586341e-01 -7.696546011771546181e-02 -7.582032561737548360e-01 6.050192768845920055e-01 -3.494876400889042056e-01 7.154090186901013171e-01
7.485993611457354702e-02 -1.282467906028527949e-01 -9.546466434008334945e-01 5.943503139438287564e-01 -3.482270806163848542e-01 7.249038588945859729e-01
6.903341657460657088e-02 -6.181457805978568532e-02 -9.173508797526566116e-01 5.978736867176084324e-01 -3.558007231777836066e-01 7.182986148649190827e-01
4.731248471146067697e-02 2.240702503039059858e-03 -8.628833443498562517e-01 -6.432738832232063331e-01 6.060446421984972964e-01 -4.678766961769224575e-01
1.356654801189580151e-01 -4.604505209517452402e-02 -9.629932029445078534e-01 -6.008925547310537407e-01 3.516485935150817088e-01 -7.178240761827736627e-01
1.911303758134599851e-02 1.260932292964348500e-01 -7.889480776837520803e-01 3.122335407317523015e-01 -2.551429458319469101e-01 9.151023403064321160e-01
-9.098517549035162189e-02 -1.434680987850383005e-01 -8.251398085394296977e-01 5.999555388093129604e-01 -3.498998103598046083e-01 7.194605438536568753e-01
-6.805769972560283100e-04 -4.147486473068571350e-02 -8.498018429280532748e-01 5.957733622901054682e-01 -3.650939985836013091e-01 7.153743586289488254e-01
1.091598549130984655e-02 -1.116444348463478120e-01 -8.891666748292234024e-01 3.994154595015889098e-01 4.573427293362175017e-01 -7.945469895698010765e-01
-7.500752539098033689e-02 3.148020202385610339e-02 -7.528027521465676664e-01 5.912767194544119587e-01 -3.552982742165659569e-01 7.239854814635154900e-01
2.253739044013601187e-02 -1.222493701170319913e-01 -9.008930735396185607e-01 -9.937859765609561302e-01 -8.763666646517101477e-02 -6.862395705334438378e-02
-3.043643800450383449e-02 1.319438586721793372e-01 -7.387808129926053402e-01 -5.943052601928060508e-01 3.445317583077206480e-01 -7.267042900826657936e-01
3.431305325868728301e-02 -2.343799372221653798e-01 -9.730299265339248382e-01 5.913635236560014219e-01 -3.614945915593757442e-01 7.208403728721622938e-01
5.407054324948481865e-03 -9.280585386645902324e-02 -8.836519726208763581e-01 9.786228770546823164e-01 2.056120604165035115e-01 -4.576583496038154515e-03
1.357292874977281995e-03 3.062606645968581412e-02 -8.145428893295292294e-01 -5.918931897175143675e-01 3.618363649390803349e-01 -7.202339182333050704e-01
-1.244225176296492180e-01 -7.948133481204151807e-02 -7.645735757640480523e-01 -6.019117093627098791e-01 3.482482647068571580e-01 -7.186274697370839126e-01
1.699215857952090722e-02 -2.355503954159286414e-03 -8.361788675585061226e-01 -6.954715111911801140e-01 3.584599031967792282e-01 -6.227566739277964336e-01
1.056315655624184419e-01 9.802311389600470992e-02 -8.694001829769308909e-01 6.007287047878629993e-01 -3.419583982557350410e-01 7.226267896405920155e-01
7.544017896471243156e-02 -4.122704519326848838e-02 -9.125710081740393553e-01 5.971037028666777990e-01 -3.513134943266325583e-01 7.211421473793588888e-01
3.126486960457856845e-02 6.366318699185917473e-02 -8.248403761921636601e-01 5.863963535872019905e-01 -3.474232528990700009e-01 7.317351978992552297e-01
-3.810035458378583512e-02 -5.119534107403937717e-02 -8.242756271313820271e-01 6.791011050355652001e-01 -1.075764564040200127e-01 7.261191329024653252e-01
-6.271944217885389028e-02 6.538849952315192726e-02 -7.447097880580075824e-01 -5.873806001046391057e-01 3.706079831524694557e-01 -7.194676875609999911e-01
1.116658548044003989e-02 9.361190609947551977e-02 -7.935491052296791414e-01 5.994530594849427629e-01 -3.491394544208705208e-01 7.202483397001609999e-01
-8.541697599127262563e-02 -1.744252686925123474e-01 -8.428609517560485820e-01 -1.262160447891287618e-01 -1.138804058568826105e-01 -9.854444495757537226e-01
1.240498924789077834e-01 7.400258017375574773e-03 -9.289748818095225902e-01 6.020614873959669877e-01 -3.489486292508531262e-01 7.181621122967337678e-01
-7.926024986532140271e-02 -1.601325004282851960e-01 -8.446144678777485204e-01 6.720275454457733666e-01 -3.336178536201624828e-02 7.397742692467669245e-01
-1.295344195868107506e-02 1.345121831473126695e-01 -7.537022223964341405e-01 6.004701176326500134e-01 -3.613716203931245929e-01 7.133345567156259559e-01
1.100006339753782994e-02 2.342503589576796219e-01 -7.246847913262686181e-01 6.014091204937609403e-01 -3.486948288145361174e-01 7.188316813725742493e-01
-2.584486122379203721e-02 -6.303266595225483215e-02 -8.395762530570061166e-01 5.936131780715482309e-01 -3.503163038345858959e-01 7.245011263534864021e-01
-9.811698848827406227e-02 -1.420550024983766868e-01 -8.168408458044685849e-01 -5.982742988111073856e-01 3.454062173060748475e-01 -7.230231036615540896e-01
1.495034575914768599e-02 -3.371140138363917099e-02 -8.496262073087771372e-01 -5.305640496534704820e-01 2.416414405480332983e-01 -8.124722785579708839e-01
7.929232774903462178e-03 -2.257567498182520838e-02 -8.552391562487509091e-01 8.597188255337954166e-01 -2.548031023298260589e-01 4.426724749359140509e-01
-7.902759102018507009e-02 3.944476044764794881e-02 -7.439211576131095072e-01 -5.912896960371271105e-01 3.572461671876554501e-01 -7.230156785229844285e-01
8.942864503778140406e-02 -9.031549953152469279e-02 -9.480631800441156054e-01 6.004444824382343393e-01 -3.469423492882140470e-01 7.204841634483410973e-01
-3.169656032776125426e-02 1.998646238336014569e-01 -7.045344356591040080e-01 -6.000685110540784351e-01 3.659717782455068069e-01 -7.113244263830413860e-01
-1.144209188264883603e-01 -9.812399849394308482e-02 -7.836545778676797802e-01 6.044984920419989027e-01 -3.502198867463500176e-01 7.154911628009972269e-01
4.711356832774199477e-02 1.864488380454031383e-02 -8.599380828079880024e-01 5.853236019637829690e-01 -3.477288862151212689e-01 7.324485665736085727e-01
1.813970076099381389e-03 -2.384456606982177651e-01 -9.465563182897890337e-01 -5.934285297517543079e-01 3.541257499308410606e-01 -7.227984043373300027e-01
1.090191830564938014e-01 -1.563333969919606936e-01 -9.948753872717855939e-01 -5.920531760024229095e-01 3.508980435271248366e-01 -7.254954168251376290e-01
7.610255628115041027e-02 -1.790747934534770436e-01 -9.788031491306172782e-01 -6.000609723775521820e-01 3.486495946731480444e-01 -7.199793674568432111e-01
-2.777948224024137658e-02 -2.184244952152055719e-01 -9.123184231286401991e-01 -5.865708079227613947e-01 3.619273574364872403e-01 -7.245296924432290675e-01
-3.800875926056918042e-02 -4.502784208067072552e-02 -8.207711990056272278e-01 5.959587324457299440e-01 -3.489330612465764703e-01 7.232419429145212630e-01
-3.442538736531363525e-02 4.613210717558087481e-02 -7.791575307152153185e-01 5.928110533958963480e-01 -3.524224433933644263e-01 7.241363658623274357e-01
3.296824916212549687e-03 -9.924915996441216470e-02 -8.813783976478952731e-01 6.000113907964362836e-01 -3.584382748246145445e-01 7.151981082576213122e-01
-9.807210861250188760e-02 -1.620704049888278819e-02 -7.554106047305190197e-01 -5.949714056374607596e-01 3.578590276845456941e-01 -7.196846134095513658e-01
-6.950219531113462079e-02 -9.483837430917610445e-02 -8.174269358215966452e-01 -5.955090226061096059e-01 3.509957582511288865e-01 -7.226139921731595805e-01
2.707659473884911974e-02 -2.000085831202180753e-01 -9.503329479230118171e-01 5.956923784783304532e-01 -3.451979650770980457e-01 7.252509601024049735e-01
3.216978613167790352e-02 2.137517500890364075e-01 -7.521682216141946098e-01 5.860670966277685690e-01 -3.398508550407550732e-01 7.355452090649258201e-01
6.366598439706122603e-02 -2.260951933063379271e-01 -9.932508766701829694e-01 -2.282472206490038513e-01 8.012408284291188121e-01 5.530970449425891555e-01
5.067652256194040555e-02 -7.795926633560369690e-02 -9.084006419786564424e-01 -5.971634562819714276e-01 3.598500702376276061e-01 -7.168707927034999594e-01
-1.088410586030152533e-01 -5.989102172494256693e-02 -7.695602782974779732e-01 5.907895997646201991e-01 -3.530233674424659296e-01 7.254944182070193204e-01
8.052524355728311878e-02 5.550565825837406458e-02 -8.694367008251725482e-01 5.966695727207041999e-01 -3.572939429807510114e-01 7.185585983749412931e-01
7.369612281211558591e-03 -1.214786777027966891e-01 -9.027519651444291249e-01 9.772491375116395540e-01 -1.058061717688803249e-01 1.838183267478277760e-01
-9.950997117697851085e-03 3.528886118789316406e-02 -8.029787165432241691e-01 -5.844480761715427075e-01 3.651061770799327588e-01 -7.246502092164600617e-01
-4.385126653169243993e-03 -1.728625519730453974e-01 -9.110496675765537011e-01 5.954542075844881932e-01 -3.544365052219597412e-01 7.209778432351252597e-01
-2.286017098598976116e-02 -7.969006966506529677e-02 -8.485421663619436838e-01 -5.930805327900431356e-01 3.522850300599856266e-01 -7.239825545005302843e-01
-7.712720828112235028e-02 4.492041728376236498e-03 -7.642370583809590112e-01 5.688139199874167051e-01 -3.787709067206997404e-01 7.300570694476753442e-01
6.478534471352506707e-02 -1.863135579736987790e-01 -9.730288058503727688e-01 -5.976996136266472526e-01 3.563910265775110386e-01 -7.181508254159320037e-01
-4.855177061874337702e-02 -1.448307866662003340e-01 -8.608910853184154055e-01 5.916761119480125064e-01 -3.422935446156681327e-01 7.299003410497385547e-01
-1.231578570131588828e-02 1.768891647356289898e-01 -7.334648775777943275e-01 5.984432645165181919e-01 -3.425447047083224894e-01 7.242435946773023714e-01
1.147889227996458233e-01 -5.088269516899714129e-02 -9.480910379749010186e-01 -5.992345059165464782e-01 3.472538306362317750e-01 -7.213409623939401882e-01
-6.297158435938993160e-02 -1.064815223102484470e-01 -8.267559821145182841e-01 -5.410459556563312900e-01 4.195403795356570376e-01 -7.288725154696148456e-01
2.970162897956445114e-02 1.124644001814700117e-01 -7.996806360594438390e-01 6.033783587242972368e-01 -3.616486412430471309e-01 7.107354054148639078e-01
9.764958862249225810e-03 8.791290345689163621e-02 -7.952444412446810773e-01 5.895499849002862058e-01 -3.651554394474011978e-01 7.204806176060862821e-01
-6.408276775659418889e-02 -1.115213216027716309e-01 -8.317221677829367277e-01 5.972189528566579364e-01 -3.519066335125813905e-01 7.207574097008221381e-01
-8.451122049793539925e-02 8.554772003855530549e-02 -7.168905401233487407e-01 -5.965036521731494901e-01 3.540725791967553326e-01 -7.202888320701991143e-01
8.588565041448859017e-02 1.459266589955856945e-02 -8.921973748991343101e-01 -5.967540663055577177e-01 3.460998279952016699e-01 -7.239471620287446507e-01
