-2.475808463280582128e-02 -2.217338042028063269e-02 -8.578429449875165647e-01 -7.069019311345871026e-01 3.089080987496228281e-01 -6.362903789034410895e-01
9.866942596584271641e-02 -7.463494290108413365e-02 -1.021996003599652481e+00 7.097310120512434484e-01 -3.069501285127634871e-01 6.340847807184111229e-01
6.795365434259847091e-03 -1.534474045022591604e-01 -9.630669881695892443e-01 9.619098247486348452e-01 -1.135436534858982188e-02 -2.731310444449351893e-01
4.677037088664683095e-02 -3.186495219684504221e-02 -9.439066761653310822e-01 7.105537655006519682e-01 -2.984398662341836705e-01 6.372181671727249475e-01
-6.370347206385942873e-02 6.709160560936612561e-02 -7.720548767291380843e-01 -7.060406082534527172e-01 3.099212893803375279e-01 -6.367538408882378320e-01
7.797809538900911386e-02 -4.436103203407239237e-02 -9.827401294711625157e-01 -7.103279781234609347e-01 3.034640492416142976e-01 -6.350934847035663022e-01
5.974038227936669804e-02 1.163539878233253860e-01 -8.860554856412049540e-01 -7.190030938011904293e-01 3.006037172332752250e-01 -6.266354253390511442e-01
3.905106930522499881e-02 -1.456432775125395540e-01 -9.894256258785945057e-01 7.016912941462603026e-01 -3.134605077541892659e-01 6.398217234494559813e-01
5.392724039814599662e-02 -2.096971516079154385e-01 -1.034446056941920045e+00 -7.119580262329706644e-01 3.048630322457068220e-01 -6.325933136323885764e-01
-1.121831291989288867e-02 -1.947960385920158854e-01 -9.548739625917912477e-01 -7.078097600291270997e-01 2.920919791399207432e-01 -6.431855248135122105e-01
-6.592336748622174003e-02 1.444551602995512328e-03 -8.007331454852967267e-01 -7.123343388556806488e-01 3.056226087660287583e-01 -6.318026675300502104e-01
-9.841602241134493612e-02 2.362874719337909948e-02 -7.540683987775537167e-01 -6.986165583920553868e-01 3.070404195248110368e-01 -6.462670385517642613e-01
1.225475031558621343e-02 9.653935140028134521e-02 -8.504846931034024671e-01 5.265189723867789162e-01 -1.976072767909113626e-01 8.268791543363822605e-01
-3.602794651298588113e-02 9.253664976727445091e-02 -7.907956726309418594e-01 -7.037263664839258359e-01 2.929795214822334959e-01 -6.472497208244841760e-01
6.668066632498387269e-02 3.100345846860520088e-02 -9.362437643210428373e-01 7.091798527406939501e-01 -2.942415043204376635e-01 6.406917149471602624e-01
2.190154568274082364e-02 1.589270917239535286e-01 -8.189245228437614932e-01 -7.751620208449718774e-01 3.141081212675401746e-01 -5.481422530633043300e-01
-3.335691386158998878e-02 3.318513702467498078e-02 -8.219079473722697982e-01 -6.608775614341354521e-01 3.731405109845871149e-01 -6.511582049356604562e-01
-1.201748680756982157e-01 -1.219674298538912932e-01 -7.989855191782224697e-01 -7.272015126605380075e-01 3.094462695441102529e-01 -6.127160567909568645e-01
-3.718757889010684131e-02 -4.300923717311116307e-02 -8.539177066632375190e-01 -7.091699048660010662e-01 2.986800891101485944e-01 -6.386456375812024078e-01
9.828406212080375431e-03 4.359054499128937193e-02 -8.593969376750456579e-01 -1.773459677982075766e-01 3.356355617557923998e-01 -9.251471112156113286e-01
3.750775809420829610e-02 1.157051633163197202e-01 -8.635593399783110247e-01 7.032385640058610443e-01 -2.987869344436811514e-01 6.451216086140052486e-01
-8.134227132244474523e-02 -1.683432698573987529e-01 -8.633847253884636697e-01 -5.337475727694744876e-01 7.441735501613232495e-01 -4.016456844072729959e-01
2.490757234458783678e-02 1.219364994287287611e-02 -8.967107100402217368e-01 -7.107661464818154640e-01 2.943926975045377259e-01 -6.388618197007800426e-01
-7.471372565241059249e-02 -1.278657144185837979e-01 -8.524299470966784087e-01 -7.051175223166975536e-01 3.176750004669230409e-01 -6.339494252701092236e-01
2.971139590858179122e-02 7.708738592141108070e-02 -8.754082153331869121e-01 7.846953544794859070e-01 -4.374156087230509637e-01 4.392274876459310584e-01
1.277482345169310141e-01 1.835048736424176388e-02 -1.008299932216210504e+00 -7.146118632736903065e-01 3.011390248845686735e-01 -6.313835383980768157e-01
5.275130853322705649e-02 1.201634497183629580e-01 -8.784004847416772011e-01 7.030050196912026594e-01 -2.963565023556970490e-01 6.464957585324667688e-01
-1.664656677318054889e-02 -1.633356632346741055e-01 -9.357803699867128788e-01 7.034376850697446892e-01 -3.008317289245642789e-01 6.439531769437715214e-01
-3.325257094703171212e-02 -1.607619809051460680e-01 -9.160810094513149870e-01 7.104792189111642786e-01 -3.101752877431011024e-01 6.316728349144564714e-01
-7.289662828920615012e-02 -1.865365400349361935e-01 -8.822844338938355957e-01 -7.113032053375833996e-01 3.148505478320681172e-01 -6.284241263719321235e-01
-9.023808231338113772e-02 7.117020832304729594e-02 -7.405896608416689952e-01 -7.014535627527506145e-01 3.084647239923530848e-01 -6.425047963663725881e-01
-3.399793924553301885e-03 -1.417654433259648850e-01 -9.459225485766767916e-01 8.034546461452868327e-01 -1.462367739585879178e-01 5.771268816557905135e-01
-8.677687345150326970e-02 -1.747315587508393650e-02 -7.884905507650767920e-01 7.115066908521636702e-01 -2.933758934352820869e-01 6.385051401701111740e-01
1.190878453338949788e-01 2.438965997181486919e-02 -9.976890745041100406e-01 7.095536287908574824e-01 -3.050712458585036480e-01 6.351890921765475095e-01
8.504519846735360267e-02 -1.817123077917065233e-01 -1.057679772424742204e+00 7.144482431783867327e-01 -3.138337499743116821e-01 6.253575658744184862e-01
-5.829534041346719209e-02 1.304191541246947084e-01 -7.498981571274063729e-01 7.130534767344141045e-01 -3.029206103537434580e-01 6.322925297201287265e-01
-6.802504636686068640e-02 2.574406268886330132e-02 -7.869147230255917336e-01 -7.049001731844309893e-01 3.063439774318968412e-01 -6.397414425654824877e-01
6.854119383084909811e-02 -1.380889437669939324e-01 -1.018634657980408864e+00 7.116188487080501446e-01 -2.978780134920858136e-01 6.362918381068843887e-01
7.625889575930061559e-02 1.470160616945110910e-01 -8.899149135629902396e-01 -7.150720943611944547e-01 2.976396273129703340e-01 -6.325207918471068558e-01
-5.283599783782031573e-02 1.248178310073651959e-01 -7.567641598022665228e-01 -7.042873398991932321e-01 2.949226159575505934e-01 -6.457553665704012236e-01
-6.984694511180172816e-02 -6.190019971170923618e-02 -8.265209542648230823e-01 -7.302294096960596503e-01 2.964412906825197314e-01 -6.155384394117281444e-01
8.333662371157390947e-02 -9.278421132219617784e-02 -1.013562960099003263e+00 7.088440352165080727e-01 -3.120558923293991205e-01 6.325830015108532267e-01
1.105668816913835985e-02 -5.496695027889545934e-03 -8.846972221002803449e-01 6.336820521892128077e-02 4.961941197271296233e-01 -8.658959903565505156e-01
3.065564425717068678e-02 2.011025011867068335e-01 -8.153523726712489372e-01 7.174961209889920699e-01 -3.014598289707766110e-01 6.279500679852335621e-01
-9.265623601266419207e-02 -5.407465716120987004e-02 -7.973711304017194745e-01 -7.054229795297513039e-01 3.062349194077353398e-01 -6.392171728659250540e-01
7.387319593510811508e-03 -2.253739924308700501e-02 -8.937543050623224516e-01 -6.608775614341354521e-01 3.731405109845871149e-01 -6.511582049356604562e-01
-1.138852688635555617e-02 -2.098419168743766161e-01 -9.617867104381003784e-01 -7.094254888244364565e-01 2.984602930024515266e-01 -6.384645090426717129e-01
-8.790311888193362566e-02 -2.149311525883180682e-02 -7.871988714424618117e-01 -7.064934307676996594e-01 3.099648727013620264e-01 -6.362301548758230174e-01
-6.388626014010230503e-02 -1.641233867961871540e-01 -8.798463150276959466e-01 -6.608775614341354521e-01 3.731405109845871149e-01 -6.511582049356604562e-01
7.916809947699346428e-02 1.982354846464204901e-01 -8.687202884681842763e-01 -7.139034745692552919e-01 2.996131662143387553e-01 -6.329089821048231590e-01
-2.175444027646030939e-02 9.038100871439123940e-02 -8.096473237205401574e-01 7.096182249092097827e-01 -3.064513520774050370e-01 6.344521602821069362e-01
-6.694067557556129811e-02 -3.718840723377048879e-02 -8.202416386456269359e-01 2.967799483353985024e-01 -8.183077721695350970e-01 4.922337374388007780e-01
4.694839501641826299e-03 -1.283245594145467072e-01 -9.409987341249734794e-01 -7.157997804973603717e-01 2.980226855593835489e-01 -6.315165501646836654e-01
5.109783695498802680e-02 1.362813544564343837e-01 -8.688834749028487847e-01 7.050963648712783582e-01 -2.980657306747864221e-01 6.434251599390674592e-01
1.647979893179897168e-03 -1.740577520915894405e-01 -9.593588323076098767e-01 -7.072559461602414554e-01 3.063000734649062307e-01 -6.371571953736177019e-01
2.123622507785177804e-02 -1.175865742557513360e-01 -9.440380292233766513e-01 -9.042804317950838833e-01 1.187202502534824289e-01 -4.101004789710041010e-01
1.075738901790810609e-01 -1.146949578702284728e-01 -1.050942619174963788e+00 7.067520163908348474e-01 -2.919461455684176365e-01 6.444137144841293185e-01
-9.873031835020217029e-03 1.552848337228408537e-01 -7.920023235337154688e-01 7.206813364606859951e-01 -2.957719231328537202e-01 6.270066831888897463e-01
7.794680765643632880e-02 2.151662207360331425e-01 -8.613279190683242881e-01 7.071525473592571442e-01 -2.981701683848038131e-01 6.411160779833018353e-01
-3.801762887972722632e-02 2.018095397833766930e-03 -8.334719821897983438e-01 7.121071954257517378e-01 -3.005046342617663790e-01 6.345079250963475692e-01
4.839746822490609973e-02 2.455273348874378314e-01 -8.139650141206145051e-01 7.234865651826808408e-01 -2.951681396645869371e-01 6.240536510005476600e-01
-3.411958670980868441e-02 6.512322325379855947e-02 -8.078386683565788040e-01 7.095275135363622310e-01 -3.011317418811528812e-01 6.370952688307534029e-01
-2.903544356209947219e-02 -1.059785968936562545e-01 -8.886849504988095783e-01 -7.605034920867403958e-01 1.402335405456497375e-01 -6.340102464707526586e-01
-4.725637351784939266e-03 -1.216497301999151515e-01 -9.292908892234931217e-01 7.147642104872056201e-01 -3.089406500070440709e-01 6.274295165035085331e-01
-2.797783751193920129e-02 -1.719929278639637515e-01 -9.251961601312529426e-01 -7.437405271078885161e-01 -6.097631508610442674e-01 2.739323423571801142e-01
2.896874555105114629e-02 6.203895881437251209e-02 -8.795282220447822041e-01 7.007431595224875576e-01 -3.125433950475712264e-01 6.413077658929285940e-01
-1.157852447938106655e-01 -9.246731519814875566e-02 -7.918221294880163352e-01 7.109890732627717203e-01 -2.966303278066291793e-01 6.375774355529504334e-01
-6.943142175650186820e-02 3.438844790065212400e-03 -7.959612235298590965e-01 -7.122685986941638125e-01 3.056283145649505983e-01 -6.318740196039394075e-01
-1.782773935086707368e-02 1.925794061722372885e-01 -7.634765256482157758e-01 -7.034809247596329751e-01 2.867010635427019172e-01 -6.503207582899496186e-01
3.302762314529215926e-02 9.932831140599984732e-02 -8.644099300160149602e-01 -7.019274530046322180e-01 3.144931581189218117e-01 -6.390554781979544963e-01
4.245111975757825257e-02 -9.643135304015009943e-03 -9.285859627300251384e-01 7.104637380886895670e-01 -2.964575232787853842e-01 6.382430679235412407e-01
-2.766549955429833604e-02 -5.230199414245083334e-02 -8.717458787555646404e-01 3.706334327489144709e-01 2.804796222316433552e-01 8.854163088861366493e-01
-1.492326449826904440e-02 -1.775068663667312696e-01 -9.400535410273470616e-01 -8.831309871238194331e-01 -2.640449624521504779e-01 -3.877627075742979268e-01
7.259325200676669358e-03 2.029377046263553253e-01 -7.865082465737339712e-01 -7.043159595868579981e-01 2.923855621658734694e-01 -6.468768909987349103e-01
4.641909982003047073e-03 4.412147541346982116e-02 -8.609488440030015344e-01 7.117292880786721954e-01 -2.939433447039037084e-01 6.379958703591335212e-01
1.155555081875416085e-01 -4.698116057418226521e-02 -1.025758140167433163e+00 -7.066086704044165501e-01 3.000713379514348134e-01 -6.408286659079308611e-01
1.190233037596167970e-01 5.346456000338383613e-02 -9.819100131682623189e-01 -7.228754323282261529e-01 2.868504805818251069e-01 -6.286238232251910585e-01
7.029138298221243586e-02 -7.506382097430510519e-03 -9.566350404606067670e-01 -7.093191969325151058e-01 2.972348928774011800e-01 -6.391538901697866315e-01
9.277126617298717126e-02 -1.584604050056477864e-01 -1.053300434680805697e+00 -7.047879744862083351e-01 3.116470007006438281e-01 -6.372990334010559810e-01
-2.096312008185742537e-02 -9.657732274727440919e-03 -8.541057252655099852e-01 -2.548552593742766104e-01 5.558790509673391389e-01 -7.912314942322002942e-01
1.091028669413832558e-01 2.347106993090867025e-02 -9.851602554866883965e-01 -7.097330627427674843e-01 2.994870199294435431e-01 -6.376413604398258883e-01
-1.662376996165391627e-02 -1.771424776847355942e-01 -9.447792847177218789e-01 1.172417067180829275e-01 -8.515709700444767938e-01 5.109611190524573354e-01
1.048435543274873517e-02 2.123803204920306498e-01 -7.875415630456449323e-01 7.147484187890149610e-01 -2.921261923995922549e-01 6.354502227182857732e-01
8.073530002604950573e-02 1.346499306092872050e-01 -9.006810163555574178e-01 -7.226807580581402490e-01 2.990360137175276933e-01 -6.231452354246498349e-01
4.357375498822608356e-02 -8.365175664420583523e-02 -9.630243074835488359e-01 -7.108640273528847864e-01 3.097157260137426427e-01 -6.314653622134922539e-01
-1.051255206415605964e-01 -1.789129257823230956e-01 -8.427919677773432205e-01 -7.168450288918039037e-01 2.982829891260704858e-01 -6.302066827249017678e-01
2.162547450769898225e-02 -9.044346396824924639e-02 -9.418321025726614781e-01 -7.055863299829775448e-01 3.025609341595761892e-01 -6.407845285754306675e-01
2.590967295463345033e-02 1.530801537769023446e-01 -8.309706848957175707e-01 -7.116154093704301076e-01 3.123089555177862020e-01 -6.293382440706624115e-01
-1.937326246553281589e-02 -1.264053883598142136e-01 -9.161145344934250589e-01 6.541378733241273169e-01 7.368106316197211569e-01 -1.709202615699345895e-01
-1.167842711134549905e-01 -9.838798177266820655e-02 -7.934617903564201713e-01 7.089110768101413163e-01 -2.967297736571138378e-01 6.398410166606105509e-01
-5.993222780068698657e-02 6.633406107286722586e-02 -7.785161367808418609e-01 7.052279974920645511e-01 -3.106605853313538779e-01 6.372938664971702361e-01
9.493835029875778708e-02 -4.901894433749413860e-02 -1.003735705943047174e+00 -7.032734793507403603e-01 2.970638038909888534e-01 -6.458788660884636768e-01
-8.470302502543947121e-02 2.153250785631342229e-02 -7.703185315043398207e-01 -7.036017697728831344e-01 3.087310509588293006e-01 -6.400231931315640832e-01
2.399388612067645046e-02 -1.196129877695913390e-01 -9.602136576854373162e-01 7.074828922596113623e-01 -2.954078466220896870e-01 6.420297199616810113e-01
-4.970306271752449739e-02 -1.239396943038816729e-01 -8.783571862324519586e-01 -7.097479012344298788e-01 3.037331235340887114e-01 -6.356131735273804484e-01
2.287659386625533892e-02 -7.787717129362158042e-02 -9.372362672631686653e-01 -7.105625006096053520e-01 3.071250348629948057e-01 -6.330680419100529477e-01
6.342953624762780185e-02 -2.153831806582782449e-01 -1.049657141876321864e+00 7.111961126549356527e-01 -3.210956845901679069e-01 6.253780062346927515e-01
3.500382225005211744e-03 1.552823285534665476e-01 -8.049681829488163354e-01 -7.010446028120336237e-01 3.098871893754223117e-01 -6.422666072038302199e-01
-1.816853379823781325e-02 -2.299522821207827528e-01 -9.657624623689941012e-01 7.153502294646391091e-01 -2.983471673110525413e-01 6.318726271665505712e-01
-6.219766927356233654e-02 -1.488209183469644814e-01 -8.762737588691023038e-01 -7.113393173359724431e-01 3.048989215610077852e-01 -6.332716820156473192e-01
7.475603693027929597e-02 3.267532043386249530e-02 -9.444250252496545484e-01 7.091346688004597221e-01 -3.089286882333469042e-01 6.337910437136877739e-01
-4.175396638824025591e-02 -5.614080478708097927e-02 -8.550076782958641042e-01 -7.083842090267080671e-01 2.997939020540380528e-01 -6.389956405898391534e-01
8.273488225720064884e-03 1.671532023644912157e-01 -8.045998989848829330e-01 -7.135006869940061502e-01 3.103914923101582790e-01 -6.281511690354112387e-01
-3.772280651145067804e-02 -1.458232371227783861e-02 -8.431847740950841885e-01 7.495958256539371201e-01 1.936602467456957632e-01 6.329311234191192792e-01
1.284633509397995008e-03 -5.675706361588806620e-02 -9.032217258308645746e-01 -7.129049876136963615e-01 2.989719078999182877e-01 -6.343360914548359375e-01
-5.001183716100593424e-02 1.684910121105954728e-01 -7.391421753613928169e-01 -7.133858112261245443e-01 2.951458972247874568e-01 -6.355860159668551557e-01
7.357520991363879215e-02 -1.667378938645958375e-01 -1.037806425129884413e+00 7.125504754529218276e-01 -3.003981207111690588e-01 6.340605562602146250e-01
-4.800092598454908793e-02 -9.449195430907399162e-02 -8.681950767310850914e-01 7.139865591505173414e-01 -3.016177822903807204e-01 6.318622529939867949e-01
-1.203439092379396738e-02 -1.160514496307649829e-01 -9.165580949246516784e-01 -7.167556967173581706e-01 3.020660101311498646e-01 -6.285040944549703523e-01
-1.302380989655655893e-02 -1.890529105744522265e-01 -9.501326815828534667e-01 -7.128771688981374588e-01 3.059913703034057297e-01 -6.310114288692562079e-01
-8.432319300824550612e-02 -1.665647693191634193e-01 -8.635891540051398030e-01 6.480741084077673575e-01 -1.959526497800396783e-01 7.359364843895553898e-01
8.771763606334789798e-02 -8.846316316109460731e-02 -1.014439161496385022e+00 -7.129670707527989704e-01 2.959832581363243120e-01 -6.356664745958993112e-01
9.794562205205625816e-02 1.011614404780854376e-01 -9.377267333171751540e-01 7.061686869846565129e-01 -3.069801476562705189e-01 6.380352454741825552e-01
1.708171255922346851e-02 -8.264958147658527099e-02 -9.326789566937696563e-01 -7.280858700441816822e-01 -5.292067989738739042e-01 4.356961438454932667e-01
-8.155860031175790267e-03 -1.650935857353452718e-01 -9.441507147374830211e-01 -7.102686957827750724e-01 3.017348203678859031e-01 -6.359830799389203371e-01
5.830993363452507267e-02 -3.008242262210544110e-02 -9.564875975907044525e-01 -4.342348241881770210e-02 2.918831992384406937e-01 9.554677384281246022e-01
-8.082863768153006334e-02 -1.104297635183174248e-03 -7.854066460451969434e-01 -7.156867742119532583e-01 2.927634681191612631e-01 -6.340993557424020599e-01
-4.934812807280979097e-02 -8.418195766112145095e-02 -8.569045759696878317e-01 -8.660541521142746113e-01 -1.123369167767060556e-01 -4.871659088387939596e-01
4.120052765483752516e-02 -9.731562724646167228e-02 -9.669206011658306732e-01 -7.113607744361297724e-01 3.110924465475102818e-01 -6.302280050066914052e-01
1.364044181947519918e-02 2.313568545811914567e-01 -7.801512119761905284e-01 -7.089664533107924438e-01 3.015583080093459656e-01 -6.375179644139107316e-01
-2.844544619062419448e-03 -1.966494348357999689e-01 -9.631540419192182734e-01 1.505331475808483963e-02 7.477989434724878759e-01 -6.637545765237515827e-01
-2.424474870606962290e-02 -3.918363228981805858e-04 -8.480146904213721193e-01 7.504937366779754759e-01 3.285839427032997140e-01 -5.734036482310556071e-01
-4.995887320462692044e-02 -5.521450051867899528e-02 -8.454521541629109738e-01 -7.090166559279303948e-01 2.996860951039517773e-01 -6.383444415189339916e-01
1.347407839644086322e-02 5.092206301192725437e-02 -8.699726965873331164e-01 3.178564534623457005e-01 1.293045536746256219e-01 9.392803667656135502e-01
6.893420735214084161e-02 1.114657811771660040e-01 -9.005209976237333880e-01 7.159682390706270105e-01 -2.996682695690815468e-01 6.305461195309806088e-01
3.649165507788373897e-02 -2.009326327070877771e-01 -1.012853767359110924e+00 6.576645623885766234e-01 -2.858747010741530259e-01 6.969598113693540320e-01
8.950775907700578293e-02 -1.432705517897769898e-01 -1.044561106358032898e+00 6.608775614341354521e-01 -3.731405109845871149e-01 6.511582049356604562e-01
3.291498492384231644e-02 4.480245471119646133e-02 -8.901420090664338147e-01 -7.113108523052933396e-01 2.928163775170313787e-01 -6.389800000395321478e-01
-9.791909107000977205e-03 -1.569223420001567004e-01 -9.403850604364054622e-01 7.110818701999092051e-01 -2.990802995869125680e-01 6.363281765504351650e-01
8.155423899829823686e-02 -1.771900561985380873e-01 -1.049785541130733080e+00 -7.071762697612911097e-01 2.975102719614307056e-01 -6.413964153033137050e-01
2.284376793004319617e-02 -6.799546422744623397e-02 -9.325759251530486571e-01 -7.108946133160649605e-01 3.048604579358417666e-01 -6.337893577091295860e-01
3.409166285637052485e-02 -1.326833086539628420e-02 -9.209642395607626764e-01 7.101087227442705041e-01 -2.978254231223080861e-01 6.380012689834707595e-01
-3.983245551931271361e-02 -8.779741385429604139e-02 -8.721784128081313536e-01 -7.081212452658666168e-01 3.008822044432374887e-01 -6.387755482581468636e-01
-1.897128433540786700e-03 1.018944835072629375e-02 -8.698242710351925533e-01 7.046401835924680501e-01 -3.130610654277859450e-01 6.367691740183347715e-01
1.425456564699832326e-02 1.686916827775388206e-01 -8.105606589100941006e-01 -7.012551165503356776e-01 3.077503218870773494e-01 -6.430637611391075703e-01
2.048320788010913815e-02 -2.652005745110316576e-03 -9.008380607705145371e-01 7.084196659206272173e-01 -3.132639428093376144e-01 6.324612866195485905e-01
1.659289405678093451e-02 1.372141903404941682e-03 -8.919194063555132557e-01 -8.657718745010234418e-01 -2.728408919967844071e-01 4.195198552838509953e-01
8.951084865886856090e-02 4.230050683626993685e-02 -9.562731597704773323e-01 7.113008931126393319e-01 -3.075149808744999103e-01 6.320487133084897735e-01
-2.943760858776406711e-02 -1.752071572778547137e-01 -9.299465750902651262e-01 7.976692479804163849e-01 7.462272579492464260e-03 6.030489908077998340e-01
-8.150856970300608684e-02 -1.537287277276668251e-01 -8.571327348675813473e-01 -7.022119271161307852e-01 3.007346405924287702e-01 -6.453348629692902128e-01
-2.686587665993270257e-02 -5.787660908821051775e-02 -8.743736551294739590e-01 7.078855620393421644e-01 -2.988784430893052235e-01 6.399763334005073023e-01
-3.883204157172940457e-02 1.469547412820431109e-01 -7.637349477206341053e-01 7.082118004569288860e-01 -2.968240454733688805e-01 6.405712542117218966e-01
1.493768232973518434e-02 -2.069581105076003791e-01 -9.810589305885450973e-01 -2.692667773393200847e-02 3.829231539644206705e-01 -9.233876824953608509e-01
7.675263465012298336e-02 1.758625986653330475e-01 -8.785965400691155835e-01 7.039939093281112337e-01 -3.006348312277315471e-01 6.434370784168382817e-01
-5.545347496026295508e-03 -2.048410905783794589e-01 -9.659100221921320673e-01 -7.071603605745401255e-01 2.987439597938927882e-01 -6.408402850311075705e-01
-4.276099845745800002e-03 -1.712246064279981661e-01 -9.513984049929564701e-01 -7.102629225629010223e-01 3.039787053636434644e-01 -6.349200953803950664e-01
-5.241859157119356516e-02 1.193313216300194018e-01 -7.597720737626375564e-01 -7.146741839062041857e-01 3.019158152586343680e-01 -6.309418763679545128e-01
2.387547786703675401e-02 7.022497904562662041e-02 -8.679845742524823216e-01 -7.062131631873773685e-01 3.037650989658445821e-01 -6.395230510240810240e-01
4.744736562622527826e-02 -5.047775063024485809e-02 -9.497607193560353434e-01 -5.662933612814407408e-02 -1.042753340685031171e-01 -9.929349288823451358e-01
2.327087151827640990e-02 1.548198980562046079e-01 -8.253474852060749267e-01 -9.206136635518861189e-01 -3.129318238377674644e-01 2.335469034501274632e-01
-5.111023314852752158e-02 -1.476802568691510664e-01 -8.880782217280082103e-01 -7.058162885030716538e-01 2.900702580918801954e-01 -6.462836933222581015e-01
5.537619232260615476e-02 1.002093297653961351e-01 -8.907701164170804820e-01 7.163538720795183945e-01 -3.024620636385105810e-01 6.287716835356170764e-01
7.470296003622577119e-02 -1.582727397014873638e-01 -1.033189059200375404e+00 -7.287456620297706467e-01 3.001205513212653608e-01 -6.155139435848800966e-01
8.117861275668888932e-02 1.820647154158600844e-01 -8.805695099476197329e-01 6.968560315999989818e-01 -3.051731226181994550e-01 6.490462513982794279e-01
4.116974249824204707e-02 2.273122052804112114e-02 -9.098773679648155532e-01 -7.098745723957301523e-01 3.109294332641994174e-01 -6.319817869179326086e-01
2.989934911134283987e-02 -1.620058555811513257e-01 -9.804094768028822626e-01 -7.856403170979828765e-01 4.321409487060011156e-01 -4.427454038176544260e-01
-5.737940187865987751e-02 -1.788268214785846411e-01 -8.958768991762504630e-01 -7.074345767044546429e-01 2.931653975764339504e-01 -6.431099201122931763e-01
6.558601188673622573e-02 -6.773226847838474153e-04 -9.481546273617158516e-01 -7.086242389121211183e-01 3.120446143317116561e-01 -6.328347704518063610e-01
-6.543806707741048334e-02 7.854956584133393482e-02 -7.646541923877873126e-01 -7.055956094781309362e-01 3.148135265939167593e-01 -6.348442953659472199e-01
3.422780102341382163e-02 -2.251127362050965239e-02 -9.236592842710887874e-01 -7.106298029669584349e-01 2.968214556584946040e-01 -6.378889453470049098e-01
2.112816829152601092e-02 1.338584108970468922e-01 -8.295592837305173495e-01 -8.169419865964163696e-01 2.524581051996969139e-01 -5.185274299927432606e-01
5.644725340718255435e-02 -2.891545543876924973e-02 -9.546483558916735168e-01 9.148668716699847048e-01 -3.507835263041836904e-01 -1.999237974688792274e-01
-1.679297901233655840e-02 -1.785235344572733418e-01 -9.376188670173899453e-01 -6.608775614341354521e-01 3.731405109845871149e-01 -6.511582049356604562e-01
6.730803538667266828e-02 1.655354697375108763e-01 -8.710911281215750757e-01 -7.239908031448711867e-01 3.005474025908246305e-01 -6.208933690719790066e-01
2.400702419622633733e-03 2.000669518878064185e-02 -8.698944347185413317e-01 7.045900970755123449e-01 -3.141663767136770868e-01 6.362800349262264232e-01
3.917129757922835701e-03 1.756265748879230759e-01 -7.958067077587996918e-01 -7.041545879195175717e-01 3.057470452682695683e-01 -6.408471429456611412e-01
3.911540720910407221e-02 -3.060463209305919197e-02 -9.347865897711795657e-01 7.105596188410533420e-01 -2.966821880118380994e-01 6.380319015448717712e-01
6.577060999713547906e-02 -4.879271860019142315e-02 -9.731287341067517138e-01 7.103163205017744009e-01 -3.026410056779760827e-01 6.354991317940913431e-01
-8.924646468131643140e-02 -2.030748902857751892e-01 -8.738627385461560371e-01 7.191778452390100718e-01 -2.954456263209179756e-01 6.288840185640073299e-01
4.846956316069264692e-02 -1.729272415670942420e-01 -1.012848668652657880e+00 7.125115138684363636e-01 -3.105483707484522626e-01 6.291955594490403758e-01
-8.917201049492654019e-02 -1.237667248700070194e-01 -8.363021192753278266e-01 7.064228639632647022e-01 -3.000141398873294452e-01 6.410602570255033994e-01
2.705927755085885122e-02 -1.249751797701525585e-01 -9.643062956075986181e-01 -7.050683704243376759e-01 2.972054333273080329e-01 -6.438536506286934857e-01
-5.382584007848884022e-02 -8.473058376578208872e-02 -8.540052086847489399e-01 1.330724376743575577e-01 8.441635491032039029e-01 -5.193068733387673497e-01
-2.447473105031829771e-02 7.318764823608171766e-02 -8.128047632672418255e-01 -7.080597879840824227e-01 3.053817187208025530e-01 -6.367050671316075716e-01
-6.663698500371387223e-02 -1.149537270857769328e-02 -8.061551439001177766e-01 -7.106698278451994977e-01 3.046453262677561447e-01 -6.341447949590749422e-01
-1.473181241423906010e-02 7.439138650047862067e-02 -8.230740833243499477e-01 -7.079455393631326476e-01 3.031916371786472775e-01 -6.378776876806199203e-01
-4.746330969460687416e-02 -7.173837014081847763e-02 -8.561365703824084239e-01 -7.089559430464517087e-01 2.996958927836556597e-01 -6.384072702184113712e-01
1.019388492245058148e-01 -2.077620629612460246e-02 -9.981395073996355283e-01 -7.166432101592786763e-01 3.035322255235884947e-01 -6.279257100973816286e-01
6.542307113899704929e-02 -1.351688635878787181e-01 -1.013780251944765842e+00 7.042438713115342086e-01 -3.131091571585287725e-01 6.371838238872817861e-01
2.569713694674069515e-02 -8.057695527229701005e-02 -9.436418211307393555e-01 7.139204975101145489e-01 -3.066952409509568489e-01 6.294883258750275656e-01
1.888509503764045430e-02 -9.161616029536671924e-02 -9.393683068247661305e-01 -7.055863299829775448e-01 3.025609341595761892e-01 -6.407845285754306675e-01
6.152141650138122017e-03 1.390677781304801297e-01 -8.174936727497156275e-01 7.086127314666305077e-01 -2.921562774909244875e-01 6.422715207184938047e-01
8.441197224460591933e-04 5.884505862654767355e-02 -8.448260813272552294e-01 -3.582744849936470577e-01 5.918183547714795933e-01 -7.220737000875436795e-01
-1.069110536094770164e-01 -1.388238674215305501e-01 -8.217538332212493968e-01 -7.136917507127120697e-01 2.904925831981240991e-01 -6.373838279023910092e-01
4.590817826150947467e-02 -8.214465368684538416e-02 -9.668680563079450341e-01 7.157042770858004221e-01 -2.908761081752146427e-01 6.349476178819262184e-01
1.643246300503947710e-02 1.894894767706149438e-02 -8.875767768816328340e-01 3.380845290030407013e-01 3.141435567931834261e-02 9.405912978047613615e-01
-2.071148633489027294e-02 -8.409052574828056181e-02 -8.917375806325296139e-01 -7.066629886500754854e-01 3.022206986394763706e-01 -6.397578211995614828e-01
-7.846809251451002110e-02 -4.086826224496865195e-02 -8.088864186389351785e-01 7.091187691019558148e-01 -3.020494844119630540e-01 6.371159080369868111e-01
4.672973631271700248e-03 3.187940910348241452e-02 -8.692072557404968425e-01 9.208499823437424903e-01 1.938641752055682288e-01 -3.383075399535068195e-01
5.190649574183214127e-02 4.018987319741845754e-02 -9.154532334414253736e-01 7.094524265836916754e-01 -3.082782868596555259e-01 6.337521220993167503e-01
2.361361069188980602e-02 -1.331149106976682595e-01 -9.643292625962063269e-01 -7.029882823422699545e-01 3.033935164814627883e-01 -6.432416723491081179e-01
4.909450263966223110e-03 -5.749857601603762525e-02 -9.118114051734848013e-01 8.490786650223075549e-01 7.665529870794707268e-02 -5.226752201739921500e-01
-2.639588753654100936e-02 -1.898757885441405002e-01 -9.376016664778824561e-01 7.179165101972165841e-01 -2.960036740310023062e-01 6.300616710659344699e-01
5.546476631820848602e-02 2.035995258854930989e-01 -8.418233357895741342e-01 7.080677666172948692e-01 -3.027568205686810843e-01 6.379485445368924257e-01
3.297784101902122983e-02 1.252385044403690195e-01 -8.539137586828271509e-01 7.024350493792824723e-01 -2.999294077241980716e-01 6.454667704736909428e-01
-8.376472020003924990e-03 1.851190399624294269e-01 -7.775680993249753925e-01 -7.043668210245518368e-01 3.094984022717794936e-01 -6.388099251193443129e-01
4.606090902394595343e-02 -2.296909763678980088e-01 -1.035147269297324923e+00 -7.057214819215488211e-01 3.103190790634340890e-01 -6.369138553396959113e-01
7.069206738291561321e-02 2.066061083934035703e-01 -8.553507306616816575e-01 -7.889675612213247202e-01 3.373043569097979866e-01 -5.135717653358121693e-01
6.399628795586478902e-02 -9.430239042035550023e-02 -9.887947280768534242e-01 -8.739856174531340782e-01 4.851296758747544180e-01 -2.825487693690225191e-02
6.331002223661889861e-02 -1.100074027324360847e-02 -9.524144430776442238e-01 7.096063883201789713e-01 -2.992010711813695711e-01 6.379165248362144158e-01
5.650286291997227289e-02 1.557770460415290326e-01 -8.656171743440618238e-01 7.063548445111155205e-01 -3.148004677427492792e-01 6.340059141243273855e-01
3.587907893612318766e-02 -2.809204705907132615e-02 -9.280992004213379776e-01 -7.109761700252912320e-01 2.976882526572601217e-01 -6.370985715617601963e-01
-4.222397604589052562e-03 9.153126700754979361e-02 -8.266730408867345448e-01 -7.120822379386347878e-01 2.994687944968677518e-01 -6.350254542417160808e-01
-7.414655236402166449e-02 -2.986838798599295713e-02 -8.084665157785804190e-01 7.097165456026024444e-01 -3.027813695240051950e-01 6.361020886359960436e-01
-3.747790138327420240e-03 -2.212159387653751461e-02 -8.831091082019789651e-01 7.117770888369803206e-01 -3.126610066697213530e-01 6.289805010610662883e-01
2.152173327020351010e-02 -1.096393382375797920e-01 -9.417724384139256610e-01 -9.268903278896369891e-01 1.866127213752266645e-01 -3.256532086216454847e-01
-2.260799868771595778e-02 2.000459868441182010e-01 -7.565643240673026737e-01 7.077586691610149305e-01 -2.857697811861232839e-01 6.460753039609733461e-01
2.310277655888567580e-02 1.962062499044097130e-01 -8.092838593590546692e-01 7.136754143696567576e-01 -3.023338827086069491e-01 6.318715267288412818e-01
-1.525511706188337549e-02 3.036888494796764412e-02 -8.452966394007472850e-01 7.047017189374914503e-01 -2.984205226898695162e-01 6.436930005554275525e-01
7.222017958467582925e-03 6.941272428800433769e-02 -8.528736157628370451e-01 7.359541126010302747e-01 1.522592942363186208e-01 -6.596882987171198698e-01
-9.507939980881296993e-02 -1.539143138618435658e-01 -8.440071831079113407e-01 7.136984899148735018e-01 -3.098224872544144137e-01 6.282073637619325357e-01
-4.134519789364893283e-02 -2.030998495651636232e-02 -8.404105957896620405e-01 7.108930949106216923e-01 -2.984177598690661015e-01 6.368499416684640924e-01
4.399336043388875177e-03 3.024362817403343853e-02 -8.716732748205543446e-01 9.901302104053590902e-01 1.341468388475970386e-01 -4.058068592121119589e-02
-7.957685603596213741e-02 -1.834153826030739121e-01 -8.753187682461053276e-01 7.064930761740076948e-01 -3.119509361000540881e-01 6.352591178286917106e-01
3.006018635871125777e-02 7.051642280312124533e-02 -8.727285846399702729e-01 -8.682857358566258288e-01 4.780467455725899706e-01 -1.324809041159250855e-01
5.323548970658357332e-02 1.842629617052777002e-01 -8.465413068181382172e-01 -7.190891126936614919e-01 3.046910545641250412e-01 -6.245592119839751266e-01
-9.859490044924139329e-02 -2.063825402552549593e-01 -8.650677860800189967e-01 7.097190973455819174e-01 -3.076428142540200139e-01 6.337623384998818388e-01
-5.263130161282659342e-02 1.224496654018688291e-01 -7.599776495028549572e-01 7.146715528999944000e-01 -3.019079083883807746e-01 6.309486400080938084e-01
3.683608186587148531e-02 3.276366448109409302e-02 -9.021672152305019177e-01 7.107129409788019991e-01 -3.094553011158645561e-01 6.317630347975033978e-01
-1.060750422932932036e-01 -7.949456169991843402e-02 -7.945377240741944291e-01 -7.031381823809198517e-01 3.024198061090763168e-01 -6.435362906247049652e-01
4.552451435455866224e-02 -2.048311915805567929e-01 -1.024693422995936354e+00 7.008677250970634098e-01 -3.104819620332051611e-01 6.421723936524197374e-01
-7.250353259462885558e-02 -4.326957303914679559e-02 -8.166615116604993840e-01 7.089176320590704350e-01 -3.028789836416123649e-01 6.369459256671513581e-01
9.541137079146469469e-02 9.545763743305309135e-02 -9.375904254329096021e-01 7.192817953300053579e-01 -3.060774490974285666e-01 6.236587961865486252e-01
1.088302039334274329e-01 -9.248055280402536771e-02 -1.041805656572538430e+00 7.084358132792758500e-01 -3.034817443085620625e-01 6.371950481091041008e-01
-1.094647236992952188e-01 -9.966244635036483612e-02 -8.003692899670952210e-01 -7.171367631572314050e-01 2.981251331349829004e-01 -6.299494169547404931e-01
1.252728388942059810e-02 1.095937804675525123e-01 -8.402417335601436443e-01 9.629338991638551892e-01 4.884186976844383937e-02 -2.652786791255879462e-01
9.670522114967649088e-03 -2.293643230391075871e-01 -1.009425219382938277e+00 7.809247608611201708e-01 -1.285099289286806279e-01 6.112623954086721101e-01
-6.093866652398909761e-02 9.669168973269716416e-02 -7.610710990975981804e-01 -7.128563452097709252e-01 3.008128761926742722e-01 -6.335198849372121188e-01
-2.708101636848325722e-02 -7.627886263596801719e-02 -8.808637199257026706e-01 -7.069760294172849902e-01 3.011132780691757604e-01 -6.399341275473635626e-01
-1.120218067915697974e-01 -7.237522647644396845e-02 -7.845198694400249417e-01 -7.068009887626192089e-01 2.932387815838937706e-01 -6.437727698958516376e-01
-9.581274991728513934e-02 6.119540377567750378e-02 -7.410735210278016627e-01 7.145041353507640691e-01 -3.103956114952861056e-01 6.270074999002199778e-01
3.944845643305296135e-02 -1.346534849934353240e-01 -9.826806562956792446e-01 -7.037788005170184658e-01 3.149588695141727901e-01 -6.367859219998357467e-01
1.221068715398368754e-01 1.804776482728118886e-02 -1.004066601963380601e+00 7.081958487298907201e-01 -3.035160319574453647e-01 6.374454158487271593e-01
1.686831670863899596e-02 -1.938747081574001274e-01 -9.750491029379452224e-01 -1.770828645155330394e-01 3.347282464925143697e-01 -9.255261531123901708e-01
-2.652785651633693680e-04 -1.882965205382536589e-01 -9.658676314811212027e-01 7.089947784699438538e-01 -3.047699279782332682e-01 6.359573060375182108e-01
3.142423862394253756e-03 4.821861341036576265e-02 -8.599436862982263730e-01 9.602316136298059135e-01 1.619858756536429190e-01 2.274111348958562928e-01
6.268947068879922313e-02 -1.681457303504861889e-01 -1.023444579570610191e+00 -3.608282561434784097e-01 -1.902767909784055245e-01 -9.130157240614296121e-01
1.472718223512495955e-02 5.610449097033154420e-02 -8.612207816163860441e-01 -9.374432329550367315e-01 8.119108913624080784e-03 3.480434815612231114e-01
-2.587398726896556617e-02 1.485708046766267831e-01 -7.773507238623149629e-01 7.101985319553901777e-01 -2.940927224115029714e-01 6.396307652333487193e-01
1.630148626705176657e-02 -2.530891003490687297e-01 -1.013398167886822909e+00 9.641803693107123263e-02 9.840545383276613212e-01 1.494664770143843968e-01
-5.659245127942837822e-02 -1.130164605776674130e-01 -8.647237541161698626e-01 -2.888133080687391718e-01 9.440636409059969258e-01 -1.591562597000323320e-01
3.298949646079571418e-02 1.069659393251714968e-01 -8.607143892175483924e-01 -7.168431565277944006e-01 2.938795842477049391e-01 -6.322742117955342245e-01
6.784549174484744150e-02 6.324990592121534916e-02 -9.231175023219868603e-01 -1.968894517780156728e-01 6.154982956654414528e-02 9.784917793517131646e-01
6.862677626964049094e-02 4.777598325425309184e-02 -9.304172623453402791e-01 7.314520476822266026e-01 -2.874353891267162342e-01 6.183516790783791794e-01
1.850445266982539416e-02 -5.145762546796910086e-02 -9.198756293768000081e-01 -7.105827871947214547e-01 2.983918140040268119e-01 -6.372083080735587712e-01
8.501281052340042832e-02 -2.238145730944265249e-02 -9.820319476065055841e-01 7.089367747571692080e-01 -3.016795220040459635e-01 6.374936198898877304e-01
7.317729505421667613e-02 6.934479718380237578e-02 -9.233944526347891424e-01 -7.093037702451869819e-01 3.043619516967174254e-01 -6.358081187554371905e-01
6.647774749075785472e-02 -1.546979384234261623e-01 -1.025294003043791147e+00 4.906159909896328775e-01 -2.547157115634836599e-01 8.333161798909033413e-01
-1.536106294182937662e-02 -1.878037577424303828e-01 -9.469072406008719467e-01 -7.053775495296031872e-01 3.042046474808957068e-01 -6.402359292250288103e-01
5.487379940914828384e-03 -1.437851974354806446e-02 -8.896340822385974123e-01 6.856389537962174208e-01 -3.677199631983256722e-01 6.282366223825626150e-01
3.210960481939693911e-02 -6.205609261771321411e-02 -9.418912984861081972e-01 7.082115731193541208e-01 -2.858915804830358676e-01 6.455248809369950047e-01
1.118808177587716501e-01 9.079066891249401583e-02 -9.576720430248211180e-01 -6.736177007100180303e-01 -5.231952501692569424e-01 5.220209990895741115e-01
9.804063225182901853e-02 -8.806438324050058775e-02 -1.027684579080838212e+00 7.083947725913360971e-01 -3.099108089326496063e-01 6.341388938331885550e-01
9.551547281189230743e-02 -1.557787801197725308e-01 -1.056998479330794494e+00 7.108745955719248943e-01 -3.064567641490900662e-01 6.330415160775167971e-01
-2.398815966057772989e-02 -2.276139695938430955e-03 -8.534617820471572802e-01 6.608775614341354521e-01 -3.731405109845871149e-01 6.511582049356604562e-01
7.597468404617239990e-02 1.439017763873663147e-01 -8.910590701860522378e-01 -7.150720943611944547e-01 2.976396273129703340e-01 -6.325207918471068558e-01
-4.414772181395480721e-02 -8.193314765017627177e-02 -8.646176925743002117e-01 -7.087761181333966931e-01 3.006792857597810897e-01 -6.381444832314551174e-01
4.636332969712500529e-02 -1.932938149036453612e-01 -1.015906892657004290e+00 -6.480437657400521800e-01 1.957362181319902139e-01 -7.360207949486470280e-01
-1.072589682053127075e-01 -2.597660350711796309e-02 -7.697059158343572127e-01 7.101928032145365943e-01 -3.202437156480029135e-01 6.269530643120259095e-01
6.726629004239564891e-02 -1.031095005105816531e-01 -9.986563092031039979e-01 -7.078117318640818612e-01 2.955115999950865269e-01 -6.416193938028316168e-01
-9.471989039797504371e-04 -1.156104884203354661e-03 -8.743545803701522345e-01 -7.128992034344974194e-01 3.132813072424125989e-01 -6.273990343273921910e-01
6.569352433341810182e-02 1.136542854490497773e-01 -8.939368737056881953e-01 -7.025277164186385370e-01 3.085647846530616412e-01 -6.412819826999837103e-01
-1.082729572851411637e-01 -9.408730842727208721e-02 -7.989710651523319607e-01 -7.035639949866204779e-01 3.148026190288181203e-01 -6.371004756010336667e-01
-1.521394337780384957e-02 6.734258439847051747e-02 -8.258778444527882234e-01 -7.082209474330506405e-01 3.022467692446280108e-01 -6.380203602536650420e-01
5.597246830228443104e-02 1.432320063376376629e-01 -8.710013278897621447e-01 7.064767340233405468e-01 -2.984419677012359329e-01 6.417343813435029132e-01
-1.013198737715607445e-03 -1.511834785182421537e-01 -9.455320463371384987e-01 -7.078929856896981621e-01 3.011644204838193617e-01 -6.388955412631784903e-01
1.012087844660080616e-01 9.175160264417830946e-02 -9.458059368607114603e-01 7.138027158978352826e-01 -3.031799775299494071e-01 6.313220921224076410e-01
-5.915061615045490856e-02 -1.103129136597256477e-01 -8.647675634258013000e-01 4.600096328823750080e-01 -8.035101616429179971e-01 3.778393280112516406e-01
-8.306434203909646152e-02 3.540129540061333346e-02 -7.655835817670522125e-01 -7.039302751643614631e-01 3.086878376899822585e-01 -6.396827233631601217e-01
-3.620964867791728187e-02 1.149636407118225928e-01 -7.818463587905825074e-01 7.126164791232368900e-01 -3.488079057525896864e-01 6.086959820522009901e-01
4.373942364694252682e-02 -2.249490098658779580e-01 -1.032270581319182590e+00 7.141383843529796049e-01 -3.001543757567197157e-01 6.323873170042311198e-01
4.160893443427590016e-02 8.768380583216731083e-02 -8.780819057179288789e-01 -4.696390017777575809e-01 -2.296194496461317902e-01 -8.524752878256347532e-01
1.204449395993123367e-01 -1.412233451757030980e-02 -1.015609751037704012e+00 -7.100925257428195581e-01 2.944465806815494968e-01 -6.395856596337402555e-01
-4.202973417223811528e-03 2.368677850592472711e-01 -7.595973962212420050e-01 7.113556920291850272e-01 -3.120000237567324697e-01 6.297849351909565740e-01
3.662250400190428939e-02 -1.559681470137557480e-01 -9.916120021075938151e-01 7.030085969473610641e-01 -3.025280022010509162e-01 6.436270041742681025e-01
8.217616518908746337e-02 -1.832439634005260942e-01 -1.055238878035514416e+00 7.053474714877308038e-01 -3.070649394609658578e-01 6.389022361986989029e-01
5.901975452106548656e-03 -8.417190143866613850e-02 -9.335659809260085096e-01 6.519034894840110006e-01 -2.255754327056864461e-01 7.239734557000084836e-01
-9.028383383399443338e-03 2.806094922133455308e-02 -8.533697382501669315e-01 7.067152384983249602e-01 -3.143703048665958399e-01 6.338177049375782746e-01
-9.082586391636547629e-02 -1.278600620690057699e-01 -8.364086226725786499e-01 7.049784554493045974e-01 -3.014025721022144944e-01 6.419983386913724610e-01
8.110432588916173524e-03 -2.226266133391697488e-01 -9.951178142790109149e-01 9.424704465404836196e-01 1.662065142227611980e-01 -2.900428451586080647e-01
-3.676568715442127266e-03 2.423362979771791770e-01 -7.556234258652585467e-01 -7.056794114090013670e-01 3.031813781971657851e-01 -6.403886477975014868e-01
1.196428179823748744e-01 1.307388893527867621e-03 -1.009264941000706184e+00 7.110282229650159991e-01 -2.954906684073766443e-01 6.380627955235856907e-01
2.209818389684422776e-02 1.852777986153234246e-01 -8.133615891176037005e-01 7.131077548449972214e-01 -3.013249443332204347e-01 6.329933711363088245e-01
-1.520732025082089690e-02 -1.071873336267980537e-01 -9.107504485792153881e-01 7.063016777578535743e-01 -3.067591327698131476e-01 6.379943373249900018e-01
-1.428165687274956380e-02 -1.747251295010782690e-01 -9.438535046931384453e-01 7.014507136646970231e-01 -3.103716428146368056e-01 6.415889179496718775e-01
3.346041982655114516e-02 1.369232134299288584e-01 -8.496386918646319231e-01 1.971424893985448124e-01 5.940696979182817916e-01 7.798820634487152459e-01
-6.890497933848202528e-02 -5.638166371553884199e-02 -8.286647128485756797e-01 3.276948054099222962e-01 -2.743217331500894529e-01 9.040816894666565684e-01
-1.169983962299637158e-02 4.042090177216416114e-02 -8.426082952065502285e-01 -7.088221315122338329e-01 3.158527881743768972e-01 -6.307203834354218053e-01
-9.497847916544623417e-03 9.480656712514777540e-02 -8.182939681774732410e-01 -4.982073735827498573e-01 -6.774445087072051841e-01 -5.411638850941843382e-01
5.762524016574890884e-02 8.027098690533247816e-02 -9.027561577947125215e-01 7.133087750858406739e-01 -3.028891410615193180e-01 6.320195879975180064e-01
-3.458552856706835488e-02 -8.450302632642653355e-02 -8.764388889614339595e-01 -7.075500601813117241e-01 3.011301213858648684e-01 -6.392914533540677846e-01
-2.502982295902769425e-02 2.356090753711092417e-02 -8.376912021867917169e-01 6.990247895817438550e-01 -3.166007170992049535e-01 6.411928956893296894e-01
-7.318492852215512101e-02 4.385855818196487260e-02 -7.744462910525186095e-01 7.094684174208758520e-01 -2.909396989993631166e-01 6.418790043524386091e-01
1.345283819579909737e-02 1.762702504437136178e-02 -8.736677713402023482e-01 -4.581694650154119475e-01 4.419377168173959647e-01 -7.712144940168838003e-01
-9.376783430453953377e-03 1.210607349340191291e-01 -8.088326511132205576e-01 7.082315076117466912e-01 -2.910580245155574008e-01 6.431899859225836957e-01
2.029423613598508105e-02 -1.705017831745871959e-01 -9.662507284899911619e-01 -7.654101619259056077e-01 1.681051339407996781e-01 -6.211987990678221605e-01
2.003480094917983734e-02 1.120289029867228281e-01 -8.382184968699337713e-01 -7.722849711094191827e-01 8.660555898451995083e-02 -6.293452157214688425e-01
-5.268701958592365842e-02 -1.633864874815166290e-01 -8.938102320409591073e-01 -6.982014009449056813e-01 3.197805542003085977e-01 -6.405116711457445877e-01
3.604434824394221401e-03 1.960232261527473929e-01 -7.884502555752518349e-01 8.451710614520053788e-01 3.079767987498310822e-01 4.368479922305885110e-01
7.456863776518973808e-02 1.825165213145238663e-01 -8.730631893339518834e-01 7.098163142155945460e-01 -3.065069711423444310e-01 6.342036555512228224e-01
1.164709905713737365e-01 -3.594928801303724081e-02 -1.021538674179856221e+00 -7.156966778779878524e-01 3.107851790937646852e-01 -6.254525063744393876e-01
-2.493681635685596372e-03 1.927364997877142883e-01 -7.824344417907427296e-01 7.124176442919030183e-01 -2.897588585145138285e-01 6.391407544617547787e-01
-8.725266369067702366e-02 4.784369930338737420e-02 -7.568950003643055702e-01 7.143202883284817117e-01 -3.091907490573878037e-01 6.278117603068981145e-01
7.337516013273913396e-02 -1.173311213657719267e-02 -9.639405309478313866e-01 7.090850586335695205e-01 -2.999789816417532951e-01 6.381308566397676518e-01
3.068199351017186771e-02 1.709689847234525661e-01 -8.296711422358191701e-01 7.209617380243592555e-01 -3.040882192548026719e-01 6.226913579096295948e-01
1.171143892403355008e-01 -3.203829938344222861e-02 -1.020362475797604418e+00 -7.163279202444888805e-01 3.031353091688793189e-01 -6.284769645844570096e-01
-1.907359488141426376e-02 -1.342383028026509773e-01 -9.173389978481636398e-01 -7.078151381584053548e-01 3.091685255855890491e-01 -6.351476623439862301e-01
7.425838321396609210e-02 1.953155631686186167e-01 -8.646966758122509589e-01 -6.972839035362381477e-01 2.984488751892431235e-01 -6.517080840127283947e-01
-2.117369165998469679e-02 -1.572315066888173574e-01 -9.278140606654075029e-01 6.994577784688911226e-01 -3.124128775014669568e-01 6.427729071068699618e-01
5.555725567167116991e-02 -1.335092974049714443e-01 -1.001942059667079832e+00 7.090870876840578152e-01 -2.954971656561606319e-01 6.402163127950711852e-01
-1.022280870189946483e-01 -1.751152513090410701e-01 -8.442102803128559430e-01 -7.134432272526068930e-01 3.107823419217499161e-01 -6.280231663219258964e-01
4.201482575724715257e-02 2.174083622916666569e-01 -8.202396474538183879e-01 7.152302183624769105e-01 -3.012939575340311538e-01 6.306089801887100332e-01
