5.214729105770402051e-02 -5.210244242810616044e-02 -8.344383238009178694e-01 -8.116766897039717765e-01 -3.100092757447815428e-01 4.950507048206259086e-01
-2.809176032427907962e-02 -1.352623458499786213e-01 -1.017441027546279742e+00 -8.065483036558334096e-01 -3.118581044835148641e-01 5.022194306653683382e-01
-9.504386577350868587e-03 1.601142894439317732e-01 -8.034954800486397986e-01 -8.169191255513186256e-01 -3.020843261949928138e-01 4.913127335778976201e-01
5.604825573905065916e-02 6.657670165130359988e-03 -7.916111951803102009e-01 -8.090384323074740758e-01 -3.033628484910630974e-01 5.034161272792647690e-01
5.358671656052808180e-02 -1.350353525913157438e-01 -8.836574553327736226e-01 -8.105807152979116470e-01 -3.062641640576634905e-01 4.991604609754125010e-01
-5.117425929535647511e-02 9.542762907783637616e-02 -9.118061916385303833e-01 -8.061686611587025597e-01 -3.083546955131812317e-01 5.049846250338302367e-01
2.149846331139121380e-02 -8.524420498464291285e-02 -9.027423116573620732e-01 8.139274258941466833e-01 3.066046144258492978e-01 -4.934731560987939414e-01
-3.976096256781030958e-02 -1.079978167035532954e-01 -1.017145311200102098e+00 8.054361662339606376e-01 3.183754837184671893e-01 -4.999096253217891195e-01
-6.883003487798340647e-02 -1.023424284596981537e-01 -1.061124362142003674e+00 8.145990463416106220e-01 2.947320085239645282e-01 -4.995612443442425388e-01
-1.706575077413709923e-02 5.559887943004385158e-02 -8.736206390698975088e-01 9.587905588953069547e-01 1.773328847853610293e-02 2.835598607930290282e-01
3.311900722459616697e-02 -2.212137207723235688e-01 -9.707386189959181788e-01 -8.137804862619213431e-01 -3.110784141450367302e-01 4.909088921911270997e-01
2.749511851359299000e-02 -1.470180876017602445e-01 -9.337624214280421109e-01 -8.133619165352540259e-01 -2.993810174201135821e-01 4.988119877655267653e-01
-2.219579059595389037e-02 8.388214062409321548e-02 -8.622223166218995205e-01 9.643459649902358377e-01 2.426207119297973114e-01 1.056979183793581994e-01
-5.410395305399037791e-03 2.172387416352800082e-01 -7.587434248298988715e-01 8.065450742567353837e-01 3.133314143116293637e-01 -5.013067603749936652e-01
-4.008967843817564519e-02 6.609228385352727830e-02 -9.094056933396597042e-01 8.073323113568933174e-01 3.180363923926415315e-01 -4.970587411493834762e-01
6.493040926665775980e-02 -1.198416601949480187e-01 -8.532551357947851800e-01 8.114002269222967412e-01 3.102495956370970309e-01 -4.953532680395507093e-01
-1.583196747711594285e-02 1.069376977006397111e-01 -8.468051378325242018e-01 -8.077485540660519492e-01 -3.128197333734343832e-01 4.996859892136020775e-01
7.014415884606543805e-02 -1.658056046654284577e-01 -8.780629911752102501e-01 -8.503148065555549140e-01 -2.351022780672220314e-01 4.708414261723280481e-01
1.248256862474996995e-02 -1.402782006573954354e-01 -9.606925621389116321e-01 -5.572664651089008769e-01 -6.480153549650052858e-01 5.191629672796477246e-01
2.708381508535875545e-02 1.733382842347856445e-01 -7.354727446639455213e-01 -8.017003589282321041e-01 -3.004324196067305053e-01 5.167367760703598378e-01
-9.565772646724038375e-02 7.293181603795539925e-02 -9.961306388009089074e-01 8.238138208163160447e-01 3.012091187173098761e-01 -4.802123024596145484e-01
-3.046151931479619199e-02 -9.153743679900915031e-02 -9.940492229145301284e-01 -8.166754368233076766e-01 -3.003850698043263323e-01 4.927575881994204487e-01
1.744967353009449842e-02 -1.319799775022462429e-01 -9.317470840622725792e-01 7.247630780014144847e-01 4.435548667026714686e-01 -5.272357736253211469e-01
-3.569525979452169845e-02 -1.673643760671794933e-01 -1.045493419744226715e+00 8.574662631276502855e-01 4.631325855675107461e-01 -2.241870107375881216e-01
-6.966744531216279013e-02 -1.008836258299268956e-01 -1.064152684944256855e+00 -8.106454806898099053e-01 -3.090930580030081254e-01 4.973081400213918979e-01
-3.114602917481561900e-02 -1.517030259860444319e-01 -1.030075672984376967e+00 8.150599086110044134e-01 3.002645979552172051e-01 -4.954982508443524503e-01
-3.966211722854427052e-02 -1.568556188313399435e-01 -1.045672747618930476e+00 9.129707231273935797e-01 3.122765983721761951e-01 -2.626171830275899066e-01
-7.748942076539391821e-02 2.097786577215865755e-01 -8.813308111850003401e-01 8.144297187986812014e-01 3.064256009544589765e-01 -4.927550955771028973e-01
-5.116297695511041327e-02 -1.457867573481664569e-01 -1.061745202901779539e+00 -8.146949069487894324e-01 -3.091714645880401235e-01 4.905967937891457797e-01
-2.638823982117179459e-02 -5.617424461286966986e-02 -9.688141459814421097e-01 -9.396751338535174192e-01 -3.311299577325724219e-01 -8.581138566297095982e-02
4.040660760285654657e-02 2.854119232804173262e-02 -8.011276167506807822e-01 8.152166762542809586e-01 3.061957069202158599e-01 -4.915953211947324819e-01
3.094138364399680666e-02 -7.756810155822348174e-02 -8.825681039667703232e-01 8.122778407766262365e-01 3.097979284971307812e-01 -4.941962695955408047e-01
3.269397681332018857e-02 -1.020810723291860206e-01 -8.911747805876162332e-01 8.986934381153713902e-01 -3.847661164124747679e-01 -2.104878617622285286e-01
-2.345449293455218950e-02 5.187783583190154479e-02 -8.911330527027511161e-01 8.108641004794894247e-01 3.000466068296074873e-01 -5.024653662528667519e-01
-2.897668664455566034e-02 1.766705061094694384e-01 -8.196062298788389100e-01 -5.453422992961335508e-02 5.816582271936151516e-01 -8.116031816743728422e-01
2.576432790588083742e-03 6.833608664465265492e-02 -8.407872010860955037e-01 -8.123385296838219194e-01 -3.087904304412916190e-01 4.947267763715729738e-01
-3.022680871416274367e-02 2.036106932762434540e-01 -8.079184329770946471e-01 8.220356865329593310e-01 3.030534916680215907e-01 -4.820953341965741878e-01
7.504880305037664456e-02 -5.944957408743045679e-02 -8.016334521251687883e-01 -8.130585754657024822e-01 -3.081014613310816275e-01 4.939729166536708238e-01
3.349524603887886476e-02 -1.636719423206526025e-01 -9.318791450780973262e-01 8.073041734965014093e-01 3.132888469602783665e-01 -5.001100577127296498e-01
-4.221800198695681988e-02 1.952004057138315707e-01 -8.327512944361485925e-01 8.191824683443196253e-01 3.126590703459339315e-01 -4.808163779320792641e-01
-9.011100575690866865e-02 5.550835459139714240e-02 -9.979119505269177237e-01 8.027017545723481584e-01 3.221208867636918272e-01 -5.019044007747356373e-01
-6.691462986367955430e-04 1.955222338455080144e-01 -7.669593533174515754e-01 -8.124040609422313874e-01 -3.001650890296525542e-01 4.999005512023285136e-01
-5.168068174176572958e-03 -1.350938750878554195e-01 -9.634104950007756907e-01 6.385116471510411396e-01 3.991539146123034287e-01 -6.580114200393016866e-01
5.019150912737439102e-02 -1.471260128293953029e-01 -8.967564443913124128e-01 -8.106795994588684717e-01 -3.050519949068927206e-01 4.997418007576848731e-01
-1.375794256275541909e-02 -1.539351203926766221e-01 -9.999750880007972631e-01 7.374389627953975568e-01 5.501553182338193571e-01 3.918072255207823429e-01
2.702512064713655238e-02 3.104220564027088125e-02 -8.214354922907114442e-01 8.066517313761105701e-01 3.092178841131894562e-01 -5.036837146587979097e-01
5.886364886764219179e-03 9.109925639719398949e-02 -8.168823027627991618e-01 4.794746955676982836e-01 8.500062260062931641e-01 -2.181591897234710364e-01
5.764719896254949516e-02 -1.596596702972493953e-01 -8.898732371770449179e-01 8.097447009996525669e-01 3.049108261032936751e-01 -5.013411087552963608e-01
-3.482607890871102126e-03 -9.518783443232836650e-02 -9.572241240793680772e-01 1.289706666683141344e-02 -4.466923159312325975e-01 8.945946794830513804e-01
7.409103564889450710e-02 -2.530597284016631102e-02 -7.794171803920600938e-01 8.149084734442221256e-01 3.000740525778659573e-01 -4.958626250064666063e-01
-6.130558435724954569e-02 4.697159778475519520e-02 -9.585398122379243935e-01 -8.120165257495777222e-01 -3.025481056055913665e-01 4.990929830242588072e-01
-1.304081191117911938e-02 2.269559815507721234e-01 -7.652043303208451164e-01 8.220103950030738238e-01 3.046678294266622622e-01 -4.811199686349929561e-01
2.223787283663949607e-02 -1.291396091059612283e-01 -9.375576927131727967e-01 -6.779438046342863844e-01 -5.216970266878810936e-01 5.179038618344264933e-01
1.938677199298182580e-02 8.041927553931993433e-02 -8.032643823390386295e-01 8.061139046951848464e-01 3.198765416325614064e-01 -4.978547687531720833e-01
2.908132934317382221e-02 -1.016477951350187175e-02 -8.461861530132087639e-01 -8.089100003835247854e-01 -3.125561564981009233e-01 4.979691359056907518e-01
-9.848398993444430413e-03 -2.461383315215159850e-02 -9.223118478533638420e-01 -3.082065668814102932e-01 3.212673975363903311e-01 8.954306066979000889e-01
-1.524116473668486391e-02 6.991959564541069816e-02 -8.723005893918790443e-01 1.435957582587408521e-01 -3.017811468030979216e-01 9.425011393331597098e-01
-4.203652907658663590e-02 -1.816011164243406806e-01 -1.069063099598941191e+00 -8.071875713466436508e-01 -3.137098953211236441e-01 5.000343250629067926e-01
-7.507259336427955440e-03 -2.203530557567846826e-02 -9.210284643777060243e-01 -6.320007437315317000e-01 -1.986327917374667851e-01 7.490794844136173802e-01
-4.411671513312176440e-02 2.337395153050821905e-01 -8.143741855870201274e-01 -8.104361743579105992e-01 -3.058998146352068792e-01 4.996183650530275910e-01
-6.571406664854317903e-02 -7.409500805688362668e-02 -1.038527489140322224e+00 8.085644468722357203e-01 3.146702856179415253e-01 -4.971982970639768906e-01
-1.191924833931936462e-02 2.411702680753676775e-01 -7.570429009083839977e-01 -8.130635877478623597e-01 -2.934563530623547356e-01 5.028031136796157208e-01
-6.804272603241089123e-02 4.833902889258499813e-02 -9.686631511950124507e-01 -8.116240175605559104e-01 -3.027031087902218864e-01 4.996371503877563569e-01
-1.077214168783791406e-02 1.516370494205035169e-01 -8.083517496006373815e-01 8.389882843390947809e-01 3.081126518884217402e-01 -4.485144952931024442e-01
1.146375315133409123e-02 1.232589562082570117e-01 -7.920448030322775335e-01 -8.120711367897640587e-01 -3.175844055732562898e-01 4.895718681967562991e-01
-2.875985411479868581e-02 1.255625491585029285e-01 -8.494471435144573812e-01 9.252018718826260368e-01 1.695227957656661455e-01 -3.395048128976629331e-01
-1.880984487018258142e-02 2.578769650265232485e-02 -9.031501855142359814e-01 -2.693942911959185671e-01 1.074767077832944756e-01 9.570138312245610734e-01
4.944741562321796485e-02 -1.921522428887847966e-01 -9.259303480139081666e-01 -8.118379420869493712e-01 -3.142881460709992525e-01 4.920793808190719876e-01
-6.604343985458661914e-02 2.144074406885135009e-01 -8.597974312578348099e-01 8.081059747528013260e-01 3.232589138843823262e-01 -4.924108123946043802e-01
7.551355739249165921e-02 -1.544530519625549880e-01 -8.574357677580042303e-01 8.161434782069535432e-01 3.121088908494292768e-01 -4.863104597199148782e-01
3.379361431115648212e-02 8.093253575695015523e-02 -7.793663671967181461e-01 8.087343764255850997e-01 3.140103380883202400e-01 -4.973391357626893439e-01
-3.188946983356114734e-02 1.535351478135071890e-01 -8.387335067923354925e-01 9.342756222738354266e-01 -2.638518144342097416e-01 2.398150988670502970e-01
-8.283540136080444483e-02 1.338115688171094830e-01 -9.398268180373268166e-01 -8.188391802551188148e-01 -3.001731734643074412e-01 4.892836220552366222e-01
5.866864696281047509e-02 -8.105955691618849102e-02 -8.393532358590367615e-01 8.045836378510741183e-01 3.108440739302870126e-01 -5.059853074988976962e-01
-5.177866559245526343e-03 -1.086344043806783816e-01 -9.493554999114719450e-01 4.698900973103303791e-01 4.731781217847321197e-01 -7.451884067227302344e-01
6.698125539106600246e-02 -9.107556233455373074e-02 -8.319374870578948311e-01 8.043587402771776862e-01 3.122581656998738575e-01 -5.054719130609156563e-01
-7.050041606514917403e-02 -1.387342474887379162e-01 -1.086485003127616755e+00 8.158990078547684321e-01 3.185952109810485378e-01 -4.824996378460254531e-01
-2.713767873505421729e-02 -1.130726701344356572e-01 -1.002088962246336701e+00 -8.102882775358376533e-01 -3.155297185847816821e-01 4.938359079469756829e-01
-9.241573699294047470e-03 -1.613792520941640107e-01 -9.999152269666852222e-01 4.857778979878624170e-01 4.134705491555432655e-01 7.701051478905379666e-01
-1.562103117172713475e-02 -3.023898051579617524e-02 -9.318332634706979478e-01 -8.093032636917363298e-01 -3.139538982125282818e-01 4.964485644808141473e-01
-5.229188236465124456e-02 2.356599443978407427e-01 -8.265564451884991337e-01 -8.067829565396089642e-01 -3.176885126240925894e-01 4.981719281371637664e-01
4.497982664821312260e-02 -4.238559757395417293e-02 -8.401448830097497655e-01 -8.180067232973419200e-01 -3.096608927301604530e-01 4.847423358382325631e-01
5.649659250877434036e-02 -1.477350206248198849e-01 -8.867257568113063870e-01 -8.101380980242819385e-01 -3.060212129366524092e-01 5.000272786182562434e-01
6.728126997643468776e-02 -1.199924092567490191e-01 -8.519682670367815236e-01 -8.114038245665812221e-01 -3.102476519016036938e-01 4.953485923753757625e-01
-4.622113662282581470e-02 -1.642535734360109079e-01 -1.065076131589620223e+00 -8.103158880065217673e-01 -3.123686578801013192e-01 4.957963122274975931e-01
4.173304865795712110e-02 -8.251930136383707481e-03 -8.242389028494999659e-01 -8.102874089228433441e-01 -3.068052605784319375e-01 4.993043631118254666e-01
-3.811924470932660097e-02 -1.934040483476094363e-01 -1.067432349831727745e+00 8.065109218078732045e-01 3.059003527609627793e-01 -5.059299429618029365e-01
-4.542703328877632091e-02 2.830486334085358796e-02 -9.370243360050666270e-01 9.666569403708525909e-01 2.295853903027682275e-01 -1.134235786438955312e-01
-2.755105503326270994e-02 -2.760773770259130136e-03 -9.306416808129938101e-01 4.766279541180741819e-01 5.245426408757546399e-01 7.054649610408075810e-01
1.084290499007461300e-02 -1.497999289060747974e-01 -9.602815550065768591e-01 8.135125649824626048e-01 3.087625215293524072e-01 -4.928113350101545609e-01
8.295681589439664327e-02 -5.700488263639603981e-02 -7.845786497019503480e-01 8.148043422698059146e-01 3.060348182848587895e-01 -4.923784863452327909e-01
-3.305108620789873330e-02 6.416869148688519875e-02 -9.016467801131087256e-01 -8.080563683292986132e-01 -3.184519816694248995e-01 4.956140040124785706e-01
6.614561309285359181e-02 -1.384984156806539912e-01 -8.651946746747247730e-01 -8.099093285779686013e-01 -3.103516681222414086e-01 4.977235393028205945e-01
4.403976579066860159e-02 -2.148359971598805818e-01 -9.463548959813025130e-01 8.136391469679146171e-01 3.092728189230519176e-01 -4.922820959538474206e-01
-1.628348187755424871e-03 -2.136767690435932565e-01 -1.022872702927795530e+00 -8.049587602316053969e-01 -2.887574115410787567e-01 5.183247549620728645e-01
-1.515430429555642521e-02 1.044823649755735259e-02 -8.971168451083366691e-01 9.735246894445757082e-01 -1.019716126374395626e-01 2.045763164639607667e-01
-7.683252754774196058e-02 -1.083053528417321637e-01 -1.077907865883943384e+00 8.120841269254401862e-01 3.013387671454548222e-01 -4.997142365502535433e-01
-3.498085890694403385e-03 -2.157055827925675739e-01 -1.011311051924337123e+00 9.994449152378717116e-01 -1.488260579348907667e-02 2.980552717129935844e-02
-3.127544697270705915e-02 -2.062534132606847481e-01 -1.066740599944630885e+00 -8.067002239298449728e-01 -3.138820750351140054e-01 5.007122843342163288e-01
-1.918799666458394920e-02 2.133938651773390760e-01 -7.861499598128317556e-01 -8.057173719965667891e-01 -3.126594436987574221e-01 5.030542602234171490e-01
-4.036451972728786336e-03 -1.061503475314061612e-01 -9.472490339937166270e-01 1.183094752750802892e-01 6.012018554399387593e-01 -7.902905776204788291e-01
2.032948002130961079e-02 -1.156231992488164668e-02 -8.613002655243759964e-01 -8.047248245695403090e-01 -2.652000601395470003e-01 5.311185223878971406e-01
6.846462447656889716e-02 -2.333683192919652413e-02 -7.898876041459044206e-01 -8.126228213725854577e-01 -3.032155986024029914e-01 4.976991570704588641e-01
3.685894578803604327e-02 -2.556860793311228983e-03 -8.286702432236476845e-01 -8.164067623061144197e-01 -3.081109766591053067e-01 4.884133746356870143e-01
2.062829257079877923e-02 -3.045458146551445824e-02 -8.726475313477939366e-01 -8.110421193285993757e-01 -3.131967185511296825e-01 4.940834910860495421e-01
-5.151811400661568396e-02 -5.468010980555716716e-02 -1.005731944717217274e+00 -8.166911317596509123e-01 -3.027618226861807371e-01 4.912747439354905321e-01
-1.334758411122777960e-02 1.384840507664653886e-01 -8.231882567074995105e-01 -8.088139814193936461e-01 -2.998246316231532038e-01 5.058904364905004725e-01
-6.138522184534497134e-02 -1.634648359986540511e-01 -1.086896838114714825e+00 8.143511890694121735e-01 3.000133286691004653e-01 -4.968139928405004846e-01
-2.808487637407697357e-05 1.559707264421348327e-01 -7.881005402905472135e-01 8.081007900214184358e-01 2.973022020133773147e-01 -5.085120587014198001e-01
8.753327836450482125e-02 -1.405156422073152167e-01 -8.290084352625773922e-01 8.103811061876892152e-01 2.950191693716939789e-01 -5.062076179170488244e-01
-1.385471418230817958e-02 3.594303266015011489e-02 -8.761277601811713334e-01 5.074707573771980451e-01 2.789811600391851054e-01 -8.152563662739491512e-01
-5.510042989704568885e-03 -1.548364354496059303e-01 -9.985167453331807996e-01 -9.372515366394875702e-01 -3.357340980956782794e-01 9.403282641078451742e-02
9.092329586167284539e-02 -2.097139312704653369e-01 -8.664592204074730297e-01 8.130525462214400756e-01 3.040276040718918882e-01 -4.965005267319843041e-01
-7.489473772468113744e-02 2.202507026232241871e-01 -8.730492837018388741e-01 -8.146988499889940005e-01 -3.022881581232214065e-01 4.948612464975216674e-01
6.174669338737976548e-02 -2.036425663660096363e-01 -9.129542553204300637e-01 -8.126019329409932546e-01 -3.143847032176091960e-01 4.907548848084319904e-01
1.292209943210692775e-02 1.516450034602576380e-01 -7.720149175104705774e-01 -8.161989607627315735e-01 -3.007369700986689542e-01 4.933320699748895977e-01
6.990836027021601895e-02 -4.147489372710551521e-03 -7.756264335063726145e-01 -8.095723998641675134e-01 -2.992688485952165189e-01 5.050056293138384111e-01
4.076569161544384146e-02 1.164757155651468534e-01 -7.482712986160573454e-01 -8.155192491164477975e-01 -3.116921038701105373e-01 4.876232015660960095e-01
-3.233628884890774047e-02 2.226899070792180968e-01 -7.994569106921116664e-01 8.132348269759367421e-01 2.979277696660599384e-01 -4.998881477442983501e-01
5.704214145018582371e-02 -4.095540111861849242e-02 -8.194556496424834080e-01 -8.118450060425570491e-01 -3.090723318389049790e-01 4.953604544727224224e-01
-2.128018101502139950e-02 5.304286691721660923e-02 -8.867502909475752926e-01 8.178410511448270803e-01 3.136789024377031887e-01 -4.824329603455825843e-01
-3.489637562457184594e-02 2.222819407216758761e-02 -9.343481510375900578e-01 -8.214687122969753785e-01 -4.973105088174439303e-01 -2.790544974317457072e-01
8.742736431969891364e-02 -1.328131233323988636e-01 -8.269543900068229147e-01 -8.069311128804416144e-01 -3.111732892728334421e-01 5.020292452722820986e-01
2.197359643767050202e-02 9.381521528525127440e-02 -7.931283261602679602e-01 -8.121623434383220541e-01 -2.998687287543940760e-01 5.004708517146596591e-01
2.382625516674690205e-02 1.647875790366356008e-01 -7.435976655775057287e-01 8.063914117892801992e-01 3.196807756913501719e-01 -4.975309966684168250e-01
2.948762604079388158e-02 -1.256568475660875261e-01 -9.172068083276214701e-01 -8.089291080424736435e-01 -3.180943458595352769e-01 4.944185325145108445e-01
5.160316162899499653e-02 -5.755406399392583999e-02 -8.387402466988193028e-01 -8.111733412684942746e-01 -3.102045539759007431e-01 4.957529073116155871e-01
4.608520001133763894e-02 -9.072201138039542867e-02 -8.730906910139081267e-01 -8.503148065555549140e-01 -2.351022780672220314e-01 4.708414261723280481e-01
-5.648135184494924854e-02 -1.062146377853938201e-01 -1.043338028461825884e+00 9.008158098338319153e-01 2.171850078128078065e-01 -3.759807829328096762e-01
7.748765514446571967e-02 -5.197673284171725611e-02 -7.952450220194543506e-01 -8.503148065555549140e-01 -2.351022780672220314e-01 4.708414261723280481e-01
7.421888661726337710e-02 -1.641419355833822480e-01 -8.680177790385098513e-01 -8.737404995110470418e-01 -1.066302998688214015e-01 4.745603424898368616e-01
-5.996526898976835968e-02 1.293998118554670063e-01 -9.051233532934473969e-01 -8.018696199094345056e-01 -3.241742044401408895e-01 5.019125400325246122e-01
3.717177477492709242e-02 -4.328771366500663853e-02 -8.509586698743459854e-01 8.110841847461665033e-01 3.112328285318173293e-01 -4.952540476348789578e-01
-8.938879008504425905e-02 -6.599064970444128153e-02 -1.074667468999946696e+00 -8.147397242648375393e-01 -3.019284837591305615e-01 4.950135072902242528e-01
-9.728569423885507703e-03 -1.371930835668190019e-01 -9.885365234277936342e-01 -8.150991378299675683e-01 -3.066078299137793839e-01 4.915333499818766438e-01
-2.624758285593197567e-03 -2.235758549045437360e-01 -1.011615213100798716e+00 9.373399624974337874e-01 1.556477501718687706e-01 -3.117171355119011111e-01
3.150709167473975808e-02 5.706676454786151903e-02 -7.979739573613918724e-01 8.142922293007786028e-01 3.031808085382338147e-01 -4.949844064558711620e-01
-8.210730375880482407e-03 -4.961017197485712710e-02 -9.181017902707599987e-01 4.775042933831527558e-01 3.925096537322019241e-01 -7.860825793310030063e-01
-6.068126866231799560e-02 4.524991853063159430e-02 -9.561236648647380987e-01 8.117971220596015280e-01 3.020611633295278153e-01 -4.997444209030858508e-01
2.026612008203566850e-02 6.613830460601392847e-02 -8.106828130338441518e-01 8.111089646325384539e-01 3.097528208181804521e-01 -4.961405420724170345e-01
2.276197684154497580e-02 -1.636080858925962889e-01 -9.518625220646836915e-01 -8.093056016620353565e-01 -3.109198341329354465e-01 4.983505792724626238e-01
1.055480227438266583e-01 -1.759551751795412899e-01 -8.216249050843167367e-01 8.155888951220789940e-01 3.071883610216096794e-01 -4.903570790825841907e-01
-1.309962875337178194e-02 1.837468714787882651e-01 -7.946595243350911275e-01 -8.077662816861203021e-01 -3.210533110967459525e-01 4.944071253580346048e-01
5.472480674754605541e-03 3.785696539021173035e-02 -8.549603976257685867e-01 -8.202629754368436776e-01 -2.950521492116573441e-01 4.900131430615691230e-01
8.129266117029883276e-02 -3.580556622068958861e-02 -7.742308002656066446e-01 8.123582459922130683e-01 3.050730885987514296e-01 -4.969954635419456257e-01
-8.998843798519046144e-02 -1.200895082701253051e-02 -1.042061410133855670e+00 -8.119995215238763331e-01 -3.050192951868420654e-01 4.976143151163540668e-01
-3.608922004155960817e-02 1.385716988637331337e-01 -8.578624807756074500e-01 8.458035196800501865e-01 1.995639961873498514e-01 -4.947631933789882752e-01
1.707135372122416117e-02 1.257822590028504217e-01 -7.788191450259374093e-01 8.133162778138650628e-01 3.144549322484793685e-01 -4.895250022497360520e-01
4.164716771341369500e-02 -1.817975531085066487e-01 -9.297052736143696094e-01 8.113320324880801682e-01 2.980647254937222046e-01 -5.028894038206741524e-01
-6.964155102457718349e-02 -5.204185835892429120e-03 -1.004621970501180073e+00 -8.139116507396896294e-01 -2.971051321627525277e-01 4.992758408262375491e-01
-1.668966375846198461e-02 1.482781169280715239e-01 -8.225702404039307858e-01 -7.669713122109301784e-01 -9.573486331478950340e-02 6.344996786378559461e-01
-3.394698289234312355e-02 1.425725184494317510e-01 -8.543683472795428058e-01 -8.035125860127246833e-01 -2.968908769407887505e-01 5.159683433200851210e-01
-5.002060242270428558e-02 2.003193196310790736e-01 -8.422740372796473363e-01 8.063928961146087371e-01 3.052725983312691849e-01 -5.064969277339890219e-01
-7.873887810281494926e-02 1.105103866680703373e-01 -9.450576347574569658e-01 8.136888044425758526e-01 3.019188099462766783e-01 -4.967449664822337629e-01
5.623979525813328079e-02 -1.696297855071317029e-01 -9.012550772683330935e-01 -6.703158767787988914e-01 6.962302206873784982e-01 2.567880549010689295e-01
-8.530524477944417816e-02 1.098075466534534361e-01 -9.586818179533412865e-01 -8.149852494893559118e-01 -3.085764716024368415e-01 4.904891479820559508e-01
3.759960812158343740e-02 7.905437103083952366e-02 -7.768138751312291257e-01 -8.101174880863450944e-01 -3.119546593162812465e-01 4.963808477646305395e-01
2.803990052438351185e-02 -1.161682891453343358e-01 -9.070811693728197955e-01 7.964531742585785334e-01 6.012038983546459381e-01 -6.493237879987928673e-02
-5.595204515435062143e-02 5.171689087131008805e-02 -9.433926888394393862e-01 7.174634220212123825e-01 2.129881033437957261e-01 6.632362368686020027e-01
3.838204068881542752e-02 7.976925035056739140e-04 -8.240709268872504767e-01 -8.084545236220067599e-01 -3.114327650117060253e-01 4.994105686830001556e-01
-4.487956381632650371e-02 1.505563749442954957e-01 -8.647431042629823983e-01 8.140152826811744013e-01 2.969570926879573913e-01 -4.991949565688776347e-01
-9.513159679136896918e-02 6.845778753649897977e-03 -1.036332348574081408e+00 8.069790923611519506e-01 3.122714951993661447e-01 -5.012696457775235315e-01
-1.497355752221454263e-02 1.837358061079122640e-01 -7.977283196516631314e-01 -8.077622774749758650e-01 -3.210513534041310457e-01 4.944149386555952153e-01
-1.990756402126807323e-02 -6.472159119213445611e-02 -9.602408340883624716e-01 -8.103320817815807819e-01 -3.059508520724910641e-01 4.997559337833280546e-01
-2.833265789034722718e-02 2.018353369181508650e-01 -8.125684754455176906e-01 -9.848470540526270689e-01 -1.728308488329623749e-01 1.434495784377577167e-02
1.033111866503489025e-02 -1.937065856667913588e-01 -1.006835051800660796e+00 -5.874022606301997351e-01 -4.917384447396946912e-01 6.427689212862713886e-01
-5.601868893842547326e-02 2.243516303081837804e-01 -8.396419537275560119e-01 -8.125255489720166757e-01 -2.928286872682206998e-01 5.040372924501651530e-01
6.044900198775468581e-02 5.571396855037287488e-02 -7.514566915084259779e-01 8.155106462935196587e-01 3.019815163018885751e-01 -4.937099853091264645e-01
-3.009210218097920983e-02 -7.046655080545563554e-02 -9.779948963075754120e-01 8.109225048170268790e-01 3.026534885218639670e-01 -5.008049091880241166e-01
-4.288424217363390190e-02 -1.338238204285768507e-01 -1.040683866179426431e+00 -8.093335697763330838e-01 -3.120796223392967583e-01 4.975796239333553084e-01
-3.945226636065194553e-02 9.413092491991860433e-02 -8.935050349905099276e-01 -8.146863656373356521e-01 -2.999661625308727708e-01 4.962926827801630303e-01
1.621360562380515236e-02 -4.398447523312288415e-02 -8.915022419610647564e-01 -6.589934107691980403e-01 5.078283488978921900e-01 5.548315533731112970e-01
-1.092495253324858584e-02 -1.530977683594465268e-02 -9.212423713512287726e-01 -8.962496874821361814e-01 -4.378399045948328516e-01 7.094163539530919105e-02
8.920000298826291640e-02 -1.673186533992980229e-01 -8.456538742006106668e-01 -9.753962727644846509e-02 -9.946673762610983571e-01 -3.350868115331382541e-02
6.089998273578656890e-02 -8.349424988713330387e-02 -8.371908008644262100e-01 8.082596676455692242e-01 2.943012934845644080e-01 -5.100029983350944374e-01
7.430118658074411075e-02 -1.982330280199355033e-01 -8.866020673002856789e-01 8.165459307693793134e-01 3.090235861315587806e-01 -4.876034927667758923e-01
5.808074289865692089e-03 -7.971017111606086558e-02 -9.341075539583024723e-01 -9.841412819753193597e-01 1.343757243495657117e-01 1.157976762180681907e-01
1.349419862948427612e-02 -1.247026688830802921e-01 -9.428633558847659968e-01 -8.121443189892251224e-01 -3.146751532950934349e-01 4.913259132513134175e-01
-5.664428921388085791e-02 -5.773667972247058938e-02 -1.013517635581856480e+00 3.909173597627605412e-01 1.343360087512178169e-01 -9.105698515703807283e-01
4.080440064035859016e-02 3.648450978271682021e-02 -7.955201006220368187e-01 8.694437376936871020e-01 2.966931109319743132e-01 -3.950199803943316712e-01
-7.859563788575835153e-02 1.277537756201532482e-01 -9.341378636358158571e-01 8.068948151595972673e-01 3.118414327716877432e-01 -5.016728795494733717e-01
-8.431622467605606741e-02 4.705886889138842510e-02 -9.961889494886513319e-01 -8.185108306076950280e-01 -3.094827602952428536e-01 4.840045880546364754e-01
5.659123773822001546e-02 -2.137643597839336274e-01 -9.276400016151185035e-01 -8.144709802608298688e-01 -3.039040339669205060e-01 4.942462548685581103e-01
2.727688882304013518e-02 -4.323537509627804060e-02 -8.671439968912127982e-01 8.108211527986235456e-01 3.121476391670786055e-01 -4.951089875337858492e-01
-1.911848745231804064e-02 -8.859324278252914131e-02 -9.712451557745764852e-01 8.124871467931604752e-01 3.200794381206601980e-01 -4.872512591961890016e-01
2.538638996545659540e-02 3.130493567731315596e-02 -8.239038580560839042e-01 8.503148065555549140e-01 2.351022780672220314e-01 -4.708414261723280481e-01
-5.063678629575347340e-02 7.210495994681745402e-02 -9.255063272684466158e-01 -8.125861810986811928e-01 -3.018562262759414416e-01 4.985845133434337328e-01
5.213865183699996353e-02 1.661948010913147020e-02 -7.892496213202677691e-01 8.079063783523979803e-01 3.047360907297653188e-01 -5.044038053229299434e-01
-8.778989105166655482e-02 -7.023792908835556348e-02 -1.074720722647637849e+00 -8.152582421204206398e-01 -3.075565261765998426e-01 4.906760457378209206e-01
2.787976449047864166e-02 -2.022761499811016050e-01 -9.674745160490085816e-01 -8.102212564684090346e-01 -3.143028980512773685e-01 4.947274035702092232e-01
-4.432539273154890991e-02 -6.422379909965909850e-02 -9.998439648152264159e-01 -8.068431193974403559e-01 -3.199892100649029403e-01 4.965995228783927629e-01
-6.035489259444143384e-02 -1.337289815353486511e-01 -1.069199157308085679e+00 -8.119095025806264410e-01 -3.073033416867965717e-01 4.963543248601826052e-01
1.662782206615645922e-02 -5.188284838460639758e-02 -8.899741130163364433e-01 8.126834029979080887e-01 3.116368414187490887e-01 -4.923699478667284968e-01
2.300191648834425465e-02 1.285115145266171877e-01 -7.674148048874166461e-01 8.146218441172784486e-01 3.125818115247860352e-01 -4.885528243607312193e-01
7.065610765093192913e-02 2.513660899481526267e-02 -7.537639826911812779e-01 8.157824358758530847e-01 3.029756043752687145e-01 -4.926507895760449118e-01
7.682653523614090679e-03 6.485949063029726458e-02 -8.321044846550934571e-01 8.121338928158424730e-01 3.077383230692417038e-01 -4.957173233348989294e-01
-3.594172051070618906e-02 -2.505911924021314921e-02 -9.592880544414850164e-01 8.096433519823967861e-01 3.145369879566821680e-01 -4.955240920458325316e-01
-5.651601465484356462e-02 -8.057490669193038968e-02 -1.029977527794200043e+00 -8.081449958446662585e-01 -3.148635062917141680e-01 4.977576097830270774e-01
1.671210093321583851e-02 -1.897255286748056602e-01 -9.713324324523919806e-01 9.482949171125936161e-01 -2.969064237752445101e-01 -1.121754237763970680e-01
-9.019127079888124288e-02 -8.623279056947467935e-02 -1.087915013478845117e+00 5.680373643552348861e-01 -1.897060519863195960e-01 8.008402877828524336e-01
-2.687739133004704226e-02 8.360541365842378073e-03 -9.306643261355133090e-01 -8.010654926966047640e-01 -5.745505533369913431e-01 -1.678860865911851463e-01
-4.366729693259696794e-03 -3.772286439353971649e-02 -9.119126530671406439e-01 -2.306709644992982755e-01 4.346819861128842222e-01 -8.705414849884650641e-01
2.056086664315796148e-02 3.402129362495447118e-02 -8.301559609618798241e-01 8.070107525030802975e-01 3.105487664341222143e-01 -5.022878746402870132e-01
-1.669447612813378112e-02 -8.497537353442287389e-02 -9.604805678951164882e-01 3.897135474615837092e-01 -1.322767111299888443e-01 -9.113869774237183252e-01
5.442531124896825279e-02 7.316172061195286291e-02 -7.503719260526733326e-01 8.104389083595786580e-01 3.100727780827309266e-01 -4.970348560302302321e-01
7.102180651583746632e-03 -6.480196431013109104e-02 -9.160593699491254016e-01 -8.150660974506626077e-01 -2.988026196844514870e-01 4.963710822119435373e-01
-8.714812668977328647e-02 6.058084028873490789e-02 -9.898658775655001518e-01 8.178591535562945714e-01 3.061156828658927465e-01 -4.872366916065841158e-01
-3.937656538331076733e-02 2.067059235185400023e-01 -8.209008935643279381e-01 8.078964382088263951e-01 3.059498204690349055e-01 -5.036844771128619058e-01
-7.229696051067780078e-03 -1.032400824262588168e-01 -9.476427144911094835e-01 7.295589325725366781e-01 3.345095148723556400e-01 -5.965292518925471299e-01
6.319729202413401636e-02 -1.105470004342501839e-01 -8.502703026405580289e-01 8.153341947686726376e-01 2.951739759593619006e-01 -4.980988604255809915e-01
4.854092717808707741e-02 -1.121682162616450540e-01 -8.752846623711703078e-01 8.121154438180994140e-01 3.069953866548816857e-01 -4.962079589091161202e-01
-1.429535906783410519e-02 -1.087260328266181561e-02 -9.245878400362127492e-01 -8.019523353288531275e-01 -4.530435521361066975e-01 3.893892547676394700e-01
6.309716171199326873e-02 6.036246318697243568e-02 -7.467250210154228185e-01 -8.147797791358157848e-01 -3.019811238262020692e-01 4.949154598151641604e-01
-5.546255921672091360e-02 6.562862022262473671e-02 -9.348918154077776599e-01 8.068196483960931031e-01 3.083036124065350880e-01 -5.039751358341855170e-01
-3.486606863471354567e-02 1.453896935055715989e-01 -8.515536907020072599e-01 8.150516813359751644e-01 3.059334570150236132e-01 -4.920319874055309461e-01
-6.680416782680921595e-02 2.250193069127808532e-01 -8.543979278022593160e-01 8.164473917505018496e-01 3.044642730722587620e-01 -4.906273157156904596e-01
4.474655788752139249e-03 -2.673104462465976383e-02 -8.967089548206422789e-01 -8.126514798052054678e-01 -3.149875415017647229e-01 4.902860604474535422e-01
-4.806309167904736224e-02 9.553872819658555671e-02 -9.066065278679508177e-01 -8.168106257042576646e-01 -3.144526297972016216e-01 4.836733870601554464e-01
-8.417483884275715755e-02 -4.306947682210884171e-02 -1.049358996625999962e+00 8.062653837905563448e-01 3.045228594296232605e-01 -5.071508246920960472e-01
-8.366059846729628768e-02 -5.015916384166185099e-02 -1.052981437207154869e+00 8.137432022500880047e-01 3.132343861432022591e-01 -4.895980189188510190e-01
8.936663190479319022e-03 7.435964298090694258e-03 -8.681149024259727787e-01 -8.090241025823102783e-01 -3.158599894993182611e-01 4.956939262028314808e-01
1.864982400559300063e-02 -1.260833236480791153e-01 -9.352623533127835120e-01 -8.086516551663052166e-01 -3.243983230943406904e-01 4.907629046396786987e-01
9.478105185723279327e-03 -7.850884231694001125e-02 -9.182544143075006549e-01 8.151194402933333860e-01 3.082516304020945230e-01 -4.904704174670816985e-01
-3.796353478261938613e-02 1.517704015686677510e-01 -8.527215920899691159e-01 8.141543157891251159e-01 3.055370112826266138e-01 -4.937609591881698123e-01
-6.972072335789769593e-02 4.862674174032103475e-02 -9.712326087258021934e-01 -8.111431652491956079e-01 -3.149237967109782543e-01 4.928181893301613048e-01
-8.410247125013146571e-03 -7.174302229507667494e-02 -9.384189298651276490e-01 8.223761642332876320e-01 5.341029231976560966e-03 5.689190785232010050e-01
-6.904155899046117428e-02 8.788345522391916020e-02 -9.432795460716506541e-01 8.098947320943357120e-01 3.068170697519652101e-01 -4.999338042527848858e-01
-4.548368318765786886e-03 -1.854917995153091692e-01 -1.007584743169944952e+00 8.126143558533635014e-01 3.087096735301158579e-01 -4.943240294887075170e-01
-7.610161702781317872e-02 1.710000916577369967e-01 -9.057228241477112141e-01 -8.106829674896309790e-01 -3.072740147218959716e-01 4.983731594888449745e-01
2.696619803250498854e-02 1.485746731846409596e-01 -7.484644149287161818e-01 8.077956995274927499e-01 3.083431574863074176e-01 -5.023849172260875795e-01
6.817607096464571581e-02 -1.996993855477761370e-01 -8.999942626056033346e-01 -8.118639734128881846e-01 -2.967712175817461273e-01 5.027959159433228464e-01
-4.610955092377436171e-02 1.652049463004092722e-01 -8.601655498985164572e-01 -8.124628765514489981e-01 -3.117251091752509251e-01 4.926779176454155751e-01
-7.970203477112609847e-02 1.714372723333531245e-01 -9.087937546540378886e-01 7.919592075481405313e-01 3.211284510733315445e-01 -5.193044689687971172e-01
-8.026470508085045349e-03 1.491930646106587877e-01 -8.054089360410119358e-01 8.114080415920016387e-01 3.006049160596702130e-01 -5.012521067093796967e-01
1.438165028202067867e-02 1.834386623618921297e-01 -7.474357909521354149e-01 8.077713942685028625e-01 3.047999309045006933e-01 -5.045813876097000605e-01
1.382017232181243123e-02 1.630226710001440593e-01 -7.634545216262149658e-01 -8.166135445032618456e-01 -2.976994895113282413e-01 4.944869390373357043e-01
1.623007583603487680e-02 1.882014491333203476e-01 -7.414276451959304071e-01 8.119034264546136637e-01 3.064775535124559247e-01 -4.968745669726689629e-01
4.704949800142459171e-02 -1.863005113706996396e-01 -9.237175642565729206e-01 8.047028601175465479e-01 3.146839376370683672e-01 -5.034156595814933688e-01
9.014559483097644987e-02 -1.259486351391776171e-01 -8.181755791058054061e-01 -8.064720689856773594e-01 -3.095933862010041282e-01 5.037407440008766502e-01
7.920627809769581473e-02 -2.138648773297705807e-01 -8.893750657104447788e-01 -2.220347155257820504e-01 9.646055486132080192e-01 1.422558283023833414e-01
3.542775830261959968e-02 7.355338791951539223e-02 -7.812922629682189646e-01 8.145645120622208024e-01 2.990897997131298780e-01 -4.970210733926642699e-01
6.008860172839264324e-02 -8.608000458678304045e-02 -8.400513732278909185e-01 8.120127873535272212e-01 3.101078354352987398e-01 -4.944374212941300972e-01
5.143224094412829350e-02 -1.078432792384511479e-02 -8.074612854730354172e-01 8.131774297949417862e-01 2.961391299063415583e-01 -5.010429955706475758e-01
-8.268991457494548336e-02 4.623545848001525509e-03 -1.017338172572120669e+00 8.068729304406452307e-01 3.044412053343670266e-01 -5.062327790816032458e-01
-4.062140426605841126e-02 -6.965611814198358932e-03 -9.581615340263698322e-01 -8.105026065189480100e-01 -3.134328353874137885e-01 4.948185349469010896e-01
-3.309255932019487811e-02 1.952876766501894235e-01 -8.177625363161392658e-01 8.080136015656800286e-01 3.086041335521053641e-01 -5.018739965762447630e-01
-9.176430592332551761e-02 -7.872110993733334727e-02 -1.084009728855890531e+00 8.174066580072558708e-01 3.102312822237069390e-01 -4.853894384669321660e-01
4.175112363245094688e-02 2.343795094386128680e-02 -8.020725655963296674e-01 8.158891796800159524e-01 3.052361910550300816e-01 -4.910760777631992258e-01
-6.855326660194281663e-02 -5.542795834996365467e-02 -1.033999572147068946e+00 -8.144549251332026119e-01 -3.127356208725666775e-01 4.887326532611871999e-01
-7.005085535504634864e-02 -6.803254928210895891e-02 -1.044353692180532978e+00 -8.075551236778966135e-01 -3.178587428522872127e-01 4.968103680620408191e-01
-3.087184527009980556e-02 4.049902840016865457e-02 -9.103066826788170918e-01 8.108834127151969273e-01 3.014522634983702876e-01 -5.015920890674661070e-01
-7.451288803202553435e-02 1.453984128491648820e-01 -9.164315845355189838e-01 8.075576152521566353e-01 3.027941407353798020e-01 -5.061288436599643559e-01
5.445640979148212886e-03 -5.324998580215826310e-02 -9.091397941555702245e-01 8.075244405073038756e-01 3.133363617230939813e-01 -4.997245265198621000e-01
-4.615885805554059348e-03 7.049530658947643011e-03 -8.933281248870637015e-01 -8.034947153345499693e-01 2.087874983332689283e-01 -5.574980026593689963e-01
-7.348921586440447518e-02 5.348807179705020870e-02 -9.719458277953010317e-01 8.114290579749242616e-01 3.022386106995333388e-01 -5.002346510152441139e-01
-6.428494557657890227e-03 -8.543659030899746626e-03 -8.987588248553097792e-01 -3.794752907171756728e-01 4.133149425164179824e-01 -8.277495164769140823e-01
-1.058870539690683749e-04 1.218909960594244668e-01 -8.118892068426598607e-01 -8.110442951976422066e-01 -3.186231853416845450e-01 4.905980197575999235e-01
7.987512412859391203e-03 -1.924387495110274904e-01 -1.007693888527436465e+00 -3.859509053687986135e-01 -5.288085753642578490e-01 7.559122894001849557e-01
7.392248447920224397e-02 3.150708464823834265e-02 -7.444518039994558745e-01 8.224454089196373552e-01 3.108942942700052003e-01 -4.763699057847439744e-01
-1.149651178349276638e-02 -7.659232796883074477e-03 -9.109811653502662976e-01 -8.309701975575161104e-01 -4.868383623780490055e-01 2.692154150272270674e-01
-7.507115276389583758e-02 -6.357976975883663368e-03 -1.011646452041272903e+00 8.127143859505590040e-01 3.106115452273239264e-01 -4.929663222173501502e-01
3.067132818764893923e-02 -1.783402749061921144e-01 -9.517648012047460471e-01 -8.210609723059644205e-01 -9.738223282291512406e-02 5.624727375494813497e-01
-4.708702900576448858e-02 2.981651271762094171e-02 -9.458845336987792285e-01 -8.103713002468422300e-01 -3.156882009781281084e-01 4.935983341740887154e-01
7.348225033571105513e-02 -9.735373896841929831e-02 -8.277634511697656849e-01 -8.125522860840078687e-01 -3.092424591807765855e-01 4.940929910649196621e-01
3.110755224876398869e-02 1.870901207440725869e-02 -8.249168297953805018e-01 -8.073860188154607931e-01 -3.104922109892789273e-01 5.017194470381922677e-01
7.860683623017748756e-02 -2.048937137828552579e-01 -8.861139145733393230e-01 -8.067866846560197702e-01 -3.195082701277985882e-01 4.970007150716080346e-01
-6.581244839409254588e-02 -1.222965683066743470e-01 -1.068615263780423374e+00 8.137517153856085317e-01 3.015006498155235470e-01 -4.968958682337745736e-01
-8.025289150859506865e-03 -1.549939474852311538e-01 -9.943594719962191020e-01 8.233308134186373417e-01 2.100600962272076155e-01 -5.272581224110458598e-01
1.225777199536688504e-02 -1.851883511855162978e-01 -9.921002790509320102e-01 -9.766406247899355186e-01 -3.111450268564271149e-02 -2.126146225746232410e-01
4.445632187605538105e-02 -1.975067365483979334e-02 -8.269717031502710203e-01 -8.100982260836391280e-01 -3.090730112681120412e-01 4.982115392098043771e-01
5.468894921056154795e-02 -9.310827613686935289e-02 -8.557854891746207171e-01 -8.116251297334907688e-01 -3.101976194777473772e-01 4.950172579369662706e-01
-2.599517124057228526e-02 -2.068001781929132421e-01 -1.058476507214291873e+00 -8.148422627194190637e-01 -3.069518800931802516e-01 4.917444765257248940e-01
-7.950728108372069614e-02 -6.556459094513199248e-02 -1.055795479347124255e+00 8.101793432508661574e-01 3.083161571683552538e-01 -4.985484720651877644e-01
1.362398140628469888e-02 5.414100076013818319e-02 -8.315200444561688942e-01 -8.128176212085566066e-01 -3.096440273693936152e-01 4.934045915547660699e-01
1.422865524824890038e-02 5.604979103842947646e-02 -8.268526742585528000e-01 8.126285806261445144e-01 3.085707442802154699e-01 -4.943873842685425624e-01
7.283770067955031013e-02 -1.761880654207414187e-01 -8.752829493655180926e-01 8.170032985442686746e-01 3.014476695817306928e-01 -4.915637422263041678e-01
-5.869084028713619783e-02 -9.763727578038935984e-02 -1.041554745304974938e+00 8.177793720824230173e-01 3.050912499514004672e-01 -4.880125283223473720e-01
-2.633191680888116726e-02 9.140757669070738445e-02 -8.737008078300912972e-01 -8.074052056514720022e-01 -3.154439277923021256e-01 4.985899741329229973e-01
-4.706843631063265497e-03 -1.395246631531201487e-01 -9.818608883898479744e-01 -8.073316079412895530e-01 -3.074468479704862145e-01 5.036785785517831071e-01
3.823134324727722744e-02 2.706680012998541329e-02 -8.055575642179733098e-01 8.071636721542372328e-01 3.070538869883878696e-01 -5.041871843272192066e-01
2.898500379287864345e-02 -1.062918587593130876e-01 -8.998040006927259249e-01 8.976011188390724538e-01 -4.237297555587097309e-01 -1.215126565959346594e-01
2.163600539302060546e-02 1.445935159520939095e-01 -7.596925313924355327e-01 8.189962024466700408e-01 2.973852192236643988e-01 -4.907211547969237420e-01
-1.794700250269083697e-02 1.606434224514313169e-01 -8.145527420079615721e-01 8.028903883787467111e-01 3.160875519683862822e-01 -5.054262396627801079e-01
-5.654579378597638512e-02 -7.409381266279377320e-02 -1.023489537581300013e+00 8.070319335155979878e-01 3.153141566800891638e-01 -4.992759165864098514e-01
6.379575844887926117e-02 -2.065172471420842482e-01 -9.113569210910814622e-01 -8.147453154095657402e-01 -3.076725902575801475e-01 4.914546247847896843e-01
-9.120855462812403613e-02 2.168772674831519545e-02 -1.020651643333309488e+00 8.142419193146839262e-01 3.061933903254682732e-01 -4.932095949510060251e-01
-5.995223598237447993e-02 2.439404818851102219e-01 -8.338307515890512889e-01 -8.122346484439617598e-01 -3.061204738856288521e-01 4.965532512582633839e-01
-4.046109220704199871e-02 -1.474734887770412228e-01 -1.046620210043464061e+00 -7.523348517143445546e-01 -2.942968416421229416e-01 5.893909058472368567e-01
5.627530608298861314e-02 -2.009388478155725299e-01 -9.202798171381145753e-01 -8.109099300701886337e-01 -2.957868281885873696e-01 5.049111184987878920e-01
-6.440838489333487737e-02 2.466185994969095630e-01 -8.395620781416861522e-01 -8.108055772784079629e-01 -3.020704063390768912e-01 5.013459738228405183e-01
6.161193478189833789e-02 -2.098954452444833363e-01 -9.146171623513346116e-01 8.128553866493415381e-01 3.134154109952793088e-01 -4.909550901516446797e-01
-5.329183026505584370e-02 1.321805613144531877e-01 -8.899283165068543333e-01 8.020833923289191203e-01 3.204220761090521008e-01 -5.039761153984364528e-01
7.877599564088809403e-02 -1.560497405441650109e-01 -8.530072522844625027e-01 8.077052185107121973e-01 3.138754626565248285e-01 -4.990936524668642127e-01
-5.659463182997175740e-02 1.982106313969295708e-01 -8.543302795964755614e-01 8.047416496452829415e-01 3.158977001450656297e-01 -5.025927977689759185e-01
-1.241447640484717556e-02 2.027844813603263407e-01 -7.832944630583859036e-01 -8.503148065555549140e-01 -2.351022780672220314e-01 4.708414261723280481e-01
2.304057054495588577e-02 -1.798072126229413870e-01 -9.565389120653697841e-01 7.973473320610343640e-01 -5.831047067532673100e-01 -1.556474638962567214e-01
-3.659827052829892069e-02 5.887390833497163634e-02 -9.107401939087734766e-01 -8.101518641797297304e-01 -3.038154264655794634e-01 5.013483256256542342e-01
-3.970678883059736847e-02 -1.120371267103238144e-01 -1.019278057567666318e+00 8.443126674552383637e-01 -5.336892532601938965e-01 4.808222674957019632e-02
-6.945993156665047387e-03 5.445854595502906681e-02 -8.735286754856165237e-01 -9.370131662399530104e-01 -1.560399415523877065e-01 3.125025806826332575e-01
-3.090580751449211946e-02 9.604677599786898279e-02 -8.757947278109069478e-01 8.168399951157651051e-01 3.123410222422501881e-01 -4.849902145445237345e-01
-3.078498248097525855e-02 1.859005775609703925e-01 -8.148712788149293784e-01 4.827661475575387162e-01 5.154717919275915161e-01 -7.079729362761056910e-01
2.621564186019978426e-02 -1.137318350918549575e-01 -9.177032743261495096e-01 1.444176342565087756e-01 -7.751547225042458855e-01 6.150436595032249265e-01
9.417445144288091874e-02 -1.806912118666108846e-01 -8.456363633290883142e-01 -8.091870224520257837e-01 -3.308680858530863578e-01 4.855333896439457120e-01
4.101900331643974773e-02 -2.158211662658070240e-01 -9.544152994364690779e-01 -8.043208800117538360e-01 -3.152300224327513889e-01 5.036843802761455935e-01
1.141014860311979559e-02 1.148973070960876697e-01 -7.948570661275522475e-01 8.124980843373511563e-01 3.165234929166872990e-01 -4.895505503826492189e-01
-2.614091802035449150e-02 8.682544281314537316e-02 -8.736806161853013508e-01 8.187570210894057343e-01 2.965610457042721637e-01 -4.916182325622095450e-01
1.803955575939807099e-02 1.569966516508283505e-01 -7.578820611389793793e-01 8.112835445453635552e-01 3.123422537956241918e-01 -4.942280109866101778e-01
1.759083691623593293e-02 -1.832941881314070418e-02 -8.645449781532392741e-01 5.704763864161721543e-01 7.292578826648632440e-01 -3.778089902486529983e-01
-5.348649945823303817e-03 -1.300208363990530969e-01 -9.607533568530896018e-01 5.943819509065798590e-01 3.592521900925617628e-01 -7.194775606995579276e-01
-7.518254858461448364e-02 2.228176319674790851e-01 -8.694548358466966942e-01 8.129316139036080191e-01 3.074569955250793241e-01 -4.945830436021504406e-01
3.743273532054688241e-02 -7.923949080353376306e-02 -8.729385858007313592e-01 8.125173515174740624e-01 3.089353962758344396e-01 -4.943424667282010354e-01
-8.483163412429106653e-03 -8.097160673518370710e-02 -9.425872812289062264e-01 8.922742323431617217e-01 -2.715546493913683079e-01 3.607003835461678465e-01
