-9.247984811739679012e-02 -1.607040677855621769e-01 -7.909735066520494629e-01 6.351726836970161827e-01 4.074978049174709516e-01 6.561259032171896655e-01
-1.297102433280299394e-01 -2.236890278483807601e-02 -6.996688470343943589e-01 6.374005289448989586e-01 -3.248694506568245433e-01 6.986990809573860872e-01
5.756755534930252383e-02 1.043902994369240722e-01 -7.890139415174600712e-01 -5.932366156344229813e-01 3.324514187002266530e-01 -7.331755397412154096e-01
-3.477894040748066157e-02 6.642109550955997699e-02 -7.332199085232571356e-01 -5.818595692462463775e-01 2.862721157803435057e-01 -7.612409062860572284e-01
-5.276829318959478515e-02 -1.342165512039266706e-01 -8.084365511718863972e-01 -5.905000898178421886e-01 3.176286142056281570e-01 -7.419041092775617852e-01
-6.925975924308151732e-02 8.541644210871143783e-02 -6.992329050357840581e-01 5.799553059600570659e-01 -3.402945602421952320e-01 7.401698827690489368e-01
-6.432195296121087646e-02 1.194554539701334350e-01 -6.863448439524721945e-01 -5.702245449706172531e-01 3.408891652295036323e-01 -7.474212636406488697e-01
2.536360847940445987e-02 -2.296397394915997703e-01 -9.085642254729638934e-01 -8.543805965014702464e-01 -4.203498165848200130e-01 -3.055156755698469340e-01
2.302542016829538588e-02 -5.535269694818681363e-02 -8.329801151309468299e-01 -5.858671803773364273e-01 3.261976513470636885e-01 -7.418589752859831021e-01
-7.080222393529634825e-03 2.545551532458561472e-01 -6.728538693537091664e-01 5.697317388358558166e-01 -3.293902393229084513e-01 7.529328097525496144e-01
8.650544949995243871e-02 1.212366569977882391e-01 -8.059051506813819099e-01 5.780769722045698833e-01 -3.305300836178977075e-01 7.460408018535866770e-01
-5.312018964179644753e-02 -3.433461862673904685e-02 -7.636667085366815044e-01 -5.948627832504695956e-01 3.283613253858290726e-01 -7.337009670801629690e-01
-2.911233152166230534e-02 -3.180363091530079289e-02 -7.830831567019388428e-01 5.782035801137226372e-01 -3.431487593402562930e-01 7.402226346896700893e-01
1.925192612136809867e-02 1.027427490596715537e-01 -7.651936333643118981e-01 -1.502805809220316979e-01 -3.630610505612023586e-01 9.195664307504556323e-01
-9.600476617070828611e-02 -1.910185956194798695e-01 -8.013234459571897395e-01 5.894520576809436641e-01 -3.329733014267471924e-01 7.359857690422239029e-01
-1.103771845102009819e-01 -1.593607242644291266e-01 -7.768030662191325320e-01 6.635077885052759195e-01 3.474398918110211953e-01 6.626031513441388299e-01
9.924208918709945260e-03 -1.393320371200376107e-01 -8.714628967589843622e-01 6.847000852283753325e-01 -3.403581583748139239e-01 6.444704161681592547e-01
1.033857285880409593e-01 9.205936036386365429e-02 -8.305625378416666704e-01 -5.776344468012627464e-01 3.289428371626502146e-01 -7.470843698994009685e-01
1.110998483719537328e-01 -2.714007385875272238e-02 -8.914056187807688492e-01 5.817462009656365618e-01 -3.312100436232021661e-01 7.428803838204142140e-01
2.253511519507917990e-02 -5.319801766030426982e-02 -8.316425358376843269e-01 -5.816537167348977411e-01 3.423200230862376570e-01 -7.378996921009772780e-01
9.883466951063726857e-02 -1.669276404870179142e-01 -9.423245434852596247e-01 -5.842646458437594781e-01 3.290463124837561537e-01 -7.418647773401217949e-01
-3.362000776898383531e-02 1.891769885878984425e-01 -6.810677347829537931e-01 5.798925436541407796e-01 -3.188694905246586275e-01 7.496978630267496779e-01
4.439395417946434552e-02 -7.614478567768571959e-02 -8.590629561900364752e-01 -4.881760001714384178e-01 3.265602285587241305e-01 -8.093470269175573328e-01
-1.006478742311271990e-01 9.041076103949277631e-02 -6.722893491140975453e-01 5.877647799424609021e-01 -3.376982278840064411e-01 7.351819300983886141e-01
6.548951722072826609e-02 2.362344636327342595e-01 -7.364572916601057617e-01 -5.883824947922956516e-01 3.308046605320300593e-01 -7.378172649052626708e-01
1.083220741002219184e-01 1.148923214286785566e-01 -8.259410032541684155e-01 5.741987186177921476e-01 -3.381426842541149780e-01 7.456241389756017579e-01
2.726239178471746849e-02 -1.704244600410326771e-01 -8.908008721988551759e-01 -2.998347982255858968e-01 1.371466580051195761e-01 9.440815049406744430e-01
1.501338480007476106e-02 -3.236601160357951978e-02 -8.216891954927847408e-01 -3.618619418075098570e-01 -4.353482513932043774e-01 8.243347833739501640e-01
5.850427107751464406e-02 1.219068583802186273e-01 -7.836150046097434263e-01 5.806111936341354918e-01 -3.390492244562804958e-01 7.402271713618321369e-01
-1.100867147721402636e-02 -1.504482193832590575e-01 -8.502205315002493435e-01 5.843142684579030188e-01 -3.272126863719169720e-01 7.426363131128042028e-01
-3.699973378029289967e-02 -7.091833864568508616e-02 -7.926256159228385334e-01 -5.822211271183829195e-01 3.286094762760932153e-01 -7.436628074863980142e-01
-9.402370284058933492e-02 -1.930269791134880675e-01 -8.038151138070556145e-01 5.885070216903347529e-01 -3.305743328750178622e-01 7.378211814968507198e-01
-3.999172632463794501e-03 7.091195656115736878e-02 -7.531057378145267212e-01 -5.286681917344866477e-01 3.963993454844538245e-01 -7.505847733252284382e-01
-7.041556652496036572e-02 -2.080513443959728648e-01 -8.274024073880545949e-01 -5.814966827415622985e-01 3.248735716618663116e-01 -7.458677968622997589e-01
-7.383503481402972635e-02 1.381657849015190953e-01 -6.721202149201727094e-01 5.865571639188345010e-01 -3.289950726563191097e-01 7.400763039196407433e-01
2.771901309115437292e-02 1.375181476271368775e-01 -7.507291932057279515e-01 -5.802575844598429899e-01 3.185478076882801712e-01 -7.495521528845198178e-01
9.308699000726089468e-02 -1.835844035405184427e-01 -9.469272811911764176e-01 5.821477483662462760e-01 -3.347001002045634221e-01 7.409992186198071096e-01
-5.913954332013478254e-03 -2.477294168661010876e-02 -7.965559498628722590e-01 -5.922122416029778069e-01 3.241531981703009158e-01 -7.377054730795629123e-01
-1.107434140931716215e-01 -3.118679431077592962e-02 -7.185184379603637428e-01 5.812797148462662822e-01 -3.320038693582984535e-01 7.428911924631770303e-01
1.245939331306735939e-02 -1.867232098169438748e-01 -8.947522009301238644e-01 2.755776759882856419e-01 -4.489131290515238071e-01 8.500199686254819031e-01
-8.708732876391815647e-02 -1.266412450423079206e-01 -7.797109021147358154e-01 5.858217796398611510e-01 -3.274633857476536569e-01 7.413370174854816419e-01
4.904914775468575266e-02 6.465394032793442269e-02 -8.016506388116819704e-01 5.888470823421537714e-01 -3.346183236087938995e-01 7.357239231684483682e-01
1.308385433369838868e-01 -3.040233108339359877e-02 -9.083867081172523061e-01 5.901507311861368121e-01 -3.323658700407065569e-01 7.357003757730127269e-01
6.569937168658969429e-02 8.581280304731379871e-02 -8.036899196585809424e-01 -5.759761887622969478e-01 3.359341376936398893e-01 -7.452514240918224342e-01
-1.163509740034941817e-03 2.555238490162662357e-01 -6.770935315086047401e-01 5.828467409335236216e-01 -3.794723992160685677e-01 7.185334890012926579e-01
6.248520958378065565e-02 -1.601915262797283801e-01 -9.124216945893039998e-01 5.798175816210867639e-01 -3.375062174908339818e-01 7.415531843354893349e-01
2.564663929287257921e-02 1.085975410302002925e-01 -7.636223699830780864e-01 5.895763912517572036e-01 -3.238800829669351011e-01 7.399333556043314886e-01
-1.079253078329857896e-01 -1.110283029166523744e-01 -7.546759392790368670e-01 -5.881717903651473289e-01 3.442315978125117248e-01 -7.318186606572029129e-01
-3.092834389318631708e-02 -2.572102964047919688e-02 -7.772790915903512454e-01 -5.846109738565763436e-01 3.264132881539141828e-01 -7.427545856896576870e-01
-8.524112481625002388e-03 9.532096811561550920e-03 -7.809077368910557482e-01 5.839475403150340416e-01 -3.255001490923867813e-01 7.436766253559778939e-01
2.847619711696022793e-02 1.126673396082667061e-01 -7.624343027927572569e-01 -5.742552162791936254e-01 3.423027988042208203e-01 -7.436798642607810317e-01
7.612239724658798057e-02 -1.817281834850463171e-02 -8.598695439477033187e-01 5.285435457399584314e-01 -3.771051996181147281e-01 7.605480843954669501e-01
-1.266602671084602616e-01 -9.687481045806328739e-02 -7.336161835448810065e-01 -5.815770137360285474e-01 3.270996948300629037e-01 -7.448315022446102551e-01
-8.949467856719395265e-02 -1.656804878110187118e-01 -7.935148441366642880e-01 -5.781324893832878731e-01 3.346775236837296053e-01 -7.441463430404057222e-01
1.127891104728701577e-01 -1.193568190159736142e-01 -9.338077428884482556e-01 5.770727353245173052e-01 -3.287602059137288979e-01 7.475986792073955334e-01
1.182822143088138774e-02 -8.692934161278523253e-02 -8.307645849870997079e-01 -1.714799900246529590e-02 4.669270961550418542e-01 -8.841295340652475243e-01
-3.524530722727953896e-02 -1.776334556654179109e-01 -8.431836909908488886e-01 5.532993698549192318e-01 -3.438990574222175467e-01 7.586786181396305562e-01
9.253361586419064228e-03 -9.354001453954596812e-02 -8.497663903143061193e-01 3.455842058616903634e-01 -2.589455693120961688e-01 9.019527419951551828e-01
-1.245021680394046565e-01 -6.719136964124122757e-02 -7.221168131260612411e-01 -5.906005284121909060e-01 3.273777000098838097e-01 -7.375736284436146262e-01
7.296708945423989456e-02 1.621917770997260630e-02 -8.420992604470847187e-01 5.831825665809683423e-01 -3.389120943648281092e-01 7.382659997109984884e-01
-4.809638267378960053e-02 -9.847746068966124755e-02 -7.962214153948223849e-01 -6.070495584523836197e-01 3.053722138700220579e-01 -7.336474934046237628e-01
-3.610435198458580852e-02 7.867644283641211933e-02 -7.266825487875553380e-01 -5.825265053539209203e-01 3.341838461443364383e-01 -7.409345635994629697e-01
-5.557044675056466154e-02 -1.852180332102615901e-01 -8.289615685615560059e-01 -5.927690511851506638e-01 3.253026236441226016e-01 -7.367516915537462019e-01
3.909447065813381750e-02 -2.357898942669302278e-01 -9.276651291806288224e-01 5.856679629633243511e-01 -3.165471794615638546e-01 7.461842402070137936e-01
-7.800865242191974691e-02 -5.883342346568227327e-02 -7.586232641742336469e-01 8.883202428548112595e-01 -3.115977148524089191e-02 4.581661432006476353e-01
-1.058095584549437196e-01 -1.136999954294848347e-01 -7.592063129902222318e-01 5.791631551916932574e-01 -3.295396421753455374e-01 7.456364153549287499e-01
4.769377083838146486e-02 4.079097177755907494e-02 -8.095527386097401967e-01 -5.859140395997800566e-01 3.360751641820260427e-01 -7.373996353537825010e-01
4.705333556985127202e-02 1.314193210616809993e-01 -7.686618006212189158e-01 -5.960313714559015708e-01 3.364491021743549193e-01 -7.290738000274510355e-01
1.754897277292613925e-02 -1.821006025908460668e-01 -8.748079789847872378e-01 -3.070123132458052462e-01 4.444424551436200188e-01 -8.415547181148537170e-01
1.157851758093956934e-01 -1.665713068892350213e-01 -9.572080650275276437e-01 -6.798656142997924201e-01 3.086448136941506992e-01 6.652226134704598559e-01
9.330538093400130711e-03 5.127343198789527379e-02 -7.720344662593670026e-01 4.033143300988563662e-01 6.120525182346835819e-02 -9.130123045644764623e-01
-5.169329486701110948e-02 6.093451352024364942e-02 -7.239636714262812633e-01 5.796073621635060569e-01 -3.339340693385622338e-01 7.433325924919816918e-01
2.350129793814476065e-02 -1.514442416056386853e-01 -8.778160846053267852e-01 5.885634909630822476e-01 -3.336670870817674550e-01 7.363825718359430228e-01
-3.052370035371089474e-02 -9.058248646839166252e-02 -8.065123633620032706e-01 -5.925428331442403884e-01 3.315422037027376256e-01 -7.341476405010977091e-01
1.091236851262019636e-01 -3.838094002119010750e-02 -8.957964012738484083e-01 5.184018126672996774e-01 -2.152839719283280995e-01 8.275943281910652649e-01
-5.113340024850413640e-02 -2.064328874211197873e-01 -8.418783107145335620e-01 -5.822400441435885421e-01 3.319058517647463513e-01 -7.421826167190862522e-01
1.912093924108228607e-02 -3.509790753951002804e-03 -8.048700005331564933e-01 -9.359427914371097890e-01 -1.644535314544226245e-01 3.113938457148440198e-01
8.436509789057933251e-02 -4.379058571351417822e-02 -8.761323235239337759e-01 -5.844637835047247210e-01 3.305305743511617877e-01 -7.410476537918686546e-01
-6.504257997414396308e-02 3.950028422512821824e-02 -7.230227066271385228e-01 5.796629421251409120e-01 -3.341111332023998237e-01 7.432096771416755177e-01
-1.144395527465496588e-02 -1.876776102333981566e-01 -8.691343908101266669e-01 1.749187613076059744e-01 -5.556956997764906925e-01 8.127765475163077902e-01
-1.100138099554661547e-01 -1.526833118239939446e-01 -7.732180007161202351e-01 5.811793521174105637e-01 -3.381581351166154104e-01 7.401889193488646601e-01
8.254959847631259534e-03 -1.044187202931053798e-01 -8.429708847767417579e-01 8.488285710602512246e-01 2.468858051281653532e-01 -4.674798992235169037e-01
7.710196229288612813e-02 -1.019614841549440626e-01 -8.946733211262536400e-01 -3.955946698240452863e-01 7.686237222322804818e-01 -5.027150592816956864e-01
1.536018423283790589e-02 6.499857433720350464e-02 -7.676795175260003878e-01 -3.817590253896114283e-01 3.949246163831306999e-01 -8.356402299483975948e-01
2.607539662538432834e-02 3.359666978095286749e-02 -7.973804706705360790e-01 5.741384779210321199e-01 -3.243818599969645056e-01 7.517588822723880737e-01
-1.101520394125236335e-01 6.705283162408218200e-02 -6.736357556606750174e-01 -5.849395856232791902e-01 3.326081336253162157e-01 -7.397415160832533365e-01
-2.793861081991325102e-02 -2.067724365938801434e-01 -8.619819153113601473e-01 5.821296747864772581e-01 -3.336314542070073497e-01 7.414951749652235469e-01
1.874505478437578712e-02 8.818696223002500667e-02 -7.696655388465348802e-01 -3.835359131136695798e-01 -3.076309606558643162e-01 8.707832080363133720e-01
1.242427323049162119e-01 7.317125836479608514e-02 -8.554532706133159969e-01 -5.797483829834748637e-01 3.322378799590643972e-01 -7.439823946494651397e-01
6.547565709248395240e-03 2.417311133078697827e-02 -7.911510901763032511e-01 9.493841806267592220e-01 -1.466914474869256413e-01 2.777612226532847339e-01
3.731260400403556277e-02 8.276827319101527636e-02 -7.826734596326652138e-01 -5.892897556261198488e-01 3.212136660224231832e-01 -7.413227129088537648e-01
-7.752618122580903770e-02 -1.039360633424430969e-01 -7.770598734037186262e-01 5.283938841177543422e-01 -4.246753578405866869e-01 7.351535510829849684e-01
-3.771452020576769593e-02 4.140621016788665482e-02 -7.420502051555389889e-01 -5.848134146878599671e-01 3.181200613875349026e-01 -7.461855644167314505e-01
1.080452703763555428e-01 2.202692507305951605e-02 -8.671007577648220943e-01 5.861987406799697986e-01 -3.355414586383489439e-01 7.374164128632252346e-01
2.033075311892971679e-02 -1.623952753916857727e-01 -8.812496105316399708e-01 -7.463551121560784152e-01 -2.804422697060290348e-01 6.035778159613045535e-01
2.000441401519904849e-02 -1.357335078221563185e-01 -8.568310095544906524e-01 -5.286681917344866477e-01 3.963993454844538245e-01 -7.505847733252284382e-01
-6.558021492716017975e-03 2.355873347955501906e-01 -6.801082795857832375e-01 -5.679817193199833136e-01 3.409861983547272102e-01 -7.490828919751846282e-01
8.770843462380446820e-02 8.394839639598483672e-02 -8.218589347704429171e-01 -5.859486530710322771e-01 3.305730647268213529e-01 -7.398551377407335261e-01
-1.180720740187417017e-01 -1.941076979864059596e-02 -7.058482355893335169e-01 -5.792789281748577102e-01 3.310544994503958338e-01 -7.448750511100743488e-01
-9.662015957203048955e-02 -2.051629457329476325e-01 -8.071241909905333412e-01 5.829280499703460849e-01 -3.393491509507021164e-01 7.382662408012485855e-01
-2.864713736315022130e-02 -9.309990482667562794e-02 -8.091360904006953403e-01 -5.810821741536559282e-01 3.306570220412128336e-01 -7.436460452767141849e-01
-5.913635846524500222e-02 1.784306067912541094e-01 -6.657653814778987655e-01 5.660836686676175011e-01 -3.176426071535374818e-01 7.606920889482907677e-01
-4.726784528582309020e-02 -3.894551880895771867e-02 -7.703610236305278303e-01 -5.848326454750499837e-01 3.264000463471798952e-01 -7.425858782196259611e-01
2.305979781914544238e-02 2.401529489908006965e-01 -7.029995725817665964e-01 5.785483579510807273e-01 -3.295736249686470054e-01 7.460985345362457499e-01
1.324927008599607603e-01 -1.093554676215604399e-01 -9.448287913658912629e-01 5.804074461256508721e-01 -3.236823644179065429e-01 7.472328441969964263e-01
-1.360542569507010024e-01 -1.169701471669221116e-01 -7.368234781213796047e-01 5.909770536259183471e-01 -3.343406984738425125e-01 7.341405992258235313e-01
-1.152050208995955421e-01 -1.776298683484147656e-01 -7.786229471185189821e-01 -5.901917383969724762e-01 3.380499150920658336e-01 -7.330729614671422922e-01
1.435406183655122542e-02 -1.433422304230353717e-01 -8.753800775199033213e-01 1.518642968975837670e-01 -4.615792433320771715e-01 8.740033394975043057e-01
-3.275270719950066495e-02 -1.283262841580181668e-01 -8.231804569542822136e-01 5.877162131859121619e-01 -3.196563857769664785e-01 7.432425228620994639e-01
1.169767406273093148e-02 -2.352836716562566877e-01 -8.998738219245446812e-01 4.073658416663970550e-01 4.655969837293147950e-01 -7.856669267479648999e-01
-2.458620836077182042e-02 1.896019089224231235e-01 -6.880315511989786303e-01 5.895719734600871620e-01 -3.228212669270777435e-01 7.403994312058691518e-01
-1.830389473763620323e-02 2.075156705485182163e-01 -6.832902034568945071e-01 -5.868006945889300274e-01 3.373794407118907990e-01 -7.360978588576936321e-01
-6.591053668498676743e-02 -5.520279951745196874e-03 -7.407157534386062947e-01 -5.757920805676739473e-01 3.297782246187319632e-01 -7.481375558831854233e-01
-4.752942851476101710e-02 -9.196302167688517881e-02 -7.907669831876500410e-01 -8.231701324271717413e-01 6.944939849230568479e-03 -5.677523235446271244e-01
-9.203460456534821865e-02 -7.534666557131082520e-02 -7.529116623408080855e-01 -9.653198645104892062e-02 6.058850901732024674e-01 7.896738776847216368e-01
1.193544346673430651e-01 -9.500176871640178544e-02 -9.264769383396562752e-01 -5.901539224643105319e-01 3.338920417476050062e-01 -7.350064300790869476e-01
7.686832457884968869e-03 5.862745113592906371e-02 -7.770621350671971239e-01 8.776513980825957351e-01 -3.072641106565812130e-01 3.678543050530809211e-01
6.522054764275588001e-02 -1.552365459816537618e-01 -9.122939074327247599e-01 5.925107488781675702e-01 -3.261656151541162396e-01 7.365779008054545995e-01
5.069118433922306655e-02 1.448802878491005641e-01 -7.681065257353907327e-01 -1.848446811875796014e-01 1.391266364302459757e-01 9.728700955791929061e-01
9.499212304884421809e-02 1.489556988527160619e-01 -7.985943161494767351e-01 -6.146115489974223189e-01 3.250305426145678744e-01 -7.187543323046260424e-01
2.976547850189434352e-02 -1.970201025385463212e-01 -9.014202746938894117e-01 -5.829764973140891815e-01 3.320981523821612824e-01 -7.415181864012173607e-01
6.451974645725659652e-02 -1.306644050680783598e-01 -9.008478304430090899e-01 5.914451123744178807e-01 -3.261015784013802099e-01 7.374621614784996337e-01
-5.939280117593697533e-02 1.006562897913835554e-02 -7.405768150174008024e-01 5.883257879463001938e-01 -3.297420885485781161e-01 7.383379458466063916e-01
-3.922283357252850933e-02 -1.876161888329229768e-02 -7.676903591497359347e-01 -5.864169032135998494e-01 3.253279701855131267e-01 -7.418065296560453215e-01
2.250293197870938469e-02 -8.604982519479476011e-02 -8.462169166381309227e-01 -5.857233834200058498e-01 3.350759864124571163e-01 -7.380055565134582274e-01
3.826332882464381774e-02 1.276072164218046978e-01 -7.651335370460268237e-01 5.775401394792801790e-01 -3.267862833682250168e-01 7.481030091455556086e-01
5.975640371439987913e-02 2.756428741858160322e-02 -8.249841456434316989e-01 -6.080387214812950081e-01 2.387220066113690531e-01 -7.571662411510654556e-01
-6.669832408271300118e-03 -1.547617497613964221e-01 -8.538971224508141722e-01 -5.845056324892178301e-01 3.288079733692191864e-01 -7.417806159756440421e-01
-1.252569151836681882e-01 -1.051089600554140288e-02 -6.962988208790975575e-01 -5.980932036080357506e-01 3.342622676578590468e-01 -7.283908677476003124e-01
9.612159939606942927e-02 1.671060133693884897e-01 -7.930701606138960136e-01 5.855288998058424399e-01 -3.292243084065483161e-01 7.407882708617825607e-01
-5.681948742958099763e-02 9.104233953406357105e-02 -7.049087918100291894e-01 -5.875520344177164178e-01 3.248526421054521163e-01 -7.411162984098444984e-01
2.801332295565672759e-02 2.513703242423556694e-01 -7.018590883680336789e-01 5.854267585357095793e-01 -3.334113997445344868e-01 7.389941467364691263e-01
6.168074832911794869e-02 2.138311579835518450e-01 -7.451709005232743932e-01 5.954140674672657729e-01 -3.256874569119769247e-01 7.344452114843524893e-01
-3.435551022582582908e-02 -1.073443613012545761e-01 -8.164295563574306414e-01 6.521610444202579071e-01 -2.025278902076600163e-01 7.305261294633562663e-01
-1.053570854972202125e-01 -4.341010253332482777e-03 -7.092033597466348427e-01 -5.855761731752083810e-01 3.282853220956868934e-01 -7.411675200020634291e-01
3.346754884639140115e-02 1.921655085723923337e-02 -8.096203762990520358e-01 5.729740509448271180e-01 -3.408554321431823686e-01 7.453310078900240443e-01
-1.007454742211105481e-01 1.079685722099444321e-02 -7.060065072423789001e-01 -5.747320760865081146e-01 3.387774091127400689e-01 -7.449247665315950062e-01
1.027593508020286928e-01 -1.526055004168002105e-01 -9.391059570629666231e-01 -5.840088323218818323e-01 3.304864787095400658e-01 -7.414259040256151456e-01
-6.331011946672751578e-02 -1.688152210320583435e-01 -8.171864856147750267e-01 5.818744092100095466e-01 -3.216553591707689841e-01 7.469672026422752298e-01
-7.099105867702951156e-02 -1.238474203362214254e-01 -7.910600113928243360e-01 5.851736251433166114e-01 -3.306494459165845168e-01 7.404341782708876440e-01
1.067124297605963751e-01 1.765140144508552458e-02 -8.680189523473452740e-01 5.863199951908750762e-01 -3.235374335794461986e-01 7.426657339020009685e-01
1.075916747310937116e-01 5.571067007922571312e-03 -8.740772081543985994e-01 5.851723709402592011e-01 -3.229759527759361037e-01 7.438143788719278060e-01
3.624894973269481013e-02 -1.443104419506549205e-02 -8.251542210653312059e-01 -5.860043961358437636e-01 3.245495129556243974e-01 -7.424732058126622958e-01
-4.761603750233188437e-02 1.677108243186065661e-01 -6.779907876160838898e-01 -5.833291032386730413e-01 3.270420874573128911e-01 -7.434854607497907164e-01
-6.992967611879973011e-02 -1.130073564456583468e-01 -7.870694679047861575e-01 5.838912508741250784e-01 -3.304190273102561304e-01 7.415485645215649235e-01
5.739034984224523905e-02 5.102962590987753649e-02 -8.142769086461640882e-01 5.735269330869384730e-01 -3.242193345207352584e-01 7.522956068905504168e-01
8.407672983169146852e-02 9.720408096031678963e-03 -8.536682102620541945e-01 5.849531941167502858e-01 -3.235749630348627170e-01 7.437264308800638490e-01
1.175683038058888547e-01 2.983985633587830574e-02 -8.694074371927109635e-01 -5.735830279408228316e-01 3.278437752559559826e-01 -7.506803374833787013e-01
6.697375460098725641e-02 -1.021317422659521329e-02 -8.474707838504275115e-01 -5.829415172187609739e-01 3.406980166317628012e-01 -7.376340888041115207e-01
-8.977070563900781119e-02 -1.053758211578856296e-01 -7.680759544032144115e-01 5.826692752417849119e-01 -3.283925317906842278e-01 7.434076006830421246e-01
5.747090553804792834e-02 -2.062278280348910642e-01 -9.289210585246703289e-01 5.860396206299435251e-01 -3.274910541099457228e-01 7.411525973305823634e-01
6.675107013511569036e-03 -1.030773482543389935e-01 -8.495386955041561716e-01 9.673562547774658960e-01 -1.605758271199708839e-03 2.534152676601963972e-01
7.929091811805023815e-02 5.883949046168145819e-02 -8.295972355739760218e-01 -1.638329189700439004e-01 -2.331097324437693408e-01 9.585502737476783164e-01
-3.949596350717984872e-02 -1.008410184522817027e-01 -8.004412422560873708e-01 -6.547914082199636221e-01 2.273013787739598668e-01 -7.208205705505172922e-01
6.887121719738192177e-03 -1.584059963552271466e-01 -8.761107975395989733e-01 9.740373020346762001e-01 -1.057220382651403723e-01 2.001853762642844814e-01
9.754539188403152025e-03 -8.526148965806938651e-02 -8.297184399827340906e-01 -5.786260779589452730e-02 6.494760553514611345e-01 -7.581772696039920101e-01
2.533435627341933463e-02 1.044686174398425267e-02 -8.054444572546664016e-01 -5.858817713537168848e-01 3.224278630291038672e-01 -7.434936604557677020e-01
5.554902966698758299e-02 -1.851999419076185427e-01 -9.164428265207508195e-01 -5.802769304584319832e-01 3.260174486659110360e-01 -7.463185024794106726e-01
4.562076298233825461e-02 1.863742369468116555e-01 -7.431179010530745144e-01 -5.837181220929523739e-01 3.140445882062359306e-01 -7.487650836935791920e-01
-4.747923724059692485e-02 4.938937461180380184e-02 -7.324238071040760634e-01 5.686823405453443891e-01 -3.592788085950752719e-01 7.399453582842264732e-01
-3.023153416712493630e-02 -1.509385592891556993e-01 -8.352957917504306717e-01 5.780519537247018613e-01 -3.224732509745626419e-01 7.495778419890437583e-01
9.460959154201824609e-03 -1.086873461669130292e-01 -8.566896929011723616e-01 4.711552730252177579e-01 -1.818613004070420147e-01 8.630985900317482695e-01
-7.977353856257760056e-02 4.070299963013369882e-03 -7.255543157100106111e-01 -5.772182984023357388e-01 3.220021489761852873e-01 -7.504223157957327084e-01
-2.059560123124744638e-02 1.555791198042046908e-01 -7.046517667049172484e-01 -5.846216117113230970e-01 3.215919103891671238e-01 -7.448464367185364532e-01
-2.671190078167256718e-02 5.862375099255581756e-02 -7.430164160340656521e-01 -5.809705442604704562e-01 3.298261393252565066e-01 -7.441021062458357260e-01
-4.321421564992254660e-02 1.146525015385745916e-01 -7.051253432561016554e-01 -5.854588796084467806e-01 3.378051652124728910e-01 -7.369705358041093168e-01
-7.034616039960669975e-02 1.510466863351739297e-01 -6.682785569676250592e-01 7.163547956512044124e-01 -1.591257771077869421e-01 -6.793488012849981939e-01
-1.023263120678014754e-01 -1.953163033786746161e-01 -7.966547178596622425e-01 -5.954003181150179236e-01 3.252856990035011275e-01 -7.346343819971531408e-01
5.663553366831310804e-02 -3.436357117930401855e-02 -8.500886507660337932e-01 -5.848532303300970625e-01 3.273815819313695696e-01 -7.421374527569433166e-01
-6.798363168879402452e-02 -5.658672223728813261e-02 -7.618475817255216942e-01 -5.837336147258671559e-01 3.284064966774399852e-01 -7.425659835860536351e-01
9.817818278743713212e-02 1.055220530398467277e-02 -8.627519877318088337e-01 -5.850192843478015936e-01 3.242935792033109776e-01 -7.433613599244258685e-01
9.317481879965809621e-02 -1.705087105611387543e-01 -9.394892119943681896e-01 -5.814909518295876545e-01 3.303368814768712913e-01 -7.434687738408759516e-01
8.763033015235884016e-02 -6.707510968129204443e-02 -8.886696352367292606e-01 1.290573231681284572e-01 -3.627600631707317280e-01 -9.229026730403612211e-01
7.185147012983009174e-02 -8.644219380569816147e-02 -8.868961562042779745e-01 5.796857115282206818e-01 -3.214356559223320864e-01 7.487613738380211048e-01
2.922864111662546241e-02 2.390714715757924214e-01 -7.083726429279556536e-01 5.758883524191679149e-01 -3.368695268525826458e-01 7.448969911511611475e-01
9.554611394434676941e-03 2.467876535629774382e-01 -6.877768636684674641e-01 -5.958516311098637219e-01 3.300812438768345181e-01 -7.321251301139964918e-01
7.091718943888736248e-02 -7.484573601227147502e-03 -8.493299630885270401e-01 -5.835333243398882486e-01 3.401292961326234932e-01 -7.374285872524638519e-01
9.166106940661948588e-02 1.941661838606719703e-01 -7.774631483205219906e-01 5.832015113812633045e-01 -3.238811080383394159e-01 7.449678013031619805e-01
5.723846487248993725e-02 1.392556974059605823e-01 -7.748526038761057722e-01 5.784957703299933307e-01 -3.256718712002516503e-01 7.478505706484646076e-01
1.443806996157311340e-01 -3.525297928776421896e-02 -9.211487778380700320e-01 5.696557438025161568e-01 -3.238050804241505154e-01 7.554088981765513244e-01
-6.672113338007226724e-02 -9.673719434176060450e-02 -7.823679121377128398e-01 5.834628772572327815e-01 -3.293387287033661681e-01 7.423658617142639971e-01
-5.760087971301713905e-02 2.766776551575378731e-02 -7.341139412567243561e-01 5.901609078389102869e-01 -3.310209544917530056e-01 7.362983298542257193e-01
2.541268522959025042e-02 1.305818555420866223e-01 -7.519753230605942251e-01 8.527809159390461469e-01 -2.438973207592539938e-01 4.618211843740159250e-01
-3.814370006692154730e-02 -3.896442855767830171e-02 -7.775421217851964384e-01 -5.840550395142786178e-01 3.262716565681217373e-01 -7.432540056658073491e-01
8.914226474913714005e-02 -9.116468524191909117e-02 -9.009411790608049531e-01 -5.894589632259276124e-01 3.254231351318470078e-01 -7.393496559771796095e-01
7.662819381980993938e-02 1.322426382310499249e-01 -7.932483685441721333e-01 5.839968836408893083e-01 -3.351937342774275463e-01 7.393191465117638916e-01
-1.255161038584372002e-01 -1.434699560546810193e-01 -7.569377418696409121e-01 5.790469161890022809e-01 -3.439573124410745808e-01 7.391874160659930304e-01
8.727517381347337996e-03 -1.517745828119869966e-01 -8.760412030821217444e-01 7.697674489149690658e-01 -2.980948024692498532e-01 5.644444732050789559e-01
1.263251157931835796e-02 1.303282523602507237e-02 -8.016348467864313765e-01 3.328996064523969539e-02 -3.765473485544988952e-01 9.257990455907886274e-01
-2.225641489703946568e-02 -1.158400743076113126e-01 -8.262947616528396599e-01 -4.630669504689188254e-01 -8.694019818645999376e-01 1.723635498396401955e-01
6.948297568895213383e-02 -1.334386360111239622e-01 -9.043655233839573704e-01 -5.839675837601605579e-01 3.445918150543085257e-01 -7.350090762125983668e-01
1.977275264278371622e-02 1.472650428799604228e-01 -7.418046051752525960e-01 5.429149778449514629e-01 -3.441418495549757872e-01 7.660350606966341847e-01
4.097421450137900961e-02 7.446340638571455773e-04 -8.202999211707182603e-01 1.205199822339414611e-01 -3.098453162444558262e-01 -9.431176034216005588e-01
6.078758683122645334e-02 -1.547987977039533003e-01 -9.069925711004445112e-01 -5.778952244059560872e-01 3.384448487938214734e-01 -7.426252042138866694e-01
2.897625747935959201e-02 1.346114413063614068e-01 -7.530258333503561108e-01 -5.915638776991459791e-01 3.298819091311881446e-01 -7.356834269096403922e-01
-1.672632024106825155e-02 -1.183272554654626885e-02 -7.822519597719510553e-01 -5.841984004016165244e-01 3.230803585565608094e-01 -7.445342912741872432e-01
-5.103464913150185939e-02 -1.757822934047341967e-01 -8.283090772993435547e-01 -5.862299399164667690e-01 3.395189751943701317e-01 -7.355687072112979674e-01
7.146951362687430087e-02 2.082895759306991335e-01 -7.536403299798143385e-01 -5.783980008311965237e-01 3.400955319862473125e-01 -7.414787803824642864e-01
-2.566612145967452768e-03 -2.295872902142118144e-01 -8.920823551112924132e-01 5.824171764361281145e-01 -3.374478448604388836e-01 7.395398465202621674e-01
1.154259256633877878e-02 -2.367676898890994641e-01 -9.181885496348871634e-01 6.605427211519739883e-01 -3.792750675686533679e-01 6.479457821870122647e-01
-5.384383680450890997e-02 -1.267217891880580982e-01 -8.059062066314397477e-01 5.849963585008038924e-01 -3.326435714411084543e-01 7.396806844305877648e-01
5.514253788677844076e-02 -1.355284444038879488e-01 -8.910763090530157138e-01 -8.502114559901305935e-01 4.187726988390055860e-01 -3.190139602121473406e-01
3.167034089877547587e-02 -4.994856975063495519e-02 -8.373392721155563656e-01 -5.820246828555259988e-01 3.423121408389629416e-01 -7.376107827175318876e-01
1.302387908065400501e-01 -8.745530649323284000e-02 -9.316636150847240616e-01 -5.920364106167088636e-01 3.245039957280819731e-01 -7.376923784753319779e-01
-7.134695425013317868e-03 -1.935043835871594897e-01 -8.674777795294084104e-01 -5.286681917344866477e-01 3.963993454844538245e-01 -7.505847733252284382e-01
-5.617277682145285778e-02 -1.495336985451586609e-01 -8.125843398073600010e-01 -5.859805202202649221e-01 3.349383200358992951e-01 -7.378639113643634673e-01
6.611233883229292174e-02 -1.100608337736717068e-01 -8.884647608532788565e-01 -5.286681917344866477e-01 3.963993454844538245e-01 -7.505847733252284382e-01
-8.667016012010991810e-02 -1.782548676024323375e-01 -8.013166067217503130e-01 -5.924983816142668225e-01 3.259792114098504778e-01 -7.366703615003706851e-01
-1.091265426936695593e-01 -1.754022195533791739e-01 -7.840401706230554213e-01 5.838115226652376144e-01 -3.435687256561636427e-01 7.356117432139704926e-01
-4.124854354595321876e-02 -1.253802242695253866e-01 -8.152392515667115092e-01 5.834047177248046223e-01 -3.335692802999997153e-01 7.405204052398428605e-01
-5.931370510283873188e-02 1.531817010530742151e-01 -6.752436489836902700e-01 -5.894980790192995146e-01 3.309836582430791263e-01 -7.368458677420834935e-01
3.744805803814464651e-02 2.332757942234728599e-01 -7.157084562852481513e-01 -5.832495579337735325e-01 3.325675082023675233e-01 -7.410929804404612353e-01
-1.240366282645683632e-01 -7.684124907976777608e-02 -7.267595278379633816e-01 -5.906490064302375442e-01 3.258481300114433044e-01 -7.382118580536474184e-01
-3.531404301211443775e-02 -1.432785749904913475e-01 -8.278638898101052801e-01 5.883935829644955096e-01 -3.218087323685441814e-01 7.417763350886533713e-01
-5.399500722239640449e-02 -1.702399483402358138e-01 -8.251822236217044582e-01 5.754550682818082574e-01 -3.382062142056591059e-01 7.446260948029254090e-01
7.949832491489225439e-02 -5.237274529802716377e-02 -8.777693922207600030e-01 5.848220553056228121e-01 -3.304661373704615435e-01 7.407936930614044124e-01
8.771989412205795367e-02 -2.106255758547364854e-01 -9.534130142172673184e-01 -5.319589446173517144e-01 5.469257463858805401e-01 6.464455964594706394e-01
-7.150980161494671639e-02 9.357140222150317488e-02 -6.921525432585974302e-01 -5.858365586111465850e-01 3.283574005329602530e-01 -7.409297835219512685e-01
7.120597303652603793e-02 2.415033256009819218e-01 -7.386465441677648736e-01 -5.792697074826380632e-01 3.284727555695385326e-01 -7.460242990959027320e-01
-2.760187641402793175e-03 2.557012548494242421e-01 -6.740977750419114845e-01 -5.788737261478468232e-01 2.985993609119082515e-01 -7.587777216278212000e-01
7.138949743568204220e-02 -1.441321104001768230e-02 -8.528377541532203843e-01 -5.848240832138765777e-01 3.261074974020042316e-01 -7.427211400190857349e-01
3.515648528793238487e-03 1.311339937345195605e-01 -7.361747747125556574e-01 5.896574314234246383e-01 -3.373118242496611630e-01 7.338425217909457787e-01
9.535390880266303437e-02 9.122149630928549913e-02 -8.237053261574419638e-01 -8.062976818167818527e-01 4.469723585325173776e-01 -3.874271015362272808e-01
-8.142021163177277920e-02 -1.993214824866744450e-01 -8.165304945757294597e-01 5.875036505082233962e-01 -3.315630787905393673e-01 7.381770691524152106e-01
6.745160933123295344e-02 -8.711159751114851135e-02 -8.821483710719300042e-01 -5.758516323000282267e-01 3.385594354775091075e-01 -7.441588581926197321e-01
-3.638609324024637097e-03 -5.975123951913234588e-03 -7.916204861959670325e-01 5.843827195753107384e-01 -3.241719866268868988e-01 7.439148877043266772e-01
-1.430129550763261370e-01 -1.634025338318758069e-01 -7.503990333482833952e-01 -6.082185458015010315e-01 3.211813594775103642e-01 -7.258875497398240562e-01
-1.439579252397077958e-01 -1.683049533618540261e-01 -7.517733340264828312e-01 -5.937667924975914557e-01 3.322026090063877057e-01 -7.328590742403829905e-01
1.038654735542217655e-01 3.447158927726885758e-02 -8.565798733600045178e-01 -5.849009629421069167e-01 3.238879993330633922e-01 -7.436312442584842586e-01
4.302455712176668501e-03 -7.134753695439388643e-02 -8.321974445536559628e-01 9.995348168683660939e-01 -1.424260414724437540e-02 2.696846482517620269e-02
8.360849578495545276e-02 -3.115018862017196466e-02 -8.715808109855305297e-01 5.850402483580229296e-01 -3.287464345011310018e-01 7.413863295232632211e-01
7.930054583355712616e-02 5.660762177958220814e-02 -8.252843878734724692e-01 -3.180906497511348796e-01 2.948474689069077725e-01 -9.010456751020399224e-01
-9.212370287718370243e-02 1.595310599659436473e-02 -7.122147133760363680e-01 5.751327913850188267e-01 -3.361313209901047871e-01 7.458136545566349529e-01
-4.338256076592239552e-02 1.043349000217318884e-02 -7.530287031080604709e-01 5.879880777384144386e-01 -3.275552257132552381e-01 7.395793362077003330e-01
7.850011675131908506e-02 -1.874475547613689563e-01 -9.371396305559057671e-01 5.790624528132352067e-01 -3.377408854086111356e-01 7.420362323130366144e-01
4.862109340500971738e-02 -2.228004163632517354e-01 -9.293738886873779137e-01 5.789175303032838560e-01 -3.320083612394887362e-01 7.447314557440256610e-01
-1.105448379731642644e-01 -9.495062994397804323e-02 -7.454609431081680171e-01 -5.808690926873021354e-01 3.292291765893333166e-01 -7.444455966979318662e-01
9.333538768423607634e-02 -9.172493620103626399e-02 -9.061757605249209924e-01 5.888167356358390281e-01 -3.241348904565414801e-01 7.404265153436093705e-01
-7.391163252214343060e-02 -6.994189412376060344e-02 -7.631601458941729144e-01 -5.465245299812352409e-01 3.459538859020748758e-01 -7.626446400244637491e-01
-9.486676813101829753e-02 -3.056755286084395217e-05 -7.171699658877168648e-01 5.879102274590132238e-01 -3.211251897912218434e-01 7.424555050174003190e-01
1.087333901868028363e-01 -1.060249803415980879e-01 -9.230046984745386984e-01 -5.867726093950241806e-01 3.254910561740488872e-01 -7.414536244529771336e-01
-7.110723284101842789e-02 -1.760722459733985445e-01 -8.126015327219452411e-01 -5.815466187375314400e-01 3.205273429284067888e-01 -7.477069965368785542e-01
2.495103636647680659e-02 1.717671892559364810e-01 -7.362827584409549209e-01 -4.555481398546746274e-01 -4.157248346576657982e-01 7.871777144481429955e-01
-2.647320307173501360e-03 -1.083044352356044016e-01 -8.363391490034631781e-01 -5.891111276996157109e-01 3.359489131206549462e-01 -7.349057129955771650e-01
1.449169927709692031e-02 1.624606881830369665e-01 -7.308864440385628436e-01 5.898773426532313291e-01 -3.408805023658912359e-01 7.320144832796272594e-01
5.364283424177865994e-02 2.584287946367142541e-01 -7.189501883524611614e-01 6.040711505123071978e-01 -3.071902789999249039e-01 7.353449378398451142e-01
-5.014375451808759238e-02 -2.266422085834775627e-03 -7.516807742514911572e-01 -5.708460685541874025e-01 3.450858413456725504e-01 -7.450171327687553635e-01
-7.885617196317898370e-02 -1.971661125018274452e-01 -8.159286480261253027e-01 -5.840904093319339019e-01 3.421074592451675556e-01 -7.360712465891260381e-01
-1.030163770379090016e-01 2.481748365434688700e-02 -6.996926796303446494e-01 5.792972544823672409e-01 -3.216993116163083810e-01 7.489487591649944820e-01
2.682239264021575240e-02 -2.551757525070834018e-02 -8.243273236537497217e-01 5.871805390521167567e-01 -3.246397734717207384e-01 7.415038988695171751e-01
-6.825467572463800314e-02 -7.231981215286477360e-02 -7.671034009177196689e-01 -6.632994336904664279e-02 7.080647057894585705e-01 -7.030253985653338589e-01
5.616268641261342202e-04 3.658655185774199649e-03 -7.875897012869128577e-01 -5.214033825155753865e-01 2.448629284744743007e-01 -8.174231822992427121e-01
2.375657737987204535e-03 -2.387672468439219486e-01 -9.000935895914609075e-01 5.828748573089922447e-01 -3.288342067087833831e-01 7.430511188439371528e-01
5.636943414624465132e-02 -9.678979292423293967e-02 -8.793461229758249287e-01 5.854070617675347643e-01 -3.388619785677070007e-01 7.365263956667679190e-01
-9.695025892068676043e-02 -1.325000034539995375e-01 -7.728818983435475909e-01 -5.842477285795738551e-01 3.253418920772221390e-01 -7.435100839324384481e-01
1.742379233280602277e-02 -3.181411318931232773e-02 -8.105462377867870272e-01 -8.605278451949652796e-01 9.919978305496784943e-02 -4.996511089609997902e-01
-4.107525803553454397e-02 2.673123922800102123e-02 -7.475527737700512487e-01 5.789020233406185767e-01 -3.298071004541994755e-01 7.457209423518499358e-01
7.878182193047907067e-02 1.375958398077120615e-01 -7.925535159350770575e-01 5.846267352002004758e-01 -3.216399643211841353e-01 7.448216657970028187e-01
-1.326949909870072386e-01 -1.873503438869838778e-01 -7.707764258400928714e-01 6.000342192225199822e-01 -3.214975361116806929e-01 7.325286820569822943e-01
7.329378435646213830e-02 1.877252946384167787e-01 -7.642664867838740994e-01 -5.812911983475486100e-01 3.405011333703353849e-01 -7.390260623937343620e-01
-2.861248235105844431e-02 -1.393236562939527967e-01 -8.297518360111736380e-01 -5.825713466866824231e-01 3.368143213854385420e-01 -7.397071981056638768e-01
7.525789014515980868e-02 5.807632836769134610e-02 -8.235821693203122518e-01 -5.928048908746540446e-01 2.553878258065560569e-01 -7.637796932263188898e-01
-1.007715183181309565e-01 -1.845437865592681193e-01 -7.930518980186859190e-01 -5.605006234326851411e-01 3.460812030909673487e-01 -7.523741436271449423e-01
-7.170337129854945091e-02 1.430204916454615172e-02 -7.289869170667095943e-01 5.886473626916639557e-01 -3.319567279222113698e-01 7.370881990530897543e-01
1.041701468394375931e-03 -5.050209330237720798e-03 -7.948820201131309160e-01 5.819529796790183784e-01 -3.221252064151183814e-01 7.467034758421372542e-01
6.243367400321947480e-02 -1.023809052449954626e-02 -8.438943903671675129e-01 -5.825364061475477584e-01 3.400316606107472439e-01 -7.382613394286583475e-01
-9.052881988533648117e-02 -1.818921151053628227e-01 -8.015608526698031477e-01 5.871486854672727240e-01 -3.432143865343380562e-01 7.331168433680347318e-01
-8.117882608672204311e-04 -2.046925209371528165e-01 -8.777013141612042268e-01 -3.770295863902369260e-01 5.691669059054094149e-01 -7.306830531827527286e-01
1.273212411827926438e-01 -1.831638985637881051e-02 -8.985686822294606246e-01 -5.764506876367665456e-01 3.203369939554063239e-01 -7.517238954740717016e-01
2.187564507107298342e-02 1.933370200916628145e-01 -7.258064965227850607e-01 3.590065454789040378e-02 -1.831887250903355413e-01 9.824220243880988912e-01
-3.295217938221062931e-02 -4.131082620475225349e-03 -7.660821742413658209e-01 -5.862934522409470883e-01 3.253376270825848460e-01 -7.418998694323009069e-01
-1.757684747127687130e-02 -1.323938849747050006e-01 -8.329701645761101725e-01 1.820668796805981482e-01 6.742040893241765254e-01 -7.157517008445934970e-01
-1.043431156834203344e-01 6.440886527585136002e-03 -7.067829878499853891e-01 5.902268965283047342e-01 -3.259625080477220882e-01 7.384989194046287508e-01
9.204864710708610120e-02 7.769912422871302904e-02 -8.280656797835866945e-01 -5.814581466519287423e-01 3.293212827367850704e-01 -7.439448342644112699e-01
4.205683975859288853e-02 2.226187589812223255e-01 -7.241635245648215813e-01 -5.771244038269280896e-01 3.298701960641468589e-01 -7.470696595740011769e-01
-5.623574463673690349e-02 4.636050562451084212e-02 -7.252668759654495867e-01 -5.960515262089133293e-01 3.047267386359250874e-01 -7.428756240881361217e-01
1.093886042286982066e-02 -2.406044301316140888e-01 -9.191847581497056829e-01 7.764877845301705328e-01 -2.009128910087703834e-01 5.972442805937326904e-01
3.748649265252222001e-02 9.166331793884995721e-03 -8.155908156895831373e-01 -5.838137267608733971e-01 3.397891406103390466e-01 -7.373634601530423271e-01
6.395993588758472521e-03 -1.598006736054651822e-01 -8.663646917324031582e-01 -5.801553579603587751e-01 3.317601800807348789e-01 -7.438783123217708182e-01
6.497422600230454148e-02 -1.964596433331867453e-01 -9.288981653797773186e-01 -5.859133790670690844e-01 3.340715704343472647e-01 -7.383100284147154913e-01
2.646386343510209738e-02 -8.999350540181211278e-02 -8.528038384821509110e-01 5.758086855322948061e-01 -3.339566544196089781e-01 7.462689264832298441e-01
1.284029152031232746e-01 -1.065470221053490679e-01 -9.404054331133617772e-01 5.851503836712578233e-01 -3.312375094119530683e-01 7.401896654560545796e-01
6.292137700174361969e-02 -7.108196642325522417e-03 -8.428498113381226453e-01 -5.843542461827481160e-01 3.244054992693002348e-01 -7.438354569473198952e-01
-1.038204201017341177e-01 -6.567890032533418854e-02 -7.394047318512204647e-01 5.811235717286633573e-01 -3.291995043730244763e-01 7.442600894189316252e-01
-4.756504149277955562e-02 -1.562922314233752830e-01 -8.223757700542513316e-01 -5.853547029711980709e-01 3.360379237577794664e-01 -7.378606816371645616e-01
1.096648243337293160e-01 5.897748822970970417e-02 -8.519029072616575160e-01 5.928621564747456052e-01 -3.258428083595351077e-01 7.364379998754038148e-01
3.970062993200897117e-02 1.118279744844897922e-01 -7.732776079626023646e-01 5.934966013465370338e-01 -3.381579054637841586e-01 7.303499265163624354e-01
-3.898656240005932139e-02 -2.209759030125298118e-01 -8.595775621921206699e-01 5.764715723450459794e-01 -3.410725340993236987e-01 7.425294962229419538e-01
-9.482338531280964933e-02 2.419237174697821263e-02 -7.046885528712274471e-01 -5.900913251677732951e-01 3.373148356211195242e-01 -7.334922832802251991e-01
1.019532819825116760e-01 2.166932201905385352e-02 -8.624289280992402107e-01 5.855448929402505831e-01 -3.366922818901637027e-01 7.374113408859297447e-01
7.013830855229077899e-02 -9.253273758051824838e-02 -8.866628438925083788e-01 -5.899254309417896192e-01 3.235679530648895019e-01 -7.397917042502849538e-01
-1.848648358588304711e-03 2.661092596583835429e-02 -7.768605223755284950e-01 -5.870254991450817306e-01 3.218336449597621884e-01 -7.428486846763486806e-01
1.538856852119340054e-03 1.246495563342945728e-01 -7.358430496531052079e-01 -5.833209450931821083e-01 3.162623728983545712e-01 -7.481408868016096170e-01
1.183163724108396778e-02 -2.380430692308404747e-02 -8.049979945683854998e-01 2.256456687922828996e-01 4.549516797362122000e-01 -8.614540041467577680e-01
2.499328312264770952e-02 6.427346669800296231e-02 -7.811857377590880613e-01 -5.857209326941268390e-01 3.281423724333040193e-01 -7.411164364779430080e-01
8.648833210532974602e-02 -2.062339926274840141e-01 -9.518374393471507044e-01 5.858334115311463197e-01 -3.346960509336291967e-01 7.380906227714941759e-01
8.487270824451826137e-03 -2.400260170800176396e-01 -9.071599643582092254e-01 8.488285710602512246e-01 2.468858051281653532e-01 -4.674798992235169037e-01
-6.619664509983326506e-02 -2.823524453450025964e-02 -7.505891236398585242e-01 -5.850178579700421322e-01 3.286680954665174292e-01 -7.414387290117475660e-01
-1.234201817797931922e-01 -3.795083208020234855e-02 -7.115367892655962700e-01 5.808190568711955049e-01 -3.356442981089206024e-01 7.416145416065038631e-01
1.484313169670139522e-02 -1.791390290415192654e-01 -8.729255933352721986e-01 1.168481539266822411e-01 4.637967439528117852e-01 -8.782021915383131372e-01
8.162061851068745655e-02 7.487069382534169981e-02 -8.210865571350349779e-01 -5.864966497447646754e-01 3.305780076052584060e-01 -7.394185964160656654e-01
4.402198650516857964e-02 1.423324204851497410e-01 -7.630703658894899544e-01 5.585686767918321971e-01 -3.467357247671786213e-01 7.535087063048446776e-01
-4.924351366274476449e-02 1.216545513038014698e-01 -6.988561386574145828e-01 5.906889285292509228e-01 -3.266726801803206959e-01 7.378153900107881080e-01
-1.006153777664979543e-01 -2.107248474711641024e-03 -7.135759465870188389e-01 5.828896267317389412e-01 -3.384439276884603220e-01 7.387119809907933821e-01
-5.639734154267555394e-02 -1.673883719592487163e-01 -8.234472540285031616e-01 6.758433425851160248e-01 4.140223260750138246e-01 6.097715062175440570e-01
6.071219150759113448e-02 1.926642813952907374e-01 -7.538169959682586851e-01 5.930401930839012126e-01 -3.236558167288140497e-01 7.372585989221239755e-01
4.622173777970556285e-02 1.130403905912838632e-02 -8.249478649297053989e-01 7.998402452359792969e-01 -6.002116791270211138e-01 1.233831581079715065e-03
1.226501558081768452e-02 -1.829477254204074088e-01 -8.748270805416366036e-01 2.639295674846594553e-01 3.166732955881422784e-01 -9.110758515451419237e-01
5.722754402327714235e-02 9.510243765733629451e-02 -7.928312810138706812e-01 -5.915089554645640568e-01 3.318374240545677312e-01 -7.348476574107378756e-01
-5.853422172249219541e-02 6.387099520537985187e-02 -7.156553568366867957e-01 -5.800205725364651066e-01 3.350293311926176854e-01 -7.425169915059847137e-01
-3.067198304157942902e-03 -1.193081646872257845e-01 -8.425936404415247383e-01 5.894332937222939162e-01 -3.379700384311030703e-01 7.337197321692845442e-01
-6.731907201812351027e-02 -9.341472067727799033e-02 -7.804250423179779350e-01 5.840778286226853133e-01 -3.293091398064026953e-01 7.418952625211835405e-01
