-2.975669171966685046e-03 -1.232368980495777561e-01 -9.113653123919068788e-01 -4.197579069014557573e-01 3.361987620390123888e-01 -8.430739540497883544e-01
6.665757447030414007e-02 1.027560779267409734e-02 -7.812058870896884111e-01 -6.123660627909313092e-01 -3.834277102814785954e-01 6.913689291038725981e-01
6.217387937739765613e-02 5.471234651738453997e-02 -7.603760126590942692e-01 -6.196616466958662084e-01 -3.813010086145979249e-01 6.860240407184413636e-01
-2.298925546840404482e-02 1.107870444376840291e-01 -8.092999805941556435e-01 -8.466429401812162192e-01 -2.273170366114477814e-01 4.811680545375958684e-01
1.871401782131468933e-02 8.847765607886982908e-02 -7.803734680851500682e-01 -6.260566213038896155e-01 -3.828846886682847894e-01 6.793028942268306558e-01
-3.592115855607094614e-03 -1.928115598021941934e-01 -9.445486924089596670e-01 5.266327474719570967e-01 5.284106129034049637e-01 -6.659130374614885550e-01
3.392281220099943595e-02 -1.211769157246021800e-01 -8.822917796684700553e-01 6.199876133258194200e-01 3.722757831147541774e-01 -6.906707613826220671e-01
-7.948874754903170747e-02 3.402320196545664116e-02 -8.968885491316662684e-01 4.679367180457422171e-01 3.776451864313440376e-01 -7.990114774330936420e-01
4.908042103988551758e-02 -6.425827916953975871e-02 -8.368506964636519552e-01 6.222691379286189317e-01 3.692469303952186088e-01 -6.902447568618554907e-01
4.926844263083562242e-02 1.511647011668328378e-01 -7.179463010534504752e-01 -6.225468845594838152e-01 -3.874404782355501120e-01 6.799450362712334828e-01
1.279838740457167889e-01 -4.450254916738399097e-02 -7.552408792236535717e-01 6.302252415890207127e-01 3.917175728083381880e-01 -6.703532561397794742e-01
9.665730249986670408e-02 -2.886365707387748142e-02 -7.763466412593038601e-01 -6.169144269477916387e-01 -3.844399264090251900e-01 6.867477941765093297e-01
2.293687347245008598e-02 -4.293669705872401460e-02 -8.524739053239948072e-01 -5.287557189342035890e-01 9.455515812511104679e-02 8.434907893784666655e-01
-4.902828132536111994e-02 3.834493228750596172e-02 -8.672680038082923870e-01 6.265053642223989971e-01 3.749502888900307918e-01 -6.833032339026662294e-01
-5.092807787421559790e-02 2.232013751207503061e-01 -7.672860172141113821e-01 -6.133101005003329664e-01 -3.811352076602068095e-01 6.917995909987824099e-01
-2.152945238959197080e-02 1.765904531084470930e-01 -7.652778477033578275e-01 6.206169447183480514e-01 3.809789668031056120e-01 -6.853390655595965608e-01
-5.269724239515410913e-02 2.215519366202031992e-01 -7.679946543304522200e-01 6.114796063651150027e-01 3.798640471410695829e-01 -6.941152618183605849e-01
-7.755033257908605648e-02 -6.659813867639693963e-02 -9.550164446092025416e-01 -4.711526406622116303e-01 -8.772987129115057681e-02 8.776779927059028541e-01
-3.089438298115907561e-02 -1.801620635030159621e-03 -8.752794447305262127e-01 -6.126097715050641268e-01 -3.903910025771791248e-01 6.872438671703794411e-01
-7.381570917377158238e-03 2.034548661938806458e-02 -8.469256851922414286e-01 -9.556256460029728395e-01 -2.127562392154368487e-01 2.037508463204624753e-01
-4.069837562519697249e-02 -8.148702073840884130e-02 -9.268237262093388384e-01 6.147626173851316045e-01 3.778962215150723503e-01 -6.922870575349604483e-01
2.260479989131850345e-02 -1.986517524568630344e-01 -9.357706362368335418e-01 6.176242842548768097e-01 3.912989859396737713e-01 -6.822208931872683069e-01
1.000281172363082366e-01 -2.315472406587085197e-02 -7.701314698854779817e-01 -6.115486065286724893e-01 -3.995482703509371514e-01 6.829124991625306063e-01
-2.479071856901848489e-02 5.553362825847948936e-02 -8.350466215351869392e-01 -5.962131857587484735e-02 -2.972272832080360971e-01 -9.529434613281336786e-01
6.157446059168160402e-02 5.044819484369791190e-02 -7.615071443502160475e-01 6.198946179724192929e-01 3.823037104604234959e-01 -6.852550879614253132e-01
-3.212803778402300442e-02 1.480597213341021401e-01 -7.970305130677637351e-01 -3.947784107904598883e-01 -5.016780589838957249e-01 7.697201644155554634e-01
-6.827822453382217938e-02 7.868301277873743227e-02 -8.618740432282258057e-01 6.236311787873846102e-01 3.918482495571722901e-01 -6.764163674566406881e-01
6.679538953874587792e-02 -8.355500950414809780e-02 -8.336039866949944699e-01 -6.165081403165053597e-01 -3.856001065016979590e-01 6.864621408274191872e-01
1.977800446076165980e-02 -1.323696011143790097e-01 -8.962882917017299667e-01 6.839277899931071047e-01 4.835156913293652825e-01 -5.463106756356042037e-01
-1.215085716442539515e-01 6.591332372949758323e-02 -9.184075808955253217e-01 -6.180144751332116160e-01 -3.915021167028779892e-01 6.817508350878545009e-01
1.381137892354327053e-02 1.428949416853250443e-01 -7.543163189813003600e-01 -6.141635122655213497e-01 -3.948874705815819119e-01 6.832767124521069713e-01
-2.796285284285144127e-02 1.393181604625351802e-02 -8.638405987507952188e-01 -6.160165088662346022e-01 -3.755452180997200240e-01 6.924517672493079035e-01
-7.222712381231263801e-02 6.481920515486640222e-02 -8.750006038549430487e-01 -6.128877338742694247e-01 -3.824423819532790092e-01 6.914524207437305892e-01
-3.653658911740162440e-02 -8.539293765540072190e-02 -9.253002250226051162e-01 6.148516644824787436e-01 3.976619893021740570e-01 -6.810450594104350275e-01
-8.683239120052020990e-03 -1.675493809531508060e-01 -9.357289916516801087e-01 7.811834523089410398e-01 2.666754525429486100e-01 -5.644790667949500795e-01
-1.292191053111939048e-01 -8.599937947691047805e-04 -9.627042555796111456e-01 -6.073781681843029023e-01 -3.887662877426822372e-01 6.927860667824193852e-01
1.073470715146062904e-01 -8.794739405217934930e-03 -7.537303347994214198e-01 6.149730998423067474e-01 3.752642016155940397e-01 -6.935307242337250822e-01
-1.907788144399993543e-02 -1.134732394808166123e-01 -9.253417461100679198e-01 6.218880731500324721e-01 3.785242983047871768e-01 -6.855469203975818049e-01
1.916222735197898111e-02 9.986859646721089889e-02 -7.745365612726452520e-01 -9.002679791734696790e-01 2.829652982293814345e-01 3.308295719443387073e-01
-8.756610132486106202e-02 -1.519332931360604377e-01 -1.008208378859170473e+00 6.778218872055711275e-01 3.383941763977292849e-01 -6.527226597914158601e-01
8.012234977156232341e-02 -1.762827994534138243e-01 -8.736011409664548033e-01 -6.249241805233308744e-01 -3.765487446502508995e-01 6.838719262402599419e-01
-1.074543000419234673e-01 9.551041917036135961e-03 -9.373791828049938823e-01 -6.155356037333860053e-01 -3.807339314243216588e-01 6.900417335196153967e-01
-1.042648724505636226e-01 -1.231566254747893940e-01 -1.008799097685384671e+00 -6.150959121562497023e-01 -3.771375629056554768e-01 6.924047064356610992e-01
6.875148482202411704e-02 -1.328729182943074738e-01 -8.594251281520517427e-01 -6.139034427944276562e-01 -3.823302306842786269e-01 6.906128855082673823e-01
9.666174153051777795e-02 6.660860607352137031e-02 -7.228549917139034386e-01 -6.261243437624983699e-01 -3.855936546202978210e-01 6.777063078240773697e-01
-6.808790737466313692e-02 1.518432134604985051e-01 -8.190849569712592704e-01 3.374877029694662856e-01 2.285759452925395785e-01 -9.131566610270195339e-01
-1.071800936662745812e-01 1.854714387602169889e-01 -8.369752410513221497e-01 6.060453886496328657e-01 3.841415877374308452e-01 -6.965229554487643027e-01
2.379951610405744294e-02 1.468161971736939020e-01 -7.413898097155564582e-01 6.238206148025768893e-01 3.764059649508265659e-01 -6.849572177127358774e-01
1.146094170071552815e-01 -4.255170216769090484e-03 -7.446911465299745903e-01 6.098979489304017232e-01 3.799676624013786919e-01 -6.954488244434100519e-01
-1.410519296986920135e-02 -5.403596996348872944e-02 -8.811311662064267303e-01 9.867314467238095244e-01 9.130894260256107453e-02 -1.342524824617406243e-01
1.334652103208753236e-02 1.812843253787034259e-01 -7.314269396351880115e-01 6.200716457666060055e-01 3.753300017120593246e-01 -6.889401599058645465e-01
-1.201455642059022499e-01 2.279231060506277037e-02 -9.396171626168043911e-01 6.255657445730909982e-01 3.764832865333687661e-01 -6.833211793715658899e-01
1.035252406562629790e-02 -2.091297568347988967e-01 -9.587375078835085329e-01 -8.914340560961705462e-01 -4.084609485018306785e-01 1.962268513249757762e-01
3.308779289622090780e-02 1.317742475950106906e-01 -7.414451886679143122e-01 6.256505507923996179e-01 3.754478140089330673e-01 -6.838130791737467851e-01
8.243897575253988572e-03 -1.542975349615459402e-01 -9.238222924500244515e-01 6.164502197575911779e-01 3.841644041303713397e-01 -6.873185849080282184e-01
1.524347055366940748e-02 -1.438579364346473655e-01 -9.106479373946504419e-01 -3.248534847075832399e-01 8.580167095274083833e-01 -3.978410984866935785e-01
-1.804937463630738870e-02 -2.053793318803858736e-01 -9.776277427783728324e-01 -6.153134915331794907e-01 -3.797785761058671827e-01 6.907659084438433350e-01
6.572181495892177004e-03 -1.431958367515297481e-01 -9.142802364811125626e-01 7.873485703994015372e-01 1.134551235737387559e-01 -6.059786824838695463e-01
3.269551465442387811e-02 9.615191544543821855e-02 -7.617416357206818756e-01 6.201622377673385866e-01 3.950169739388065815e-01 -6.777613069124226453e-01
2.462873741826982626e-02 1.285676615723245486e-01 -7.526378150635825159e-01 -6.067971128318492280e-01 -3.885631288485278945e-01 6.934089404949828062e-01
3.902421469369837109e-02 1.019557957116938030e-01 -7.546580208736397566e-01 -6.208409996712790369e-01 -3.921253996778792383e-01 6.788181818827707659e-01
-8.019696957750127586e-02 3.330728706185570771e-03 -9.147391749185048715e-01 6.163931569036031899e-01 3.761459753203300616e-01 -6.917902004023530615e-01
7.306239540589061499e-02 -1.923326652873178777e-01 -8.870896683518186832e-01 6.170751390875158782e-01 3.923459690460923133e-01 -6.821164953975278333e-01
2.122175952744956642e-02 -7.966579559288106127e-02 -8.721890854568423723e-01 -6.136100170965760325e-01 -3.718343750543153248e-01 6.965787424596781019e-01
9.799043563228802822e-02 1.343748896864739237e-02 -7.496139363236173914e-01 6.196721549716006638e-01 3.916858736837032784e-01 -6.801386599139078726e-01
-4.200090587898966388e-02 7.429885137588814262e-03 -8.800180097662883005e-01 -5.589835311416374575e-01 -2.312796259743634397e-01 7.962707746248035567e-01
6.185020381547432812e-03 -1.920987944031037897e-01 -9.603191454489753420e-01 -6.480965068010062780e-01 -5.276628482493677108e-01 5.491291619006387625e-01
-2.981638137797041829e-02 1.415394680778800929e-01 -7.988334846505994458e-01 -6.232426593084270383e-01 -5.065635540855090158e-01 5.957868354457132032e-01
-3.752972781614245107e-02 1.663733833155244327e-02 -8.691178832418556821e-01 6.156240136619928194e-01 3.766751216929688506e-01 -6.921870603386671705e-01
-4.018292649521932464e-02 1.586265349395752366e-01 -7.920632594124531467e-01 6.209347464711385545e-01 3.864424070655119725e-01 -6.819840955962507278e-01
1.057185879346562128e-02 1.385384734823691677e-01 -7.578621169201297247e-01 6.235204206192549448e-01 3.781450173030067585e-01 -6.842723368365086767e-01
2.786450316966935029e-02 8.137112649960034916e-02 -7.761997472436578116e-01 -6.169442101024348313e-01 -3.811515405202541285e-01 6.885516282604521310e-01
-5.509823170835712047e-02 -1.128579257488751264e-01 -9.573091601751787527e-01 6.102580478205940073e-01 3.824395691495492966e-01 -6.937759660141772367e-01
1.252142607201933711e-01 -4.831914864852059760e-02 -7.616217602526590413e-01 -6.110506093071921274e-01 -3.821000771782916972e-01 6.932652334320917875e-01
-7.720242234621621166e-03 -6.598426165610890570e-02 -8.956447576510582209e-01 1.778236098248831831e-01 -1.938393727970698088e-01 9.647823906677018835e-01
1.307092010139487281e-01 -1.169464414155485660e-01 -7.933355382080595763e-01 6.167169002994373761e-01 3.944460111582080986e-01 -6.812287495154859540e-01
-1.162146438210609894e-01 -1.074402206261074189e-01 -1.008934252017255728e+00 6.166970861907354884e-01 3.913769834506871104e-01 -6.830144659587360501e-01
-2.977057327880184082e-02 1.139808165297191284e-01 -8.111352676272062245e-01 5.434743224277573947e-01 -4.049056810718255628e-01 7.353142527501088654e-01
1.281179236841986091e-01 -1.265199770970600046e-01 -8.009969199307171994e-01 6.240796300797719631e-01 3.827883696295245053e-01 -6.811737512528399652e-01
-8.573173040100587339e-02 2.213473448265156351e-01 -7.994859886118161896e-01 -6.290405405779881942e-01 -3.780654054722396018e-01 6.792455723039080295e-01
3.134478204132452178e-02 1.164517283450852009e-01 -7.543030101211374294e-01 -6.680425882835925311e-01 -3.178581755063905057e-01 6.728189061724612063e-01
-3.028105574262626026e-02 -8.686513666332679184e-02 -9.205080074896270226e-01 6.191784393923006613e-01 3.803246176413875301e-01 -6.870016342103181239e-01
7.405352901589842829e-02 -1.191053808537795994e-01 -8.452771245737131789e-01 6.141968561346112798e-01 3.846031613070125532e-01 -6.890882601140522201e-01
-3.525225375770671410e-02 -1.706917392497267205e-01 -9.718640258598895132e-01 6.090967566374919651e-01 3.742303347099777411e-01 -6.992515982366760419e-01
-1.046240047969487219e-01 -3.038546955592336118e-02 -9.554284549476167454e-01 6.181223371686921375e-01 3.831380125325127284e-01 -6.863891313575338771e-01
7.873346945445734713e-02 8.873620089033265601e-02 -7.264619285869283738e-01 -6.128257522464755080e-01 -3.795910069060187131e-01 6.930766659321437873e-01
1.022888551922362943e-01 -1.831726148719726444e-01 -8.558368624829764126e-01 6.098498931590388139e-01 3.833273729601280322e-01 -6.936448896614143544e-01
-1.023088166222796136e-01 3.167859428153187162e-02 -9.204032451751230637e-01 -6.136184514108306010e-01 -3.788884820137897735e-01 6.927596367322941262e-01
7.785223554740776375e-02 -1.858748100696015482e-01 -8.791663603697897900e-01 6.242834033653870129e-01 3.770101791727213381e-01 -6.842028625215493820e-01
-7.006256144435628330e-02 -4.744324508671935586e-02 -9.340624616417344539e-01 6.135991231066494356e-01 3.857030163498657016e-01 -6.890060226887468886e-01
2.975328529396456881e-02 -9.981200271097012688e-02 -8.740435757800087968e-01 6.178133644051033713e-01 3.818699556582799692e-01 -6.873732492088926449e-01
2.904934022907622315e-02 1.719817193152334556e-01 -7.225628357003867075e-01 6.117563939180000743e-01 3.862042145945959737e-01 -6.903625273215631131e-01
2.189236784478821099e-02 1.988232710780255819e-01 -7.157271158632357855e-01 -6.210914768852252577e-01 -3.781235158608328706e-01 6.864896096035048023e-01
4.253376668994655885e-02 -6.761551974039139989e-02 -8.463977458858796821e-01 -6.158933355015130395e-01 -3.876240408728389708e-01 6.858738967348388949e-01
-1.154281264725227352e-01 7.256044712010682740e-02 -9.092990939463485578e-01 -6.198356880379307654e-01 -3.826507498642869876e-01 6.851146790595308289e-01
-4.632712631997371738e-02 -1.971475507597711951e-01 -9.983327780047218658e-01 -6.108937961455724874e-01 -3.892337195145428308e-01 6.894243115989788784e-01
-5.786001721335904888e-03 -1.129790228822255549e-01 -9.228075627197930286e-01 -2.101586525079588569e-02 -5.369297302346381917e-01 8.433651630212853911e-01
-6.675391244981829231e-02 1.193879766408108833e-01 -8.377420175202220376e-01 6.199453470686752121e-01 3.761254690887363417e-01 -6.886199228534402028e-01
-7.546386628049492340e-02 -1.656341255809341828e-01 -1.005041641026069632e+00 6.234624399588771793e-01 3.846148958273979401e-01 -6.807098999340344125e-01
-1.927491139564320444e-02 1.729299441738820289e-02 -8.559096584483423253e-01 -4.566674097329887494e-01 -4.339934211661008318e-02 8.885782880487278490e-01
8.692585737737959506e-02 8.680215779289705835e-02 -7.203093752549968309e-01 -6.079054682548503674e-01 -3.742586740199820294e-01 7.002723660024403607e-01
-8.398840168893194347e-02 -9.145294239724365004e-02 -9.729239958218500739e-01 -6.191416878216978725e-01 -3.906910435939008885e-01 6.811931288972371545e-01
-9.109602021025117735e-02 2.225646441754917659e-01 -8.036331213620258040e-01 -6.042676661861453580e-01 -3.919034477603815514e-01 6.937379009651087891e-01
3.296210767964126431e-02 1.275550644993476979e-01 -7.458000016082991790e-01 -6.062081066482667424e-01 -3.874884256741226718e-01 6.945246226034852421e-01
-3.776803999279111645e-02 1.979198249338441074e-01 -7.646753097383367503e-01 3.433101065782608319e-01 4.011963205065553484e-01 -8.492229878737530546e-01
2.000379757811820633e-02 -6.714034992874937102e-02 -8.663001702772620272e-01 -6.183758310526132895e-01 -3.874736350136969154e-01 6.837218101971460626e-01
9.853282078887491691e-02 3.680144555923833133e-02 -7.378818326541350947e-01 -6.231214021556931160e-01 -3.806794787725004681e-01 6.832297217020205649e-01
-2.840551948626075449e-02 3.886826904851008874e-02 -8.485352278161438777e-01 6.141802623398763261e-01 3.770449909246209597e-01 -6.932673944235179242e-01
-3.403949242326087532e-02 -1.454019232650030358e-01 -9.556324314657831387e-01 6.324630034828587766e-01 6.968483482841817400e-01 3.382202370040104378e-01
7.316802900948214672e-02 -8.006328373152374334e-02 -8.259267465163062649e-01 -6.153999198193615960e-01 -3.868122380509664837e-01 6.867745126170057279e-01
-6.720763253212737320e-02 -1.087476307997206348e-01 -9.675777943001715453e-01 -6.095732005405366527e-01 -3.902941242080120721e-01 6.899934853253814060e-01
-9.899212009631709608e-02 -1.243616112391783199e-02 -9.421570341484647448e-01 -6.159083243325681467e-01 -3.892766741182172030e-01 6.849237964951339075e-01
9.614182044649985381e-02 -1.520060724189852830e-01 -8.438963986248759763e-01 6.085694954395245437e-01 3.850187062934707360e-01 -6.938326635613119020e-01
-1.861787807758799596e-02 -1.299704186862513933e-01 -9.360336027101449075e-01 -6.184806650518253068e-01 -3.876008556117563897e-01 6.835548578468929604e-01
-1.138761127057446171e-01 8.334333402153165649e-02 -9.018425435003201152e-01 -6.198425434541653400e-01 -3.902882679452470138e-01 6.807865225080254046e-01
-9.894622416140842758e-02 3.782671904886829306e-02 -9.121701774945373264e-01 6.148135171317127279e-01 3.915510652891397991e-01 -6.846109131638736800e-01
-7.828898050763721805e-02 -1.196626936788389300e-01 -9.835866450410287731e-01 7.538709190075320032e-01 6.798363248594785357e-02 6.534958784787817665e-01
-3.229820697408002095e-02 3.575927685000314382e-02 -8.554864661555995342e-01 -6.114423278919677296e-01 -3.933022391155687192e-01 6.866233526240798080e-01
3.227516893899270989e-02 3.616487644890153952e-02 -7.975188486702100565e-01 -6.163635440180841307e-01 -3.694679835380287880e-01 6.954059179686423731e-01
-1.376355667874347433e-01 7.190079096819393042e-03 -9.639598863400182793e-01 6.161335831425572840e-01 3.829314023446158677e-01 -6.882898726716085713e-01
-6.717474619954978167e-03 4.664092322562901627e-02 -8.264908858789846713e-01 -5.960782717230137528e-01 -3.839444714898233024e-01 7.051789395551353312e-01
-5.591594053988293948e-03 8.670997421782000725e-02 -8.012898611794068149e-01 6.136755649751841624e-01 3.866444934364638986e-01 -6.884100062082542104e-01
9.903732408513922503e-02 -2.594953663979900418e-02 -7.725827488626185735e-01 -6.173950564645349637e-01 -3.830630235086355251e-01 6.870851943344262747e-01
-7.346104189303146077e-03 2.191116375136434036e-01 -7.306029232162681852e-01 -6.161806256356204825e-01 -3.873309995446974074e-01 6.857814034975000528e-01
-7.062780520041428423e-02 -1.179624296462154637e-01 -9.758324036921082190e-01 -6.159544250852861946e-01 -3.724773388343156633e-01 6.941619251102447707e-01
-4.034724517673145272e-02 -4.070688249569769795e-02 -9.037275338621731935e-01 6.183126652357378017e-01 3.725682466718666652e-01 -6.920132582407143573e-01
1.062709074069480009e-01 -7.674717214579991620e-02 -7.944432652343437207e-01 -6.178054612903006726e-01 -3.859506765086486713e-01 6.850974290583750070e-01
-8.768546950788941308e-02 1.030443391501565942e-01 -8.674300113631810971e-01 -6.246180922839572602e-01 -3.813820716383647391e-01 6.814689679100427444e-01
-3.577430334388773982e-03 1.052646277988548290e-02 -8.421557849568921394e-01 6.208590104252695863e-01 3.749709389752337030e-01 -6.884263824823876332e-01
-1.169743622596952290e-03 -2.375475371436550631e-01 -9.889090852388022768e-01 1.791644997209749512e-01 -5.097050751927000301e-01 8.414872657162060232e-01
1.207375369059617426e-01 -1.783163004227390491e-01 -8.383992806708043810e-01 -6.264315950429116819e-01 -3.855668546269143682e-01 6.774375671197320203e-01
-1.010152321234678192e-02 1.432263180104546563e-01 -7.737197737212911930e-01 6.157037927467191585e-01 3.954291041116952954e-01 -6.815751339498288264e-01
-6.071253234063563042e-02 -1.548877177576130637e-01 -9.857930754710745314e-01 6.528749246419386365e-01 3.114030142213560226e-01 -6.904943848487379299e-01
-4.027637856598930387e-03 5.514228134213734756e-02 -8.213615262667939287e-01 -9.627545146766892659e-01 1.283018806114516741e-01 2.379965795998282563e-01
8.141750764482279246e-02 3.592203762912097448e-02 -7.536779524993041379e-01 -6.211228505321259030e-01 -3.801442467570093631e-01 6.853442610866399276e-01
-1.110982819608970495e-01 -2.856913182913634053e-02 -9.620155921262116827e-01 -6.197595005422970038e-01 -3.805155945119805261e-01 6.863716513819292375e-01
7.771995965568023745e-02 -3.228222106959522525e-02 -7.933108724647282006e-01 6.147678139951506804e-01 3.846052599214898060e-01 -6.885777580755475524e-01
-2.393838004980162679e-02 -8.655372571855873831e-02 -9.131713645823308356e-01 -1.898912534844043043e-01 -3.757759316513601400e-01 -9.070467248392851678e-01
-5.867323198047257049e-02 8.621810693078682530e-02 -8.476985497538629399e-01 6.551003242428193873e-01 4.888161758526969325e-01 -5.761096348801140188e-01
-8.817183793313332699e-03 -1.484416432590677515e-01 -9.250983386559352706e-01 6.413668024547349855e-01 4.685959729806886132e-01 -6.075083857983121227e-01
8.714435262252148359e-03 6.078251551583867263e-02 -8.030558700165228991e-01 6.046969524424732345e-01 3.889886457194004499e-01 -6.950031864733946518e-01
-5.929416468048450545e-02 -8.614821607090426825e-02 -9.478341998315943373e-01 -6.235038024745103158e-01 -3.768583153355744009e-01 6.849969477758713898e-01
-5.680359534088564449e-02 1.964731878153402889e-01 -7.875295304366627391e-01 -6.182050281778591616e-01 -3.925513746619168631e-01 6.809742736599171398e-01
-1.116779014083421617e-02 -1.791275418779776640e-01 -9.568562760597478789e-01 -6.157339625109651271e-01 -3.778366632338979181e-01 6.914558144428458730e-01
-4.796652499248449386e-02 2.223767792493856754e-01 -7.651121799538680435e-01 -6.131287726062679688e-01 -3.842122620436860259e-01 6.902565073199999901e-01
-1.317688308723378721e-01 -1.727327163889788575e-02 -9.724251218161267252e-01 6.164003833273048460e-01 3.767501786835643629e-01 -6.914548938982598703e-01
-8.510111246281447384e-02 2.026723189076570508e-01 -8.075894446661728843e-01 6.070580273221438672e-01 3.806428843705798037e-01 -6.975611414362131724e-01
1.023090169617782846e-01 -2.448854583968686563e-02 -7.688272326904909137e-01 -6.176067065237971221e-01 -3.829771852081890748e-01 6.869428154270491582e-01
-1.197411146916133179e-01 -1.051493737717800192e-01 -1.010810109702116488e+00 6.181731419076451628e-01 3.914169363265742052e-01 -6.816558872193128060e-01
-3.936077549359915523e-02 1.972947463050042372e-01 -7.691013283705825376e-01 9.570373015204610700e-01 1.219914544540673385e-01 2.630545352937588288e-01
1.270118764689047164e-01 -8.763780952210227515e-02 -7.819881226602779511e-01 -6.061457923483316579e-01 -3.882570646981008955e-01 6.941496453434431446e-01
-5.579462988775427817e-02 -8.909649966077873295e-02 -9.446055903070962323e-01 6.089524131115844341e-01 3.924841766648493047e-01 -6.892990132252430069e-01
1.078343778002819608e-01 -5.810289834256526093e-02 -7.808795387914219122e-01 6.200663911112851423e-01 3.848740818343672765e-01 -6.836589879072604292e-01
5.533422388155163213e-02 -2.481798492381271162e-02 -8.110256964622729603e-01 -6.138664847784911505e-01 -3.877997187874343554e-01 6.875894974285787775e-01
1.220457728122364416e-01 -1.893621758073162631e-01 -8.433696588218618784e-01 -6.266130233561916230e-01 -3.771563159984993585e-01 6.819891731272960111e-01
5.188247389396624665e-02 2.979129777217168207e-02 -7.817082999808583343e-01 6.132729973061499251e-01 4.008526408298639376e-01 -6.805978189172040560e-01
-5.117346853373999638e-02 5.766612938005553218e-02 -8.583532462622657233e-01 6.097821545691450851e-01 3.939973465629088012e-01 -6.877003816128054448e-01
-9.425544934791582619e-02 -1.164935254751400806e-01 -9.961793646206552610e-01 -6.217209946747560556e-01 -3.863792518461851011e-01 6.813032206906217692e-01
-9.334161214354091962e-02 6.055860001499037588e-03 -9.267295586388194506e-01 -6.161922996425169829e-01 -3.786466991705353391e-01 6.906038857902008221e-01
3.089702456707820247e-02 -1.308464297379350882e-01 -8.921928987526895893e-01 -6.117431337258912860e-01 -3.783974977735157785e-01 6.946838648032418462e-01
1.613739465117294131e-02 -4.355462375181012868e-02 -8.527642869923784952e-01 2.779731876174564853e-01 7.911530399190059848e-01 -5.448006740016997362e-01
2.302827921611187451e-03 -1.058796392145552878e-02 -8.505007297980904379e-01 -6.144087290839232995e-01 -3.744244840809660690e-01 6.944841390169979034e-01
2.950756554695052949e-02 -7.202931757439033633e-02 -8.604723917436819525e-01 -6.184162325568333118e-01 -3.855291973956330720e-01 6.847836163823514122e-01
4.801117503233408995e-02 -3.609163114463228260e-03 -8.056659863495321261e-01 -6.191536021865370332e-01 -3.704969875907704879e-01 6.923733090505438392e-01
6.561507535652635588e-04 1.497794330104816607e-01 -7.621892022702611014e-01 -6.031179749483325248e-01 -3.905136492297153761e-01 6.955198042180493756e-01
1.002355719523537608e-01 -7.599819180594352686e-02 -7.994617681709432766e-01 -6.171419190193926374e-01 -3.861133147795207665e-01 6.856036463869137343e-01
4.924621961287417582e-02 -2.431513682878586394e-02 -8.144069736093505485e-01 6.149400911548941195e-01 3.866355846126207640e-01 -6.872856822324087123e-01
1.653867218185228749e-02 1.748996431218477199e-01 -7.321638434092193615e-01 6.206981576442479609e-01 3.752482831236380600e-01 -6.884203099196002373e-01
-5.839450450225037309e-02 -4.283164229080468205e-02 -9.197407244152920880e-01 8.617900873000260420e-01 4.627547027751394149e-01 2.077881866009360090e-01
-7.704987330004049728e-02 -1.845572434580584897e-02 -9.258907663374529307e-01 -6.140262538242081680e-01 -3.895922907317519446e-01 6.864325215321569473e-01
7.730178786266728164e-02 -9.757195944146776490e-02 -8.320720973132561538e-01 -6.156344014829420175e-01 -3.858021399199928481e-01 6.871324417780708682e-01
5.250366018377639055e-02 -1.967706513143708813e-01 -9.079538231302169971e-01 6.133385912768417603e-01 3.877776795655079045e-01 -6.880728476559220264e-01
7.383718648501209902e-02 1.585191377886176894e-02 -7.699009602199283764e-01 6.133633815341048567e-01 3.795015502973181354e-01 -6.926499372085297423e-01
1.114221771049274563e-02 -1.633255288286862283e-01 -9.262699491289857479e-01 6.165089539398282970e-01 3.843981404252335143e-01 -6.871351972862699276e-01
1.074320756927919507e-01 -1.834269772524234066e-01 -8.531342425510035632e-01 -6.242773676076829314e-01 -3.731891962627554848e-01 6.862999286649974495e-01
-1.275345401496442987e-01 -1.000888747388306993e-01 -1.015487672121629936e+00 7.864358342117770961e-01 -1.834797150089222117e-01 5.897913807846558720e-01
5.686910031600627552e-02 -3.475235661761517242e-02 -8.152208536038506592e-01 -6.200948322495101195e-01 -3.709609556386169182e-01 6.912816852840353299e-01
-1.131625357334412746e-02 2.176727594968730917e-01 -7.332086958715906544e-01 6.210294383495482684e-01 3.841575332006900712e-01 -6.831876948455712917e-01
-1.060389775378024202e-01 2.352332127033379336e-02 -9.265432263075763508e-01 6.110513246962744338e-01 3.942423324350052827e-01 -6.864322704412539888e-01
-5.479910739819032371e-04 6.882522709339483624e-02 -8.110306945692983271e-01 -1.823146819522971085e-01 -6.521088920763167263e-01 7.358772653232544814e-01
-1.015408993415716984e-02 -1.175943811779313203e-01 -9.233681445426572543e-01 5.321613776302274168e-01 -3.616503796029426065e-01 7.655150364896472492e-01
-1.217507794891973805e-01 2.641355763840017717e-02 -9.390114727817471252e-01 6.233782648766411638e-01 3.905451067235071183e-01 -6.774024346676891239e-01
2.398535669800698142e-02 5.975483743488781141e-02 -7.917160801102152146e-01 -6.189936424121045278e-01 -3.834413589746168971e-01 6.854338734561452595e-01
1.201911906990549561e-01 -9.862796266687606783e-02 -7.942141033714262832e-01 -6.104164295931084894e-01 -3.712958945938745203e-01 6.996650206638430625e-01
-5.052621797834415049e-03 1.992789097314738300e-01 -7.378369001898213986e-01 6.177630191444767327e-01 3.792709076707120874e-01 -6.888558853433243145e-01
-6.608299615371611424e-02 -1.365385806282399805e-01 -9.821514988834777471e-01 -6.227292062114826443e-01 -3.736193291127997140e-01 6.874714049649760517e-01
6.813215801384497894e-02 -1.926820620882283563e-01 -8.917444287331981467e-01 6.173831135956583394e-01 3.902794096460264206e-01 -6.830227473908022651e-01
-1.042198315650853663e-01 -1.497250805231242765e-01 -1.023647605845241726e+00 -6.270089050018204935e-01 -4.044665604832367034e-01 6.657827231907407217e-01
7.108596224840926792e-02 -4.267932389989050057e-03 -7.854083405429621578e-01 -6.247832480166696234e-01 -3.827965802964924946e-01 6.805238211194754028e-01
3.385317746574040276e-02 -2.331300819738296726e-02 -8.293703402314659412e-01 -6.143599278180670309e-01 -3.887495604156911977e-01 6.866117231507092855e-01
3.752254381724727528e-02 1.841220572123224430e-01 -7.099916609772221054e-01 -6.103471177147556936e-01 -3.671741103606409595e-01 7.018971210784114012e-01
1.949782030204359751e-02 -1.923281406775563182e-02 -8.359216570352469011e-01 9.003828903335727718e-01 8.546865619020875549e-02 -4.266213304601650935e-01
9.596755655752650313e-03 -9.404504924187849502e-02 -8.906546321463562066e-01 -6.107501693365264828e-01 -3.812878814821115125e-01 6.939767878612997931e-01
-1.421168825040131090e-02 1.971730382212764643e-01 -7.490137427088708888e-01 -6.144062100234448653e-01 -3.883584639245853398e-01 6.867916078278498704e-01
4.638781208285806270e-04 1.682273258327907084e-01 -7.520792885069591538e-01 -6.129423424471159842e-01 -3.969072572863185933e-01 6.832029815134699202e-01
-3.268134303780065308e-02 2.383797870541190245e-01 -7.407109383356806909e-01 6.157264850192458727e-01 3.954400473076881695e-01 -6.815482848860656695e-01
-1.573388448691215996e-02 1.566802985384276869e-01 -7.712344353377165174e-01 6.235621310083887536e-01 3.803131214861982801e-01 -6.830316232779425345e-01
1.049785485581420652e-01 -1.201396371400351853e-01 -8.199658687621242947e-01 -6.176835656123221829e-01 -3.887343872021201130e-01 6.836319104452631690e-01
-2.776937930184088590e-02 -2.358212191856565443e-01 -1.001902688911037620e+00 -3.934349816676493278e-02 8.729722840057282385e-01 4.861805019844211984e-01
6.571123676915920087e-02 1.138784199266164310e-01 -7.240673615286197240e-01 -6.218550249059502377e-01 -3.884747622186951466e-01 6.799880051282878313e-01
5.024365983394813752e-03 -1.137129628313992072e-02 -8.484714104974122595e-01 -6.219374487084322611e-01 -3.741297811710435073e-01 6.879103987693117039e-01
-7.198950117216318390e-02 4.516657588692497838e-02 -8.883589020400132208e-01 -3.442960391864715586e-01 -4.010421288851554467e-01 8.488966063424743247e-01
9.853661472888651518e-03 -2.056416084288363311e-01 -9.619281938779870034e-01 -9.489774891288380587e-01 -2.649080278896865925e-01 1.710715110306896825e-01
1.998894175348744917e-02 8.597441933501051570e-02 -7.806509725951518153e-01 -6.078480076774008811e-01 -3.968784809529340984e-01 6.877559675634271619e-01
-5.807683207624482480e-02 8.145518867443371502e-02 -8.511898411770549844e-01 6.081641791899858873e-01 3.960134599400963462e-01 -6.879750509258635294e-01
5.246134207997409787e-02 1.432752678094438743e-02 -7.898721414930889306e-01 6.112029924278710169e-01 3.854647025082256762e-01 -6.912654086293202882e-01
5.605352225822637230e-02 -1.012840672539452036e-01 -8.531704514046631882e-01 -6.162324031465291618e-01 -3.848042505976912442e-01 6.871559604880124184e-01
3.344890232296431759e-02 3.335879874000239470e-02 -7.987452408685625782e-01 2.693800618034502548e-01 -7.407160731370073803e-01 6.154462456618458033e-01
-3.347604944129648624e-02 1.971443399416505371e-01 -7.693044000387737613e-01 -9.302026987549428805e-01 -2.942318300746720738e-01 2.194323800170110972e-01
8.647374299185900393e-02 -3.827055631642926892e-02 -7.888315686829815432e-01 6.154808861499843076e-01 3.846142724163646998e-01 -6.879354186532776749e-01
1.178245863621238537e-01 -2.253968952346071392e-02 -7.520286023768382178e-01 6.081416959053236315e-01 3.909214579568021652e-01 -6.909009273479989055e-01
-4.686573705860797717e-02 -1.136579584264021114e-01 -9.503320140921980297e-01 6.390839926556660666e-01 2.941130857076003635e-01 -7.106821674608461148e-01
5.535031812054483358e-02 6.618217475305207542e-02 -7.600916940067341532e-01 -8.019704199697493818e-01 -4.033387433395201338e-01 4.406373833605589097e-01
-7.587301105256406830e-02 1.926886446432904132e-01 -8.048625578528507685e-01 5.956125760253301316e-01 3.853724609356661279e-01 -7.047933921603258822e-01
6.733947565716535966e-02 2.077195904694835796e-02 -7.747603241190423873e-01 -6.223307532042136048e-01 -3.826989575107541675e-01 6.828220423627654467e-01
-7.903645757725651089e-02 -2.670328354397085227e-02 -9.305312837055697006e-01 6.169719166065392724e-01 3.732526780884922180e-01 -6.928405966877390076e-01
5.924614453720656454e-02 -1.324571436073203046e-01 -8.677356643105572642e-01 -6.081218698720054494e-01 -3.972509267557105539e-01 6.872986924002583153e-01
2.356906247922659764e-02 9.072075925559178189e-02 -7.747572593610003722e-01 -6.068041040522609286e-01 -3.967753587896609702e-01 6.887365925828747848e-01
-1.437575526753835480e-02 -1.700283039240867711e-01 -9.545678037082664380e-01 -6.150054963609052905e-01 -3.836719369249255163e-01 6.888861185001138310e-01
-8.261255908680899263e-02 -1.203023363331467699e-01 -9.878549765735713528e-01 -6.120418993759243476e-01 -3.848252843593198969e-01 6.908793048905718104e-01
1.426752475087384731e-01 -1.674310554811348772e-01 -8.108806334187703690e-01 6.223006449848549337e-01 3.850217953534561532e-01 -6.815424596855539363e-01
5.714407323088857224e-03 -2.175855558692961489e-01 -9.573580164586307228e-01 -4.633555679798263549e-01 5.124046406031318446e-01 -7.230097522927807496e-01
1.385277694324099362e-01 -1.167102610231466192e-01 -7.862077083625644836e-01 6.095666224160543045e-01 3.775052310103991782e-01 -6.970784270052179377e-01
-4.522934821863319743e-02 2.299989045137333099e-01 -7.555990850579057394e-01 7.656854030757482832e-01 -4.999310141569424659e-01 -4.047157577865481692e-01
-5.777197693315699878e-02 -4.950945355231246153e-02 -9.260419779251278793e-01 -6.134125359820649104e-01 -3.862159080179933812e-01 6.888848474846059888e-01
1.288063794660575072e-03 7.699995394580200214e-02 -8.044652064494334232e-01 -8.471004896858846944e-02 -6.532975542431113114e-01 7.523473354931939916e-01
1.071631755046228984e-01 2.524794468868711214e-02 -7.347877811921295077e-01 6.229754689856531469e-01 3.829180147919047927e-01 -6.821109579752637764e-01
-2.828426703671171882e-02 -2.017419167112243228e-01 -9.858159272086222114e-01 -2.737085126245616604e-02 1.073875121989716491e-01 9.938404090823055315e-01
5.367570663926497093e-02 1.417152117431476899e-01 -7.175151931142031980e-01 6.213159904504618192e-01 3.902956380529434277e-01 -6.794378227088977429e-01
2.974436216111122147e-02 -2.328109793493095547e-01 -9.485609417666331922e-01 6.150506947145857328e-01 3.851172043403476297e-01 -6.880387938569891837e-01
5.806388570772023396e-03 1.957229483823035854e-01 -7.301078191246891391e-01 6.067845506743744233e-01 3.920500298800949079e-01 -6.914544693137173459e-01
-1.374990170530765964e-02 -6.669839097924547267e-02 -8.944489112639157913e-01 6.183267168892596644e-01 3.835402437897242889e-01 -6.859802858498691425e-01
-3.755924494185128998e-02 1.271540245324328522e-01 -8.112991437460608246e-01 -4.563846851187265408e-01 -4.256388042418273593e-02 8.887639367527897516e-01
1.248545647115285595e-01 -1.002388711399859050e-01 -7.910385199499773146e-01 -6.189006485298500504e-01 -3.840342686393669602e-01 6.851858636603338493e-01
-8.950346208651163704e-02 -1.339993242744127733e-01 -1.001679147875678355e+00 -6.185679188972512677e-01 -3.824320060138715616e-01 6.863814467825667398e-01
4.423839198246076049e-02 -2.090174467998983932e-01 -9.239986687864832904e-01 -6.146481233780635156e-01 -3.950263913212218037e-01 6.827604518332602845e-01
-1.005327657646229444e-01 5.629100494073854127e-02 -9.033178023064218909e-01 6.046202827025782822e-01 3.980363991151249503e-01 -6.899285026175678848e-01
-1.511298138464699757e-02 -1.203436460410306219e-01 -9.256808294533824810e-01 6.221909744971576561e-01 3.935481458444788916e-01 -6.767556783335105797e-01
6.960280390460296673e-02 -4.350269429219757317e-02 -8.086593775932269246e-01 -6.154646431422881037e-01 -3.866303378598431317e-01 6.868189389410571666e-01
-4.298836259443448993e-02 -1.424425836872780238e-01 -9.647939093112413156e-01 -6.085076263404570751e-01 -3.875820763948641390e-01 6.924583761807985294e-01
-8.433573415827172806e-03 1.607759518526057640e-01 -7.642196570147541390e-01 -6.224312930719079207e-01 -3.795368528777346984e-01 6.844932890193282660e-01
7.673900571414890570e-02 1.685175030397478499e-02 -7.685526830831828082e-01 -6.116633174959875685e-01 -3.794088107100787588e-01 6.942023771101379914e-01
6.901986922187604290e-02 -1.274343588729619225e-01 -8.561735682158718719e-01 -6.138494766662542235e-01 -3.826305371594346805e-01 6.904945271540160467e-01
-6.754303968793323731e-02 8.757156982155248071e-02 -8.580233990256154186e-01 -6.078877596953888851e-01 -3.839580763547230657e-01 6.950170265644588508e-01
2.717127958569356266e-02 -8.260161301656851474e-02 -8.667455387956092272e-01 6.184490569263187965e-01 3.835816532595019424e-01 -6.858468336805632060e-01
-5.753698929356905467e-02 -1.167848908904905586e-01 -9.616902759164907000e-01 6.072027703740923155e-01 3.940000374317780829e-01 -6.899773664068876711e-01
-9.720666102196964808e-02 -1.163005117231892538e-01 -9.968646106606816604e-01 6.190533824127547602e-01 3.716575962383349419e-01 -6.918406903917044826e-01
-2.020224212510663558e-02 5.357486181004941089e-02 -8.295465872743583713e-01 9.892144021642114149e-01 1.432862978658404063e-01 3.039577922678054003e-02
3.829700662120861382e-02 -2.186243076293908072e-01 -9.347182452611640935e-01 -6.183911543820568291e-01 -3.880976313491699137e-01 6.833539410314326545e-01
3.288201830286884703e-02 -1.443182751699646771e-01 -8.979330480475552489e-01 -6.174706968615994995e-01 -3.761489879868714081e-01 6.908269518147819310e-01
-2.581059985427313838e-02 8.144129925655750613e-02 -8.173732592744098469e-01 9.215576423204417944e-01 3.604446649803585423e-01 -1.442607201146098028e-01
-4.224702863771002417e-04 2.196024548212192895e-01 -7.222914442680760105e-01 6.085490544902854015e-01 3.890772358468311265e-01 -6.915829327165101681e-01
-5.261711391910017799e-02 5.988950745234783435e-02 -8.583595049946214361e-01 6.097821545691450851e-01 3.939973465629088012e-01 -6.877003816128054448e-01
8.564524667862466467e-02 -1.098686441324773083e-01 -8.297373964768879340e-01 6.150930380100821937e-01 3.868242996455076854e-01 -6.870425865951031996e-01
-1.872119714076743782e-02 1.056513456972168336e-01 -8.042066204045931199e-01 -6.101759593522593228e-01 -3.887744059695775745e-01 6.903185930362534251e-01
9.018155036565295157e-02 -1.557639082836257405e-01 -8.548041821083490754e-01 -6.680425882835925311e-01 -3.178581755063905057e-01 6.728189061724612063e-01
1.085425149201519994e-02 -1.404360081938262339e-01 -9.201982833112503091e-01 -3.227968756719419297e-01 -6.905029282332129092e-01 6.473081825203442774e-01
4.212874422010572106e-02 1.808180190319488290e-01 -7.078066208722322283e-01 -6.016385362243908963e-01 -3.751251333511219643e-01 7.052036628223616876e-01
-1.286182302878415562e-01 5.677701452298949958e-02 -9.281445035687323486e-01 6.319500931662597187e-01 3.799093051414500488e-01 -6.755057361814896799e-01
-4.487037770772285550e-02 -9.847966052907075607e-02 -9.418074054531611061e-01 -6.220474167431744306e-01 -3.777681008376425620e-01 6.858194174217177030e-01
2.185991211209798238e-02 -1.305310468805818414e-01 -8.935123222931936615e-01 5.071870714514563616e-01 5.074813404552739327e-01 -6.965801918244686197e-01
-5.330953721099378900e-02 -1.762459129912324063e-01 -9.898158704412249875e-01 7.083097186491085218e-01 5.541072021579460660e-01 -4.373357417178632689e-01
-9.895529622523556446e-02 -1.150664341114887163e-01 -9.995884733071352946e-01 -6.140222577446401431e-01 -3.855136216048659081e-01 6.887350104004261730e-01
-4.703263483514658061e-02 -1.595893179000461015e-01 -9.761469773888102885e-01 6.198227787218151263e-01 3.773526750478992109e-01 -6.880586323938988613e-01
-5.848142897622102959e-02 -1.663036330788000838e-01 -9.890382453760850900e-01 7.708562239486339562e-01 4.096857951452664293e-01 -4.877891258072941660e-01
-9.949358990686117676e-02 1.989876529698433039e-01 -8.224845041994361949e-01 6.191341999265592699e-01 3.834910798378957653e-01 -6.852790921705287364e-01
-7.495166095736563450e-02 -1.573013547407021984e-01 -1.001719086476489773e+00 -6.195867169951491116e-01 -3.863272385268673448e-01 6.832741506126058795e-01
-3.905532429126865740e-02 -6.196976310426637741e-02 -9.186305070618763224e-01 -8.817624128993991617e-01 -4.445493387206424507e-01 1.577052080334352124e-01
5.658582311414676880e-02 3.632927648019602940e-02 -7.738993814402753690e-01 6.202100277940751916e-01 3.834006386720539838e-01 -6.843562461828880394e-01
4.034392882084136128e-02 -7.310234520560732197e-02 -8.496769949986839876e-01 6.162830226123638955e-01 3.865246298904170819e-01 -6.861442607264485183e-01
4.293975955121311777e-02 -9.753026924655704144e-02 -8.583124099371733928e-01 8.578198889931398785e-01 -2.816029781284742906e-01 -4.299358100425818008e-01
-3.027112122845898243e-02 4.846503435925963998e-02 -8.448388781467205400e-01 6.140710365388061254e-01 3.763734923980740499e-01 -6.937288780959267598e-01
-3.325254393396780139e-02 1.742632357842115731e-01 -7.749409869155950981e-01 -3.295519070565980368e-01 5.403226496926277767e-01 -7.742396107049145382e-01
5.306953565725814823e-03 6.979062252545113754e-02 -8.028554555583357066e-01 -6.163343609863016770e-01 -3.855126937384951713e-01 6.866672545229578484e-01
-3.489598840759124826e-02 2.012740027581230717e-01 -7.634667268553856356e-01 6.295383517014079278e-01 3.814554861116989382e-01 -6.768849059126387235e-01
1.007553473300773217e-01 -4.682151987651481800e-02 -7.827147512575645116e-01 -6.173015307133435936e-01 -3.849436943635216601e-01 6.861174625009383021e-01
4.120563809954051054e-02 -1.600493506730998328e-01 -8.975460672689041797e-01 6.095839081372421697e-01 3.891706619371043674e-01 -6.906183134174491700e-01
-5.159377793152997160e-02 1.905671423647384843e-01 -7.843889549098577163e-01 6.259154488471503353e-01 3.906897145937029414e-01 -6.749751090263709230e-01
-1.215548865799705447e-01 4.009175596772082684e-02 -9.311821858252650186e-01 6.036064408139005799e-01 3.973131596704012058e-01 -6.912318842188179824e-01
4.788495671834716583e-03 1.983222738785631878e-01 -7.313240167958838800e-01 -6.161791707486728997e-01 -3.767713315103957683e-01 6.916405087090845560e-01
-7.419219327315530049e-03 -1.375137314689233448e-01 -9.183680010875575617e-01 3.970954635452617620e-01 4.482122592175298292e-01 -8.008876097923425252e-01
6.398522336730749771e-02 -1.403237981559094238e-01 -8.679128062215016870e-01 -6.139503901064308211e-01 -3.814182515641754145e-01 6.910752751053164111e-01
-2.249383755634492416e-02 -1.585963951051982679e-01 -9.514440514435770213e-01 7.371471229631012534e-01 6.489229703761967283e-01 1.884491910976433260e-01
3.832157304727329405e-02 3.644837469846247402e-02 -7.901515214468267656e-01 6.085701656686810512e-01 3.849207937179389138e-01 -6.938863999398937610e-01
1.163747007086614153e-02 9.365934689064263352e-02 -7.807021201555549572e-01 2.984896863360721464e-01 8.927376748652630090e-01 -3.375253339042229017e-01
7.444590225458039279e-02 -1.516066848985006266e-01 -8.630827869704432720e-01 6.126686319459608843e-01 3.811064668736239280e-01 -6.923835702387571844e-01
-9.257959785117586896e-03 -9.749193237957327896e-02 -9.130314597427383605e-01 2.935185430873241685e-01 -4.083432181108084813e-01 8.643510172880017883e-01
1.011361160010640220e-01 -1.223799637696439992e-02 -7.611717600116377769e-01 6.196097277135128589e-01 3.771319086351790917e-01 -6.883714904119530020e-01
-8.293518409798682212e-02 3.654594802752599014e-02 -9.003805686844456035e-01 -6.157110943290541316e-01 -3.791189165210414047e-01 6.907739829032576440e-01
-1.059084203601728079e-02 2.280859850472864714e-01 -7.266532374521301740e-01 6.295566649219138666e-01 3.830902354196698556e-01 -6.759439896755491395e-01
2.463653162850080666e-02 -1.273541480578164742e-01 -9.003647245034241964e-01 -4.547889290821403585e-01 -5.797272866260403390e-01 6.760793615586330185e-01
2.936030359135174614e-02 8.519176791147747840e-02 -7.709055892357449258e-01 6.081815271218294905e-01 3.956469701501033054e-01 -6.881705494125729405e-01
3.924460354554000496e-02 -5.104775770743320493e-03 -8.143862594616658734e-01 -6.117555327697719036e-01 -3.887162349942808182e-01 6.889519988921168903e-01
-1.544920644199280005e-02 -2.694462373198931379e-02 -8.780339499491391919e-01 -1.108806900913278243e-01 3.149888807199494600e-01 9.425961370532260908e-01
-1.991795282324909655e-02 6.805015580906925710e-02 -8.288120115353346806e-01 4.127940979504445274e-01 -2.471038223806731327e-01 8.766645502483486618e-01
-6.353574087491413447e-02 -1.920074705234127987e-01 -1.010920949056155704e+00 -6.094381746423881419e-01 -3.895771805628338580e-01 6.905177272693781010e-01
-1.320355027822658900e-02 -2.405767181646937050e-02 -8.774020088652608740e-01 -3.931254704624733698e-01 -2.451148589375507225e-01 8.862116397349358854e-01
-5.363383391787462234e-02 2.292555703108113130e-01 -7.663437360421166966e-01 -6.136413449540930598e-01 -3.822346968980706583e-01 6.908986439776617638e-01
-9.208016516258622775e-02 -8.706297260960065010e-02 -9.759569557548951613e-01 6.113522787521237234e-01 3.908007427855546001e-01 -6.881301989470047786e-01
-9.246899369649154432e-03 2.426255817738307841e-01 -7.191228509120791701e-01 -6.169246020843980327e-01 -3.700871374438771122e-01 6.945786823979007707e-01
-9.211882474053906256e-02 3.671705880008085260e-02 -9.084658889055583497e-01 -6.151780658509130584e-01 -3.792053198556568083e-01 6.912013257286900858e-01
-9.806998314256758567e-03 1.520331885480502299e-01 -7.685476992101966109e-01 6.536188688467935437e-01 3.897588821124780001e-01 -6.487452412941997482e-01
1.919831902822086503e-02 1.271570374506559853e-01 -7.582746094857375496e-01 -6.162699057081355569e-01 -3.943964063026837441e-01 6.816618501970125310e-01
-3.413153083450553432e-02 1.224775361526155293e-01 -8.035769625817226203e-01 7.811834523089417059e-01 2.666754525429483325e-01 -5.644790667949495244e-01
-2.555970238816633253e-02 2.269301682494809236e-02 -8.574992593255328366e-01 -3.128975301060812897e-02 1.098452842517442241e-01 9.934560709383121191e-01
6.158796716948534283e-02 -1.861666410286899609e-01 -8.956926305756631734e-01 -6.158293798885082770e-01 -3.910050798273681516e-01 6.840096508203147296e-01
-8.367402737910742405e-02 2.057548773733447189e-01 -8.045940408975460478e-01 6.110378197478171236e-01 3.994441302079968503e-01 -6.834304424593705685e-01
9.909718261730171562e-02 -1.430897601332307145e-01 -8.362820140457163376e-01 6.216861236145856395e-01 3.895746742287209408e-01 -6.795130145219120399e-01
4.913303723374194687e-02 8.831963342506435333e-02 -7.514584524025158530e-01 6.115628178513048407e-01 3.901612050443805657e-01 -6.883060030975237664e-01
-3.795337460350144826e-02 1.502505783339119216e-01 -7.925726715970210501e-01 9.900528557379999484e-01 -1.406349831891397784e-01 -4.140573441104311754e-03
-1.097967393275120357e-01 1.208067377829862149e-01 -8.772836879102895447e-01 -6.250243639947354879e-01 -3.779468973128495279e-01 6.830085557477054703e-01
7.826189067546655831e-02 -7.162952331917732396e-02 -8.149124270922892821e-01 6.058022779864858931e-01 3.862001384505444612e-01 -6.955954665228668565e-01
