-4.459395040485987505e-02 2.682511425199745128e-02 -6.988648280791440737e-01 9.174223388033743154e-01 -1.153655181214960079e-01 3.808241713614110568e-01
-1.007968588900205222e-02 -1.213811493188935997e-01 -8.294984376245665425e-01 3.491446543063215779e-01 8.777612434892339000e-01 -3.280750063591449939e-01
7.207827494718994921e-02 -1.541794797954754766e-03 -9.900558499928617806e-01 -9.191503062456753970e-01 1.303060561645212334e-01 -3.717298027537335736e-01
1.686767305811543924e-02 -2.460183483044662833e-01 -9.314478312625428247e-01 2.342353711316846332e-01 3.973024512080436943e-01 -8.872905686272577475e-01
2.666324496686092033e-02 -2.495306455229696352e-01 -9.475704783210627813e-01 -8.483210392152584767e-01 2.014592726574395143e-01 4.896586319928195041e-01
-4.032171161265392378e-02 1.047979504960123466e-02 -7.115205208617458865e-01 -9.228490849480114333e-01 1.117028591709837149e-01 -3.686082441612574812e-01
1.215670667216271414e-02 -2.317683065147612687e-01 -9.241689676411587451e-01 7.372924936098328441e-01 -1.318596369151304459e-01 6.625804215483614978e-01
-4.523279106955901963e-02 -6.382638303753680742e-02 -7.276188809851521500e-01 4.098249753549333407e-01 9.104233961219364568e-01 -5.632698615342215248e-02
-1.291756097745548094e-02 -2.879771360422187301e-02 -7.916047510180358460e-01 -9.183556068357213720e-01 1.209633622169344752e-01 -3.768167252054617777e-01
2.152202275746575508e-02 8.575456552660201681e-02 -8.372327625121380734e-01 -9.131214728843800588e-01 1.188870052724143173e-01 -3.899680188615695098e-01
2.281724267159681262e-03 -9.295741771119865604e-02 -8.534424851409340151e-01 9.206675939103146078e-01 -1.292979639945253112e-01 3.683113058680967389e-01
-1.490248897753734857e-03 -4.931471069184892309e-02 -8.263363095695321903e-01 -9.209486922615183202e-01 1.229221051388519892e-01 -3.697886724739312125e-01
5.676019908032105959e-02 3.882639491688029409e-02 -9.422752275572504610e-01 9.196986385588913349e-01 -1.280704902355976893e-01 3.711500555890239750e-01
-3.942842014897366548e-02 4.936784091851877110e-02 -7.006526161066557457e-01 -9.158980292097720355e-01 1.315412930206422415e-01 -3.792462106865579496e-01
8.387836577232210891e-03 9.756694542234806145e-02 -8.044243666465289433e-01 9.205160665026727029e-01 -1.197189161495169907e-01 3.719106780215271080e-01
-3.007566285921864455e-03 -2.273766505762611911e-01 -8.856698736017382112e-01 9.218242268640328696e-01 -1.129034950706163526e-01 3.708003446160313965e-01
3.183276583063201354e-02 2.188390093307460704e-01 -8.219637248065619906e-01 9.512408160559898684e-01 1.371822039788444525e-01 -2.762642806818157437e-01
1.611976132227600778e-02 -1.964115679489695510e-01 -9.073757029938619434e-01 -3.383636496464655918e-01 2.840051614795275903e-01 -8.971349446158650709e-01
8.384061554816270127e-04 9.555752095599390206e-02 -7.970707676632936556e-01 9.601525654077081029e-01 -8.914989405566565994e-02 2.648760984514464956e-01
6.363176805159373450e-02 2.196135269368062332e-02 -9.614260677029716762e-01 -9.165448578797291690e-01 1.152797537619531243e-01 -3.829570496371756949e-01
3.748286750396062628e-02 -8.614510572217966289e-02 -9.339820760911522468e-01 -9.167406433150753209e-01 1.178053234786475834e-01 -3.817178259583290378e-01
-1.372317376300655721e-02 1.738938086743659420e-02 -7.741368146454969956e-01 -9.149205724585890431e-01 1.233698811180253818e-01 -3.843178613140067479e-01
-5.324143443493525862e-02 -1.839986053485568041e-01 -7.451221309003791538e-01 -9.123235325476908297e-01 1.208538251151806825e-01 -3.912289929372971820e-01
7.675282697772474634e-03 1.878391331172611090e-01 -7.692345363724990559e-01 -9.191289657738752616e-01 1.243522814820964412e-01 -3.738160702346058351e-01
-2.719825095276151225e-02 -1.045318454483605830e-01 -7.821120553369617090e-01 -9.178098177141111869e-01 1.251956352775937531e-01 -3.767641057943678651e-01
4.191827062079462457e-02 1.166572089766738374e-01 -8.799179283996871881e-01 9.187025534246588965e-01 -1.191111335841770896e-01 3.765609594571697194e-01
2.756230202912696853e-02 -2.010828933487280035e-01 -9.557969856452430690e-01 7.678756272659368332e-01 1.196455104156374238e-01 6.293266027177982780e-01
-1.378514825011470726e-02 2.283731812226062752e-01 -7.064272491173527735e-01 9.196456642477921495e-01 -1.206673829066370607e-01 3.737529062531828594e-01
3.569884673100048172e-02 1.398744092344789136e-01 -8.537626270425801023e-01 -9.172582528610636610e-01 1.283007917592706437e-01 -3.770626000974015568e-01
1.080076159216803063e-02 1.454385529598604676e-01 -7.909962883101863129e-01 -9.140077482772011042e-01 1.278571370246575634e-01 -3.850225819365647451e-01
-2.333818581908024548e-02 -3.307184611688444159e-03 -7.575323610884264758e-01 -9.199571053420415589e-01 1.248874519141274647e-01 -3.715939298280968028e-01
-2.539658284469597377e-02 9.014508028623997860e-02 -7.213109365924308403e-01 -9.210870225620864105e-01 1.188931814006088800e-01 -3.707601762381613764e-01
2.002981342167514667e-02 2.673724056496530888e-01 -7.732502354059715977e-01 -1.943705969390382982e-01 -9.569936297712785533e-01 2.153677404412155660e-01
1.408172048549636082e-02 2.174260443323014214e-01 -7.748344881525218719e-01 -9.145740335916678898e-01 1.237396228865317582e-01 -3.850231717803038189e-01
6.560719260216684584e-03 1.231752521996004601e-01 -7.927600377772678897e-01 -9.162088551413190285e-02 -4.428774971063363930e-01 8.918885221228231019e-01
-6.827521543813434846e-02 -1.632939045282827961e-01 -7.040827809756831090e-01 3.899065425235416216e-01 1.571071195966590173e-01 -9.073534267689625787e-01
-2.512463442712934911e-02 -8.595694948276681735e-02 -7.842483861848104087e-01 9.183698935036108679e-01 -1.240054236496904022e-01 3.757916891199531984e-01
-6.269635126992843810e-02 -1.130443664286605449e-01 -6.982665505509810799e-01 -9.189459571520942616e-01 1.362078417966026411e-01 -3.701158624902922689e-01
-5.641494620920653458e-02 -6.946660075543434343e-02 -6.989312405846176413e-01 -9.158426109074921939e-01 1.291945634373968810e-01 -3.801855820837610200e-01
6.844855285335323114e-02 -1.830799373755390147e-02 -9.900037521277755825e-01 9.134393677331421602e-01 -1.319974050406069743e-01 3.849742933467422690e-01
-3.373991579969714411e-02 -1.524854011611221916e-01 -7.854177110084451519e-01 9.138761839035249857e-01 -1.268472862121019784e-01 3.856683633311859816e-01
5.362958035198508305e-02 1.278254365549013061e-01 -9.015374401830288376e-01 -9.188406378743376735e-01 1.227555191196523232e-01 -3.750506162057929971e-01
2.623086004906570110e-03 2.268344409987949895e-01 -7.436455121578718908e-01 -9.098845212753942091e-01 1.252105449045924634e-01 -3.955154578371642971e-01
5.446061878418732155e-02 -4.306152723127776305e-02 -9.641954294273732406e-01 9.145443898827464446e-01 -1.209081552963762185e-01 3.859919389272564172e-01
1.703508026950360799e-02 1.549040037061423791e-01 -8.030253298667314743e-01 -9.166734899682899007e-01 1.250415191528659598e-01 -3.795712466419172149e-01
1.216912325518385192e-02 2.345224855957840915e-01 -7.645756467707229831e-01 -9.204097597810836362e-01 1.305174127889024149e-01 -3.685255473622137123e-01
1.969706119032676311e-02 -1.210889864762472873e-01 -8.851178363704911289e-01 -9.916055931524422329e-01 -4.342925452584773388e-02 -1.217877148160785572e-01
-1.732451406488682427e-02 1.093450065590990949e-01 -7.344471615716435808e-01 -9.129789811637555319e-01 1.329415729984356198e-01 -3.857407395154066054e-01
4.697508609042922584e-02 -1.359456249151103080e-01 -9.727489204989420157e-01 -3.813055048681861514e-01 3.900257484286595577e-02 -9.236259584446749882e-01
1.597237393536082850e-02 1.493947252796402059e-01 -8.097650083607373928e-01 8.658741796816741276e-01 -6.312369440589883640e-02 4.962633415487572308e-01
7.195248810436599349e-03 -1.843611054121930271e-01 -8.930284705083347818e-01 -9.188774766512506353e-01 1.182033160430715213e-01 -3.764201893887366146e-01
4.855422277206337262e-02 -7.118187394044399319e-02 -9.592556787449673106e-01 9.203821074222386933e-01 -1.188119602939557706e-01 3.725325414351158826e-01
9.019977880863191619e-03 4.306887076034870976e-02 -8.243315619580754428e-01 9.189407332122749850e-01 -1.174037421047657570e-01 3.765159892794514018e-01
3.058329166993936296e-02 3.297476174093589424e-02 -8.763743789994338229e-01 -6.702623524976422109e-01 4.056665825683253290e-01 6.214362417912739911e-01
8.294857553331570765e-03 6.740397810230475129e-02 -8.143052160732635603e-01 9.305721673000880712e-01 3.403501460683486801e-01 1.348970700855678106e-01
-4.015305939413549297e-02 -6.831948902558626635e-02 -7.415691869003006031e-01 9.730430781029011378e-01 2.067240317053358201e-01 1.022367002182821283e-01
-1.227904248161584312e-02 -2.252015826217085570e-01 -8.623380680670288401e-01 9.164740465200006403e-01 -1.252848646446340364e-01 3.799723999795659446e-01
3.584792109074908667e-02 8.957481409617611134e-02 -8.708905497979115840e-01 -9.197169846284390937e-01 1.264742645194361359e-01 -3.716516226255968114e-01
3.632528390602764168e-02 7.254249408256403450e-03 -9.029618264752787837e-01 9.184939514111417624e-01 -1.203663576424105486e-01 3.766706799965277019e-01
-3.189508464595632725e-02 1.692792326703478067e-01 -6.821151509302117999e-01 9.180840068669497978e-01 -1.257827381039522963e-01 3.758995332934043643e-01
-8.426008410742789195e-03 -2.743372170844032149e-02 -8.058836069037013106e-01 6.691252789820664737e-02 -6.438853432841288305e-01 7.621905131357588070e-01
2.121307696570292473e-02 1.700030240613091270e-01 -8.114718782627030613e-01 9.246513157391080817e-01 -1.151686179170586521e-01 3.629822774585712564e-01
-2.308928404094642752e-03 -4.668306879885034816e-02 -8.174581543066167244e-01 -7.844440175270132043e-01 2.758326233587406473e-01 -5.554853258701925034e-01
5.209934320107575956e-02 -5.854966626359316834e-02 -9.603925783522609949e-01 -9.142205677138536268e-01 1.345102518651900836e-01 -3.822404291962356870e-01
3.792560446345472763e-02 6.211109606511547310e-02 -8.802282861013162041e-01 -9.625770335499838071e-01 1.205303970101701400e-01 -2.427300514536342435e-01
7.780595154789167987e-03 8.702287678254194692e-02 -8.032577785487999833e-01 -9.444679062587761909e-01 2.920700176235378476e-01 -1.505837934591562899e-01
-2.675362499212151704e-02 -1.931839375702502568e-02 -7.579319295968401926e-01 9.202780156593216576e-01 -1.137514294813288668e-01 3.743647769022822591e-01
1.814753485227912216e-03 2.281431782810979803e-01 -7.413716264269037959e-01 -9.098845212753942091e-01 1.252105449045924634e-01 -3.955154578371642971e-01
4.263635769949441871e-03 -8.261088535887395334e-02 -8.469223766235806083e-01 -7.413681187729923572e-01 -3.282212337879115149e-01 -5.853581247046424352e-01
5.003649682632598655e-02 -1.719776685706360386e-01 -9.934205421196907748e-01 -9.196803939071664935e-01 1.287772891063375114e-01 -3.709506474899079143e-01
4.390719502854485701e-02 -4.109040553875163010e-02 -9.345573472391516257e-01 -9.187124662927657059e-01 1.270532073514267224e-01 -3.739316605744681388e-01
1.143318529142612651e-02 1.190596197309626292e-02 -8.284010376792257935e-01 -8.984874652962073771e-01 -1.952440594513743799e-01 3.931921056615262922e-01
3.198639756795100542e-02 5.422035673086949420e-02 -8.733464279997655844e-01 -9.187545322385423097e-01 1.310515936270017223e-01 -3.724454178788627057e-01
4.613480083957970795e-02 -1.840938058241714526e-01 -9.911867080006212527e-01 9.233477123483395665e-01 -1.244089936490306303e-01 3.632511588423680271e-01
2.243801003969715657e-02 -1.969324236051755717e-01 -9.217754481575022307e-01 -8.433101542624052982e-01 -3.261493320612224300e-01 4.271470436675603444e-01
3.186744997769287019e-02 2.269388340393221626e-01 -8.199302525920653117e-01 9.620020138873163207e-01 -1.497624911879006371e-01 2.283053251896278169e-01
-5.528153328481005824e-02 -1.993562067727595311e-01 -7.453657217370172061e-01 -9.221332978347556164e-01 1.253702901820719640e-01 -3.659951794273537118e-01
-2.429326887354586739e-02 1.983334346783828250e-01 -6.908129532488289648e-01 9.139100616647058972e-01 -1.337060709724687824e-01 3.832637287470842535e-01
2.000426402302193929e-02 -1.438332910357694450e-01 -8.912221695880446770e-01 -8.907353535645960996e-01 2.021479449297660380e-01 -4.070954903592353680e-01
-1.804232326583895141e-03 -2.130217408475139906e-01 -8.805314736754977778e-01 -9.193438473737384209e-01 1.196906144691163715e-01 -3.748080136604042822e-01
-6.289671141591002268e-02 -1.482534111653399100e-01 -7.096209253845446874e-01 -9.139640954053322996e-01 1.221636001445472602e-01 -3.869698788144059765e-01
1.372316368786052204e-02 -8.775247605373683035e-02 -8.797480530532184595e-01 9.208658931240825130e-01 -1.124210436501833221e-01 3.733195893941131382e-01
2.319004973955197599e-02 -1.204534679099374395e-01 -9.137802839342420436e-01 9.175166476247674785e-01 -1.182736282454803500e-01 3.797032396399301901e-01
1.426622362311693280e-02 -1.101324287138284036e-01 -8.884338029071662257e-01 9.250222713083275927e-01 -1.188965857602638371e-01 3.608287675312698006e-01
-3.549656150703885127e-02 -6.507322703542219033e-02 -7.518978006849749152e-01 9.179121450696118290e-01 -1.241979907511967657e-01 3.768449986759405679e-01
3.138633717938375811e-02 5.397874203464047421e-02 -8.799697797401025978e-01 9.902913506820776313e-01 -7.882813468348061348e-02 -1.144952660444513715e-01
-3.103198224184838122e-02 -8.227423821061545517e-02 -7.713160509238065066e-01 3.726954119261158827e-01 -7.467288610109785729e-01 5.509030205603062669e-01
-1.999391328325816550e-02 -1.077935011304206325e-01 -8.043054782457642604e-01 3.216404937696131783e-01 9.131773263145224195e-01 -2.503089360624180526e-01
-5.304300017990326750e-03 1.994443735931375750e-01 -7.335635171743152272e-01 -9.158832786481370114e-01 1.301497569113664876e-01 -3.797615839821760764e-01
4.088866441232093946e-02 2.396878767126546517e-02 -9.052611328216686459e-01 -9.183000341864584470e-01 1.201760068239224738e-01 -3.772038899547641155e-01
2.598680633401378309e-02 -2.345769266982804802e-01 -9.397533906123166636e-01 -8.968084133297412608e-01 -2.975835256379464888e-01 3.273816046296456062e-01
-3.583465605186777342e-02 -1.765230612824124912e-01 -7.841333462117140440e-01 -5.801146773153507130e-01 7.903650328006925907e-01 -1.969519639132003841e-01
-3.915072174909725589e-02 -6.830946957786686313e-02 -7.468675877258132978e-01 8.992371949416170240e-01 3.577958021980036651e-01 -2.517034587823921976e-01
-2.320179832537144424e-02 -1.232241504224310460e-02 -7.641289788410217110e-01 9.139048633521417164e-01 -1.237629477904510916e-01 3.866013883776429072e-01
-2.648742975805118936e-03 4.009198906882067287e-02 -7.968523037568479017e-01 9.199205242357473278e-01 -1.180469182022567537e-01 3.739132976945020448e-01
6.546495255326660601e-02 -2.825634288579851119e-02 -9.828341880384307006e-01 -9.147592803408712836e-01 1.167969072178141332e-01 -3.867479043183100207e-01
-1.967667530074547130e-02 7.958973267997314707e-03 -7.628509832327879936e-01 -9.201106567130146185e-01 1.236899958011054013e-01 -3.716142682162075772e-01
5.104553066587669795e-03 1.596612439846664122e-01 -7.723792315001124509e-01 -9.234085576448787247e-01 1.418150095607331740e-01 -3.566582940736046647e-01
-1.535782617220090435e-02 -2.804847365367055603e-02 -7.886628010957388302e-01 9.185343701366379676e-01 -1.219442554915338012e-01 3.760641028206562764e-01
-1.998764931827216179e-02 7.578409581317098465e-02 -7.424356582290517759e-01 9.182261228881924975e-01 -1.302344277973021547e-01 3.740317915124692916e-01
-3.275815515476634271e-02 2.968880591056066720e-02 -7.267152804330945237e-01 9.156055619366038067e-01 -1.284259858101417795e-01 3.810160378769496536e-01
-1.700805927675705376e-02 2.288716666879381800e-01 -6.983187902195119312e-01 9.215104533076666771e-01 -1.153030822844226949e-01 3.708418580209228987e-01
-9.622294584983141774e-03 1.295139529829077429e-01 -7.497933333402477807e-01 9.174145678847248631e-01 -1.155088017528412697e-01 3.807994581804267087e-01
-3.329287399930726948e-02 1.477829845582219193e-01 -6.858029859544849671e-01 9.144700637261600207e-01 -1.247822048843301307e-01 3.849336356995556874e-01
4.215518321592450629e-02 1.981450507220674784e-01 -8.520789164867680343e-01 -3.909645990238569957e-01 -2.855189575481412723e-01 8.750003469660669886e-01
-5.744250080213897380e-02 -2.125732919650014652e-01 -7.478447226855684526e-01 9.099056371988901715e-01 -1.353786099794184739e-01 3.921024908792627439e-01
-6.118761356164620704e-03 -1.191488967435001128e-01 -8.305412177958098052e-01 -8.907353535645960996e-01 2.021479449297660380e-01 -4.070954903592353680e-01
-2.793392499405137480e-02 -1.233269425278850362e-02 -7.494065369667695098e-01 -9.183619419896481562e-01 1.169578007346290666e-01 -3.780637728642099460e-01
1.454345953892786274e-03 -2.050563994370115661e-01 -8.859336067335884524e-01 -9.206328650600240637e-01 1.314421515685922637e-01 -3.676385297576830191e-01
-3.681047105150336146e-02 -3.426515282328621015e-02 -7.384347784477827137e-01 9.164726818435396938e-01 -1.433391260229985309e-01 3.735394468934612466e-01
7.311712204769348772e-03 2.356590069398719345e-01 -7.554489076743270415e-01 9.192626798781901032e-01 -1.264416601295624554e-01 3.727849674636146693e-01
-1.165414195761036928e-02 -5.710702170595997884e-02 -8.074988067331967390e-01 9.171166324897638278e-01 -1.236765420171943436e-01 3.789474836508412992e-01
6.107194993680252482e-02 3.381337199978972936e-03 -9.647848494530500973e-01 9.140928678998491153e-01 -1.411937598412323636e-01 3.801296502991125537e-01
6.262624567340399628e-02 1.684741973534373272e-02 -9.639716593550086143e-01 9.206596495672684233e-01 -1.103201845173408385e-01 3.744532902068484215e-01
8.486982779008318475e-03 6.349502931600724265e-02 -8.202006042502801852e-01 7.204084114040831821e-01 1.011193037197248845e-01 6.861389124612328194e-01
7.261482258021759867e-03 -2.036170486350385722e-01 -9.052745382455213985e-01 2.256946331347859658e-01 -7.847416091578049979e-01 5.772716340082658659e-01
-1.323104100868416171e-02 -2.429068399062902714e-02 -7.893875024328295131e-01 -9.170236164924729927e-01 1.327779950663399988e-01 -3.760820267192103716e-01
5.870332625352157191e-02 -6.984187140237631264e-02 -9.835094452785368979e-01 9.185912644457252529e-01 -1.305815698700092120e-01 3.730127913279751017e-01
6.525721994895948563e-03 -1.572334700016935483e-01 -8.953897422045913324e-01 8.092117088134181957e-01 1.226877171819444334e-01 -5.745642995974872269e-01
2.756121565292114772e-02 -2.955129479795602296e-02 -8.939127630502194943e-01 9.187994487455253267e-01 -1.218126641754926076e-01 3.754587165473555199e-01
-3.837973536584397827e-02 6.447765350468979972e-02 -6.981060748641316760e-01 -9.165562306097380096e-01 1.338745722118382941e-01 -3.768318922882800126e-01
4.646185567632871855e-02 -4.008227403050478033e-02 -9.404957584313570207e-01 -9.188304535365007242e-01 1.269707666022241443e-01 -3.736696697383294352e-01
3.097017350213453202e-02 1.232334310227352625e-01 -8.477712179572410855e-01 -9.236715536544239935e-01 1.234715153163288281e-01 -3.627473581917755596e-01
2.666966479010749250e-02 -1.465643290433835400e-01 -9.311179329233028046e-01 9.141398971999752376e-01 -1.377991720446185564e-01 3.812605887461177900e-01
3.784561862852352243e-02 -2.109705107926108381e-01 -9.767028018430098379e-01 -9.198035708304654889e-01 1.282950267626437602e-01 -3.708123207169597424e-01
-3.870770735397204091e-05 -2.001071868388740460e-01 -8.805546323531813213e-01 -9.169922076868761707e-01 1.155074506350376728e-01 -3.818158193283026636e-01
-3.758839166283481359e-02 -2.878982106021775976e-03 -7.225879895891191840e-01 -9.200399577907454329e-01 1.290482719594163719e-01 -3.699635381665225542e-01
-5.695566746606189196e-02 1.763982781072617745e-02 -6.684640871897591374e-01 -9.121645867806053021e-01 1.314357947944796157e-01 -3.881757314285773086e-01
1.806095105410190091e-03 9.906523675423227482e-02 -7.979902852780109690e-01 7.898073981072460947e-01 -3.644217759418540148e-02 6.122713790364989750e-01
-2.328999493015910735e-02 9.239193538401434258e-02 -7.256323353891883654e-01 -9.146560185546656063e-01 1.166964892078714566e-01 -3.870223470657534470e-01
3.701466985507059770e-02 3.615251771286938365e-02 -8.950165597548070950e-01 9.178630192673312704e-01 -1.176112809829958084e-01 3.790713184177845196e-01
9.437115551894935395e-03 1.646841891972339600e-01 -7.731456529081076612e-01 -9.532892309893775673e-01 1.343401757834547239e-01 -2.705408642888382231e-01
-1.988074785757062632e-02 3.181207208256518065e-02 -7.542009775798040883e-01 -8.907353535645960996e-01 2.021479449297660380e-01 -4.070954903592353680e-01
-6.488540884185041435e-02 -1.328871974498246622e-01 -6.995763951792998148e-01 -9.284670397297560829e-01 1.320233534988743684e-01 -3.471581631855641392e-01
-1.972072026080474993e-02 -4.646144916476508541e-02 -7.809985820721959682e-01 -9.180126366705867458e-01 1.221517750204855896e-01 -3.772687937962294069e-01
6.394413309282494413e-03 4.586376056391183037e-02 -8.041092407755690008e-01 -5.217995553059421310e-01 2.207453150133969755e-01 -8.240125787766575671e-01
1.760233122881225271e-02 1.209025613566963864e-01 -8.191940424382880837e-01 9.145856580151924264e-01 -1.226674686807644604e-01 3.853385086912171076e-01
-4.085990820815346702e-02 -1.776758576483335739e-01 -7.718446323520965491e-01 -7.607482355271493191e-01 6.091671698363769760e-01 -2.240033065288713765e-01
1.424359523392028544e-02 1.424985041973362600e-02 -8.434082853767164156e-01 -9.187811590709088483e-01 1.176584966165967472e-01 -3.768257686388228889e-01
-3.860623855036670465e-02 -1.358652476994116620e-01 -7.648324181371056740e-01 -9.162213626273031375e-01 1.418879715322087232e-01 -3.747081773858731424e-01
1.363690645802407772e-02 8.065101160098743505e-02 -8.267173389284229179e-01 9.499352585658215053e-01 -2.633785819457472033e-01 1.680914248429505320e-01
7.309637107487673702e-02 2.748116719510192846e-02 -9.827910173815288530e-01 -9.212031094041606138e-01 1.243056303430287862e-01 -3.686908481222833656e-01
2.621953160432172886e-02 1.264951666409435405e-01 -8.383504604056346565e-01 9.143625757446568469e-01 -1.201984015333407985e-01 3.866437951738352363e-01
-4.745502164876178215e-03 -1.684274537280435469e-01 -8.616330300941107412e-01 9.147718577561418929e-01 -1.247454027790636244e-01 3.842278396249630967e-01
-1.436484432171699840e-02 -1.669123857447421533e-01 -8.376409304291275726e-01 9.191068664912244168e-01 -1.338371603816439215e-01 3.705808716996342178e-01
-3.571382751102256115e-02 -1.958071639697896715e-01 -7.919517587534981029e-01 -9.196910762237333614e-01 1.385777704120971787e-01 -3.673751840585360862e-01
-5.374812346457317341e-02 6.686423035058344788e-02 -6.597798795110759729e-01 -9.138614595822364128e-01 1.326965462285237818e-01 -3.837301907711269666e-01
3.840685445627899314e-04 -1.459391659598289204e-01 -8.761788054929939840e-01 9.581285560389202205e-01 3.776785096281275872e-02 2.838366775743132453e-01
-4.960519824176035097e-02 -2.382422375899166667e-02 -7.036269056407483680e-01 9.191696904964071768e-01 -1.165689021035470896e-01 3.762163887114871041e-01
6.732774097757039666e-02 3.291619730872429733e-02 -9.700926866866455001e-01 9.184351624225414179e-01 -1.286686676455817135e-01 3.740604582045409798e-01
5.423626829216209727e-02 -1.803855396950652945e-01 -1.009675373467277648e+00 9.214497712943164887e-01 -1.373290111559491433e-01 3.634158247470531955e-01
-3.786507739893165553e-02 1.295125626119103535e-01 -6.807641534881224699e-01 9.203705329804140467e-01 -1.262328823989722348e-01 3.701126064086389666e-01
-3.957641586834081959e-02 2.185188956157370355e-02 -7.095394709481521733e-01 -9.157953459251516604e-01 1.302873224892103776e-01 -3.799264375907847602e-01
4.337756295333802109e-02 -1.368400684002064049e-01 -9.686171042889663019e-01 9.193910589804819011e-01 -1.211663116984484923e-01 3.742175912168512752e-01
3.948437153742547640e-02 1.557356033550997276e-01 -8.577229248985347443e-01 -9.213537838401596458e-01 1.206930015419042934e-01 -3.695137404511859569e-01
-3.395681195143232523e-02 1.243077854227993273e-01 -6.888855444008774587e-01 -9.150559545625728264e-01 1.186434429295481902e-01 -3.854819496025743697e-01
-3.787930282998139275e-02 -6.800194428809484826e-02 -7.438454172199558956e-01 -9.298035732355990346e-01 1.185033599686622779e-01 -3.484569828177496165e-01
5.046222365244695807e-02 -8.945777442797323009e-02 -9.699851128261434141e-01 9.182213832802853526e-01 -1.358741902412043956e-01 3.720318477135210466e-01
8.439902432284341130e-03 -4.362643787326423057e-03 -8.270067183977414249e-01 -3.084492014402536175e-01 4.230625693043670310e-01 -8.519842443287654055e-01
1.099844622095208849e-02 2.078724690123048002e-01 -7.738487853378279713e-01 9.228469588871687224e-01 -1.244457816879395301e-01 3.645088996071041421e-01
-5.120922056194467803e-02 -6.152368430606124788e-02 -7.090379390044332375e-01 -9.160940387641556271e-01 1.301399233624110086e-01 -3.792562622924024462e-01
5.254291782180463104e-03 -2.249306348717684118e-02 -8.338638594906593315e-01 -8.907353535645960996e-01 2.021479449297660380e-01 -4.070954903592353680e-01
3.489104118571801066e-04 -2.155188695825096534e-01 -8.865980830290640657e-01 -9.181521973724147134e-01 1.219096099237585024e-01 -3.770074130152393788e-01
-4.950408359096616223e-02 -2.784727686711982800e-02 -7.019234511489599315e-01 -9.168179766100922334e-01 1.338885814936645602e-01 -3.761896403546895473e-01
-3.065951195110418193e-02 -1.720955334597467357e-01 -7.932529384749147372e-01 -8.907353535645960996e-01 2.021479449297660380e-01 -4.070954903592353680e-01
3.958432773244714015e-02 2.083794294436063788e-01 -8.401239911175025776e-01 -9.207524014391353928e-01 1.227901405693193476e-01 -3.703209373273834704e-01
-1.564513469401136725e-02 9.097916431672871396e-02 -7.480672347051686710e-01 9.185124459215309178e-01 -1.300780957541467775e-01 3.733826130020272416e-01
-3.769435375017671924e-02 -4.269838994540689492e-02 -7.395740209377097418e-01 5.829202829608379766e-01 -7.129760584019462222e-01 3.897038412159687937e-01
7.022954104100040743e-03 -1.309794710304493237e-01 -8.745797040181779725e-01 -9.217797421321407558e-01 1.210371970098002570e-01 -3.683369434835650491e-01
2.477184025295117720e-02 1.428871129455114852e-01 -8.292783832577440561e-01 9.156391946751479827e-01 -1.218013782438153586e-01 3.831048021528226655e-01
6.696219054380478201e-03 -1.780092178606348940e-01 -8.896129215208011809e-01 -9.171522991314385864e-01 1.300821123831270298e-01 -3.767098409065784415e-01
1.946687716646101213e-02 -1.179821019620180267e-01 -8.832038708106025870e-01 -9.934928711968774584e-01 -6.686270058438799346e-02 -9.220246282799120230e-02
6.506924812278407078e-02 -1.102559745595442647e-01 -1.012632909019548055e+00 9.163743101203852826e-01 -1.154310347726475450e-01 3.833194489752687617e-01
-1.084119923593967853e-02 1.582324716840948775e-01 -7.371614907535589678e-01 9.244662111554067252e-01 -1.184164063092024433e-01 3.624083044699459299e-01
3.771112682775584757e-02 2.254570625624226499e-01 -8.332222472059371832e-01 9.168326269087440084e-01 -1.217671822747554561e-01 3.802508219011213053e-01
-2.220336591916378596e-02 -5.795984192963983452e-04 -7.626991407312943005e-01 9.197560866881099306e-01 -1.238219156131813714e-01 3.724471428458759892e-01
1.980693191730132849e-02 2.545536516351036282e-01 -7.796402186199998807e-01 9.260208068450525021e-01 -1.176193270976320787e-01 3.586797445955628993e-01
-2.194168448281374681e-02 6.429033573816954339e-02 -7.415723369555132782e-01 9.182986740825958005e-01 -1.246366325391284058e-01 3.757569094606949545e-01
-1.172043719587204449e-02 -1.100155090133985991e-01 -8.147215084811083585e-01 -9.352622672945646309e-01 -4.155752356973043543e-02 -3.515074161518950691e-01
7.816300950926179797e-04 -1.249492951551212788e-01 -8.606134871018197297e-01 9.215097634434862295e-01 -1.322895237277979252e-01 3.651290700426391145e-01
-1.031623145034855568e-02 -1.778742637089344159e-01 -8.476653466034980156e-01 -4.924282781842340140e-01 -6.972763762480757022e-01 5.208839083431763273e-01
1.438470865291934311e-02 6.538475862812902217e-02 -8.299365710261419338e-01 9.135651064697870583e-01 -1.369245596820403976e-01 3.829496849414111836e-01
-6.391526467898590858e-02 -1.025587873786954068e-01 -6.950946464164524663e-01 9.189877524474309167e-01 -1.199320673549130051e-01 3.756032615294977450e-01
-3.969103865240367762e-02 -1.080594831477611414e-03 -7.169844578388722134e-01 -9.200026667491505439e-01 1.290584677726438756e-01 -3.700527058009830950e-01
-1.595232287532034540e-02 1.960480361369282276e-01 -7.086703842270145604e-01 -9.142595660714959438e-01 1.103010647624343005e-01 -3.898244745510897613e-01
1.616241472609976360e-02 1.040018718486070692e-01 -8.180583815374623535e-01 -9.143037429835367824e-01 1.388416023623444684e-01 -3.804887317907735267e-01
2.437140022562975239e-02 -7.095244406888965780e-03 -8.786569374457213755e-01 9.186802707611636531e-01 -1.197906607293261344e-01 3.763997312913844873e-01
-1.486053295847916157e-02 -5.557722461535095915e-02 -8.007001115672144342e-01 5.760637266707151483e-01 4.129207532963503069e-01 7.054410211431018096e-01
-1.914367279876135006e-03 -1.824411929207520877e-01 -8.658345237314899467e-01 -8.966401653632053437e-01 -4.376128628248407981e-01 -6.731564563822337033e-02
-1.878559514872474865e-03 2.083414325974761727e-01 -7.389675278515670520e-01 -9.149764292223344642e-01 1.160485370540083744e-01 -3.864594040972100242e-01
9.792697960537678856e-04 4.540211672761471084e-02 -8.038786996553800579e-01 9.193178599042112209e-01 -1.171341632951710676e-01 3.756784000315712135e-01
6.814093656261106802e-02 -4.022736880290180006e-02 -9.934058016168952898e-01 -9.165830976142114173e-01 1.237493823504896145e-01 -3.802124610475168809e-01
6.698601605541368298e-02 6.284303123027257243e-02 -9.560001145434692260e-01 -9.253899258433408992e-01 1.091501200453373344e-01 -3.629596898303511510e-01
4.090728648491339520e-02 -2.864608746371308332e-03 -9.143649606302519661e-01 -9.180492732687716151e-01 1.206631530695211896e-01 -3.776584903613340871e-01
5.856295035913549468e-02 -1.558919545626971381e-01 -1.008744882148353783e+00 -9.158815199961866105e-01 1.357283389334875690e-01 -3.778079662207124434e-01
-1.079955825118439003e-02 -1.104681857424743077e-02 -7.874645005790729124e-01 -5.914048855543381222e-01 4.360778495867125848e-01 -6.782892970129256183e-01
6.221351267099168442e-02 3.146289795983299442e-02 -9.549517654146690848e-01 -9.183631854937016614e-01 1.229394512632012992e-01 -3.761581460675335054e-01
-5.071490388126516716e-03 -1.827704151856476000e-01 -8.697436588979088334e-01 4.280577470161642251e-01 -7.734366809174122448e-01 4.675064339994716711e-01
-9.382006751598394225e-04 2.180593189884980909e-01 -7.412718643416158493e-01 9.209793788967702843e-01 -1.150744305108051951e-01 3.722295784721212364e-01
4.247118445564363604e-02 1.433846209946998962e-01 -8.690101099258604744e-01 -9.256893478166505762e-01 1.216308348891450147e-01 -3.581971124157115050e-01
2.796123143440306519e-02 -8.262002489480102518e-02 -9.094409686314615104e-01 -9.193142819386633802e-01 1.333404997801079794e-01 -3.702452729502303530e-01
-5.446169134727837924e-02 -1.901745411564554067e-01 -7.442729685180642374e-01 -9.223808855666784101e-01 1.212352162687704293e-01 -3.667635809039583306e-01
1.556558297250287132e-02 -9.105381591308156497e-02 -8.820150151989668563e-01 -9.160740935867506263e-01 1.263671141550171406e-01 -3.805779913754156474e-01
1.038655345844548619e-02 1.585522286981183027e-01 -7.856700058201441239e-01 -9.198081496128426293e-01 1.359499239793659497e-01 -3.680632908560746985e-01
-7.758772531073278821e-03 -1.308806186755414047e-01 -8.432161754055149672e-01 4.187654210299374125e-01 8.163707796664668725e-01 -3.977112925934890297e-01
-6.428422080284974804e-02 -1.086824920753342305e-01 -6.961458106302533810e-01 9.177968205883950681e-01 -1.201741292169007241e-01 3.784272384287275526e-01
-3.679827842437188856e-02 6.379153868816553330e-02 -7.054253834977287640e-01 9.161084613001320154e-01 -1.346873917039084489e-01 3.776302340256968426e-01
5.637803967902956653e-02 -4.369968945400722754e-02 -9.657691481030091785e-01 -9.145446097234772864e-01 1.209028983797560547e-01 -3.859930646904252693e-01
-4.901194502280453030e-02 1.641877219792624645e-02 -6.882608957011637774e-01 -9.151149830741310831e-01 1.328213018814298485e-01 -3.806876272217877832e-01
1.723552838596654341e-02 -1.209216478494029995e-01 -8.993203888866186935e-01 9.169260173720766849e-01 -1.189194950164621095e-01 3.809262820693941065e-01
-2.435105670763935623e-02 -1.301559391176607960e-01 -7.976556143516161379e-01 -9.185063347396493771e-01 1.272851870376429384e-01 -3.743589109450013441e-01
1.589680116300394574e-02 -7.810235347290335473e-02 -8.784444930247369276e-01 -9.190716489798523847e-01 1.307053006344367496e-01 -3.717841153512566055e-01
4.286316374190256295e-02 -2.163187215512023809e-01 -9.940297329149313521e-01 9.197616079054216076e-01 -1.449960091400073758e-01 3.647118615519716056e-01
-2.547465119168806393e-03 1.592975277801371992e-01 -7.538060499301040274e-01 -9.136654821282860217e-01 1.341819739076126894e-01 -3.836803156868274778e-01
-3.544207496468959866e-03 -2.367354422292194949e-01 -8.875481175356945140e-01 9.215348696477457802e-01 -1.213988546422122977e-01 3.688303161548287523e-01
-3.074913685367897803e-02 -1.564721377489965148e-01 -7.908693464161776765e-01 -9.194515348153005085e-01 1.283728894076303084e-01 -3.716574718620960227e-01
4.160405697761093008e-02 3.840961639548623463e-02 -9.054464588244127699e-01 9.183050967873158665e-01 -1.326489584951470735e-01 3.729879395162682965e-01
-2.191124203764677897e-02 -6.020781393089746220e-02 -7.801517816205443268e-01 -9.175977464229848612e-01 1.233446703827768276e-01 -3.778894918459941299e-01
-1.645030147320706323e-04 1.717763983338630451e-01 -7.553665307283177199e-01 -9.208309796854402540e-01 1.338596891757337093e-01 -3.662675121619828333e-01
-2.199314342491960617e-02 -1.768508650111226196e-02 -7.714944375109004104e-01 8.636663683633046817e-01 3.677976740657048493e-01 3.446814110305314593e-01
2.819273336974465870e-03 -5.793921949957322320e-02 -8.398221287320883910e-01 -9.201624586872547695e-01 1.221999546688425642e-01 -3.719787906609177131e-01
-3.369585620240470730e-02 1.692128205488172554e-01 -6.744174177333868148e-01 -9.203084881774533654e-01 1.182532408181021233e-01 -3.728920187192888425e-01
4.717828495105087783e-02 -1.658283053487603353e-01 -9.875616799284723246e-01 9.200058639607904265e-01 -1.236833825240600676e-01 3.718758276161100440e-01
-2.491236084195444164e-02 -1.000595063098498327e-01 -7.894565412521108438e-01 9.208622288906540554e-01 -1.248370573518881171e-01 3.693622402388446191e-01
-2.971865135271873747e-03 -1.195426412770214247e-01 -8.463459700732002267e-01 -9.224464162592194150e-01 1.251147590403537402e-01 -3.652929046680172820e-01
-1.254246281779481135e-03 -1.943487155686465240e-01 -8.756469283106956825e-01 -9.203594533520700338e-01 1.293902509437417359e-01 -3.690482889625616991e-01
-4.402231282309929106e-02 -1.764338263918517058e-01 -7.711048318857621764e-01 8.734787709178174486e-01 -2.278485342063070462e-02 4.863287850934790435e-01
5.346492834430421892e-02 -8.457003426262961476e-02 -9.723780641284717197e-01 -9.200981019995552179e-01 1.191377122684823819e-01 -3.731295863533851120e-01
5.277029729647646217e-02 1.100873857772308728e-01 -9.086999285481605071e-01 9.165462874569965113e-01 -1.308524497725850610e-01 3.779160480018147750e-01
1.283780415578765315e-02 -8.334660144641627133e-02 -8.720989411618060849e-01 -4.409514097922707654e-01 -6.015531550892299073e-01 6.661048384484248297e-01
7.973885832045650478e-04 -1.694891875089280797e-01 -8.722816988971680008e-01 -9.187429723847890806e-01 1.252041740838953088e-01 -3.744799934382774809e-01
3.394611075546048740e-02 -2.699899650127748907e-02 -9.096397269003337893e-01 2.113668586567709062e-01 3.624011246209766779e-01 9.077386605929153029e-01
-4.608551636940081547e-02 -6.497794379281811999e-03 -7.031388670748909275e-01 -9.215370341269664145e-01 1.156639500191330161e-01 -3.706633855649163478e-01
-2.444589431270473637e-02 -8.917142541074549178e-02 -7.786482807490432423e-01 -9.402760062805450847e-01 -2.943339745944349439e-01 -1.710220553395112308e-01
2.701099866626969701e-02 -9.677325926903956876e-02 -9.119504878491528910e-01 -9.196329241946364919e-01 1.347191520066805814e-01 -3.689526186650843309e-01
8.835429081490741351e-04 2.378638379077695764e-01 -7.358728554566222879e-01 -9.179900827522151641e-01 1.251111004150029515e-01 -3.763527873173364569e-01
5.441758732158815011e-03 -2.012740772873126971e-01 -8.910768774153183802e-01 -3.348595549346092271e-01 6.798970890208678730e-01 -6.523871755406795980e-01
-1.360122769175229132e-02 -1.951377064709073836e-03 -7.808956184989751526e-01 4.545223095846385730e-01 3.961528783128781539e-01 -7.977921828986970221e-01
-2.665766908910241831e-02 -5.981397467985018895e-02 -7.684555045287410069e-01 -9.179580708539603062e-01 1.231915338454317027e-01 -3.770634245626131587e-01
5.064540716122252831e-03 5.275023384250894509e-02 -8.154976859461231520e-01 5.718641149615695252e-01 2.603805445872337532e-01 7.779289209302328034e-01
3.579301438902060539e-02 1.186832565435763653e-01 -8.643153449692654311e-01 9.219276071589356247e-01 -1.227107119935148677e-01 3.674119871754921718e-01
2.692646749926031965e-02 -2.033436965622027470e-01 -9.508252586875602930e-01 8.864048512024973459e-01 -1.129542327036289068e-01 4.489184570487306236e-01
5.553974803509591218e-02 -1.407428883791446428e-01 -9.998497137804864821e-01 8.907353535645960996e-01 -2.021479449297660380e-01 4.070954903592353680e-01
1.781860967781151439e-02 4.817401726035883125e-02 -8.407680556496883728e-01 -9.190368631764843643e-01 1.160100356545278322e-01 -3.767133071052354287e-01
-1.016596078260879367e-03 -1.614012715526443875e-01 -8.684189138648823469e-01 9.191234346162858726e-01 -1.224325721582243398e-01 3.744627848183088026e-01
5.268406541625773182e-02 -1.758299469719189767e-01 -1.001202257961003372e+00 -9.168234443872580464e-01 1.210905575790496708e-01 -3.804889600068300237e-01
1.554616591434461979e-02 -6.799366791069791360e-02 -8.743141744178974939e-01 -9.191963546595983692e-01 1.283631022207835093e-01 -3.722915196036065133e-01
1.969666705502064533e-02 -1.136681992800009020e-02 -8.686063783089703616e-01 9.185233105518494368e-01 -1.212139473468892698e-01 3.763271275651764447e-01
-1.981491149432355187e-02 -9.248811258585007411e-02 -7.960971553177911275e-01 -9.174821348627559825e-01 1.244762465518178679e-01 -3.777991480298106275e-01
-1.725031431472436906e-03 1.021841017396083427e-02 -8.091425610714549910e-01 9.158336805693981786e-01 -1.371879916149912060e-01 3.773965083189756986e-01
3.211251624681873106e-03 1.737516906824767282e-01 -7.630067773695358158e-01 -9.137247221625531823e-01 1.319786217257815641e-01 -3.843029735980820760e-01
1.152874473299021763e-02 -1.420526029964217386e-03 -8.454263058062201353e-01 9.180090362206811960e-01 -1.371413556347433060e-01 3.720909270485387998e-01
1.002357750351532545e-02 2.668838362818743565e-03 -8.358407816687717373e-01 -6.210562703766359105e-01 -3.735619566817176551e-01 6.890142041685277663e-01
4.977710884107379441e-02 4.925872899661920545e-02 -9.217628601756849838e-01 9.195040039411614963e-01 -1.310558173971677620e-01 3.705897454902561394e-01
-1.260244217700435578e-02 -1.816829366993532868e-01 -8.515763433009040373e-01 9.328984110890546910e-01 1.901045937789988260e-01 3.058770962521362158e-01
-4.169250229039828809e-02 -1.628003177127220757e-01 -7.663016204447916646e-01 -9.140556891133351236e-01 1.247311138589669438e-01 -3.859330854371617603e-01
-1.393605911276905689e-02 -6.115189614427052334e-02 -8.032864840638221926e-01 9.172797833609283025e-01 -1.224418222271408535e-01 3.789535581136896369e-01
-2.721404669000176274e-02 1.477513403504649714e-01 -7.007041873347068517e-01 9.173971257446564831e-01 -1.203180666381494790e-01 3.793495439774520750e-01
1.814352419150461540e-02 -2.100425280061547495e-01 -9.135455412348005844e-01 -3.900349071160703063e-01 2.919932605115871382e-01 -8.732769933112694005e-01
3.827884529127765362e-02 1.851434470312686431e-01 -8.480173858287035626e-01 9.150881552773092453e-01 -1.245055050607037223e-01 3.835518834274582178e-01
3.549621944626937635e-03 -2.100046955303050411e-01 -8.925564417843950826e-01 -9.168568231173153116e-01 1.223536350189098482e-01 -3.800041498469238777e-01
3.212025316746944074e-03 -1.755061298760764998e-01 -8.802275721572264677e-01 -9.188087807735217938e-01 1.275021756901411618e-01 -3.735419917060932571e-01
-3.352525203032834245e-02 1.187242283998814207e-01 -6.917071054118141271e-01 -9.212621626301749078e-01 1.250969999666510790e-01 -3.682753973663147051e-01
1.183772950615392602e-02 7.359421257362530611e-02 -8.175945343051258529e-01 -9.164744027812407046e-01 1.275569849260833888e-01 -3.792148265077926461e-01
2.972750868593455539e-02 -4.823790091445336742e-02 -8.991360125579893614e-01 -3.506968633377715583e-01 -1.976599750052922544e-01 -9.153918528837560187e-01
9.410596073499486250e-03 1.603164388526695794e-01 -7.795425734344845203e-01 -7.241067206442757254e-01 -4.380298907705100775e-01 5.327281407147252956e-01
-2.441915718382694708e-02 -1.545574411795026804e-01 -8.056964495131084814e-01 -9.157582028035079480e-01 1.135789766039578819e-01 -3.853397592666589766e-01
2.836144821518574513e-02 1.062455528972776203e-01 -8.503266886205073094e-01 9.222307563821464660e-01 -1.255465938038081430e-01 3.656890547542754333e-01
4.815226635092059726e-02 -1.569253888764915172e-01 -9.838146595133041572e-01 -9.290895669560006453e-01 1.223640214452429709e-01 -3.490266792513997407e-01
4.062879259764032303e-02 1.917921838274259938e-01 -8.515131248351506255e-01 9.110735631863237094e-01 -1.296485363085017328e-01 3.913262315460580010e-01
2.323006192265340483e-02 2.612825597189220167e-02 -8.614916022969558718e-01 -9.187813751966865672e-01 1.346505201171992183e-01 -3.710930099366646084e-01
2.403486193249987010e-02 -1.633620492697147597e-01 -9.191315532858376214e-01 -9.509720661024761990e-01 2.577360403421835588e-01 -1.709510544030654056e-01
-2.703843790625744606e-02 -1.868665072835742069e-01 -8.101116448041517648e-01 -9.168156793599343546e-01 1.166302700462599207e-01 -3.818984029669650893e-01
3.799096813246757853e-02 3.809800451012643370e-03 -9.050032660684481645e-01 -9.180953674656371355e-01 1.358773061580912100e-01 -3.723415822995832514e-01
-3.972590992955207095e-02 7.609384337971188128e-02 -6.908731122560319848e-01 -9.164279790108667001e-01 1.389202835881554743e-01 -3.753144203116168809e-01
2.065413945714314470e-02 -2.066082069091390236e-02 -8.709341641203405260e-01 -9.187881808532022410e-01 1.201517533639338969e-01 -3.760210564423698276e-01
9.909548240729903687e-03 1.390022364404125410e-01 -7.822202945021292653e-01 -9.713937826800193021e-01 6.947886659897381523e-02 -2.270832580062332184e-01
3.258806888742103725e-02 -2.599801406664953296e-02 -9.073228418116880967e-01 8.509758183884628124e-01 -2.122383518995613616e-01 -4.804113222032176944e-01
-2.689126946473259158e-03 -1.835357108687872274e-01 -8.628919293276271496e-01 -8.907353535645960996e-01 2.021479449297660380e-01 -4.070954903592353680e-01
3.378460960515967254e-02 1.740981259094759037e-01 -8.375300609765110593e-01 -9.264648090663568647e-01 1.230964609056521414e-01 -3.556827503185134853e-01
4.518505678481089805e-04 2.056342222608456213e-02 -8.109022539044806743e-01 9.158331821967804487e-01 -1.383247114286745294e-01 3.769825680260201484e-01
-2.957362056475944852e-03 1.801508859694129216e-01 -7.458710576924844071e-01 -9.153460063424216919e-01 1.297271032510425859e-01 -3.811988553958058357e-01
2.312591242051028825e-02 -2.877685994984637702e-02 -8.828181162596319131e-01 9.187430940198684226e-01 -1.200140147319311568e-01 3.761751765583729035e-01
3.899236621592389734e-02 -4.560421064368602034e-02 -9.272762119374317047e-01 9.187985380055365692e-01 -1.261287657175812760e-01 3.740331282352516995e-01
-4.519900714112715795e-02 -2.140074946741534201e-01 -7.781481917784814906e-01 9.236081638088556867e-01 -1.181794544252375706e-01 3.646663904137411594e-01
3.293938647609438025e-02 -1.738612364541395061e-01 -9.555582907279707161e-01 9.202735376900412767e-01 -1.340854278795375054e-01 3.675836147841980983e-01
-4.764852382484897897e-02 -1.328086760759895346e-01 -7.449617112280002562e-01 9.164738361867966754e-01 -1.237035536579595835e-01 3.804906548096138597e-01
1.975994321558504838e-02 -1.260433813301673478e-01 -9.040421034854749793e-01 -9.155925671254336873e-01 1.209234658289374542e-01 -3.834941543708013656e-01
-2.758277148522199004e-02 -9.019275566366329044e-02 -7.744205021147595458e-01 -1.966296684355874902e-01 8.064154570796758792e-01 -5.577014291481493524e-01
-1.603611260913176753e-02 7.336459287714068578e-02 -7.496656902697829139e-01 -9.175872168530295747e-01 1.290871608236072443e-01 -3.759922929774113243e-01
-3.761533137446384373e-02 -1.618110366378786372e-02 -7.271048241306082849e-01 -9.190615006487873329e-01 1.281577365684405390e-01 -3.726949859910295149e-01
-1.047748560563298986e-02 7.525399063917111164e-02 -7.626026228941171770e-01 -9.174546774029289642e-01 1.268521949581229991e-01 -3.770748407754005993e-01
-2.472556681314611038e-02 -7.656801532210624761e-02 -7.788954258611240355e-01 -9.179234807546532426e-01 1.232056652432167304e-01 -3.771430067378134243e-01
5.950532083714387549e-02 -1.431507663085219983e-02 -9.635916915106790270e-01 -9.224254487175004291e-01 1.266240793951215748e-01 -3.648254844109106720e-01
4.149437375041875598e-02 -1.340609301792046182e-01 -9.630903688594955048e-01 9.156064307693789761e-01 -1.372642550388806504e-01 3.779198171866346434e-01
1.696757391907888560e-02 -8.084794184510246673e-02 -8.853430876168280061e-01 9.209718895556793239e-01 -1.300429312338362287e-01 3.672868289012735099e-01
1.401915113818475930e-02 -9.244168491945628507e-02 -8.787534888682665413e-01 -9.160740935867506263e-01 1.263671141550171406e-01 -3.805779913754156474e-01
-1.114757403777783202e-03 1.427137235644032887e-01 -7.660435396464326807e-01 9.174586458420214141e-01 -1.155182655347865572e-01 3.806903774690906794e-01
-9.720562552342240875e-05 6.064438231788912143e-02 -7.878267486796036723e-01 -6.720520223944059790e-01 4.604484064753180950e-01 -5.799425352308014148e-01
-5.673971569423830186e-02 -1.492507267375090818e-01 -7.249603857722700662e-01 -9.203154866654462696e-01 1.134747548174144388e-01 -3.743566281273386642e-01
2.862827254321844220e-02 -8.108939879720392097e-02 -9.138802857271961511e-01 9.214788041471473345e-01 -1.137329667948708267e-01 3.714049350393451854e-01
8.044462106861847983e-03 2.029115806753142848e-02 -8.321849342230693836e-01 6.090064641909079812e-01 1.676083805468641386e-01 7.752538663845192080e-01
-8.961896278624030543e-03 -8.740736051349824731e-02 -8.209630264481619921e-01 -9.166849677161648113e-01 1.259453366335334668e-01 -3.792445677178250540e-01
-4.411217653570498332e-02 -4.721926983876109651e-02 -7.249542777364221813e-01 9.180931881351491741e-01 -1.256036350200163410e-01 3.759369957447605826e-01
6.110920821039781672e-04 3.266226979368638123e-02 -8.113373364065205040e-01 7.126593280860618052e-01 3.119953845532716930e-01 -6.283116759295335196e-01
2.823677203155990426e-02 4.456027059934623835e-02 -8.707849542065545512e-01 9.184690747234347530e-01 -1.319611514958017873e-01 3.728281283280268643e-01
1.803862425735647257e-02 -1.346084354219615475e-01 -9.026984976628465995e-01 -9.145956270422030965e-01 1.273980249407123677e-01 -3.837767348817345270e-01
3.581865287503296393e-03 -5.881772029795157009e-02 -8.491021297136103207e-01 6.084949682733579168e-01 1.691104987105976065e-01 -7.753292931470203708e-01
-9.534558306831865740e-03 -1.962622877857185255e-01 -8.593899112946007390e-01 9.229136544308215173e-01 -1.188324505048158480e-01 3.662092778346374700e-01
2.515411729250864592e-02 2.120974530726186524e-01 -8.070783812487254405e-01 9.175113724079509980e-01 -1.263987566824324171e-01 3.770891616199194551e-01
1.472634461198469961e-02 1.303640276673860843e-01 -8.088668290457575738e-01 9.141578994047676598e-01 -1.238918648175729720e-01 3.859613203261263448e-01
-1.029992779545415606e-02 1.890446896419982203e-01 -7.248740731454209607e-01 -9.155792565619484957e-01 1.335551137255495957e-01 -3.793120833182422325e-01
