4.802219534702647369e-02 1.240073146833362561e-01 -5.264101912663234906e-01 7.362511067069392734e-01 3.255977509309468387e-01 -5.932288027915670892e-01
7.288069168478952808e-02 -1.553114478254429345e-02 -5.771047574233652000e-01 7.379619004165650642e-01 3.391305792231957827e-01 -5.834403857887379141e-01
-2.312422800883416618e-02 2.521661454817852310e-01 -5.417174886903795006e-01 3.790807432035800395e-01 -9.197209898420616314e-01 -1.020347537663500725e-01
1.141869171450898279e-01 -1.048443797982348824e-01 -5.793907030138445435e-01 -7.339430445582491025e-01 -3.465046137398292148e-01 5.841764801852086242e-01
1.432970794860072977e-02 -8.121828704259383136e-02 -6.945347295278551103e-01 -6.043629450314215168e-01 -7.269204811235423502e-01 3.260859469466061977e-01
-7.597072860995190968e-02 1.852407247973124060e-01 -6.497347437695623062e-01 -7.445109593416764371e-01 -3.430685347561336362e-01 5.727193133467877173e-01
-5.366307163813668901e-02 -9.821209423767890412e-02 -7.864453428680369118e-01 7.323344973408895120e-01 3.494374563909254938e-01 -5.844481568757889933e-01
-8.188023632486575443e-02 -3.955286343469152643e-02 -7.862247674383097129e-01 7.404289309065165137e-01 4.629916074950936600e-01 -4.872409769977705252e-01
-9.863029887555696193e-03 -1.308583392673828283e-01 -7.431580372617017094e-01 9.935415533618436879e-01 -4.958444022480135160e-02 1.020615747033504217e-01
-7.810297193825077589e-02 1.967181662809183440e-01 -6.435915776075542549e-01 7.292281309546130297e-01 3.451240010041902728e-01 -5.908601839312760395e-01
-4.338999410444610572e-02 -4.301375553084233611e-02 -7.450766682854702561e-01 -3.853689566866909666e-01 5.350116495523131455e-03 9.227470636505408219e-01
7.126762309285186725e-02 -6.371623485071559179e-02 -6.096567264135903663e-01 -7.325366853888778396e-01 -3.444684903262515974e-01 5.871383684718868290e-01
8.738148819627261643e-02 -9.323202464478969054e-02 -6.045246872065417332e-01 7.400060975080552383e-01 3.435422836387664325e-01 -5.782470708989020380e-01
-8.215279582851260642e-02 2.394524111442811187e-02 -7.505888058462629742e-01 7.374972242893006458e-01 3.363527277275093486e-01 -5.856318696210449648e-01
1.118689845714687797e-01 -1.985914939335081120e-01 -6.355078936633857811e-01 7.448591065011753720e-01 3.354483946532642591e-01 -5.767662316630705055e-01
-5.742906735020799486e-02 -2.766540980436344582e-02 -7.517018966444899419e-01 -7.367983825205700610e-01 -3.452492375097365729e-01 5.813184217913771601e-01
5.058869097144784444e-02 6.653577874948997384e-02 -5.591100149769056005e-01 -7.422369554015254556e-01 -3.356521211885045153e-01 5.800189269135372916e-01
8.358027831842095717e-03 -6.120790819607850597e-02 -6.880688822661171766e-01 -7.345814350416079996e-01 -3.437508003491236419e-01 5.850004295310805569e-01
-1.917639593395617428e-03 -6.925414639776608650e-02 -7.149536712891890744e-01 -3.054073748265922483e-01 -4.659872992006720005e-01 8.304108455368297559e-01
-2.205040627979914722e-02 1.177980020806527056e-01 -6.217231691571672991e-01 -6.223053708040798826e-01 3.420624785166679893e-01 -7.040804543938359306e-01
2.211599957357669385e-02 -1.912158977666189585e-01 -7.513474813225856641e-01 -7.913544959216562980e-01 -7.703386495705015491e-02 6.064848270438096822e-01
9.730959393962670956e-02 -3.252173494518333791e-02 -5.582149455953154815e-01 -7.410147343787722996e-01 -3.369274070354547068e-01 5.808417046166042264e-01
1.142293720440156202e-01 -1.394932738214989532e-01 -5.976959248443255435e-01 7.349017674357158914e-01 3.521462885220314476e-01 -5.795794886812497548e-01
-1.927775110621646540e-02 1.297254644759358692e-02 -6.772619094648452132e-01 7.388112209940784769e-01 3.333673924395617605e-01 -5.856826456292570926e-01
1.851882949948783011e-02 -2.172388635443865401e-01 -7.670605069099187823e-01 -7.383254689388460967e-01 -3.500817170027524794e-01 5.764705485422801923e-01
1.245546808730393917e-02 -6.097891508495173474e-02 -6.865332198982230238e-01 -3.629112450391041578e-01 -5.800010932010857267e-01 7.293107431744800806e-01
3.925325034044162276e-02 -9.272533142691233299e-02 -6.632635280756857821e-01 3.480221533255382083e-01 2.778156657500752691e-01 -8.953764776106740708e-01
-5.151452849248436272e-02 -6.684875712181878420e-03 -7.297391075385927239e-01 7.392936081682951466e-01 3.325091600950719206e-01 -5.855617980831510083e-01
7.052101125312608410e-02 -9.147203940282332135e-02 -6.248306787022678277e-01 7.384156394183007954e-01 3.444544859964630557e-01 -5.797356729919025398e-01
-2.312691127771184310e-02 1.148012314659292016e-01 -6.216480748457853256e-01 2.462186773742344736e-01 -2.520418030601303053e-02 -9.688865321631756622e-01
8.959068751726684265e-02 2.439901728980604576e-02 -5.344430395746808671e-01 -7.474784481581787654e-01 -3.394166652942712248e-01 5.710274046484610233e-01
-8.624191846848663912e-03 -1.326459332426329352e-01 -7.471420371023923535e-01 8.379057647368723938e-01 -2.385141426328029890e-01 4.909429021636381174e-01
1.810804365557675336e-02 1.921430849558539433e-01 -5.241878477942055747e-01 7.357053093342641459e-01 3.478516667799680384e-01 -5.811513707596093203e-01
-1.763642620237752812e-02 -1.846874603785063351e-01 -7.938701480788362685e-01 -7.324056923338184699e-01 -3.431786855805169512e-01 5.880563677065731021e-01
-2.241917277396771394e-02 1.723099388195117321e-01 -5.873419615700292695e-01 7.313438650117984885e-01 3.369514362325110590e-01 -5.929585826433850793e-01
-4.104769220663341545e-02 -1.992529998038384265e-01 -8.299434352972527851e-01 7.376321484865807632e-01 3.438407027156115681e-01 -5.810958480965985329e-01
-6.151058957485525808e-02 -1.812008970512538897e-01 -8.453263796348683412e-01 7.421352188211302048e-01 3.425680612756727972e-01 -5.760923887530021714e-01
-1.248633368303598938e-02 -2.304661973772580696e-01 -8.142975476729801265e-01 -7.298991920442776671e-01 -3.583161385568188750e-01 5.821140045582486877e-01
8.215590821620157025e-02 -1.031246414583204679e-01 -6.169271996300793592e-01 7.387159868066008883e-01 3.445570032488633472e-01 -5.792919491487107386e-01
-2.360544665685165508e-02 -2.168865552068716396e-01 -8.203510671178403379e-01 -7.420296346693747713e-01 -3.397457693328729822e-01 5.778969055920341047e-01
-3.905391229459023728e-02 -1.059149019027195160e-01 -7.771766705539403519e-01 -8.474238170267166526e-01 -5.136336882816594507e-01 1.343626011881613458e-01
2.716534464453353864e-03 4.274027297977567308e-02 -6.317975604055268146e-01 7.327352986064183948e-01 3.493938139650951125e-01 -5.839716987483960509e-01
5.590695687821769372e-02 -9.753395352789935580e-02 -6.470048729627498885e-01 7.378287413000784722e-01 3.446334249448996245e-01 -5.803762149867014442e-01
-6.344306550282031998e-02 -1.187393922751477926e-01 -8.108630833051910791e-01 4.960343289933413224e-01 3.794372703773907785e-01 -7.810104367476020659e-01
-1.313259688221117723e-02 1.479644971455214009e-01 -5.899369319782938881e-01 7.714102048575206538e-01 3.219301545136870057e-01 -5.488964123188194710e-01
5.061372655368463064e-02 -1.485355783980135402e-01 -6.837643433520314007e-01 7.402630668812207881e-01 3.529904010400347070e-01 -5.721960927734518476e-01
-6.137541857588195426e-02 -9.399358898787275873e-02 -7.958223560741481961e-01 -7.401299058346543225e-01 -3.481500803973818781e-01 5.753253375338879261e-01
1.136452204302150076e-01 -1.881405230155067942e-01 -6.270918730193765223e-01 7.276385712872049938e-01 3.490753109594323944e-01 -5.904985494086252285e-01
-8.864294948584854061e-02 1.289113708501589961e-01 -6.969873490588148757e-01 7.317684287177346203e-01 3.571381833633323066e-01 -5.804888325505637159e-01
-3.379924392818466766e-02 9.091767791105416496e-02 -6.497080595005507719e-01 7.453202174414769177e-01 3.317256874056664362e-01 -5.783215729922478454e-01
-4.421984653745074378e-02 8.420146042938822517e-02 -6.693348724394290183e-01 -6.578032532690364365e-02 4.839706899564636400e-01 8.726083428795252672e-01
-2.828431028561900068e-02 8.337734169107828552e-02 -6.492951655887118090e-01 -7.350528081127272184e-01 -3.343734873024076792e-01 5.898234823019683493e-01
1.115570078484172528e-01 -5.319829404758243119e-02 -5.520936531055318230e-01 -5.976720977812386426e-01 1.600292852440225178e-01 -7.856072119055810266e-01
-1.809844570822782134e-02 1.227355095070071650e-01 -6.111225739864226680e-01 7.425131373041969907e-01 3.419514138659345837e-01 -5.759717627503686543e-01
-1.169280889753513460e-03 2.306315074381407315e-01 -5.280673819186201268e-01 -7.241221927460139707e-01 -3.342078323905214865e-01 6.032844890609514454e-01
5.194216702131448926e-02 -9.675096914814629301e-02 -6.537050544862417212e-01 -7.611379813267576955e-01 -2.530375038206366667e-01 5.971942690967899647e-01
8.646359362921646197e-02 4.100497787000088185e-02 -5.265255245908114778e-01 7.259549798361439876e-01 3.405344810973091052e-01 -5.975162210642401828e-01
1.480371927358541465e-02 1.423274352240335716e-01 -5.598319223596732730e-01 -7.371299193059713817e-01 -3.504085138066156957e-01 5.778004461021217786e-01
6.280950563060615222e-02 -6.226068940251012346e-02 -6.174043995867961598e-01 7.494134501517772939e-01 3.346869651995437733e-01 -5.712828686886463059e-01
-7.221959772092341467e-02 -9.829915653856706459e-02 -8.120777053848667881e-01 -7.468101320569042745e-01 -3.318681617228269598e-01 5.763142804857959156e-01
3.309981623405460621e-02 1.227368928108949972e-02 -6.111757303059460744e-01 7.343279967778300055e-01 3.457227504668494156e-01 -5.841559491761559864e-01
-4.936490784263262988e-02 -9.840677420070910453e-02 -7.777887505332891083e-01 8.581345441222341108e-01 3.825339253969813891e-01 -3.424513105603509411e-01
2.760355539139056069e-02 9.499165869260218012e-03 -6.197571151547648372e-01 7.392617011012482253e-01 3.284055995402994643e-01 -5.879131734154842137e-01
2.174041559524425571e-02 -1.673580055278251766e-01 -7.336175417387035269e-01 -7.369339724877903564e-01 -3.426424770181781820e-01 5.826872687267261597e-01
3.679712321031433642e-02 1.649551635096105666e-03 -6.148961523337612700e-01 -7.350235562804100509e-01 -3.456564657674584540e-01 5.833197916975288999e-01
-5.608339657853776000e-02 2.042642867268154860e-01 -6.133468348967493489e-01 -7.356990550055682032e-01 -3.665458240391776812e-01 5.695533858589147957e-01
3.220245492692315470e-02 5.399130748563595039e-02 -5.899090408726237467e-01 -7.406892178605736232e-01 -3.398469265344384871e-01 5.795546126726867087e-01
4.212389577390638490e-02 -1.901895525184811586e-01 -7.191414356594113544e-01 7.339383197661144553e-01 3.461459044547989250e-01 -5.843950338667002198e-01
-4.526205259713294432e-02 1.219921592788318215e-01 -6.481069894838447087e-01 -7.427243292655294482e-01 -3.475674001847906536e-01 5.723263693434494925e-01
5.250324187311676549e-02 -1.782260893880423525e-01 -6.976217340846313508e-01 3.325676371543584975e-01 9.540820199036675886e-02 -9.382409294581705028e-01
-6.367993635396089480e-02 4.751902615606139885e-02 -7.098169256217763401e-01 6.457083762507181968e-01 3.336764933441902503e-01 -6.868192561578231325e-01
-6.904410286361481464e-02 1.428142028656301243e-01 -6.638669352870836260e-01 7.398052486316055720e-01 3.344117067780319474e-01 -5.838296022530305995e-01
-1.057451099427322572e-01 2.016829212965242507e-02 -7.848190720980264823e-01 -7.413236569913908003e-01 -3.422719332096573752e-01 5.773120121059618359e-01
1.151274464608991882e-01 -1.627673105506027562e-01 -6.102120817820523291e-01 7.378355178903700518e-01 3.336693479774916482e-01 -5.867397334080289850e-01
1.985832362332814321e-02 -1.084283736934558429e-01 -6.991393643255628954e-01 7.405284850767566152e-01 3.386722339114438540e-01 -5.804469663693282433e-01
-2.640130207421614514e-02 -1.353223246214585174e-01 -7.737126893360647406e-01 6.789643766802295755e-01 3.911934420707139370e-01 -6.212689160742667083e-01
-9.826710366580281020e-02 7.869156544477534654e-02 -7.408876426801028758e-01 -7.417117331691286397e-01 -3.401376736900580400e-01 5.780744483333983830e-01
4.898767069932963292e-02 -7.436588897023468925e-02 -6.420669027751152447e-01 7.379585312249613560e-01 3.445051751310104771e-01 -5.802873344303227654e-01
-1.941159674967191801e-02 -2.009595671698637398e-01 -8.019079521753569306e-01 1.870181922247623196e-01 -9.156044140468580506e-02 -9.780802018989855906e-01
-4.825524573663767663e-02 2.526854336041584603e-01 -5.748527329667966201e-01 -7.420225692867413736e-01 -3.320804054349228429e-01 5.823444951188946339e-01
-8.802794486336334989e-03 -2.257613564360858027e-01 -8.068643109582055439e-01 -7.318713129381921867e-01 -3.437232236152472087e-01 5.884035408167334058e-01
4.250846806802244249e-02 -1.729439867849510148e-01 -7.133274073523165892e-01 -8.979745703919854716e-01 1.962551314070610231e-01 3.938598663556956980e-01
-9.388611922443625135e-02 -1.546815454945866999e-03 -7.805665357546958116e-01 7.322906818364484094e-01 3.384764444768587621e-01 -5.909179755514407661e-01
7.996470982692709117e-02 -9.937127046902865732e-03 -5.669103764008317503e-01 -7.482241788392989257e-01 -3.354519057550522376e-01 5.723919960355491332e-01
-8.059249926803287167e-02 -1.287092464829978078e-01 -8.385847611367455157e-01 7.384206944259431582e-01 3.357550164560665906e-01 -5.848106077766496158e-01
-2.482529277731568241e-04 4.351422637430521489e-02 -6.371898414963248491e-01 -7.387996702985397679e-01 -3.321624655132693338e-01 5.863813977872378569e-01
7.161177168793962655e-02 -1.309304280811701970e-01 -6.467124063999553085e-01 7.460543065820549602e-01 3.424825065886184516e-01 -5.710592826591174287e-01
3.979538254345890008e-02 -1.630858801582797668e-01 -7.043165885839426377e-01 9.999969690202861194e-01 -1.075907448643347161e-03 2.214581992773548454e-03
-7.209230524980065127e-03 -1.488611672478586112e-01 -7.556363905836591677e-01 7.932879593903393589e-01 -2.214410659012932270e-01 5.671490701912594856e-01
7.229018576553948930e-03 -1.044123667180286291e-01 -7.149368394205969368e-01 -7.434831382835422886e-01 -3.364338036745681548e-01 5.779663647939360382e-01
1.195062121802657404e-02 -9.102755849305558741e-03 -6.506391330944412132e-01 7.368221456891526078e-01 3.475372758170047760e-01 -5.799232428000522521e-01
-7.437988954224235283e-02 -7.080270449160115664e-02 -7.965524129477948856e-01 7.334167281866935673e-01 3.498027954660065664e-01 -5.828704033488856240e-01
-3.125431801506054364e-03 -2.194302166721104896e-01 -7.932313100414705165e-01 7.355553833825219101e-01 -4.120420039881061425e-01 5.377542793195200233e-01
8.816896449602075470e-02 -1.544781860632434833e-01 -6.395590159547092091e-01 7.327550920507003296e-01 3.458841747574019077e-01 -5.860325184886588934e-01
7.136022315360147916e-02 -4.104577265645493328e-02 -5.940085776073298351e-01 7.379851955689913368e-01 3.424215695866357212e-01 -5.814854424685301781e-01
-3.282033623376507270e-03 4.119329625401865758e-02 -6.403357254245778396e-01 7.400674982984685180e-01 3.504287571756550257e-01 -5.740207174889873087e-01
5.110886487237247672e-02 1.463613738599490836e-02 -5.869248309616429404e-01 7.435450968483717782e-01 3.408635842863354526e-01 -5.752848910411412220e-01
-5.863013165779007441e-02 -7.405039623267994919e-02 -7.806586870685694457e-01 -3.378883087639515947e-01 -1.952989538398904601e-01 9.207007165358788159e-01
-1.785899627502367595e-02 -1.767125233049037514e-01 -7.894383820134430740e-01 -7.437379991700301396e-01 -3.455452089748141109e-01 5.722344774173540038e-01
8.581576097570906697e-03 1.112519223175878064e-01 -5.861112028124075835e-01 -7.460520373061041433e-01 -3.369802732647526056e-01 5.743262601186054361e-01
-3.788336303884019124e-02 -9.798804684939181608e-02 -7.683331246493582123e-01 -7.307314968190149473e-01 -3.511803064564967269e-01 5.854091491544720638e-01
-5.924960583187994373e-02 -4.789803832729654792e-02 -7.659564349023503249e-01 -7.362122597208015096e-01 -3.427469585772420779e-01 5.835375146662304946e-01
-7.207997635410159920e-02 1.545326879132627729e-01 -6.629306070031073528e-01 -7.389759088547647181e-01 -3.426960970782740867e-01 5.800637819926292016e-01
8.945657434886847281e-02 -6.546499697081011038e-02 -5.855376827551932450e-01 7.397941519835895541e-01 3.427669573588680296e-01 -5.789779146339050220e-01
-1.227248903234060169e-02 -4.854511249706605636e-02 -6.949332978797930771e-01 9.388210222280797268e-01 2.492046294836373077e-01 -2.377228236130185801e-01
2.676322007096282839e-03 -8.281433611396125938e-02 -7.191735229123910056e-01 -7.721452544621822955e-01 -4.159723276895583299e-01 4.803735302949804220e-01
-2.361694007125383216e-02 -1.157754618129821361e-01 -7.586568716751838082e-01 7.430735908622227992e-01 3.344710426379834955e-01 -5.796298475749691592e-01
3.258368603549588460e-02 1.134287385761177935e-01 -5.522787931785421156e-01 7.491097736989092981e-01 3.322754357406789705e-01 -5.730860160151449723e-01
-7.223058078534080853e-07 8.901804256412246263e-02 -6.115109029944538754e-01 -1.134688580330953933e-01 -4.341649560724257784e-01 8.936585529022219587e-01
4.470183591967605112e-03 -1.454305154422270464e-02 -6.633025450047229654e-01 7.381753357929987658e-01 3.496923583418655168e-01 -5.768989756830894544e-01
7.601914023203479309e-02 -5.124162675681253470e-02 -5.927304751837383368e-01 7.416266683173960983e-01 -4.719104711062875879e-01 -4.767498212906646771e-01
-8.508739456804054191e-02 -3.665691863423985869e-02 -7.921814829312175954e-01 -7.357707380571018030e-01 -3.516007164257560769e-01 5.788077031517486759e-01
9.465899757891197558e-03 1.643302049600450232e-01 -5.516170090659880954e-01 7.420556785569146774e-01 3.356991941465867768e-01 -5.802235956687464835e-01
-8.658950539224917475e-02 2.025628711732023746e-01 -6.509344383185944327e-01 7.436690313224505466e-01 3.488247986399466982e-01 -5.703311596833270380e-01
9.359479343426609088e-02 -1.662533408147291447e-01 -6.416893271832075918e-01 -4.920857479241323440e-01 -1.938504982849165170e-01 8.486893430488193779e-01
-9.209495555876504036e-02 -9.388553446878721009e-02 -8.326609200112435882e-01 7.384761534662452886e-01 3.418409600811277982e-01 -5.812036895723488028e-01
4.759741878937199556e-03 -1.216347517634571718e-01 -7.261334443694094087e-01 7.340819924843197120e-01 3.337590817694367495e-01 -5.913784774970031188e-01
6.580022265307836071e-02 -1.077603211213904733e-01 -6.400377973480981808e-01 6.266660849281827650e-01 -4.519901735503046303e-01 -6.348184787911811400e-01
-5.915379865253813513e-02 -8.805090372309946900e-02 -7.895144779283912451e-01 -7.398292609454368840e-01 -3.491073280917181276e-01 5.751319310572052812e-01
-5.115219164377986932e-02 -1.144708651946331202e-01 -7.928578422881071841e-01 7.799197669753481499e-01 3.476969217132229173e-01 -5.204152262494513570e-01
-2.373501148216004136e-02 -1.671437833716754306e-01 -7.891370756788873564e-01 7.429586991062606671e-01 3.431633929781379155e-01 -5.746749143142274585e-01
8.559215449649790197e-02 -1.143954019398314287e-01 -6.192426300257376504e-01 7.394031457701309984e-01 3.434093269735361553e-01 -5.790967295476787680e-01
-2.045586728334354565e-02 1.510766603807543462e-01 -6.009571264185442629e-01 -3.367464862844366524e-01 -8.728563140688854194e-01 3.531623691238419682e-01
-1.914019208315122234e-02 5.658342431445233245e-02 -6.564209496133320831e-01 -8.937070057332936468e-01 -3.486804466153770599e-01 2.823291236329182330e-01
1.177310076392534301e-02 2.630168259748641782e-02 -6.299852286648757183e-01 7.399657029678001763e-01 3.312578317635896941e-01 -5.854220762207849038e-01
1.240178012948253000e-01 -1.729672218101185044e-01 -6.070886496903303842e-01 -7.424002499895470120e-01 -3.419056219780636785e-01 5.761444388998746557e-01
-1.948725037624812750e-02 -2.089940036309326787e-01 -8.104591824086414542e-01 -6.784955030849094681e-01 -3.906244464130440019e-01 6.221385650785991039e-01
-6.251276279354753274e-02 1.985892922643420488e-01 -6.226993417879873594e-01 7.328647876376350734e-01 3.450026720932400370e-01 -5.864148354956310039e-01
-9.382083678343523803e-02 -2.435577221619426511e-02 -7.959688634819980235e-01 -7.408855766357153039e-01 -3.356660477463387915e-01 5.817360799568099816e-01
-4.596546041309915176e-02 -3.647831025623576168e-02 -7.403197829356967796e-01 7.423833920654014928e-01 3.608941973563034589e-01 -5.644663652513033369e-01
8.386692802366728372e-02 1.115788230723263781e-03 -5.533714673712649690e-01 7.416942325497145605e-01 3.482558860504628706e-01 -5.732429705052620728e-01
4.857820958656861726e-02 8.625403854545912741e-02 -5.500857864885375648e-01 -7.365827544433078966e-01 -3.452229928060931430e-01 5.816071965637233943e-01
-7.387491050925654168e-02 -1.656634334708090850e-01 -8.518377090444111399e-01 7.427256599673084381e-01 3.406832323037558008e-01 -5.764490690886673319e-01
1.276148184703013340e-02 -5.465862484806958965e-02 -6.818480296413268471e-01 -3.017437171159388365e-01 -5.580265006314207854e-01 7.730182105061348397e-01
6.744984157897167265e-02 5.761154886510376494e-03 -5.714460440854179923e-01 7.393295561497575941e-01 3.531172188898389908e-01 -5.733236757076302093e-01
-1.705292332951239415e-02 1.865143010220161046e-01 -5.721199082793866353e-01 7.418750234049064085e-01 3.392867328565238316e-01 -5.783649043255608690e-01
-6.240094742760220886e-02 2.512017008418854225e-01 -5.916319489027963563e-01 7.369430647008626822e-01 3.445325129205794035e-01 -5.815602006068937291e-01
1.252330702400254459e-01 -1.822038168630980282e-01 -6.109983363887538932e-01 -7.423103719160644154e-01 -3.373274201584117171e-01 5.789520907252209136e-01
-7.579907696520761518e-02 6.714765550720433462e-02 -7.170053133809106694e-01 7.379917522727823531e-01 3.531012132652217028e-01 -5.750545250391275731e-01
-9.356378812167277792e-02 8.553618268050725004e-02 -7.287596532886693179e-01 7.374203437293294083e-01 3.326847796544601388e-01 -5.878197632271144890e-01
5.364168109165812215e-02 -9.172418949860758342e-02 -6.464464520240030820e-01 7.383687002696383006e-01 3.433706570043155715e-01 -5.804379849480473252e-01
-5.094968932674240336e-02 -1.377910335312129975e-01 -8.063165226760887760e-01 7.331864072421520051e-01 3.441707487977945790e-01 -5.865016520925669941e-01
-8.927274690012892977e-02 1.096066803990220218e-01 -7.091196552303341560e-01 7.392177331078281233e-01 3.478399209020628935e-01 -5.766840837805135012e-01
5.676109303449450999e-02 -1.686398607675761441e-01 -6.905680973390103672e-01 -4.023733266698973909e-01 6.317495036146112408e-01 6.625618994986748334e-01
-9.369367278353211981e-02 1.097192932494438777e-01 -7.146916923745334493e-01 7.377581930112956377e-01 3.402259122421182891e-01 -5.830601832433132126e-01
2.206571603542691745e-02 1.002239284420235015e-02 -6.245450958327539714e-01 6.572711929685965959e-01 4.923861287439578183e-01 -5.705703104037015416e-01
-1.074227393304984235e-01 -3.188018461054366315e-02 -8.176547737434995966e-01 -7.355098227130562050e-01 -3.399870440610861522e-01 5.860325166432435173e-01
-7.411998052843445095e-02 5.109411810494515066e-02 -7.243570244282766524e-01 7.387014593594869449e-01 3.385163237551143123e-01 -5.828609203673607020e-01
2.294223440752527973e-02 -1.728633951665846380e-02 -6.443914316734089542e-01 -7.316087404615265744e-01 5.839735286686846827e-01 3.517436121588332076e-01
-6.225050816736470150e-02 -1.315643220551930559e-02 -7.472263625015458377e-01 7.366048974431997909e-01 3.473904001116494555e-01 -5.802871142572105789e-01
2.965467406737395603e-02 1.268703522821628960e-01 -5.478840301836038762e-01 9.568912004480419897e-01 -2.676210750767855917e-02 -2.892110304031516033e-01
-1.302392976528354319e-02 7.677103094422606244e-02 -6.393521300340559987e-01 -9.870291808260377442e-01 -1.598477914010142664e-01 1.490234149718987905e-02
5.319801247816229040e-02 -2.171100141938466510e-01 -7.215955765623334184e-01 -4.146372823595986246e-01 9.083429623012789778e-01 -5.467162806413931181e-02
-6.300168066692655999e-02 -7.401434519635941012e-02 -7.840393402209823170e-01 7.330968241932066531e-01 3.505568635461004390e-01 -5.828198107293154351e-01
4.551648735569562704e-02 1.756612908055695324e-02 -5.944430362553211333e-01 -7.340836178728323835e-01 -3.424151587707299216e-01 5.864069414789947476e-01
-2.094336929024360680e-02 -7.928332713185273772e-02 -7.403351092950096746e-01 -6.285825737108485800e-01 -1.190438267117509413e-01 7.685782428281898726e-01
4.949563735430943107e-02 -4.511115113224343359e-02 -6.262759471222796304e-01 -7.376525778274735101e-01 -3.454854259032643093e-01 5.800935225572880771e-01
-5.497654042279218056e-02 2.409201398110755454e-01 -5.881834861729779984e-01 7.307719208201246541e-01 3.486499245791119250e-01 -5.868693464748730992e-01
-5.964705850610016458e-02 -1.515298337682879082e-01 -8.275766928343251116e-01 -7.414506196395799220e-01 -3.438126001351677341e-01 5.762324831388614399e-01
-5.683865399464816531e-02 1.918103589975274914e-01 -6.194526695079352052e-01 7.412553161351308484e-01 3.401543591017632262e-01 -5.786497803382246730e-01
2.395982636007119859e-02 -6.832491016936972916e-02 -6.723649059740824940e-01 -7.446017357247555202e-01 -3.277725490661305141e-01 5.814923999798897736e-01
3.486066014295841758e-02 -1.836429566180702022e-01 -7.232075905196945209e-01 -7.392334923251808743e-02 -1.267689166380209318e-03 -9.972631204463665577e-01
-1.525504624864706081e-02 1.667890534890500431e-01 -5.836336118316860500e-01 -7.443937363652186612e-01 -3.372429904144700341e-01 5.763203368583610375e-01
-1.132985571205522880e-02 1.842981087476510682e-01 -5.682965333639434791e-01 -7.348545351635347167e-01 -3.544862847282942986e-01 5.782112815304765174e-01
-5.205393829336750489e-02 2.534668371186947489e-02 -7.136640483095962884e-01 -7.351677845535770084e-01 -3.495451898594906237e-01 5.808153654998101656e-01
-2.655032973429228768e-02 -7.453060961699130120e-04 -6.987058318105756616e-01 -6.980985085852197125e-01 -5.586069907019364233e-01 -4.479025588786235135e-01
4.617834090539568032e-02 -9.863394634149229290e-02 -6.565057410604733246e-01 7.936412758823105928e-01 6.077867546499725604e-01 -2.699603837514898477e-02
3.067709805544574248e-03 -7.640116225231341485e-02 -7.145137440678788199e-01 -8.520410804970907082e-01 -4.085464544569527012e-01 3.272854895897511218e-01
-5.795842889791535425e-03 -1.927295409860178832e-01 -7.687558832909328066e-01 9.396040139544725722e-01 1.495647694202918987e-01 -3.078549605072136153e-01
-2.130006082583889293e-02 -1.192788396872082879e-01 -7.577572708070161589e-01 7.375109571474008918e-01 3.503647980700008713e-01 -5.773405376040142700e-01
-4.010195525711580944e-02 -1.312711063801927369e-02 -7.211794685592800569e-01 -7.362104437301209003e-01 -3.476846748981414215e-01 5.806113582971591525e-01
-4.673723621911258369e-02 -1.530116287741532799e-01 -8.099748157679268479e-01 7.656813336787882118e-01 2.649239393374768770e-01 -5.861291680353272193e-01
8.067740832023230502e-02 -1.134521290194527715e-01 -6.270614321842707950e-01 -7.389965515748814218e-01 -3.435583046587719624e-01 5.795272108024125401e-01
5.831812358877952462e-02 5.629019690128263427e-03 -5.831032143314166527e-01 7.437483904963958503e-01 3.400648906326143028e-01 -5.754947452349576942e-01
3.344009453480039761e-03 -2.152737757582923461e-01 -7.942757019363472226e-01 -3.056542434558963232e-03 -4.369851734092616291e-01 8.994635155295754858e-01
-7.580682912506060689e-02 1.842467639206920027e-01 -6.465249458711158637e-01 5.157379792563419052e-01 1.995098362041171081e-01 -8.331927520150370636e-01
-1.448897171780505651e-02 -1.306489221242019272e-01 -7.558400190102086968e-01 7.328882852634457379e-01 3.452119079207958130e-01 -5.862623132636874956e-01
5.055316899706149836e-02 -5.691940877201716320e-02 -6.319655586633841082e-01 -7.376215333076621139e-01 -3.455837997662403183e-01 5.800744012107243996e-01
-5.057873960587782117e-03 9.546401995307658706e-02 -6.126445653352242671e-01 -7.344786606607727197e-01 -3.443917265562800312e-01 5.847524567828182862e-01
-3.417933940095582018e-02 2.310352501185216623e-01 -5.676035480629113561e-01 7.405456986957718035e-01 3.403818706296912189e-01 -5.794240677516104832e-01
7.228032787501185996e-02 -1.842052525610354541e-01 -6.772599318507330768e-01 7.406375757292357198e-01 3.490618703322672656e-01 -5.741182736144703203e-01
-4.110095667349563872e-03 -1.700984449096560325e-01 -7.529039265440160555e-01 4.960343289933360489e-01 3.794372703773921662e-01 -7.810104367476048415e-01
-2.658988975353407391e-02 8.901650742595131061e-02 -6.438808109823920267e-01 -7.338296550673623075e-01 -3.493684458452133712e-01 5.826111279330461468e-01
6.834838184478639811e-04 -5.039303989283979573e-02 -7.008005750918494536e-01 -9.568626821601200483e-01 -2.605344671825944869e-01 1.285908196537487447e-01
-5.876475247951944841e-02 -1.590999837286382890e-01 -8.311525205659996418e-01 -5.572361937221824713e-01 -3.233082353012838306e-01 7.648265224169360499e-01
-1.059424041410963607e-01 4.516979662726036335e-03 -7.922260334480880628e-01 7.305797403063050144e-01 3.398166471197308081e-01 -5.922650499516886047e-01
-8.705032205619360475e-02 -1.087564590070074083e-01 -8.350839672180733197e-01 7.367019854762437703e-01 3.435225478759255657e-01 -5.824623968087490056e-01
9.377602845732321835e-02 -9.524731506765497790e-02 -5.975442276433777788e-01 7.406210661368693993e-01 3.425694213267514998e-01 -5.780368742270179938e-01
-1.110250519619568887e-01 -3.901570659539840835e-02 -8.243952872564223044e-01 7.180383750942762600e-01 3.365293720165240532e-01 -6.092363036311405633e-01
-4.994422837027052801e-03 1.257502963279314989e-01 -5.926195351042833348e-01 7.277538784072361544e-01 3.516525763510348623e-01 -5.888248958806899802e-01
-2.332447417985952440e-02 1.485100875914623642e-01 -6.003513301710439176e-01 5.106183544786462303e-01 6.611231171096284553e-01 -5.497136710077056287e-01
9.026642468441230119e-04 -1.644618554019099677e-01 -7.485444747589643510e-01 -6.414055531199427951e-02 3.313016921391093161e-01 -9.413422214848495839e-01
6.818636857286150543e-02 1.265485732864238440e-02 -5.664304949068161843e-01 7.344226303749501472e-01 3.380644425894991367e-01 -5.885030438747028692e-01
-1.999110217209803739e-02 -2.607268060312774652e-02 -7.032924290320258232e-01 -7.355253561784614869e-01 -3.483635374825302944e-01 5.810725395087991130e-01
-3.896297915664581613e-02 -1.423016151442546007e-01 -7.958824473072717565e-01 -7.358429104092436557e-01 -3.514738780025950526e-01 5.787929891440208863e-01
9.590964258928099881e-03 3.825764024258508644e-02 -6.256805530590205944e-01 7.391342431765453025e-01 3.294457013545841195e-01 -5.874913619984736268e-01
-8.492784917786806373e-03 4.039825454547584654e-02 -6.576489642778696743e-01 -5.011641301275037153e-01 -5.698245407796352913e-01 6.512560997018148612e-01
-2.389193940376176453e-02 9.469023591320713251e-02 -6.287836497464251995e-01 5.244771425958203448e-01 2.785303019689045478e-01 -8.045772789357367172e-01
-3.858640975121525873e-02 3.799363373110567488e-02 -6.890786473701346893e-01 -7.351230928682951360e-01 -3.501222154580928558e-01 5.805243083407175542e-01
1.337126071493669778e-02 1.463495329925692534e-01 -5.592780085042506899e-01 -7.443777635433517226e-01 -3.351553207985854543e-01 5.775574915820892441e-01
-1.048697002852577859e-01 8.219114356274302702e-02 -7.450754082305025561e-01 7.303870215183915215e-01 3.539504629747742825e-01 -5.841693834475026881e-01
8.410425665402834761e-02 -8.509478567193989873e-02 -6.059852198727599948e-01 -7.669919989822955309e-01 -3.386241559083532082e-01 5.450293152964320598e-01
-2.450616296090226201e-02 -2.666039825594334473e-02 -7.093589724722845213e-01 -7.354046093411369389e-01 -3.484788861591886500e-01 5.811561979890267349e-01
-2.685301405025772303e-02 2.171277545430908007e-01 -5.686239836292801275e-01 -7.341858707073488644e-01 -3.442774033802759592e-01 5.851873005930894323e-01
-1.600911378917017902e-02 -1.647818722552277793e-01 -7.799452002273175033e-01 -7.392886486145617830e-01 -3.429116187080069600e-01 5.795376741720156266e-01
5.621869476444418812e-02 -3.957983343440784479e-02 -6.123587820188693964e-01 7.368186815878420282e-01 3.444453511388039235e-01 -5.817693963608089325e-01
-4.510709822000708025e-02 -3.753605728286851795e-02 -7.426828626953725365e-01 -7.779335501860741298e-01 -4.642268358871926015e-01 -4.234534641930046694e-01
-8.042525565143005331e-03 -1.606143189465983612e-01 -7.571190979065611781e-01 9.420778646027271330e-01 1.594211707103801168e-01 2.950833566213072467e-01
6.107023949978473282e-02 -1.255989730214731870e-01 -6.591000535756956769e-01 -7.371802752438548767e-01 -3.416385165273315705e-01 5.829651497443034680e-01
-1.001856886573574273e-01 1.742925847488014518e-02 -7.772942586233785311e-01 7.373462819008829161e-01 3.520100415429968099e-01 -5.765495566036288322e-01
8.125155892580807060e-02 6.777121604917088482e-02 -5.178209484027337384e-01 -5.819881922870354662e-01 -1.081376577851169002e-01 -8.059751801434194007e-01
-2.030159525639050125e-02 2.257781942736594369e-02 -6.727903559668815259e-01 -8.343092633007860581e-02 -6.461107936909048499e-01 -7.586699696230329026e-01
3.817816849028354918e-03 -1.017987048843038700e-01 -7.177636303555758879e-01 -7.351567749384277928e-01 -3.521448022677200473e-01 5.792568985329030751e-01
-8.063957912723981880e-02 -3.005299421284527567e-02 -7.825506577410894504e-01 -7.378980956199063801e-01 -3.409466186078260463e-01 5.824618474547539337e-01
3.785591447985153790e-02 1.629992505010771364e-01 -5.163074806041622056e-01 7.400714471008732476e-01 3.359396931102041628e-01 -5.826137449280107683e-01
6.140487360974214437e-02 1.605754583481208003e-02 -5.751677281230879180e-01 -7.331603308847159939e-01 -3.396201930088462162e-01 5.891808327819633151e-01
-2.606514490856103386e-02 -1.595886333128448964e-01 -7.896739581667013841e-01 -7.345323112464188231e-01 -3.520608558420447176e-01 5.800995065665552897e-01
1.200411676005178757e-02 -1.593621597534396542e-02 -6.566603683069435204e-01 -7.352408244318928698e-01 -3.305669801521690654e-01 5.917316974117456940e-01
-8.436119447751076750e-02 -5.837565973054907598e-02 -8.040658797437628680e-01 -7.424009742259256583e-01 -3.469617462607351710e-01 5.731128511036002182e-01
-2.557553528247752048e-02 -1.749462472584259465e-01 -7.981762622694327236e-01 -7.326062715033828665e-01 -3.345345755528982834e-01 5.927686468712338730e-01
-8.074680388408733700e-02 1.920273336835962019e-01 -6.518637630382976278e-01 -7.426247391923503915e-01 -3.426636555722396560e-01 5.754043064570883992e-01
-3.397519286299586355e-02 -7.814855976618230449e-02 -7.516958918260003841e-01 -7.380716940867123599e-01 -3.542925270768553792e-01 5.742185817660958591e-01
-7.084395271035508201e-02 2.391574759610685663e-01 -6.115341901100956878e-01 -7.398044057071458957e-01 -3.488782444530055260e-01 5.753028870461937005e-01
-9.054855778100792674e-03 5.693410780431156643e-02 -6.404848533603455518e-01 -7.479881205121485799e-01 -3.179997790528786283e-01 5.825718085309518068e-01
3.611364044276019203e-02 -9.674462434585931470e-02 -6.716804118894409426e-01 7.256147017001876032e-01 3.598264768992102125e-01 -5.865221318917555049e-01
5.049969857234802573e-02 3.545938683080418485e-02 -5.754554599415554472e-01 6.552320595299281347e-01 3.970274807816264739e-01 -6.426819801957759370e-01
7.212246976153184608e-03 -1.133958941890045036e-01 -7.201663235092410353e-01 -7.399841123294298439e-01 -3.501067071545059806e-01 5.743246530538757000e-01
-8.799507485859058009e-02 8.113595566231919520e-02 -7.263672322174637985e-01 -7.328239506567640893e-01 -3.449448026243642773e-01 5.864999066378877579e-01
-1.102899823672837468e-02 -2.213531407921931482e-02 -6.790303836667429538e-01 1.115999715770439743e-01 3.038735317069444775e-01 -9.461534352693284911e-01
-6.836875482549628624e-02 2.200241453841781103e-01 -6.196340685958309225e-01 -7.458770480305935147e-01 -3.398908267150565488e-01 5.728364994796707466e-01
7.361365744146283578e-03 -1.639115101067526170e-01 -7.498610522660072997e-01 -7.132984361483150071e-01 -3.062670467638169969e-01 6.304013301500385191e-01
-5.172823462647731935e-02 9.892954274922259594e-02 -6.677529922991090050e-01 7.308939225454075261e-01 3.394647330743201796e-01 -5.920791914811464052e-01
-7.571929144587465077e-02 -9.941680896099415465e-02 -8.172563381011163086e-01 -7.468101320569042745e-01 -3.318681617228269598e-01 5.763142804857959156e-01
8.605759381930014329e-02 3.236168270956896187e-02 -5.321611839824709200e-01 7.326710347301513826e-01 3.405988436347330284e-01 -5.892245604030197370e-01
2.056245647104930699e-02 -7.532887123603894397e-02 -6.787608233273636493e-01 7.407019641303931312e-01 3.440369026845629952e-01 -5.770608372819888698e-01
1.232035364489439053e-02 2.045732850635300359e-01 -5.241542305110530320e-01 7.376445986749770034e-01 3.353205405465954914e-01 -5.860380372750315647e-01
1.484406921191212814e-02 -1.535130292878706948e-01 -7.320822625171307108e-01 7.373589180295037071e-01 3.435297581060101635e-01 -5.816262814711743445e-01
-1.107254817895940713e-01 8.191556805433042321e-02 -7.534899088173472315e-01 6.786515932424245223e-01 -4.842718393939081101e-01 5.521890985518992379e-01
9.362287355950278667e-02 -7.324751111423712102e-02 -5.848182979114463498e-01 7.415796599565918079e-01 3.434059514802441648e-01 -5.763089105910246257e-01
5.717254495978366623e-03 -1.900111427066581982e-01 -7.614262496165888905e-01 -4.973494983078425857e-01 3.243975561798944085e-01 -8.046177366162452493e-01
-6.947564651438038752e-02 1.601900842515494028e-01 -6.542112746932882139e-01 7.276371537014781898e-01 3.474841168030686767e-01 -5.914380450417463519e-01
-9.439525890305124067e-02 9.669046089126216714e-02 -7.253326417508737523e-01 -7.365852600408826500e-01 -3.439786450477123059e-01 5.823408335688345927e-01
5.572390988352467905e-02 6.682008481240081510e-02 -5.503305124067161547e-01 7.304732140902100435e-01 3.332260403464242238e-01 -5.961285847296381446e-01
-4.810283459430789860e-02 -2.850218944201971319e-02 -7.403680738596423172e-01 -7.362080566277114935e-01 -3.459875934310726597e-01 5.816272711524306249e-01
-2.674992736216519774e-03 -1.669463358402219948e-03 -6.637912143888254901e-01 -3.450416731091198175e-01 7.537711450999672325e-01 -5.592631801153578053e-01
-5.188976830410108737e-02 -9.844947602304240930e-02 -7.843652591100668259e-01 7.323344973408895120e-01 3.494374563909254938e-01 -5.844481568757889933e-01
1.593327956307837023e-02 -1.961670221535368741e-01 -7.513918091408930966e-01 6.699399430589477733e-01 3.244259926172164410e-01 -6.677785920561600808e-01
-5.090508501672393743e-02 1.412617930763351015e-01 -6.417956637378734452e-01 8.116783905371441898e-01 3.146725807200918545e-01 -4.920968982608899256e-01
-6.394895172411758921e-02 1.356509275495541289e-01 -6.616703238490643235e-01 7.403513183576905243e-01 3.348744281083431140e-01 -5.828713775826872556e-01
3.604907500318078883e-02 1.535631458097370117e-01 -5.241782499364449066e-01 7.436082511171040466e-01 3.437957217029498636e-01 -5.734555524269598914e-01
4.913863559801921743e-02 -1.198435056132223231e-01 -6.687309202553212151e-01 7.368005719040893187e-01 3.416741189049906091e-01 -5.834241284968466612e-01
-6.859292029462982221e-02 1.709165481880782766e-01 -6.488117081916634499e-01 -7.503613864830432911e-01 -3.486404748124451447e-01 5.616116175773055996e-01
-4.884563847571717077e-02 1.752515757848516764e-01 -6.212496863487879661e-01 -7.459292329403944821e-01 -3.430307844119068195e-01 5.708935631014824263e-01
6.210131645067323847e-02 -5.392018205860386187e-02 -6.154999636798637042e-01 -7.379165344659054382e-01 -3.445175669907170612e-01 5.803333819423320827e-01
-7.759299538319050504e-02 -4.434556908411881049e-02 -7.875686048587120514e-01 7.553123059579840148e-02 1.780167785822764914e-01 9.811243854618397764e-01
-9.711925958243519674e-02 -2.624761373458546834e-02 -8.012553236781223553e-01 -7.394124704954994076e-01 -3.329416075909342188e-01 5.851658605989469297e-01
-4.202829130009794190e-02 -6.397867318971318940e-02 -7.536355612346397059e-01 -7.437835539998268741e-01 -3.400987003118444152e-01 5.754293169847890521e-01
8.459094966579165653e-02 -2.584133630141779644e-02 -5.704253250037804035e-01 -7.308308260225655495e-01 -3.394445018581425666e-01 5.921686701383752638e-01
-1.871015740014719125e-02 -2.046661761977901506e-01 -8.018684538379148297e-01 7.674294711041671491e-01 4.438348178061735649e-01 -4.626690624882314196e-01
-5.345363093665090985e-03 1.001489145825961401e-02 -6.634660867741574153e-01 -7.485018070107398724e-01 -2.897805336422853428e-01 5.964665013424050866e-01
1.630518450735059938e-02 -9.314610638717725488e-02 -6.946774402000052140e-01 7.295060685615618601e-01 3.556625964940633988e-01 -5.842302742814297067e-01
-1.057215668989593543e-01 -1.326576245459434693e-02 -8.045136967087787028e-01 -7.319802315715966401e-01 -3.444746156236951906e-01 5.878283591145456732e-01
-8.129706509477716003e-02 -2.550791907637170106e-02 -7.807178174644195945e-01 -7.380863717209731334e-01 -3.422951086056780223e-01 5.814314804896590916e-01
-8.320563853887727457e-02 2.240449064247174993e-01 -6.339971517098876852e-01 7.273297160354355029e-01 3.486021165842964065e-01 -5.911582262683664490e-01
-3.024109438087540375e-02 -3.597368829924278699e-02 -7.200951395969609203e-01 7.479491181285853330e-01 3.295005568899513904e-01 -5.761957130176196262e-01
-8.589978111060310451e-02 1.399395527735396993e-01 -6.869360694487851582e-01 7.351731003661994279e-01 3.516906393041989154e-01 -5.795120419143623414e-01
-1.004195689150236132e-01 1.152941645512904206e-01 -7.199802582492452752e-01 6.606403810941543497e-01 -5.914614830952061864e-01 4.623068254769656105e-01
1.423722287926126873e-02 1.675007766465796966e-02 -6.325505820549472968e-01 7.335287402663888123e-01 3.491801485176861397e-01 -5.831027448780972122e-01
-1.870167131265081453e-02 -1.466316711683588736e-01 -7.766357356044425453e-01 -5.185945931956842392e-01 -1.896770077826440831e-02 8.548098468287486096e-01
4.235584621373752329e-02 7.975784081752178289e-02 -5.618196813468419037e-01 -7.348422715959705975e-01 -3.493701073585809835e-01 5.813324040167787699e-01
-2.037604218922718646e-02 1.058970683320980405e-01 -6.266796958104270399e-01 -8.295463454894118627e-01 -5.864193444888391588e-02 -5.553503256587266623e-01
1.717422393102072814e-02 -2.021264947361488262e-01 -7.636721137776383284e-01 -9.418382069049054950e-01 4.188875726189116022e-02 3.334458337259691429e-01
-8.142581424611931851e-02 5.270076872699148984e-02 -7.327203981491927642e-01 7.380626840834554336e-01 3.504936469672431110e-01 -5.765567429135896038e-01
1.248306566283154534e-01 -1.539450680218787115e-01 -5.927967615609819330e-01 7.348447015363251955e-01 3.479581360457949524e-01 -5.821755750489066017e-01
8.993972624726596227e-03 -6.545172255936879124e-02 -6.830567918378716019e-01 7.827745687414714437e-01 2.719394906680748236e-01 -5.597435912512007672e-01
2.650805534478918937e-02 -1.956020186158259622e-01 -7.421289600558597099e-01 7.345438827813925986e-01 3.367043661358443130e-01 -5.891311009389121889e-01
5.089449282335728464e-02 -1.928416459009104494e-02 -6.072390079045061340e-01 7.363408912436770759e-01 3.446024707277650645e-01 -5.822810567507644697e-01
9.295285713228221280e-02 -7.214873457865471351e-02 -5.871133949158987564e-01 -7.446661949505408717e-01 -3.273068472825740316e-01 5.816721463331595565e-01
1.107532791345729462e-01 -7.821808894580616067e-02 -5.659794721979211074e-01 7.460640538854258486e-01 3.422071238546773309e-01 -5.712116174266362867e-01
5.161802371828370234e-02 -9.966366270410030592e-02 -6.533517527922970691e-01 1.793848319357875254e-01 -4.323475802497657727e-01 -8.836835700201407517e-01
-1.082687955345717074e-01 5.086803574494289798e-02 -7.678402654281083484e-01 7.514725623371141250e-01 3.302550020054750290e-01 -5.711572652998957444e-01
-3.964119503491213281e-02 -1.150758816028503162e-01 -7.750078914732760893e-01 4.848140072879706941e-01 1.806250706071912682e-01 -8.557627955254459851e-01
-9.726641949169227697e-02 -8.853142900978543117e-02 -8.381920316308459906e-01 -7.403235139686104027e-01 -3.417479206114928947e-01 5.789036650625812852e-01
5.920544806194755899e-02 -6.591756120821774811e-02 -6.263057086130859874e-01 -7.385084103353513063e-01 -3.444361246101539376e-01 5.796284015880266427e-01
3.641737895360526445e-02 1.128266329122185885e-01 -5.477122032059155154e-01 7.390790108187118568e-01 3.304267447680246939e-01 -5.870096950726122476e-01
-4.865307170903699491e-02 -8.378851886527666215e-02 -7.715416738703818611e-01 7.322776296067522450e-01 3.507528806791299081e-01 -5.837310081474239576e-01
1.458993996945059241e-02 2.027011690314536596e-01 -5.230343312078489237e-01 -3.170387260506865035e-01 -5.689350059025817252e-01 -7.588144735327515544e-01
3.755016728695011186e-02 -1.080158790865279328e-01 -6.753615014336180611e-01 -1.868543416066784368e-01 8.812554542060383467e-01 -4.341362452673628303e-01
-4.121516764523544714e-03 9.719477040204428653e-02 -6.104524936494168941e-01 -7.343556744532233616e-01 -3.423937220558219141e-01 5.860787340410089641e-01
1.237076693262667421e-01 -1.799211275023471501e-01 -6.095076299742651083e-01 7.437724653386793561e-01 3.423035905813142099e-01 -5.741348027067885162e-01
8.587059699247466375e-05 -4.478172532209123008e-02 -6.948680579961836745e-01 -9.818679451680433212e-01 -3.496998045262623978e-02 -1.863127443805901173e-01
6.353825952363444107e-02 -1.109528832376591723e-01 -6.452632594214086081e-01 7.387784315861366524e-01 3.384691922192131774e-01 -5.827907299722613343e-01
5.118470501346018137e-02 -1.585702355887569914e-01 -6.889126510973443418e-01 7.369803836453379109e-01 3.364939735958057399e-01 -5.862010916534322602e-01
-8.945874105305474944e-02 8.438452492897345614e-02 -7.241879488788169894e-01 7.312344457563915157e-01 3.479290521332678576e-01 -5.867210240148110767e-01
-7.421749994342677348e-02 -9.936667932561298044e-02 -8.131646408727539743e-01 7.464940378083231298e-01 3.318776688122783702e-01 -5.767181846104332266e-01
-3.802022992142393976e-02 2.328960542347118245e-01 -5.713985612854625140e-01 7.307949073026094311e-01 3.382748667059085057e-01 -5.928818752632517564e-01
7.779667120770691890e-02 4.107432968148840013e-02 -5.374672858404989650e-01 7.306090160100301434e-01 3.526887772483413008e-01 -5.846546776755706665e-01
-1.051268489590709426e-01 9.927898514254469842e-02 -7.353346922519958806e-01 7.451098091256503908e-01 3.331192402021467824e-01 -5.777914365511841455e-01
6.211017292350555496e-02 -6.798870636951935553e-02 -6.185713812356743446e-01 7.675736155301808861e-01 4.430587418765876140e-01 -4.631735052749252346e-01
-7.900562027703238177e-02 2.225512250891167054e-01 -6.295177699299999707e-01 7.459498493651294249e-01 3.240674045046008644e-01 -5.818411635229944201e-01
2.602083143583109465e-02 -1.871568619378763398e-01 -7.377151490205976492e-01 7.396294412374732063e-01 3.372126342778895003e-01 -5.824396354456911062e-01
-4.643329267522042919e-02 1.492275063362533405e-01 -6.314405927463313528e-01 7.400809871439081311e-01 3.447193738318878320e-01 -5.774501586916828133e-01
-9.821588671326986208e-02 2.033434979275981422e-02 -7.751649335953166853e-01 -7.375178438742245879e-01 -3.400896282312098617e-01 5.834436345840720017e-01
-6.236708006759929257e-02 1.105462664951705754e-01 -6.765513352414888049e-01 -7.284196322657696676e-01 -3.431690658087931944e-01 5.929922694282957485e-01
2.817119991974170040e-02 -2.951889369132292690e-02 -6.421142132179157302e-01 7.370239844400024998e-01 3.466209096269809442e-01 -5.802151250782309200e-01
6.209090284580632418e-02 -6.479738428003525841e-02 -6.198350131291456844e-01 7.801173492734048143e-01 3.260632000511239359e-01 -5.339472922817919409e-01
-7.157522676565344910e-02 5.112521143736001479e-03 -7.503835975940490455e-01 -7.368728474817957119e-01 -3.484469571855228209e-01 5.793126312037573111e-01
-9.122083566369068586e-02 4.334521702575774155e-02 -7.527431781939096789e-01 -7.346831034113490144e-01 -3.378506704469066979e-01 5.883006561618341346e-01
-3.785026926794347185e-02 1.130554182353122813e-03 -7.099377370016720645e-01 -7.375243836501155226e-01 -3.427606107871743468e-01 5.818702150946725160e-01
-4.143622707327666854e-02 1.465802991867614369e-01 -6.266058591967024194e-01 7.443615591400059017e-01 3.426665174284079796e-01 -5.731540169170463717e-01
1.959663895880978807e-02 1.624516161900393663e-01 -5.397910694114746999e-01 7.356034568150028319e-01 3.478247177174832450e-01 -5.812964132579619969e-01
-4.449419847112678211e-02 1.028738413657932504e-01 -6.583676712397616981e-01 -7.173244936304630226e-01 -4.906687414141926995e-01 4.946612548368954920e-01
