1.333369161570735310e-02 9.819694643713500204e-02 -7.031763638320526200e-01 9.289307192242909350e-01 2.014182195698428490e-01 -3.106741374925759414e-01
4.414372466969080505e-02 4.463880143388786192e-02 -6.542257412968817132e-01 -9.219633828907121131e-01 -2.127294248696830758e-01 3.236197033607933760e-01
3.508949252538282049e-02 4.371197622849781750e-02 -6.768035765984290464e-01 9.246090294606614801e-01 2.064284793929136996e-01 -3.201334495727409246e-01
7.867269847660261078e-03 1.433249745686960563e-01 -6.891430244493724766e-01 9.220674753693711700e-01 2.189948205205856646e-01 -3.191125811545357238e-01
-5.315884635184089241e-02 8.797174401097603014e-02 -8.994130619872041654e-01 9.222216813414819692e-01 2.230823831323251460e-01 -3.158186517602983301e-01
5.509712620101830244e-02 -7.217745513708424820e-02 -6.995247681778129500e-01 -9.239286137584061809e-01 -2.108987503262218788e-01 3.191827592294229077e-01
2.543309530289131291e-03 6.252614744775659983e-02 -7.573590964096941214e-01 9.225453232086602284e-01 2.146999077238845033e-01 -3.206463413937287177e-01
6.172412120010907499e-02 -9.221535710340120207e-02 -6.938013196049021003e-01 -9.187299469680031416e-01 -2.176715160569341612e-01 3.294759409147284823e-01
4.396714906842235510e-02 -9.529907464458493849e-02 -7.463733234837826025e-01 -9.225928522489347250e-01 -2.140259472303301380e-01 3.209600020116762931e-01
1.802564990133610767e-02 -1.902974024289388610e-01 -8.849962035627191304e-01 -1.714793912845361534e-01 -7.764449434674021155e-01 6.064058608956446328e-01
2.326043458903492844e-02 3.530105944223775605e-02 -7.197753956094984362e-01 -9.471872624476322944e-01 -1.485912797771115068e-01 2.841776230303156292e-01
4.550174096084523556e-02 -6.047494331428969472e-02 -7.237818957795773001e-01 -8.578727945041577652e-01 -3.505722447369838957e-01 3.757038323862285645e-01
-2.501817362389124888e-02 8.849876023818796511e-02 -8.187728584700555423e-01 9.472723168954700901e-01 1.364794574121865056e-01 -2.899112197690236203e-01
4.055260137565270401e-02 -4.149016211712029667e-02 -7.209173467291466464e-01 -9.263208803968926430e-01 -2.113955192018673601e-01 3.118357917271497026e-01
-1.072003792760264397e-02 1.212682262792582621e-01 -7.603478939444981988e-01 -9.414863190243614177e-01 -3.579887060257925385e-02 3.351446731689731728e-01
-2.880861237681925108e-03 -9.035581836831471647e-02 -8.565386043200203803e-01 5.106282918646701807e-01 3.662122218141261043e-01 -7.779121776533198807e-01
-4.074786886145870951e-02 -7.582325193366458264e-03 -9.305343267657161244e-01 -9.220535146279212890e-01 -2.155981696034031669e-01 3.214572217666909482e-01
4.986409770197601510e-02 -2.046238554642828000e-01 -7.975769614620418224e-01 9.194815814493084716e-01 2.153365643619722103e-01 -3.289130362637832095e-01
-1.623862924585378273e-02 -1.192163863134692858e-01 -9.273220883655328706e-01 1.426956670893826662e-01 -1.122829244130960358e-01 -9.833770850895189319e-01
7.127156647647903999e-03 9.835102100396382260e-03 -7.786669243940576024e-01 9.241792946461323544e-01 2.001632074992730492e-01 -3.253111152588857857e-01
3.251106071173092554e-02 -1.820134499888093893e-01 -8.288763375105427933e-01 6.633550665939187407e-01 -1.961554297617608758e-02 -7.480476496172734358e-01
-1.504357254907850300e-02 1.091474926151603936e-01 -7.768227042267551452e-01 9.244808529905851335e-01 2.130814836622009767e-01 -3.161193347046572510e-01
5.738607187813820482e-02 -1.146931367867405765e-01 -7.170998802621509904e-01 9.239169723892776132e-01 2.115337522693961914e-01 -3.187960159441459163e-01
-5.891028087145821351e-02 1.050624096007976016e-01 -9.084495523133828687e-01 -9.152722552699763536e-01 -2.246718449571235565e-01 3.343639645903450641e-01
-1.376041876525790474e-03 -3.436135264649686598e-03 -8.187179851284861476e-01 -5.172471607133438676e-01 8.477731872051376127e-01 1.172006731637117577e-01
4.707688693168544242e-02 -7.111586559530688745e-02 -7.178638474127332358e-01 9.227735129410220560e-01 2.130507953335868399e-01 -3.210893994236050375e-01
1.734348213924447740e-02 1.508443248713840223e-01 -6.570106281688644634e-01 9.224005417636652604e-01 2.116853818291051792e-01 -3.230581057239748644e-01
-5.215571568081463216e-02 5.544983268509348640e-02 -9.215758472669385304e-01 -9.279483430389158238e-01 -1.984583479298149822e-01 3.154776644840315281e-01
2.167717904798964479e-02 1.018584039478497572e-01 -6.806637311054670736e-01 -9.248589708563936806e-01 -2.167046524120286866e-01 3.125299628026634302e-01
1.694613880115283257e-04 -1.333499725944614078e-01 -8.782500458726713033e-01 2.913289747137927654e-01 4.928737924741070087e-01 -8.198797797143195787e-01
2.772009316887794408e-02 -1.710934349133541033e-01 -8.424869231570731865e-01 -9.605537076176817735e-01 -1.184478180105800194e-01 2.516082057295778163e-01
-1.244235499993424400e-02 2.185741887532263034e-02 -8.234655272367283896e-01 8.431800653082647257e-01 2.305170299440234322e-04 -5.376312159172392802e-01
7.391502367760005576e-02 -1.684252677060119330e-01 -7.090528912251516935e-01 -9.213334631741278979e-01 -2.073906845915898245e-01 3.288369711273342877e-01
4.528885911421400012e-03 -4.885242465856057259e-02 -8.423736136039805533e-01 -9.347097845120053705e-01 5.056002438396953180e-02 -3.517972465381345448e-01
1.805489227722997803e-02 -3.764507217738912587e-02 -7.826206998477519550e-01 -9.169473473991985868e-01 -2.188517088166596625e-01 3.336337687429158372e-01
-3.416832261311751606e-02 -4.012127675983884895e-02 -9.329302732476911775e-01 -9.215776323052595753e-01 -2.109291804202959308e-01 3.258888590944065133e-01
-1.742313087018738937e-02 1.061660672145555429e-01 -7.893462373978944457e-01 -9.300616812179798298e-01 -1.961045638826795778e-01 3.106899888222480755e-01
1.121718130397906729e-02 1.706369034087487357e-01 -6.615471913255150938e-01 9.210129881319641942e-01 2.210479796760418114e-01 -3.207380026959237296e-01
5.306415577644039983e-02 -8.671160232276484137e-02 -7.111430121154076467e-01 9.177592185873442165e-01 2.162389561053658094e-01 -3.331046840865627412e-01
1.649393777076619411e-02 -1.368807718915074356e-01 -8.603958148289992947e-01 -5.613398032175277441e-01 -7.008783257268400568e-01 4.400763545682142563e-01
-4.177801712098128117e-02 7.048869157660980767e-02 -8.783551402148015441e-01 9.209371415099395497e-01 2.237551735447151080e-01 -3.190742918184980015e-01
-3.227011691467843862e-02 2.578728254606617032e-01 -7.282708122749771418e-01 9.249140798650238304e-01 2.039290786992329352e-01 -3.208533554886382477e-01
5.810022111513119675e-02 -6.230617068767112937e-02 -6.807940068734612549e-01 9.239642641461092154e-01 2.086589160749575123e-01 -3.205487409480227146e-01
7.521110593337466087e-03 -1.855000147394038901e-01 -9.188939061653230711e-01 -4.048319424138334399e-02 -3.597598046454422716e-01 9.321662909296214439e-01
1.169658799715220417e-02 -5.062192029677830413e-02 -8.161466373885354342e-01 -9.918615151705798549e-01 -1.460666110483401468e-02 1.264807502147655971e-01
1.145564091453590144e-02 1.296194930367923215e-01 -6.916375815739560506e-01 -9.239139692610942589e-01 -2.164101168178884649e-01 3.155148787982552383e-01
-2.785534182472609518e-02 1.967535846783139974e-01 -7.558000480656322795e-01 9.200029875038243654e-01 2.130929478576689129e-01 -3.289162485456845197e-01
1.189389658618468038e-03 -9.108973493377212072e-02 -8.730047525045719903e-01 8.911937467200257978e-02 -5.890957813037892565e-01 8.031337980113583130e-01
-5.328907761761934869e-02 6.307206453672382918e-02 -9.160969704945063352e-01 9.284363911378890055e-01 2.089569944673830004e-01 -3.071527992286748332e-01
9.212743854707314273e-03 -1.169691525431750811e-01 -8.807448320298643107e-01 -9.695365857444866453e-01 -2.370860709867809724e-01 6.155488483438791014e-02
-4.699375655330116641e-02 -1.593638983533078243e-02 -9.498710478230624199e-01 9.229092900393154331e-01 2.104944291965011316e-01 -3.223825951200930406e-01
-7.002238972310249714e-03 1.767335275370958110e-03 -8.164463634864503883e-01 3.057773219724247427e-01 -1.059689603425925941e-01 -9.461875125001819598e-01
-4.292012042488754092e-02 1.866054289434753988e-01 -8.055370574263804873e-01 9.292893769485615074e-01 2.101562772704296256e-01 -3.037360581399393133e-01
-4.963392876374898843e-02 1.459400364354718205e-01 -8.550363660562911861e-01 -9.223506793831063311e-01 -2.160252722999878860e-01 3.203159471041647222e-01
-1.497544687099107387e-03 -7.211829669432257006e-02 -8.615080236450826101e-01 1.605017495372764169e-01 -4.204045382185439550e-01 8.930281141379179388e-01
2.335473119199485068e-02 1.596118674526212505e-02 -7.285375649313419189e-01 9.193221262978936714e-01 2.124542200908875744e-01 -3.312250480635367533e-01
4.532105532061348613e-02 -3.902600637216203927e-02 -7.018784434745016787e-01 9.151079643737862757e-01 2.269113100330475696e-01 -3.332996713450987469e-01
-2.863235523593238296e-02 1.643608871072340938e-01 -7.793956037225725497e-01 9.283869744892967457e-01 2.155961985722797680e-01 -3.026811932707280106e-01
-4.022625365834008732e-02 1.692707462069695246e-01 -8.129191017839587641e-01 -9.131631001895450517e-01 -2.052170341159618439e-01 3.521634866945561604e-01
-5.178272273396838238e-02 -2.516897298420351942e-03 -9.548092755955140953e-01 9.200113554009297090e-01 2.042044207594986838e-01 -3.344841707399942576e-01
3.515766031517805756e-02 -1.923610248538027145e-01 -8.351907455069820241e-01 -9.215402000385809478e-01 -2.193395922028924250e-01 3.203963217721464418e-01
2.257642817175171956e-03 -2.052212056901939752e-01 -9.110698961663116213e-01 8.018527404820390281e-01 3.085502002675387656e-01 -5.116922478368276517e-01
1.702904782223815111e-02 -2.349289407250055306e-01 -9.406780442514067753e-01 -8.582093309102446499e-01 -3.292040377860993017e-01 3.938292089775956017e-01
1.703904656631065068e-03 9.470508552781906064e-02 -7.351079378405054321e-01 8.613958543969176818e-01 1.788070296108817958e-01 -4.754211061675083783e-01
-6.004818944892590694e-03 -1.001630379656261449e-01 -8.922312019700304742e-01 -9.250328417126288949e-01 -2.058455923986805269e-01 3.192833128165245560e-01
2.911432716218322753e-02 -4.868976256158758648e-02 -7.543775054237670252e-01 9.215427517626165743e-01 2.152516325030527089e-01 -3.231496423927389117e-01
-4.166142843080595376e-02 2.381222503562352155e-01 -7.718590966129484920e-01 -9.226123580615668285e-01 -2.161120902733118243e-01 3.195027405043266433e-01
-4.671447438993701212e-03 -1.415064163414079812e-01 -9.229836726839720784e-01 -8.731519119768330617e-01 -4.771980867312043961e-01 -9.943703852829832712e-02
-8.618207802829181514e-04 -1.384687993509387816e-01 -9.026040791741583025e-01 -9.203140614051931179e-01 -2.107092209841465447e-01 3.295810258072093824e-01
3.857478951015341079e-02 -2.985666680517985727e-02 -7.150525080327996275e-01 9.218380097774467874e-01 2.116621410586174423e-01 -3.246749478663820132e-01
4.578894354141688217e-02 -6.381583338340364453e-02 -7.205660144062852046e-01 -9.256698610778880676e-01 -1.956003285643370393e-01 3.238453639587367539e-01
-2.366153535981152176e-02 7.977154149941992345e-02 -8.245655710564494534e-01 -9.205175569479767672e-01 -2.066996811528586109e-01 3.315458779141055579e-01
-5.599879855305488902e-02 -6.928632767202351495e-02 -1.010712771308139191e+00 9.245840707982428963e-01 2.127567661440303570e-01 -3.160361600926139269e-01
-6.550405290412403270e-02 1.586513341620212486e-02 -9.856414474525830860e-01 -9.188914882093511816e-01 -2.210200794526080426e-01 3.267851853667279038e-01
-1.942728693198478643e-02 1.793540328745072132e-01 -7.470781462650214477e-01 -9.235715338534624674e-01 -2.258153825706450957e-01 3.098758377964242472e-01
-2.381827316905294270e-02 -1.751887706451110693e-01 -9.883189850276257182e-01 9.210788629902003644e-01 2.096785119016117971e-01 -3.280985367224383276e-01
3.430907527399090773e-02 5.342528919763048223e-02 -6.764424325038121966e-01 -9.160121045722976474e-01 -2.220203582623671013e-01 3.341089415057312273e-01
-3.942663608933114766e-02 -9.253901161865307756e-02 -9.824407508784641641e-01 -9.239347307484682137e-01 -2.011416544571504039e-01 3.254022866529916458e-01
4.094640453483497367e-02 -8.337687261235965375e-02 -7.399991845504357846e-01 8.725751017689425959e-01 4.884100260204776167e-01 8.266695566898704314e-03
1.914026691044675918e-02 7.589832311630900774e-02 -7.050178082065872154e-01 -9.202400275410242969e-01 -2.192161789605155953e-01 3.241952476413650919e-01
-9.220702643245879196e-03 9.920302410988871000e-02 -7.705542338319049112e-01 -9.255689893941079216e-01 -2.134527629559128392e-01 3.126658981380229241e-01
-6.244265905061309463e-02 5.552127861547354049e-02 -9.509839291467284683e-01 -9.218842149661771179e-01 -2.041308472994534107e-01 3.293327972993315145e-01
4.701679540803782587e-02 -1.677732095501482390e-01 -7.816020952387473519e-01 9.245701284537699571e-01 2.117187613632263432e-01 -3.167731738291619248e-01
7.744672344157496960e-03 9.333352751979695494e-02 -7.221131445759515488e-01 9.276434464631408972e-01 2.055906833968424163e-01 -3.117853542654067112e-01
7.239513206239218956e-02 -2.061616625118572743e-01 -7.380956696706484355e-01 -9.138700183550124700e-01 -2.229268902262315777e-01 3.393305043256066300e-01
4.844211475958929564e-02 -3.147443004529502236e-02 -6.880294808453432109e-01 9.202371370369867298e-01 2.261349891945588497e-01 -3.194159956544858625e-01
-1.701724347087071876e-02 1.116328764691503113e-02 -8.505292173172144254e-01 -9.259266630697663425e-01 -2.156949435021689454e-01 3.100572623953248841e-01
-4.759087724209033754e-02 -6.602117490372316766e-02 -9.883084789024657590e-01 -9.225880298344233399e-01 -2.073668574395906572e-01 3.253157137948701205e-01
-1.689670646578263213e-02 -1.385051433193196513e-01 -9.444787019816247575e-01 9.208835665725741970e-01 2.213541954616295437e-01 -3.208983904105940366e-01
-3.841221145586500019e-02 1.586482511103362580e-01 -8.147020112350097376e-01 -9.247409510861185344e-01 -2.131477581704139257e-01 3.153128709254787165e-01
1.200308923962718939e-02 -9.172179945468637852e-02 -8.351614487441395562e-01 -9.246108705535933669e-01 -2.089744371319101068e-01 3.184720123959520754e-01
-4.223911767291264191e-02 2.516746565672861036e-01 -7.646829461348899626e-01 -9.256138574330328161e-01 -2.096880126967277935e-01 3.150713002785844874e-01
-7.010591141542474834e-03 1.224848952712252748e-01 -7.488641274065035436e-01 -9.259397607067886282e-01 -2.075659725085435003e-01 3.155185043683453316e-01
3.833452763706851618e-02 -2.017227345202353972e-01 -8.285842981635009874e-01 9.170770707902219376e-01 2.185143973347989654e-01 -3.334982824367104248e-01
-4.459115243474857243e-02 4.699198324164080565e-02 -9.018717466267806016e-01 9.213187110549122538e-01 2.191034389506913982e-01 -3.211938911313467204e-01
2.639217992940541546e-02 -3.544424034858261602e-02 -7.573903239104176066e-01 -9.212824383827197261e-01 -2.152595360025455484e-01 3.238857837070942547e-01
1.521980889208620659e-02 -1.324223645878126188e-01 -8.541163227322241536e-01 2.260850121451341288e-01 -7.723454230984870827e-01 5.936060265042408801e-01
3.284641310308644702e-02 -1.323791683370776906e-01 -8.024686567205016052e-01 -9.220443270690052984e-01 -2.099981294694057699e-01 3.251692552182869900e-01
4.914037550281472738e-02 -1.676952961128819197e-01 -7.791538570134318720e-01 -9.241266881932790334e-01 -2.099845350849981473e-01 3.192120912403836330e-01
3.448087578293551614e-02 3.142007491023835614e-02 -6.903418059630118675e-01 -9.248215453335254521e-01 -2.063770211732573190e-01 3.195522405156357437e-01
1.032985970793901670e-02 6.805026199714390989e-02 -7.352185410366645080e-01 -9.221919162138323411e-01 -2.102801206715558535e-01 3.245679289766869036e-01
3.386857197449597012e-02 -1.756705324585176309e-01 -8.194886933858719358e-01 6.644621308878941868e-01 6.820694230216016729e-01 -3.054036325830102316e-01
1.890407840619393390e-02 -1.114730853394187149e-01 -8.194499395937027142e-01 8.583856561771479043e-01 -5.126083327153007074e-01 2.016835392803969715e-02
1.778258532146182250e-02 -2.138278470583362401e-01 -9.231930672539869764e-01 -9.999887801610009008e-01 -2.017630759358298321e-03 4.285874266941757174e-03
-9.796555876182064596e-03 -1.408142104825220453e-01 -9.210939974517866613e-01 5.336354823922214718e-01 -2.440830153955627635e-01 -8.097262830904221609e-01
-9.395201344874669347e-03 -1.556124146014124798e-01 -9.343124305486930625e-01 9.230451118764826379e-01 2.006313750694011799e-01 -3.282297560835898409e-01
-9.118534823025520319e-03 -3.954248843968379001e-02 -8.612332038212056062e-01 -9.205382501761419922e-01 -2.191393211473549874e-01 3.233995792973806682e-01
-4.768291928221542880e-02 2.200977321960919109e-01 -8.009626161028667868e-01 -9.191203656841796521e-01 -2.112592613719597168e-01 3.325466551766138035e-01
5.358240410218373384e-02 -1.884555345222301281e-01 -7.800577332518666696e-01 -9.237810667632313510e-01 -2.090135005625506082e-01 3.208455972463623018e-01
3.045514488764430438e-03 -2.172541904674458735e-01 -9.166194556846118946e-01 6.102502672384377824e-01 3.374226260517850795e-01 -7.167569900347903200e-01
-4.930728053278662926e-02 1.223172231457495956e-01 -8.696932810000812530e-01 -9.201648262513091314e-01 -2.062897466088496334e-01 3.327780536242649911e-01
3.170057934009798406e-02 -1.177460497979593568e-01 -7.924615778075524419e-01 9.221715338043590116e-01 2.110360540430258891e-01 -3.241349196474594963e-01
-4.604808625979013581e-03 -9.564291877319237856e-02 -8.727112522096481806e-01 7.784072241113774160e-01 -3.608636130017911503e-01 5.136727034430711436e-01
-4.266967124561676233e-02 5.553676439033440604e-02 -8.945714915943809853e-01 -9.219567533878927357e-01 -2.209034229897091084e-01 3.181154233825920774e-01
3.169294546827336034e-03 1.141829783929228653e-01 -7.253089459276189643e-01 -9.214341304943071131e-01 -2.044076891254041906e-01 3.304188853358904776e-01
2.568150243711608133e-02 1.732530787212202203e-02 -7.248334095371135044e-01 -9.247139385288826174e-01 -2.099400883186954836e-01 3.175362832923823708e-01
3.787493231607441668e-02 -6.357987123618202840e-02 -7.346112914334899102e-01 9.289204203864839249e-01 -4.339439160208113239e-02 -3.677278604708690279e-01
-3.255834866636862085e-02 9.806527548335745859e-02 -8.339004990567178144e-01 4.077861924869637944e-01 6.424696262107068012e-01 6.488013568216851601e-01
1.692213831476225075e-02 -6.223159087099654901e-02 -7.980760047734457574e-01 9.223699962344563685e-01 2.157710336095834680e-01 -3.204316636999234857e-01
-4.001082850929196105e-02 -6.185847011951824126e-02 -9.639785048287425884e-01 -9.260689864234578073e-01 -2.034969777951058378e-01 3.177817055981784211e-01
5.159250071033475576e-02 -1.945604996376472662e-01 -7.897968328723093956e-01 -9.236219279115011060e-01 -2.174146276439808678e-01 3.156792897348049132e-01
-6.010517514950613344e-02 1.157791559971197287e-01 -9.009779963776289868e-01 9.221343542619860889e-01 2.066124087651243224e-01 -3.270772771595466533e-01
-2.881471084094127180e-02 2.155101974352673921e-01 -7.462355568426524144e-01 9.199833910503976142e-01 2.086577145624323171e-01 -3.318019263732410740e-01
-1.959046010601298363e-02 -1.436638486480094901e-01 -9.595042191203048132e-01 -9.207126836015314675e-01 -2.185546015389727426e-01 3.232986860496139259e-01
6.481059189965683760e-03 -7.051312804793961886e-02 -8.398930246575899705e-01 5.500378585075633292e-02 -8.470019311600891498e-01 5.287365243229977807e-01
9.180942285167369848e-03 1.738522607724550528e-01 -6.652917550752051046e-01 9.213439382840933334e-01 2.070555704156293864e-01 -3.290187504489903714e-01
-1.714583719590897018e-02 9.492325484058693197e-02 -7.826369816656858491e-01 5.224955573542804377e-01 3.631627728352807005e-01 -7.714345033582760136e-01
-1.357202707578100513e-02 -6.024494852478663731e-02 -8.907914006618340430e-01 -6.272480752527267445e-01 -3.137726461579615767e-01 -7.128159500283228756e-01
1.408672043483108656e-02 -4.997155439480901323e-02 -8.027430583402167530e-01 -4.758416411201497609e-01 6.157910873521633688e-01 6.279936857275899564e-01
1.415606373065372891e-03 2.385582135135298418e-02 -7.858428822752957510e-01 9.244876656608636001e-01 2.170488437659531811e-01 -3.133885056296580318e-01
-4.927180776002550860e-02 2.042770003515395338e-01 -8.158570865166325792e-01 -9.212666985178425971e-01 -2.039534613094339810e-01 3.311656018096320597e-01
-6.297680452084200749e-03 -5.706353066495174070e-02 -8.526014246651510975e-01 6.321869805006818943e-01 -1.110398726652803009e-01 7.668179499489489181e-01
1.629905929205534634e-02 -9.480421288191621942e-02 -8.250618054119627232e-01 -9.236006127621970707e-01 -2.102760990564825627e-01 3.205399667293959420e-01
-3.762068235555278764e-03 -7.393952202282601249e-02 -8.646978645627436677e-01 9.249286877680718000e-01 2.105388275466952841e-01 -3.165127558865448165e-01
-2.174825009587844776e-02 4.583373958464401210e-02 -8.412838845149528400e-01 -9.213923444533568263e-01 -2.065304299227493090e-01 3.292131970299349009e-01
-4.499280215818242390e-02 1.942419237728893345e-03 -9.325276685560809353e-01 9.219789099028249391e-01 2.158596560958976340e-01 -3.214957209117395576e-01
-1.132747771046625947e-02 -1.715627154151676400e-03 -8.503416665071739100e-01 -7.008737217760522276e-01 -5.255452608503868861e-01 -4.822636259573011008e-01
-4.449432639566890113e-02 -2.907921390254579463e-02 -9.552268480729074751e-01 -9.257533256533045929e-01 -1.980667719388810866e-01 3.221029864741365434e-01
4.417093549988823642e-02 -1.689653156497888387e-01 -7.903595963246581313e-01 9.417049042858669505e-01 1.708987482181330841e-01 -2.898025036148255684e-01
-1.113341610219342054e-02 1.689704446113728664e-01 -7.265616740524064587e-01 9.258924005808938373e-01 2.047185472020886521e-01 -3.175115414878892928e-01
1.728238458392649356e-03 1.942952535681363446e-01 -6.730683387401719120e-01 9.198823986380386675e-01 2.180951322897109745e-01 -3.259614792386700266e-01
2.266563352944568621e-02 -2.308354160585202597e-01 -8.961755551018467658e-01 -9.212207637091190948e-01 -2.164329744663923139e-01 3.232786291650238675e-01
-3.795032163950862875e-02 -7.964908065285042360e-02 -9.659490813139521848e-01 9.221753400023656733e-01 2.047587543359133400e-01 -3.281257301924463965e-01
4.916885251690283898e-02 -8.750650535187838586e-02 -7.227941078233853789e-01 9.402525367545980783e-01 1.850674186753252515e-01 -2.857887640747883151e-01
-4.220974769190068837e-02 2.492119107378183984e-01 -7.662585068711758041e-01 -9.254158464548257745e-01 -2.151939681819265426e-01 3.119247780930750613e-01
3.732257923611217304e-02 -1.734412009462812099e-01 -8.081054009492953938e-01 9.472723168954700901e-01 1.364794574121865056e-01 -2.899112197690236203e-01
4.620619642497969179e-03 -1.464225910635139905e-01 -8.786441190147106228e-01 9.539775545907692722e-01 -2.892138004952022334e-01 -7.926034910431048464e-02
-9.874227439688810712e-03 1.716151669468838903e-01 -7.249061418975376592e-01 -9.207590679536294953e-01 -2.234432451633695249e-01 3.198059645660562555e-01
-4.191191917607128836e-02 1.493270855931826957e-01 -8.307308538510728146e-01 -9.134039408432177432e-01 -2.125792619252381555e-01 3.471358498504593104e-01
1.928721805238519174e-02 -8.167286828838030144e-02 -8.042418081398253760e-01 9.182859812151691337e-01 2.152940231714342845e-01 -3.322639617688801783e-01
-2.157763987705850484e-02 2.180072040812056078e-01 -7.240324593626921157e-01 9.205005354560894526e-01 2.134034866994642399e-01 -3.273189821711597891e-01
-3.148242611580423511e-02 8.754437387064135934e-02 -8.416257076776202384e-01 -9.192519591323393691e-01 -2.103490997894278403e-01 3.327598110486498229e-01
-1.280895469226337770e-02 -1.175415655683634264e-02 -8.430368814843235414e-01 6.059652097971057749e-01 -2.660060062411813142e-01 -7.496979186039974818e-01
1.228782889576386129e-02 -1.771407348329253340e-01 -8.904196990753131535e-01 -9.230146686668192491e-01 -2.072052577461177825e-01 3.242065739435995853e-01
3.958965709562489721e-02 -5.819387000390817410e-02 -7.307818152731697658e-01 9.223095197243165178e-01 2.128244488930502443e-01 -3.225692232363001066e-01
9.428696745403154431e-03 -1.423161919294758382e-01 -8.773268634122992626e-01 5.745869041923068465e-02 -9.346686372340538007e-01 3.508461735096217726e-01
-4.064419056150531812e-02 1.562530770920573034e-02 -9.110771404022839359e-01 9.228192165885314990e-01 2.033216783446966658e-01 -3.272078675857663099e-01
-2.622984833145574138e-02 -3.786560054772714068e-02 -9.052035849223979413e-01 9.211227984413568048e-01 2.139335859126162420e-01 -3.252156377084789995e-01
1.685423383932784132e-03 -1.912327268435375371e-01 -9.044981116404533505e-01 5.224955573542813259e-01 3.631627728352804785e-01 -7.714345033582755695e-01
1.942667903462418078e-02 -8.339659343479308151e-02 -8.085505956782020887e-01 -9.216515879073716722e-01 -1.958064792718207381e-01 3.349898105659249170e-01
5.084637238434314838e-02 -2.029748114252405422e-02 -6.776411240299962113e-01 -9.200081829236455011e-01 -2.139348921427757788e-01 3.283546943130106199e-01
-2.564983887357726727e-02 1.637947216744533030e-01 -7.618282773988888090e-01 9.472723168954700901e-01 1.364794574121865056e-01 -2.899112197690236203e-01
3.173270239803703541e-02 -2.006404600398031257e-01 -8.466643881240877301e-01 9.259276451227228533e-01 2.001114931296417709e-01 -3.203332426004426026e-01
2.232343362528582589e-03 -1.633453955239714539e-01 -9.180337578765095374e-01 -6.738799917799987993e-01 -3.216940577557282632e-02 7.381401533656295477e-01
-1.988385222659504181e-02 2.795112471862071582e-02 -8.438868351351503927e-01 9.205251855621842116e-01 2.196610297913609844e-01 -3.230826747702588708e-01
6.071769440505590115e-02 -1.209543872605226417e-01 -7.154495777132053869e-01 -9.234676410337658847e-01 -2.118543199319713743e-01 3.198832022624719662e-01
-4.340291998370265220e-02 8.912482639619720426e-02 -8.746141773899149818e-01 -8.936139195696326532e-01 -3.265909970213996538e-01 3.078838797598310029e-01
2.033219124945657985e-02 2.818845017302987546e-02 -7.290623194559462394e-01 9.236776466308597167e-01 2.121722594226261027e-01 -3.190650990722338487e-01
-1.156392020929639629e-02 1.864747593839863882e-01 -7.161808265299021148e-01 9.200263136178895573e-01 2.243800792282752699e-01 -3.212556027467688424e-01
3.668428258984193086e-02 -1.094733255568290514e-01 -7.765928880470669426e-01 -9.218098784916940458e-01 -2.116641825132421217e-01 3.247534784357654636e-01
4.012124815641980591e-02 -8.016441683920894068e-02 -7.476255530482053269e-01 -9.472723168954700901e-01 -1.364794574121865056e-01 2.899112197690236203e-01
5.976562484124620968e-03 -1.608790836396651602e-01 -8.895567025775092951e-01 -4.737040438196040738e-03 4.259216589319767543e-01 -9.047476448714966146e-01
4.533455383313921699e-02 -1.538386949369541790e-01 -7.810718050728036044e-01 -9.211025646215628138e-01 -2.099548176525739829e-01 3.278552119336433091e-01
1.079163339472347105e-02 -3.721760512010070798e-02 -8.077789045631054154e-01 -7.016107777750408836e-01 -3.815360525106463729e-01 6.018077410141011718e-01
-1.853431076905799613e-02 1.011730755156044353e-01 -7.957267996477398464e-01 -9.272692404482866246e-01 -1.982142136428168833e-01 3.176206561740230749e-01
5.737091849044515662e-02 -1.808217095948676523e-01 -7.605429132984231622e-01 9.183651845687552662e-01 2.279214591582202909e-01 -3.235076447739427818e-01
1.889494573069863334e-02 1.007232281812196241e-02 -7.450705822736478634e-01 9.199873062241465949e-01 2.146919443600724120e-01 -3.279187786835787710e-01
-8.389483102005712567e-03 -4.345747998859852274e-02 -8.579226450390223802e-01 9.244310976358400822e-01 2.169777017300062449e-01 -3.136045641819646401e-01
4.646331786616712117e-02 -1.067483744173782501e-01 -7.468229095083200875e-01 -9.227443831342981850e-01 -2.128234127413123900e-01 3.213238216865417773e-01
-4.080340473374551719e-02 -6.881499055712869684e-02 -9.707547048663542899e-01 -9.262964783036069516e-01 -2.039432641473419572e-01 3.168311526527383681e-01
1.052143176278079635e-02 -1.468335645791112865e-01 -8.978823322829581066e-01 -7.024463451770225353e-01 -3.687914120857540001e-01 6.087380606790071536e-01
-3.525318412393876888e-02 -6.430469193054631771e-02 -9.482008882890923251e-01 8.766658397056815710e-01 1.407876571654472220e-01 -4.600389560493725605e-01
2.552756359536870884e-02 5.839854541711340941e-02 -6.943242074034545741e-01 -2.267160061626293521e-01 9.248393831992657299e-01 -3.054045969419392215e-01
1.106438771477681604e-02 -6.624010472206474931e-02 -8.294482834517462599e-01 -8.009888165267736726e-01 -4.121499082740100461e-01 4.342227180937950903e-01
5.748264570100867360e-02 -2.177387206647653228e-01 -7.883395441391386482e-01 -9.230334820246758332e-01 -2.035784934195635498e-01 3.264429323456444210e-01
-2.835399768240358213e-03 7.966981879199767913e-02 -7.650220600216718347e-01 -2.517720792283729692e-01 -8.058293501538853487e-01 5.359569745339531899e-01
-9.303968458939776073e-03 -2.035022892816738260e-01 -9.655855013702624445e-01 9.239284362345909773e-01 2.109980186430039650e-01 -3.191176598777160645e-01
8.590488703580360930e-03 -1.345962482919825509e-01 -8.693248537502652473e-01 9.259718592744690113e-01 2.148975318726553119e-01 -3.104757102042351447e-01
-1.790407320137231331e-03 -8.540118765180766680e-02 -8.704201795387227492e-01 -3.918998183965062831e-01 -6.595939548238421990e-01 6.413660008923364186e-01
-8.934146754446970623e-03 2.074962272838034028e-01 -6.948911037380502975e-01 9.158739193911854537e-01 2.271773874710093510e-01 -3.310066440434015766e-01
2.742501237120718860e-02 -5.560473799268301522e-03 -7.347865435144459445e-01 -9.206724640869359266e-01 -2.122964005897980122e-01 3.275552658235028058e-01
7.514655015324135656e-02 -1.787178627013671917e-01 -7.123146519960487089e-01 -9.278208187456542522e-01 -2.060829112824012210e-01 3.109314425713710084e-01
-1.222744095618253854e-02 1.083891058002906527e-01 -7.846555681419050687e-01 -9.870355557909112898e-01 -6.836193843434473782e-02 1.452152091828737834e-01
-3.676204303793310230e-02 1.044082623464600845e-01 -8.455175395198996080e-01 -9.259879522226271975e-01 -2.047646891615727827e-01 3.172029861320818656e-01
-5.543314873041266244e-02 1.131456586217756827e-01 -8.892678735896519804e-01 9.189844444012744695e-01 2.237202798621935329e-01 -3.246795763931915602e-01
1.673990980058554304e-02 2.485479310908587577e-02 -7.453038833422979126e-01 -9.248331142054667664e-01 -2.118959835705542805e-01 3.158857436094344440e-01
-7.671201184088157800e-03 -1.258303088774127276e-01 -9.098514701874851340e-01 9.254067342683965913e-01 2.019779516973713440e-01 -3.206669349946071335e-01
-4.016729581482992445e-02 1.422974731070470455e-01 -8.304646250352116787e-01 -9.134290617047101657e-01 -2.137690039961062938e-01 3.463382193229117001e-01
-1.934042642454073674e-02 -8.674153837389128596e-02 -9.212817550789270671e-01 -9.186106241844981257e-01 -2.204533421098290868e-01 3.279555535251280074e-01
6.024323648529672504e-04 2.542547008946267374e-03 -8.108036489498151589e-01 -8.651477049083087234e-01 -3.720142671422843605e-01 3.363403540083689247e-01
7.351489055710139740e-03 -2.462767234124142446e-01 -9.502277685013595931e-01 3.278438907533380298e-01 1.270423861594841553e-01 9.361509575995838883e-01
-3.043674456119178570e-02 2.094833844829654956e-02 -8.785051214395543928e-01 9.211873820631980569e-01 2.196721878526981531e-01 -3.211820932299314646e-01
5.078847583411115474e-02 -1.657390923604131483e-01 -7.694917684908424427e-01 9.251462789008713106e-01 2.117636621610169967e-01 -3.150563664235747630e-01
1.554341688774154781e-02 -1.563199855730172672e-02 -7.777960597624743455e-01 -2.874822292925599543e-01 -9.365731765996322400e-01 2.004611002540240827e-01
-1.110390413894012974e-02 1.008122681272457660e-01 -7.837918980647939904e-01 -9.527620009325543649e-01 -3.964965044857864107e-02 -3.011187054938641583e-01
-3.866580797235508876e-02 2.021517980166706030e-01 -7.869177854027870067e-01 -9.257243321988437579e-01 -2.067330914718567836e-01 3.166952630929193435e-01
-5.921359957640333349e-02 -5.405630723909478179e-03 -9.778235146837780389e-01 9.234675905667686369e-01 2.128882659985666392e-01 -3.191961706739769311e-01
1.495280270961197450e-02 1.651831760066241328e-01 -6.550825269753992597e-01 -3.087646115735021568e-01 -8.786040617629788108e-02 -9.470717837980393572e-01
-2.914686977256366815e-02 2.747480602816200837e-02 -8.744003388205501270e-01 -9.223246270128958590e-01 -2.043948665529373987e-01 3.279329518854873782e-01
1.702707607814110333e-02 -1.424712746017032239e-01 -8.634483474712145723e-01 -9.348890697754488333e-01 2.501388448536365217e-01 2.518193509436563171e-01
-2.634118278435083546e-03 1.371324984252726420e-01 -7.269275221399952303e-01 -9.211269199669241958e-01 -2.237953743467876178e-01 3.184977672342908517e-01
6.272065594012739276e-02 -9.109299401777218308e-02 -6.902770884090314585e-01 -9.189534538758103999e-01 -2.175058286149363640e-01 3.289616453756404879e-01
9.927074874631222623e-03 8.893876919693925742e-02 -7.189596390701411543e-01 9.227708753448742307e-01 2.051855849463765646e-01 -3.261790725130412905e-01
6.488420512025855347e-02 -1.350822638503377249e-01 -7.091742018085229748e-01 9.240565259390063346e-01 2.086008572347030632e-01 -3.203204945526923475e-01
4.183394346220327582e-03 1.111846421351635056e-01 -7.244390798806984444e-01 -9.225489900881583827e-01 -2.227374154956568986e-01 3.151053865385892716e-01
-1.167571766799525672e-02 2.561893470718096949e-02 -8.070240136179404056e-01 7.876309009349646839e-01 3.957881921069039688e-01 -4.722173979017758594e-01
-4.050093230325695765e-02 -7.913944391733802874e-02 -9.728115002211581430e-01 9.226535865976382977e-01 2.051552746482755429e-01 -3.265297420182499133e-01
5.477827914102267881e-02 -6.272779861574910576e-02 -6.942268676790771531e-01 -9.237569911467202743e-01 -2.108771378997641444e-01 3.196933749997980523e-01
-2.922085721353662874e-02 -1.767980975365663343e-01 -1.008668803301438599e+00 -9.197479355034285931e-01 -2.078985543744657216e-01 3.329293111550681306e-01
-4.390992038610275899e-02 -7.532410025826645310e-03 -9.392856289787498980e-01 -9.225806775022528106e-01 -2.130152691305567947e-01 3.216665798878096116e-01
-3.341401352632563260e-03 -8.584430263384508486e-02 -8.680265384421526065e-01 4.716552978567053467e-01 -3.755746971167923665e-01 7.978000544555835516e-01
-1.313326515261353453e-02 -3.087533871266682703e-02 -8.670202933307923354e-01 -9.280359085746590075e-01 -1.978476097447211257e-01 3.156036687275788344e-01
-4.189963104123075460e-02 1.892555146178103997e-01 -8.046557982139251886e-01 -9.281945652066345698e-01 -1.995777686772171045e-01 3.140438876505792787e-01
-1.654584459141150363e-02 6.781703884844667019e-02 -8.148052415760649314e-01 -3.615370462268238660e-01 2.109523302885026041e-01 9.081795409231776528e-01
5.538117931652811188e-02 -3.113372433967029687e-02 -6.718757794552254747e-01 -9.212937634364902761e-01 -2.091075685200756984e-01 3.278594611119984292e-01
4.034789075257866342e-02 -1.715181210428879943e-01 -7.988966300435622614e-01 9.427127003961409679e-01 -2.596019880248414541e-02 -3.325940958434942529e-01
3.326703339734397857e-02 -2.228096334648143051e-01 -8.606465650661844213e-01 -9.242710006176956261e-01 -2.117789792873912835e-01 3.176047564964262215e-01
-3.768201282179355072e-02 9.500902737587157976e-02 -8.506792872030932706e-01 9.196463281392824873e-01 2.117037703220208955e-01 -3.308052973750209014e-01
1.972969072625430174e-03 -1.805540667981810621e-01 -9.183460847660354087e-01 9.225977854691538305e-01 2.044663762517266448e-01 -3.271189802348687947e-01
-2.773934596352351303e-02 2.023820261722800162e-01 -7.451319962515362549e-01 9.928900324914853304e-01 -7.826737568755419427e-02 -8.968612647472375132e-02
-5.383677362749866163e-02 -2.695293339049275802e-02 -9.766306626922826029e-01 9.205222668407988529e-01 2.154822500310076827e-01 -3.258928599583779118e-01
-3.256373733762669975e-02 1.651074783282067415e-01 -7.900421911513634265e-01 9.220453768734917510e-01 2.141571624244333338e-01 -3.224422937031294900e-01
-3.718479249676846267e-03 -3.590849108436283080e-03 -8.320030649163848713e-01 -2.590648160952416235e-01 -4.113852830363365909e-01 8.738693094294202046e-01
-2.443300780837627181e-02 1.625228797226952182e-01 -7.675479298257744665e-01 5.403083503650076835e-01 -3.584030859483979259e-01 7.613239221963993275e-01
1.081794617179631518e-02 -9.370064210183895459e-02 -8.399007365117957535e-01 -9.246178217675693478e-01 -2.089726458006525012e-01 3.184530059158967585e-01
-2.476231301873907040e-02 1.493991856351641612e-01 -7.682217489925379228e-01 8.661526005135833373e-01 2.128693549390736905e-01 -4.521795112025526198e-01
4.038941488417648745e-02 -1.619800986034917456e-01 -8.004295378540053907e-01 -9.213169034987419570e-01 -2.087564846354190429e-01 3.280181297583289468e-01
2.710051098604055256e-03 -1.972050587866900073e-01 -9.226289585181277619e-01 7.870900586141900135e-01 -4.008278414268284795e-01 4.688563545136401611e-01
-2.687828298359865378e-02 -1.510778733518632622e-01 -9.811688986024446057e-01 9.225868334404132565e-01 2.109131478250468594e-01 -3.230312350793971832e-01
-5.552013837343694469e-02 1.930197779896845045e-01 -8.372874753628620770e-01 9.138355149423358359e-01 2.173116671391427945e-01 -3.430456106048904164e-01
-3.723417033476845994e-02 9.063555905481274211e-02 -8.559319833198318905e-01 -9.198449740694957244e-01 -2.117902008061751107e-01 3.301971146475521368e-01
-1.600816856783789013e-03 -1.029759706116281232e-01 -8.846822536013883020e-01 -1.445126082152302649e-01 2.775989315288422410e-01 9.497657286304219681e-01
2.351880219082710596e-02 -1.849704459416022240e-01 -8.705783917475095057e-01 -9.472723168954700901e-01 -1.364794574121865056e-01 2.899112197690236203e-01
2.558488712147946598e-02 -1.095994920874192452e-01 -8.164450017805582327e-01 -7.265808318509291430e-01 -5.314713072948309414e-01 4.354521148290995125e-01
-5.100536527823987254e-02 1.881444548615476831e-01 -8.274590721044408070e-01 9.249230311264534654e-01 2.062531399851086356e-01 -3.193384235229714263e-01
-2.742405517244283705e-02 5.734350870549235341e-02 -8.499578173292610117e-01 -9.217616344057415478e-01 -2.069481690274032060e-01 3.279145386741206813e-01
7.440989861510897974e-02 -1.720752578033905023e-01 -7.099662757395562851e-01 -9.214847151971525818e-01 -2.070278027172540725e-01 3.286417632622002372e-01
6.053895554020257731e-03 -2.040475446073057031e-01 -9.083133855298393122e-01 2.115615135850732742e-01 3.522353663058424011e-01 -9.116863345981347511e-01
9.219518311061840679e-03 -7.503299592922824113e-02 -8.397156334956323853e-01 -9.520784562607974566e-01 2.430483815368988942e-01 1.856720155444827047e-01
2.066361297371365618e-02 -1.316176834171207954e-01 -8.367877178287684847e-01 -9.207986322275069080e-01 -2.174869270612234395e-01 3.237735558155087068e-01
-4.860270291250155805e-02 1.336239837431705407e-02 -9.390426151863311421e-01 -9.231638366315199073e-01 -2.056923287194400707e-01 3.247448177288531079e-01
6.007223685712600320e-03 -1.612096176585817719e-01 -9.075255301407271213e-01 -6.806619822361820171e-02 -4.929459389194292274e-01 8.673933905456195914e-01
3.670284207608620185e-03 -3.973562295003253003e-02 -8.388056919497236530e-01 -9.747084332300396392e-01 2.771182131715682270e-02 -2.217555526915325481e-01
-2.983860303962110674e-02 2.096857378659371662e-01 -7.567528879837617239e-01 -9.250988789785069555e-01 -2.260342114353865728e-01 3.051239082299064265e-01
2.655892094595211847e-02 -1.643896952649769039e-01 -8.376960250650258288e-01 9.205928448781701690e-01 2.208586580837342550e-01 -3.220718353233782416e-01
2.724691976079479661e-02 -8.387476043700244077e-02 -7.828551318573718776e-01 9.218796649418083966e-01 2.151119111419084462e-01 -3.222805440166295332e-01
-5.286878087658481579e-02 -7.825081776213230200e-02 -1.007612475358085513e+00 9.236123805522890029e-01 2.115732405814623462e-01 -3.196512699183161055e-01
-4.275364556184697851e-02 2.263366439840585054e-01 -7.825975436148276954e-01 -9.180039102827842745e-01 -2.225575257597769141e-01 3.282331007579888937e-01
6.661245606496547962e-03 -1.336106436540911713e-01 -8.779346043636102603e-01 -9.351035647044643184e-01 -2.101053881584705740e-01 2.853717735582511628e-01
1.597339403083292489e-02 -2.362536517689828863e-01 -9.148635794953172695e-01 9.224743406476654251e-01 2.135509147341865255e-01 -3.216163827650060369e-01
3.358064399857575016e-03 -5.020503043558423306e-02 -8.501076427030311855e-01 -7.531054541205816077e-01 -2.302206769367219075e-01 6.163039955124660629e-01
-3.507910648833195699e-02 5.545255247278388366e-02 -8.692142055083906804e-01 9.167702076613873929e-01 1.995406049300313123e-01 -3.459999036541106521e-01
4.749615178569000645e-02 -1.962256240469270330e-01 -7.987552595565309277e-01 9.234178458308633930e-01 2.183242761747453964e-01 -3.156485267411539564e-01
-3.289642290150544129e-02 2.557340155805968296e-01 -7.315188271350694382e-01 9.206223504727265583e-01 2.221301974279173974e-01 -3.211116055216731713e-01
-1.289002208881535015e-02 -2.117775561208634638e-01 -9.812556705864606821e-01 9.241959832567405719e-01 2.090398152258563513e-01 -3.196312565792749361e-01
2.909458409515340658e-03 -1.196724841238266113e-01 -8.719736724128641647e-01 -1.604154436178950038e-01 4.498451832302376996e-01 -8.785819236550614919e-01
1.681379656499446679e-02 1.146299237483003192e-01 -6.824424746994601776e-01 9.193355332596994112e-01 2.140698445653094750e-01 -3.301458449441520004e-01
-5.306835714062045628e-02 -9.935149678702354104e-02 -1.021982392055005517e+00 9.191050665221387472e-01 2.136145829300502286e-01 -3.310810877307179823e-01
4.144622293986263001e-02 -3.230098764304622366e-02 -7.122553820094427168e-01 -9.223874569143499791e-01 -2.104937640591759418e-01 3.238730532466042034e-01
8.259859872702217387e-03 -9.287097541907846088e-02 -8.648065732850238607e-01 -9.968709455074217241e-01 3.366791021477982121e-02 -7.151775880792185514e-02
-1.785511433001229706e-02 1.605093945587481308e-01 -7.549267388441645021e-01 -9.158310436095246088e-01 -2.206984389549629944e-01 3.354783131648471639e-01
1.769155947730622833e-02 5.976743001294278212e-02 -7.197033055193209350e-01 -9.198254389846820533e-01 -2.239211872000522463e-01 3.221497535612219409e-01
2.277466530856845500e-02 -9.822040458064858204e-02 -8.005581711770933806e-01 9.395855993479401702e-01 1.613440784703484843e-01 3.019055975640832501e-01
-3.129298070975751467e-02 -9.342699961892313165e-02 -9.560230676503259639e-01 9.226401841167514162e-01 2.029694261140891354e-01 -3.279306370498559220e-01
5.491433563868037410e-02 -9.575120462662402299e-02 -7.155698559103670364e-01 -9.177794245569986797e-01 -2.162275111529370908e-01 3.330564385812572747e-01
3.437218659410200619e-03 -1.340927051598670566e-02 -8.044335095141891268e-01 9.260545257924415186e-01 1.989665951519908882e-01 -3.206794494085330460e-01
5.066289120003416441e-02 -3.047585580531089744e-02 -6.847577861238387520e-01 -9.198474727941211571e-01 -2.246958430631047776e-01 3.215468937875607947e-01
2.747323220868932298e-02 -6.416649458440719378e-02 -7.731597548782704887e-01 -9.216221541335331002e-01 -2.151122472973619471e-01 3.230159842375366352e-01
-2.517006151476662221e-02 -1.393930157884692433e-01 -9.687534001281165041e-01 9.568820310820793651e-01 1.350676377469478551e-01 -2.571643673328278257e-01
-8.733302763565599716e-03 2.274262416841614856e-02 -8.193779625895863949e-01 -8.430770535522712494e-01 -3.593755898662671644e-01 4.000878243359740072e-01
-3.725326127554428463e-02 -1.075124269387357084e-01 -9.821820366033180427e-01 9.203497027808145159e-01 2.126623173177458470e-01 -3.282242577633657232e-01
4.631916240924061762e-02 -1.283073312193931947e-01 -7.615580222357603013e-01 -9.219138527526921090e-01 -2.141728211790684955e-01 3.228077613238042320e-01
2.292653049536876736e-02 -3.542436635588404326e-02 -7.672514498972522468e-01 -9.215992909008611234e-01 -2.140014690970649947e-01 3.238180325975189566e-01
-1.273795773756890466e-02 -1.911991645444642215e-02 -8.440104907988413840e-01 9.377424345261888838e-01 3.472948002136632684e-01 -5.044624212779127807e-03
-1.579745596093888593e-02 8.736705137691379297e-02 -7.969708728712505685e-01 -9.201248172588644136e-01 -2.189688706377734273e-01 3.246890117573416057e-01
-1.564833241893577587e-02 -1.420774473611547406e-01 -9.471563721640785527e-01 -9.211755460193026268e-01 -2.201771324893822546e-01 3.208701353270394518e-01
2.118365485908573626e-02 1.223070793371773823e-01 -6.687559393378758044e-01 -9.193729154177250340e-01 -2.122928435901453026e-01 3.311875465000496122e-01
-3.675576135430588115e-02 -1.533415235901585127e-01 -1.014678491861330967e+00 -9.205526304700647477e-01 -2.068906563101935714e-01 3.313293087944103599e-01
3.732898446761383909e-02 -1.387992622724755314e-02 -7.082790882918426068e-01 9.213228758228425574e-01 2.090912104416048911e-01 -3.277880781870985416e-01
-3.858708197809600227e-02 -5.293554418614650203e-02 -9.539392957952614882e-01 -9.237715033691182853e-01 -2.180913316382765976e-01 3.147735386391341539e-01
3.348060074206058584e-02 -4.040208135801445083e-02 -7.403942134749551540e-01 -9.246846716127596899e-01 -1.974865680947082980e-01 3.255108500596820553e-01
1.785653424120205515e-02 7.771389869491050761e-02 -7.036795809908223953e-01 9.201943762716681130e-01 2.193996484406353087e-01 -3.242007158260469257e-01
1.626173186671362597e-02 -2.328203174072082104e-01 -9.155565088142239016e-01 -9.244863192876553448e-01 -2.049547970197787838e-01 3.214320715618537716e-01
-6.317721437818045807e-03 -1.193457965542470689e-01 -9.056447844758612753e-01 -9.184527798909970508e-01 -2.180008636466114202e-01 3.300304751986260499e-01
1.810587743694261342e-02 1.096691731118882157e-01 -6.820137517045103959e-01 9.231697681388068011e-01 1.986797705209091824e-01 -3.290652336244294096e-01
8.122062991383689756e-03 -1.347431979078204944e-01 -8.938198478998967689e-01 -5.428724444550360184e-01 -3.867759685159342653e-01 7.454487636517850291e-01
-7.580582095816538503e-03 8.872042819969658267e-02 -7.726076154095812276e-01 -9.207142895330948651e-01 -2.154861538362613793e-01 3.253473752075207170e-01
-1.043704096576719871e-02 -1.456521955859703121e-01 -9.226880131309717070e-01 9.243483724381853506e-01 2.922585650110687827e-01 -2.452855836541328327e-01
-4.271167205877371420e-02 2.484333008545307891e-02 -9.110229224691249739e-01 9.214655134240468115e-01 2.187791404890183367e-01 -3.209937620220122412e-01
-2.060687038713943098e-02 2.030787631043866892e-01 -7.311086855692920938e-01 9.220832411621587843e-01 1.989950449200728055e-01 -3.319088255306658075e-01
3.203692830794566127e-02 8.768437054150977905e-02 -6.565698703740846520e-01 9.211579093816225638e-01 2.125244827013878235e-01 -3.260390317679555117e-01
1.488419386105004766e-02 -1.131428893912895563e-02 -7.743023976435287059e-01 -9.209045281686435436e-01 -2.163674296816397169e-01 3.242221235070932295e-01
4.481957809834583722e-02 -1.270235769595967346e-01 -7.649910175741552187e-01 -9.220002958451508634e-01 -2.141359562442305964e-01 3.225852549401835856e-01
-2.698713141514077346e-02 7.099375337419215615e-03 -8.777741663502034442e-01 9.210893556755120892e-01 2.185687768341889881e-01 -3.222143520305644770e-01
7.050174591429246573e-02 -1.377762537458790959e-01 -6.948292300042678837e-01 9.303131098947715616e-01 2.071028405810164119e-01 -3.026977551637815567e-01
-6.504959115981302949e-03 9.137427565527342366e-02 -7.640611365399667676e-01 9.212075871330718257e-01 2.130967202522667525e-01 -3.255247597744154175e-01
-3.015609554568319389e-02 -1.722154353530379323e-01 -1.008312995298339398e+00 -9.238887336502108472e-01 -2.177845125268736692e-01 3.146418820463061095e-01
3.788458665765640637e-02 -4.149918748312481087e-02 -7.286626374095087622e-01 -9.472723168954700901e-01 -1.364794574121865056e-01 2.899112197690236203e-01
-1.272061264127561341e-02 2.487160302585531002e-01 -6.818989652394726875e-01 -2.324335771797020056e-01 -4.963376387089534769e-01 -8.364350426663553772e-01
2.728535836689598149e-02 2.026898853915249515e-02 -7.182242560841196610e-01 -9.249218056590537973e-01 -2.089984919945157560e-01 3.175520174088235503e-01
2.680271083243670333e-03 1.619815472519980093e-01 -6.915874641160179026e-01 9.209213571919944163e-01 2.191593585019003532e-01 -3.222933903273388911e-01
1.904720223171346358e-02 2.783817960816533169e-02 -7.368331331842267184e-01 -9.188438546599705381e-01 -2.134396382158098848e-01 3.319178988724633683e-01
