-2.588679194338946998e-02 1.596714090744009162e-01 -8.933514915884932517e-01 -9.899347936250588731e-01 -1.069390318076868102e-01 9.269923325759804600e-02
3.332976579467482325e-03 -1.347205506414230272e-02 -8.532486150868262564e-01 -7.475588262803317674e-01 1.882182009722271898e-01 -6.369691594364291776e-01
4.042784818563338427e-03 -4.221700328891535292e-02 -8.649146250627712806e-01 -4.720865627821973498e-01 3.233199883193008106e-01 -8.201210047265572456e-01
-1.455484703921693448e-02 1.413147704580604846e-01 -8.023168693397725315e-01 9.847033773248374811e-01 1.255662648866399944e-01 -1.207988899265083488e-01
-2.097410915493016711e-02 1.160359651451273177e-01 -8.976518659122199040e-01 -9.883761941190779554e-01 -1.152539480405102013e-01 9.914144622589519951e-02
-8.175211123761877419e-03 -6.468699849523480705e-02 -9.822912027929587842e-01 -9.847799747414143212e-01 -1.296436714917663657e-01 1.157623418493015505e-01
3.622483597315404730e-02 -1.923936959992907092e-01 -7.288023592424048847e-01 -9.827883576868474691e-01 -1.332953770080993194e-01 1.279038172356784797e-01
5.242966063603584151e-03 1.057256947044992595e-02 -7.698497737873717384e-01 9.851283615400220350e-01 1.258477161897039454e-01 -1.169806121513620178e-01
-8.377946421006548031e-03 1.219542673548959510e-01 -7.686413921498799207e-01 9.876694820587531565e-01 1.166946982860879167e-01 -1.043615906438434965e-01
-2.144400164828820510e-02 2.231009106161591371e-01 -7.587956753661806442e-01 8.730475786287290596e-01 -1.283070981894356144e-01 4.704521378469010418e-01
-1.706329363053011097e-02 1.624654080658670674e-01 -8.015016847292865121e-01 9.873182251600202131e-01 1.143068343997313135e-01 -1.101665551625340550e-01
2.269317669151812988e-02 -1.942144481406347933e-01 -8.396186679309933787e-01 9.859856465624675659e-01 1.298222151878932473e-01 -1.047783241729933340e-01
-1.525960501124455637e-02 -5.217531612490935999e-02 -1.031199854779936809e+00 -9.864461561878944407e-01 -1.228521702464287768e-01 1.087718953032942998e-01
1.329437334264072998e-02 -1.774479915895379734e-01 -9.042278089760167337e-01 9.867047406437143842e-01 1.203373125499868357e-01 -1.092368344445549255e-01
2.181313465080774935e-02 -2.111993351476599834e-01 -8.656666690716738888e-01 9.860022903998032495e-01 1.275231526174305241e-01 -1.074119587050422348e-01
6.363430621898046730e-03 -2.470256928573397182e-02 -8.094489900905373903e-01 -9.195902135554564483e-01 -2.774522953853184593e-01 2.781619365018294099e-01
2.728092417554593696e-02 -1.234047160363183487e-01 -7.327256339497155713e-01 -9.866376707753560238e-01 -1.224096531940496863e-01 1.075266637252942220e-01
2.549082014193528728e-02 -9.650266892977661659e-02 -7.079788101684167945e-01 9.853642735932625074e-01 1.222151488325530638e-01 -1.188305757028004783e-01
-4.062387157181472061e-05 -1.773919735679475029e-01 -1.021909052505700410e+00 9.881006520349646660e-01 1.129949467811546260e-01 -1.043515378420535600e-01
2.068537469776423124e-02 -1.456372176746362768e-01 -8.152318737044006447e-01 -9.859698513408489129e-01 -1.202132409999933788e-01 1.158111779371126526e-01
-1.361872466690470553e-02 -4.001290107444719149e-03 -9.636797641317882412e-01 -9.871672965426481205e-01 -1.097220834381023441e-01 1.160249673246290525e-01
1.709489498235888458e-02 -1.227139116717636397e-01 -8.110340024635366296e-01 9.863000570878545092e-01 1.206633550742595984e-01 -1.124835638247568131e-01
-2.836539856518685218e-02 2.415539118255400075e-01 -8.150624287036907223e-01 9.850896861296934981e-01 1.249190272870839558e-01 -1.182943232050914228e-01
-1.944877049368232483e-02 1.350631346548128442e-01 -8.524274449085759153e-01 9.874411704196714989e-01 1.137496621291470833e-01 -1.096400899567960413e-01
1.394936724582098060e-02 -1.156927401979716136e-01 -8.424829717300281740e-01 -3.505722809154989683e-01 8.761044353514825245e-01 -3.309684187519477683e-01
2.546590340550785540e-03 -3.279027332173332920e-02 -8.240161106134379354e-01 8.811697891518164294e-01 3.470805657692174195e-01 -3.210527737794257042e-01
-7.328972204427365231e-03 -5.449694175803790515e-03 -9.097950122123149574e-01 -9.857940089964452035e-01 -1.268383913119321693e-01 1.101008370364064404e-01
-2.675824929260011559e-02 1.073253172916559944e-01 -9.471665351597047255e-01 9.874152537879939961e-01 1.151380391205631681e-01 -1.084174733807374835e-01
8.610037210729268309e-03 5.053951244277584548e-02 -6.968141570220338643e-01 9.876479502561295032e-01 1.137365245945601289e-01 -1.077753651258814144e-01
-1.651790110677533660e-02 1.765118649276555540e-01 -7.923622006880982616e-01 -9.838330390584796303e-01 -1.209010032842761789e-01 1.321192592388083786e-01
-5.199983177767809189e-03 1.020001168858447466e-01 -8.079653252352846371e-01 -9.766697207750116849e-01 -2.141322658071200813e-01 -1.623666411457577036e-02
6.078268170584334371e-03 -1.923982242052600933e-01 -9.953903891145955418e-01 -9.883530496921135722e-01 -1.121913151409419523e-01 1.028171093312986312e-01
-4.599761118938318349e-03 1.510784283865658217e-01 -7.036545501051196805e-01 9.854896258067177284e-01 1.291281081744396764e-01 -1.101641008070481098e-01
2.627459676691425508e-02 -2.059587306959664021e-01 -8.207296531708231369e-01 9.851577891221228178e-01 1.255734348828901337e-01 -1.170275308793757851e-01
1.249573642157837455e-03 -1.434749636485363466e-01 -9.850068837969676583e-01 -9.864874695910611502e-01 -1.129874212193803656e-01 1.186436470529253634e-01
-1.774715978712238657e-02 1.484331075163589087e-01 -8.335950187945224688e-01 -9.836856233687365503e-01 -1.194451630878058390e-01 1.345193197744764257e-01
-2.752445283205260090e-03 1.107464875552700012e-01 -7.313421500800200148e-01 9.864356265977864968e-01 1.131683671424959237e-01 -1.189019564890896746e-01
-2.064451370177813189e-02 2.021413966116428762e-01 -7.897603389503445870e-01 9.827807182093786231e-01 1.330721357351318801e-01 -1.281946434401552148e-01
-4.192946077776467037e-03 -1.695311313551377611e-02 -8.669115691858475525e-01 5.346720119320008680e-01 -3.468721171924866731e-01 -7.705878106815525763e-01
1.251640123365393986e-02 -1.843909341302836791e-01 -9.114525435114725349e-01 5.178051608678561069e-01 -7.669161654914274928e-01 3.791007919888048638e-01
1.492738431411723236e-02 -1.161936237615728285e-01 -8.121488343023586243e-01 7.823487325246242241e-01 6.146178536094291101e-01 1.008729633829221206e-01
-7.255865349183932000e-03 -3.632134221282934394e-02 -9.316188311653780252e-01 9.883747233160827816e-01 1.182859956033689569e-01 -9.551873928175966255e-02
5.311677676628202144e-03 4.180814792186398482e-02 -7.316011723539450617e-01 9.439968151205221369e-01 2.790315893252215407e-01 -1.761004974466325868e-01
1.423518411199847788e-02 -5.529581022423034342e-02 -7.731834638335342014e-01 -9.860571680462842936e-01 -1.237946771668874124e-01 1.112031440638606428e-01
2.914476312219845336e-02 -1.898559100714360681e-01 -7.887058149469384771e-01 -9.843516292128714484e-01 -1.366582258770602798e-01 1.112492668115152572e-01
-9.589014004562555066e-03 -3.888426850728681893e-03 -9.171079732503124582e-01 9.856250312994301321e-01 1.273549981653251117e-01 -1.110135222317863574e-01
-9.186697417739269136e-03 1.540581565271417763e-01 -7.519936494990351328e-01 -9.856124774942492950e-01 -1.307166237880020565e-01 1.071504011803686290e-01
3.085811258647722100e-03 -7.852863329319824739e-03 -8.599515393973520272e-01 -7.300433085054620630e-01 -2.134060901068894900e-01 6.492261612194082376e-01
1.046071982759459555e-02 -1.155177520173546329e-01 -8.438684713350844691e-01 7.772101429962937624e-01 5.440494833326576796e-01 -3.161559003231614318e-01
-6.925560032537024166e-03 -6.642144223053836338e-02 -9.615682352616672368e-01 9.863239464126846157e-01 1.294713818663027760e-01 -1.019913428215244167e-01
-1.698405887558757446e-02 1.048358790147290928e-02 -9.776883112438783385e-01 -9.840658946097030624e-01 -1.304211005667014478e-01 1.208497066317307245e-01
-1.943337876182652099e-03 -9.908200014341876638e-02 -9.068076274777220336e-01 8.998220249057938824e-01 -2.073522197833086722e-01 3.838298847736731356e-01
5.249438629976755158e-03 1.593930570936531385e-02 -7.641226321815429712e-01 9.853727823190533419e-01 1.235566473555359535e-01 -1.173636858617992801e-01
-1.108322664254450356e-02 6.922746995348932897e-02 -8.198422426491939197e-01 9.510564820229829852e-01 -7.497881897866291723e-02 2.997828292391546690e-01
-5.730226681818113843e-03 9.307153512467636336e-02 -7.875552766336211263e-01 -9.854155785385207977e-01 -1.257628365385030367e-01 1.146291695834092961e-01
2.459628706121405606e-02 -8.373939151518200452e-02 -7.017169108907838071e-01 9.859396935832672737e-01 1.202341410275415690e-01 -1.160459906601772062e-01
2.015510996877419719e-02 -1.184125321950210002e-01 -7.901625690975389027e-01 -9.862506855232960890e-01 -1.226711960004778501e-01 1.107310389034651260e-01
-5.295639873612326132e-03 -1.065091158549696798e-01 -1.002197859981869055e+00 -9.851468957456093190e-01 -1.260476743181482007e-01 1.166086514876819719e-01
-1.623991767873738876e-02 -6.825849412874027133e-02 -1.057310030154040126e+00 -9.871837744078625354e-01 -1.214685239624794383e-01 1.035064888411481032e-01
-6.915054181750755410e-03 1.168573147429702724e-01 -7.722189820850674513e-01 -9.852030269378002636e-01 -1.345503019554259716e-01 1.061659642084023386e-01
-1.705189545016840003e-02 9.164308480928798351e-02 -8.787299134413010249e-01 9.854527075904793154e-01 1.222440738846959224e-01 -1.180650138807682742e-01
-1.635209870367663239e-03 -5.120970976210872938e-02 -9.264283013107156295e-01 -8.361376541280551855e-01 1.044451897842303967e-01 5.384840068935835555e-01
-2.195842998802080559e-02 9.746656878608381258e-02 -9.156449206000167873e-01 9.869330132340291550e-01 1.194411659599970837e-01 -1.081528328936228189e-01
1.282737016951515825e-02 -8.455953055990626799e-02 -8.067915787955144413e-01 9.863176741799076774e-01 1.223918107619135498e-01 -1.104431539696196923e-01
5.526901114705116795e-03 -1.447581111267472742e-01 -9.059277378432973871e-01 9.182056475820695729e-01 3.585164431128562423e-01 -1.684171866707732668e-01
2.701052289489590599e-02 -1.054378763697256666e-01 -7.040103853814122514e-01 9.843886198798665887e-01 1.271303807086452964e-01 -1.217247359902093179e-01
-4.851453491576937505e-03 -1.114446852799795690e-01 -9.925828657147495182e-01 9.861728782461945952e-01 1.260909946235574952e-01 -1.075365765051968098e-01
-8.277933248965170868e-03 -4.669200334144677639e-02 -9.521661538537264935e-01 9.860828339712942592e-01 1.193294848133132080e-01 -1.157632005489234034e-01
-4.842022102205849332e-03 1.354987627984915316e-02 -8.897105639027399482e-01 -9.254619973460672666e-01 1.419579835550601743e-01 3.512378430255048700e-01
-1.938424210976866929e-02 -1.618783357742488785e-02 -1.027782799099152822e+00 -9.852837565026457689e-01 -1.241058163698371131e-01 1.175315511478139813e-01
-1.589113253685402877e-02 1.280623763847856533e-01 -7.982453500405246594e-01 9.602092835697333406e-01 1.356543959210217420e-01 2.441229538855407832e-01
2.438395743826625786e-02 -1.624617165248133099e-01 -7.899727405665404323e-01 9.853327330228560665e-01 1.256426732920677414e-01 -1.154700129112821994e-01
2.260423187723349138e-03 -4.155890663569624527e-02 -8.536815785345324148e-01 9.869704972197168580e-01 1.096118763769669130e-01 -1.177899578698681504e-01
8.426429280270597566e-03 -1.076556556264594983e-01 -9.005968102199257697e-01 -6.269091268846321841e-01 3.703011541910948834e-01 -6.854648071443866231e-01
1.001759900291945664e-02 1.483805977438526144e-02 -7.232401394201537492e-01 9.871671627512027536e-01 1.183994892511815167e-01 -1.071566784236962222e-01
9.500303763045742783e-03 -1.149213505193323187e-01 -9.187925955317524096e-01 -4.749277437131121382e-01 -5.119277209870675138e-01 7.158027987767020539e-01
-2.941787580523365451e-03 1.247364796315341140e-01 -7.287659450523894522e-01 -9.859012127948123538e-01 -1.297424445651546021e-01 1.056678602413036183e-01
9.131536422787864607e-03 -2.256762137757191977e-01 -9.939516279215123706e-01 9.875310587919915450e-01 1.122502141332282766e-01 -1.103734449413101282e-01
1.779615577095461061e-03 -9.217171050414163513e-02 -8.891198895779323097e-01 3.595515192658437775e-01 5.903359139741384265e-01 -7.226522079575639079e-01
-1.587305779187365463e-03 3.094647526818970068e-02 -8.194170841158697760e-01 -9.874621534292453706e-01 -1.120247393574455436e-01 1.112157961657143923e-01
2.709807986905085272e-02 -1.057015972415831090e-01 -7.147959305513347239e-01 -9.848705684130809601e-01 -1.277008877859436564e-01 1.171428475510841033e-01
3.628943419077314443e-03 3.390930796933485682e-03 -8.512578014394718284e-01 -9.591714716514863071e-01 -1.344262837478789607e-01 2.488366174976193446e-01
-2.512526240050620696e-02 1.200624976525105497e-01 -9.190619924977618815e-01 9.846127210970087029e-01 1.336819104840246131e-01 -1.125474844822623305e-01
-1.073479021759132096e-02 -2.484682303098875375e-02 -9.500466640093153670e-01 9.859258233492471657e-01 1.236251522557956228e-01 -1.125481789405771010e-01
-1.022181850849257848e-02 6.981287756524325039e-02 -8.419293180563638401e-01 9.873733001030912115e-01 1.251362049010010802e-01 -9.713339521763784956e-02
8.798292805564461583e-03 -5.947023386849064480e-02 -8.114588864663431211e-01 9.200623605361257784e-01 3.720486251958444179e-01 -1.227398599256735029e-01
6.945502953044595598e-03 5.160331780420243653e-02 -7.209721614817850011e-01 -9.886572784574076955e-01 -1.022813815983993485e-01 1.099786557997235875e-01
-8.754693079861122079e-03 9.523574230146338027e-02 -8.015370424216627931e-01 9.853684911881259723e-01 1.262897563878515872e-01 -1.144545062683554604e-01
2.704191277627511492e-02 -1.915195088224816433e-01 -8.112323292608779601e-01 -7.648441387691786719e-01 -3.967375980031073168e-01 -5.075556341142890560e-01
-2.227286920406910953e-02 3.398374940702668379e-02 -9.874958618063068849e-01 9.848922655634019252e-01 1.270375470561218856e-01 -1.176804438781267892e-01
2.223468296295928390e-02 -1.768910752257650265e-01 -8.140893892991603042e-01 8.944666231478068941e-01 4.372074664835470248e-01 -9.369680531158658399e-02
-7.424060722596016564e-03 1.306409063994818098e-01 -7.506736348431066741e-01 9.859378233269324721e-01 1.143318278540559063e-01 -1.218804400751026112e-01
-1.811271876935539177e-02 2.349412712886143617e-01 -7.314207931854412870e-01 9.849915950636809470e-01 1.271502406240015148e-01 -1.167234936213090990e-01
7.966638455758651149e-03 -6.843002998614554355e-02 -8.325173511790816550e-01 9.864450679599301441e-01 1.238579256087888603e-01 -1.076352273255206105e-01
2.682331475482516506e-02 -1.621749976672685334e-01 -7.792163606732928072e-01 -9.853022942574762855e-01 -1.297383899546983022e-01 1.111185812675640205e-01
6.214644261044438740e-03 -2.815991804589762157e-02 -8.641438535119025932e-01 -9.767154503481838557e-01 -2.139321141619238420e-01 -1.612388232883267547e-02
-6.273178881758254867e-03 -2.279137657228652233e-02 -8.596673971637928124e-01 8.512774207961496531e-01 2.493964755670890765e-01 -4.616580453294075737e-01
1.145227726162654884e-02 2.229566781253632113e-02 -7.132000387907199146e-01 -9.872894335124203780e-01 -1.164650432832185778e-01 1.081455878330784270e-01
-9.802637921124998654e-03 -7.058312394799849676e-02 -9.921461849920583109e-01 9.850384213324665517e-01 1.286826607013178969e-01 -1.146301938132863046e-01
-7.249333108475493510e-03 1.919549742268140680e-01 -6.933999777289848732e-01 -9.862411884235150472e-01 -1.096508517057608184e-01 1.237134147017765751e-01
2.532598100230499041e-02 -1.224850935022484544e-01 -7.377489139724368039e-01 9.845337395982461937e-01 1.262925578535908366e-01 -1.214228373226800134e-01
-9.922723365330322898e-03 2.850888258333801259e-02 -8.843977583786021279e-01 9.875585044452144245e-01 1.245946292531771304e-01 -9.593945308992818388e-02
1.618017418847229882e-02 -2.363469404394562823e-01 -9.538265142559730903e-01 -9.867356442010291051e-01 -1.200343961209981020e-01 1.092909521005611811e-01
-7.481567645670529794e-03 -1.315371846087234897e-01 -1.048827309118443019e+00 -9.867419783792379384e-01 -1.229398991626897003e-01 1.059530523302433386e-01
-3.591189265834124410e-04 -1.612562920312227976e-01 -1.018412877537243633e+00 -9.852274613072912191e-01 -1.269064784559400805e-01 1.149851956205750758e-01
1.989285787830121291e-02 -2.228538447192787986e-01 -9.063606812803587376e-01 -9.883318853882989696e-01 -1.107688890229526907e-01 1.045482546455508005e-01
8.805770790728601610e-03 -5.318193119242872746e-02 -8.081748883605289757e-01 9.859549275493436626e-01 1.257403961516404545e-01 -1.099192140473945339e-01
2.130979295087623467e-03 3.817834570609857786e-02 -7.673898267001533213e-01 9.867237437797364841e-01 1.215921427710915242e-01 -1.076643129251066699e-01
5.394057109265752541e-03 -9.811864667330363887e-02 -8.874742385220839580e-01 9.858594942039766718e-01 1.171599021903546589e-01 -1.198107466241059016e-01
1.839208588985113621e-02 -3.712774943420833057e-02 -7.167384752961553085e-01 -9.867104482229267504e-01 -1.166550226823973857e-01 1.131109943846314719e-01
1.877896659495283463e-02 -1.090743390602398333e-01 -7.920291818231564029e-01 -9.861757935788740825e-01 -1.235956814179772906e-01 1.103694327878141646e-01
8.011325980095965887e-03 -1.931087724001832873e-01 -9.677406370285652759e-01 9.857231867917851664e-01 1.293850610291593928e-01 -1.077464848778291739e-01
-2.033565105769903278e-02 2.191586041029452148e-01 -7.684296442231203228e-01 9.867992989215226274e-01 1.325488218643507687e-01 -9.304812448600940922e-02
3.559773412640281770e-03 -2.110994666381581231e-01 -1.027051360132277269e+00 -3.531058972288431824e-02 7.400602230833460693e-01 6.716130049837112370e-01
-2.785642602629200947e-03 -6.628980153648854345e-02 -9.359336456405970006e-01 -9.864467114643894474e-01 -1.151434612442803485e-01 1.168968296138880036e-01
2.183882595200114379e-02 -8.328380484477927725e-02 -7.258055748097090865e-01 9.870943855395482025e-01 1.205532267216757464e-01 -1.054115437857447712e-01
-1.800834193806350597e-02 7.238493279950272696e-02 -9.083726508484755158e-01 9.863838478694987311e-01 1.175840487856531086e-01 -1.149821557170269959e-01
6.968382355429626014e-04 -1.210963544798634023e-01 -9.079077776707298320e-01 6.411957170437664333e-01 3.647330363549319832e-01 -6.751576590960383095e-01
-1.437419693607563523e-05 3.311922899302087442e-02 -8.027991962550091731e-01 -9.888446638002392763e-01 -1.071313795230276200e-01 1.034847737364511661e-01
1.158244708507750152e-02 -1.729354009920242019e-01 -9.143533237898127108e-01 9.864147619089342900e-01 1.201650143183249642e-01 -1.120102085616173498e-01
9.828756681771256762e-03 -8.392910220233239238e-02 -8.436113293568416882e-01 -9.866699154802019978e-01 -1.217873876399001715e-01 1.079366022169471612e-01
1.218247610842084806e-02 -1.243577749262250905e-02 -7.339661973447584309e-01 9.917832652021109086e-01 8.996566194973182329e-02 -9.095127560944916978e-02
2.024107080343447423e-03 -1.709064639116811835e-01 -1.007688305459942146e+00 -9.861495008115523930e-01 -1.187045137813218382e-01 1.158378196318720771e-01
1.721902150004513132e-02 -1.546436124195281758e-01 -8.444534298039854114e-01 9.861464419817573823e-01 1.313803462970661584e-01 -1.012640092707336320e-01
-1.031845020557570908e-02 1.728993288591914868e-01 -7.303853737030998605e-01 9.850531233674519882e-01 1.326087193374130280e-01 -1.099330327959645720e-01
-1.548792910724022809e-02 -2.550597043230819899e-02 -1.003714167494144327e+00 -9.852726845650138232e-01 -1.281137482403861549e-01 1.132457706135197861e-01
1.979100316159940892e-02 -1.187953277073181269e-01 -8.050568846607462081e-01 -9.960115929133994683e-01 -4.240795932788350708e-02 7.850141252077609544e-02
-1.319684778374055449e-02 1.179697231964720594e-01 -8.156789452354502590e-01 9.854136057481204247e-01 1.146705396297120066e-01 -1.257405779671716406e-01
-8.187854646046769519e-03 8.925294901252728286e-02 -8.026335054409085012e-01 9.880315341358389958e-01 1.082032935253128131e-01 -1.099351391660337990e-01
1.768985871416125372e-02 -1.248912990388586636e-01 -8.081748376880348861e-01 9.859460166080865617e-01 1.230608085129591134e-01 -1.129888921212320735e-01
9.287728441988732375e-03 6.691116244912438671e-02 -6.833507553167763593e-01 -9.862116859332038521e-01 -1.207536736982687819e-01 1.131594486428753599e-01
-1.491617366133865530e-02 3.330410317902142425e-02 -9.345218848956078350e-01 -9.856131686744409315e-01 -1.287220946610500294e-01 1.095322056821615431e-01
9.311698660701060032e-03 -1.429263826865364651e-03 -7.472720114252904278e-01 9.873849083179897512e-01 1.198262754908994282e-01 -1.035022054250725604e-01
9.171739071392766415e-04 5.815951942772518146e-02 -7.562341756706688622e-01 9.861064949081609354e-01 1.204325988271570252e-01 -1.144114060733381205e-01
1.990321320475564246e-02 -1.057773664939673230e-01 -7.672301933243634853e-01 9.842743759597186726e-01 1.271296886339584042e-01 -1.226458115751979383e-01
-2.149531063101640244e-02 9.952844449949752037e-02 -9.027945718472607517e-01 7.343058775518601644e-01 1.017383998378588485e-02 -6.787424925351119853e-01
2.904331274428044105e-03 8.795793719663186350e-02 -7.170388911726378600e-01 -9.850129956669152476e-01 -1.279693624944437391e-01 1.156427283924724575e-01
2.556761013849172953e-03 -4.017394887331229847e-02 -8.351830772299212446e-01 8.803266646383651750e-01 -3.380494694044817172e-01 3.327874994077142379e-01
1.562920656015608784e-02 -1.991680063055904781e-01 -9.181130592336737006e-01 -9.878560912048274245e-01 -1.147397953131034515e-01 1.047622185762901170e-01
6.904701953492572292e-03 2.179683026639900670e-02 -7.429392830256704716e-01 9.850475123912002529e-01 1.229312225554055477e-01 -1.207034086218830155e-01
8.341769885888391037e-03 -7.996708909655032838e-02 -8.739363909751816095e-01 -9.449954576524925987e-01 -3.182065838683043046e-01 -7.568457570086320474e-02
1.013005358035333828e-02 -1.721912321884394304e-01 -9.263839068509084340e-01 9.862455014011355381e-01 1.188586303409385897e-01 -1.148583343057825584e-01
-1.179967660002488768e-02 1.545348463884188284e-01 -7.836028884093741986e-01 -8.144060600633933333e-01 -5.715539790769934569e-01 -1.003435016992935691e-01
-1.236414571761515133e-02 -7.843232335159711077e-03 -9.460728462644576453e-01 9.872754221528299290e-01 1.093641658153688689e-01 -1.154414139226460218e-01
2.322034824841427009e-02 -1.248374355615849279e-01 -7.587289965381383006e-01 9.844243398213482488e-01 1.267874119774068664e-01 -1.217935603033837855e-01
-2.193335993270350767e-02 2.413319892409254985e-01 -7.584322651072592514e-01 9.870164316707983332e-01 1.210298748537036589e-01 -1.055951372210910122e-01
2.812969546043735634e-03 1.566625139103386757e-02 -8.426775995752970871e-01 -9.966043711860390619e-01 7.049425669019540944e-03 -8.203677791464479563e-02
-2.035262602409920740e-02 2.245253327263233289e-01 -7.627775132697385274e-01 9.858521593978863962e-01 1.197088005594088983e-01 -1.173257127792186050e-01
-2.910819761850327002e-03 2.219368255392569628e-02 -8.296914761969725882e-01 9.856241152517580817e-01 1.127860477206220069e-01 -1.257951146656751118e-01
-5.962905422936378092e-04 -1.349628051346188073e-01 -9.176746097479933084e-01 8.472556113287500468e-01 1.705145375250921025e-01 -5.030732765358839620e-01
9.177330978722218757e-03 -1.170735295893473582e-01 -8.745238785507990498e-01 9.855667926983735505e-01 1.313438477030327567e-01 -1.068030467767824704e-01
1.905482386953144883e-02 -7.856786859521626420e-02 -7.561790571440630826e-01 -9.863915021895245383e-01 -1.224227934770863863e-01 1.097472735222151247e-01
-1.897921743314732318e-02 3.096520076855568612e-02 -9.619206469361988310e-01 9.858319078413242398e-01 1.275987650317581823e-01 -1.088760976721011436e-01
3.761025800262188853e-03 8.681155656142974797e-02 -7.110311855040316598e-01 -9.851656585035410973e-01 -1.267408246315556708e-01 1.156952405114285154e-01
2.902998099440116594e-02 -1.663990044609451047e-01 -7.530998984537593532e-01 9.858148709793792541e-01 1.259631839936164177e-01 -1.109158078638936146e-01
-2.275977046312247995e-02 1.703412112559454794e-01 -8.434441401026269158e-01 9.837970245019058702e-01 1.288405047272713488e-01 -1.246737298825156270e-01
-1.372189791126749922e-02 2.356893396168332766e-01 -7.027944679366577851e-01 -9.833579603145831127e-01 -1.338276594357191429e-01 1.228709870388441788e-01
-1.462155274047547381e-02 9.143526024458918308e-03 -9.583123605043109006e-01 -9.862706399523658574e-01 -1.240902382464613984e-01 1.089579622601624109e-01
-8.137246517940146390e-03 5.387939739292363882e-03 -8.467836595838194036e-01 9.673124681760839616e-01 9.066863857737325616e-02 -2.368243798463711691e-01
-2.274870628020674024e-02 1.324701113506371875e-01 -8.843867726501707383e-01 9.841001584966370119e-01 1.304923378241492349e-01 -1.204932687583906425e-01
-1.577881542805288986e-02 6.406563805377899455e-03 -9.607237448231391586e-01 9.860740428098350163e-01 1.252677564171734148e-01 -1.093890821740231695e-01
1.803629319368189182e-02 -9.552189684059177177e-02 -8.019595902898027928e-01 -9.971405593146696056e-01 3.591790251243964088e-02 -6.648766237983387561e-02
-1.909381366184259229e-02 -4.868002912501344370e-02 -1.050082935503628301e+00 9.834467516525183806e-01 1.268191702189657710e-01 -1.294194140346913435e-01
2.239783625066297298e-03 -7.900233543859010166e-02 -8.743261610386044991e-01 7.660268910729063352e-01 4.534259916746815056e-01 -4.556398492526847477e-01
1.370103150478519174e-02 -4.357506151156804314e-02 -7.542334948956598284e-01 9.879803914398761489e-01 1.196905700146636137e-01 -9.782082385603557695e-02
8.989548434908621252e-03 -1.222878495444140456e-01 -8.673547262913904321e-01 7.679228565890755531e-01 -5.676496231463055153e-01 2.967631912315460974e-01
2.536538688940347813e-02 -1.268671284794678222e-01 -7.534717333750603485e-01 -9.867260948080155414e-01 -1.220305170215976870e-01 1.071455399928740448e-01
1.911830707868171150e-02 -1.381525845729990876e-01 -8.100481659797714729e-01 9.859528770422061328e-01 1.220301203555859415e-01 -1.140419834017176032e-01
-1.825936883404926173e-02 -3.500467304648859773e-02 -1.038656191060135736e+00 -9.860287700684442491e-01 -1.169730649923919202e-01 1.185941257550167383e-01
-1.841955609037276842e-02 1.126440380973187660e-01 -8.677861056463006539e-01 9.847859493919980389e-01 1.236323994611640414e-01 -1.221133231206822795e-01
-2.017458968257492338e-02 3.393525020804833564e-02 -9.692088460685130968e-01 9.857118963185206306e-01 1.287831917881578081e-01 -1.085677068423218233e-01
-1.637419647769405157e-02 1.625869481696002317e-01 -7.953682507215000808e-01 9.851917276248386424e-01 1.266341056541169241e-01 -1.155900649051095075e-01
-1.543344098282129102e-02 1.328987372642042308e-01 -7.989311728208143837e-01 8.017035630707233240e-01 -1.381527389651504914e-02 5.975621600861880101e-01
-2.538484905919651674e-02 8.994411341550276329e-02 -9.544406919291824609e-01 9.882627331240204649e-01 1.185764972308908372e-01 -9.631398975586845379e-02
7.293223526073306165e-03 -1.991599523103493308e-01 -9.808141441950942729e-01 9.960115929133994683e-01 4.240795932788350708e-02 -7.850141252077609544e-02
-2.563918207417485023e-02 1.840385968224404756e-01 -8.533517745164741486e-01 9.865459330253038006e-01 1.188965312137444524e-01 -1.122084528748691218e-01
-1.809975349850106996e-02 1.465859600771786675e-01 -8.389481438466589447e-01 -9.874408855963592302e-01 -1.113254256906542478e-01 1.121032874070714558e-01
6.270113206721579860e-03 9.061073195299826355e-02 -6.738155391987975529e-01 9.861084760732284904e-01 1.232704772328035575e-01 -1.113304219848803567e-01
1.340633545410691366e-02 -1.699613865842633798e-01 -8.953188589277655263e-01 9.856978159111615678e-01 1.237964517293742434e-01 -1.143427052644051256e-01
2.571359707383901599e-02 -1.547524693529283568e-01 -7.693570402298768318e-01 9.860938329503209365e-01 1.265010203250062359e-01 -1.077796106602576381e-01
-2.456484021948856719e-02 1.025962622944134456e-01 -9.443490086163690567e-01 -9.851506246539440959e-01 -1.319888292024966603e-01 1.098052626684982436e-01
-1.448269752659305139e-02 1.053697882094119798e-01 -8.065152775598076751e-01 9.668901405732965859e-01 1.493111488938607956e-01 2.069532238892305143e-01
-6.094088656498724416e-03 5.376610344135700909e-02 -8.340011640227333878e-01 -9.852935938925612147e-01 -1.303803528582170856e-01 1.104422809563773977e-01
-9.071152482297941896e-03 1.388451178957776644e-01 -7.565520607649715012e-01 9.879639714221793989e-01 1.143086539263940271e-01 -1.042147917008465347e-01
-2.574053142012840134e-02 6.979796457250858621e-02 -9.797172420713767815e-01 9.857488141691893579e-01 1.245009606784788919e-01 -1.131317203713120140e-01
-8.795914779709729237e-03 1.919297328669337110e-01 -6.961296046472620347e-01 9.845728256708247139e-01 1.350007031451485873e-01 -1.113155923529260405e-01
2.055617012105810312e-02 -1.842452476681117057e-01 -8.473770340552408964e-01 9.859881637175633706e-01 1.298082869166535536e-01 -1.047718934477703395e-01
1.604765161139192972e-02 -1.521276008077382391e-01 -8.633396987767834041e-01 -9.859488300773761038e-01 -1.225062421218100217e-01 1.135655102143498935e-01
7.703323960990167418e-03 5.703549714625161943e-02 -6.975590278348480222e-01 9.857781864049772746e-01 1.281275102118737408e-01 -1.087414747693813966e-01
2.332536071004034928e-02 -1.773041369859234273e-01 -8.337059408251913384e-01 -8.689380606187551148e-01 4.930369259167736717e-01 4.314205014431434643e-02
1.815210419133404807e-02 -2.240800204259595085e-01 -9.232818656785083400e-01 -9.881373494311366246e-01 -1.172912113410288643e-01 9.913299350550146272e-02
-2.683124944157453187e-02 8.374137752483212793e-02 -9.737075754702109176e-01 1.751366075823408974e-01 -6.009595639199649675e-01 7.798556092108812621e-01
-2.289333608499547618e-02 2.284375762682424316e-01 -7.809167754877122114e-01 9.868918347927900792e-01 1.201390382196755036e-01 -1.077548974059720360e-01
-1.898952442953203215e-02 -1.809215139226671987e-02 -1.015714798935762220e+00 9.882835563882932384e-01 1.080350549779206248e-01 -1.078148369586701544e-01
-1.379730544678967573e-02 1.304760600736854514e-01 -8.182453879623121651e-01 -9.872439960280521287e-01 -1.233801513378121606e-01 1.006311609911254151e-01
1.743369954330343044e-02 -2.171059983468104915e-01 -9.215642861317313583e-01 -9.856102288689561064e-01 -1.354377900786845057e-01 1.011389231081995382e-01
-6.849862698632201534e-04 1.482962752821719576e-01 -6.830182217512795750e-01 -9.851173563810775580e-01 -1.222090963798655033e-01 1.208665831351819625e-01
-2.346947528240480446e-02 1.931117729018848872e-01 -8.358458012461741360e-01 -9.859394367142906290e-01 -1.237356712587630997e-01 1.123072161067584368e-01
1.118827085088569193e-02 -7.690543136211600017e-02 -8.128992915375468087e-01 9.862038908643419033e-01 1.243802968915578705e-01 -1.092310733683457130e-01
-4.449235271393967364e-03 5.829482048696701599e-03 -8.610724835929381982e-01 9.852698110184566760e-01 1.301541998668125366e-01 -1.109201683765595192e-01
1.725613932621033672e-02 -1.674504572065479702e-01 -9.390186132785783846e-01 -9.325461253172661058e-01 -2.942595297075089045e-01 2.092105478508888561e-01
2.660408743297504319e-02 -1.686160448083967034e-01 -7.879895185536829327e-01 -9.870000240615901532e-01 -1.077457651795015459e-01 1.192551994183228825e-01
7.482211645920749075e-03 -4.891014512015932209e-02 -8.152533811215836312e-01 9.860800650399264011e-01 1.264224386480256868e-01 -1.079975570887635183e-01
-1.249143075591183094e-02 2.136792383930866401e-01 -7.162045191066539473e-01 -9.867215477764351705e-01 -1.198944557062274069e-01 1.095714682049274413e-01
-1.885285608576355715e-02 3.900239380209905016e-02 -9.521289636918274235e-01 9.857073575749186745e-01 1.286657232999414702e-01 -1.087480430645726415e-01
2.538575896930340622e-02 -1.013479206460710796e-01 -7.140290172660771484e-01 9.872325716052600120e-01 1.219267734316105828e-01 -1.024973730503467712e-01
-1.743876217653430455e-02 -5.761170444909000793e-02 -1.045307757338012289e+00 9.871255075374827381e-01 1.217985278884723549e-01 -1.036742541476342455e-01
-1.153722380834873787e-02 1.440844265080956366e-01 -7.836803336702601319e-01 -9.857072873577282790e-01 -1.290637958831752086e-01 1.082759448912581079e-01
1.766792826101357822e-02 -4.192852324294875366e-02 -7.172208114383249455e-01 9.867149143825340030e-01 1.194049813295478268e-01 -1.101640965503685177e-01
8.285877817224942751e-03 -2.145602072905685720e-01 -9.793804727656824083e-01 5.930905903824946757e-01 3.848143901579162973e-01 7.072209249782805962e-01
-1.226495585059565567e-02 -3.573462330448297104e-03 -9.406200417151967530e-01 9.860915830417551486e-01 1.279588140722258405e-01 -1.060656954695278764e-01
-1.264906792640761030e-02 2.113014117596994368e-01 -7.088571211873090361e-01 9.882068391427345500e-01 1.039916661448965218e-01 -1.123965143762642033e-01
9.529550520362684712e-03 4.867375400824933834e-02 -7.015594414712197358e-01 -9.872539955010070090e-01 -1.170640812353282156e-01 1.078218403285064186e-01
2.585464457329533089e-02 -1.277000912278190570e-01 -7.499147355852714414e-01 -9.867260948080155414e-01 -1.220305170215976870e-01 1.071455399928740448e-01
2.505614755128016298e-03 -1.181694958465071554e-01 -9.349470679365011749e-01 9.860041214309628321e-01 1.274206618109548772e-01 -1.075167310924838443e-01
-4.009100309072533876e-03 1.144014158730062430e-01 -7.382491979583886144e-01 9.862847559049549018e-01 1.132172111037248879e-01 -1.201009716005579514e-01
2.383684490021466262e-02 -1.848124546280304203e-01 -8.299308402271404761e-01 -9.861981247865975186e-01 -1.152688197655739044e-01 1.188543556511498372e-01
2.049172373615992804e-02 -9.615480883512435295e-02 -7.519166546457236588e-01 9.859949009544123344e-01 1.275705173101645551e-01 -1.074235467908012803e-01
2.127292226593029308e-03 -1.439294037220894829e-01 -9.774212406270293974e-01 -9.873120665616874625e-01 -1.171854483111696849e-01 1.071562127260933389e-01
1.266618078559943357e-02 -3.747352117399985194e-02 -7.571886172938198101e-01 9.878633445763194132e-01 1.207538608396453855e-01 -9.769604666928689840e-02
1.885461967880575074e-02 -1.473243415812715007e-01 -8.334522666473334063e-01 -9.841999247453447897e-01 -1.358840767802471927e-01 1.135166323004589417e-01
-5.379842031315238728e-03 1.542443012970013128e-01 -7.069301569966884857e-01 9.855332102569075436e-01 1.288344510739183879e-01 -1.101180080513448067e-01
5.469589499231586154e-03 5.572093659509858715e-02 -7.189039638491216966e-01 9.873594128020487526e-01 1.142135027362097821e-01 -1.098938840150761320e-01
-1.542893758694959330e-03 5.905313270862527775e-02 -7.878442844707423953e-01 -9.843231095508880868e-01 -1.282860044520877651e-01 1.210401465043275254e-01
3.315256599944778061e-05 -1.930946267847762424e-02 -8.486531129214696101e-01 9.859048254877509354e-01 1.295497647675999120e-01 -1.058703618990072814e-01
1.755342706761072640e-03 -7.878354669483229877e-02 -9.206903404234341171e-01 -4.243876381378080542e-01 2.579988977693228325e-01 8.679468309439394291e-01
1.466953076298373442e-03 8.541332020935656077e-02 -7.216774736242422827e-01 9.871225557838233522e-01 1.121979836464318814e-01 -1.140204908272516304e-01
1.234034863091373196e-02 2.925212460805546796e-02 -6.869566232096895320e-01 9.879017543952969271e-01 1.133087593704616841e-01 -1.058831842769248355e-01
-6.087599288905776000e-03 -9.255516147611211886e-02 -9.938434393281357915e-01 -9.861254203329826717e-01 -1.285432764052654164e-01 1.050394281405682140e-01
2.154308257233708557e-02 -1.430059293324775771e-01 -7.933319669661008655e-01 9.858980772444775331e-01 1.239465784491904227e-01 -1.124376581772355554e-01
6.106975803974779710e-03 -5.400559213023857497e-02 -8.219350370287248353e-01 9.303976159828046821e-01 -1.898497235192782642e-02 -3.660598953700199831e-01
-4.641839815928108098e-03 1.054293659178284215e-01 -7.541114853621372349e-01 9.882883104076395364e-01 1.142939404487534200e-01 -1.011093996041401849e-01
-1.320891350659549913e-02 1.116341519976887520e-01 -8.338962127908623456e-01 -9.870395766538309079e-01 -1.260411091370454428e-01 9.933032229148054670e-02
2.751662816137830786e-02 -1.804869568326291085e-01 -7.959946440123863987e-01 -7.410151268454221452e-01 6.447903495015129272e-01 1.874619614107878585e-01
-2.346894616468456554e-02 3.510800374789965067e-02 -1.008071700409110871e+00 -9.871725473934732653e-01 -1.163082818282949876e-01 1.093743354303479826e-01
1.568237872120945356e-02 -7.888569979794615716e-02 -7.866984009802030497e-01 -9.875288440972983528e-01 -1.116683709436622624e-01 1.109817868239746097e-01
6.772802227326044783e-03 -1.049358014417088591e-02 -7.796399728184688627e-01 9.856446782525494221e-01 1.251817873901252542e-01 -1.132876354164103622e-01
-1.078634939092943008e-02 2.065669640114874139e-01 -7.084497085732056609e-01 -9.881691329594285422e-01 -1.033809343817522208e-01 1.132878946426623262e-01
1.124624215415680889e-02 -1.643244943212903708e-01 -9.269163566798774845e-01 -3.181541179009440556e-01 4.092163557200308444e-01 -8.551724571534619068e-01
2.529712850856915760e-02 -1.645513104126596626e-01 -7.839941423809059229e-01 9.872687429606399334e-01 1.092979280447382434e-01 -1.155612049869897823e-01
-1.077489303810789077e-02 7.744278424522796356e-02 -8.388271320686769839e-01 9.747684330941487341e-01 1.984234041180552022e-01 -1.022480050728662437e-01
3.364547854398921428e-02 -1.822643243134873248e-01 -7.403946392241448349e-01 -9.874382125042807656e-01 -1.184737481590690672e-01 1.045454326285563396e-01
5.344304398584824242e-03 -1.619725795363947674e-01 -9.573749507399301750e-01 9.856201983553972701e-01 1.296518983687978688e-01 -1.083660917595262313e-01
1.688510256419300040e-02 -1.628096888160090738e-01 -8.563799604680767397e-01 9.882442498659863572e-01 1.130342062567594036e-01 -1.029396465056987425e-01
1.004966151039717731e-02 -1.922459359915500987e-01 -9.599897608129387416e-01 -9.960115929133994683e-01 -4.240795932788350708e-02 7.850141252077609544e-02
-1.865509798596862862e-02 1.683480935459615857e-01 -8.089881600660667749e-01 9.858196570943515979e-01 1.222400955102915521e-01 -1.149650500630947925e-01
2.821403237794715014e-03 -1.917938584906383470e-01 -1.023423015647618284e+00 -9.849921869088794635e-01 -1.276308576379982240e-01 1.161927532467148805e-01
2.905166730923473828e-02 -1.803098804729084126e-01 -7.834191742445170137e-01 -8.583062495845548145e-01 -5.126074999519407704e-01 -2.332236945760106719e-02
8.211052702327553687e-03 -1.043676149844390694e-01 -9.136188601538943743e-01 -4.779466232081465149e-01 -3.763838994375001135e-01 7.936637736523899367e-01
-1.620264970646760963e-02 4.326063021822734375e-03 -9.664607576501782482e-01 9.872050991998863045e-01 1.105590834464515726e-01 -1.149033558309897618e-01
7.359964057062474627e-03 6.824489296524273441e-02 -6.879354290840622443e-01 9.862955028221721543e-01 1.208142440097727671e-01 -1.123614682936514564e-01
1.306853044031781007e-02 1.031645994502593212e-03 -7.113581967840276743e-01 9.838890861612696881e-01 1.324306591777245634e-01 -1.201015680267952801e-01
-1.548546637030231120e-02 1.103354541826133961e-01 -8.553360399185991891e-01 -9.868332671760317032e-01 -1.272159542446782143e-01 9.988094803462035931e-02
-1.434753232537410968e-03 6.313055450698959459e-02 -7.996380159297382662e-01 -9.441616248150414004e-01 -1.566024942399726338e-01 2.898870211383052231e-01
3.782324363773287203e-03 -1.169440966625278355e-01 -9.331538166353862129e-01 -9.865818872894049907e-01 -1.265095333746931727e-01 1.032061899199507859e-01
3.519257090654044628e-02 -2.112614367264508131e-01 -7.583180140189494933e-01 -9.854010013872459561e-01 -1.311198534241101998e-01 1.085930499758283874e-01
1.829202925464787355e-02 -2.112934741203967570e-01 -9.081161104925365990e-01 -9.864954570974281411e-01 -1.282415053766265967e-01 1.018863554401319010e-01
-1.150172891795783574e-03 -9.858150522844420782e-02 -9.457083194312850827e-01 9.856844376389782836e-01 1.307617118416168345e-01 -1.064310298389555404e-01
4.833694732762070997e-03 -1.733849920260374100e-01 -9.746627926245360340e-01 9.874124559469003026e-01 1.257173240295725858e-01 -9.597810312646186393e-02
-5.441092011938536768e-03 7.843486552235877374e-02 -7.904182254841903843e-01 9.858614487986665509e-01 1.258928367692258299e-01 -1.105811802378287578e-01
-1.122028345081129731e-02 -6.221677660460205039e-02 -9.949100555424216230e-01 9.849121841601223837e-01 1.294242487569083611e-01 -1.148797341860041260e-01
-2.424266450217653357e-02 1.790773111715517341e-01 -8.466603602686447738e-01 9.872576633420381276e-01 1.248147628966057715e-01 -9.870957975537669737e-02
-2.785738825267599500e-02 2.317518431419103853e-01 -8.211303933453150128e-01 9.848932029195438531e-01 1.309846539391084641e-01 -1.132625237019456305e-01
-2.310709293627800573e-02 2.207581273922210874e-01 -8.019285647143494788e-01 -9.870496643199184739e-01 -1.121343354301729822e-01 1.147120350424035845e-01
2.933249422579602833e-02 -1.614411729154170416e-01 -7.557256541197691080e-01 -9.854343585797732397e-01 -1.264813044483208693e-01 1.136732358804034143e-01
-2.446705622315042961e-02 1.632100923545223292e-01 -8.662401062382432126e-01 9.846086236443282180e-01 1.311543901101214216e-01 -1.155178955835988452e-01
-2.659398543477874480e-02 2.556040195357777711e-01 -7.952225812345493638e-01 -9.904291600370133120e-01 -1.025186121852662557e-01 9.241219131685622645e-02
-4.786233437221905362e-03 1.350551549207746060e-01 -7.337597293324167325e-01 -9.859839272558558187e-01 -1.136851415425474132e-01 1.221121770568779907e-01
1.292556910076931263e-02 -1.338656460230283445e-02 -7.390470262403748825e-01 -9.881980071721168102e-01 -1.159514758579954369e-01 1.000997196170366199e-01
-1.089382580261074110e-02 -9.901367510882844170e-02 -1.032586558274956712e+00 9.861230771435971487e-01 1.182927692585931806e-01 -1.164821766021584271e-01
1.522088971025390043e-02 -9.928886283559149040e-02 -8.272520150595487065e-01 -9.767154503481844108e-01 -2.139321141619210387e-01 -1.612388232883112116e-02
1.733726252174944485e-02 -8.044380106967286004e-02 -7.626220041939923977e-01 9.866440486490662964e-01 1.192217067317095230e-01 -1.109941706097971048e-01
-2.207003625830851815e-02 2.149124524068471709e-01 -7.884303197376265615e-01 9.859873345369697395e-01 1.049653580823421556e-01 -1.296582035018502554e-01
-1.815419369616600755e-04 -1.998140452958525187e-02 -8.513171939518880960e-01 9.960115929133994683e-01 4.240795932788350708e-02 -7.850141252077609544e-02
3.937463395702703881e-04 -2.800918246649530818e-02 -8.550694918809189637e-01 9.863936674945871230e-01 1.268482764118972206e-01 -1.045803399206016587e-01
2.652259459039829972e-02 -1.560568283858514704e-01 -7.748039056040703088e-01 -9.860783198394663662e-01 -1.256542211983846802e-01 1.089062157895599875e-01
-7.728002249426796366e-03 -1.540431865510956053e-02 -9.346890051718313996e-01 -9.449954576524941530e-01 -3.182065838683006409e-01 -7.568457570086108144e-02
-1.692662162368090834e-02 2.079414487639853759e-01 -7.507928343745706723e-01 9.861110946916251674e-01 1.181034665403185024e-01 -1.167753403644977844e-01
-1.221709842570565564e-02 -1.963893202017033546e-02 -9.573529514166422283e-01 9.860772742169653382e-01 1.229279876371630470e-01 -1.119835663314810992e-01
1.299121324106748861e-02 2.572806710978385938e-02 -6.846551840451093884e-01 9.879017543952969271e-01 1.133087593704616841e-01 -1.058831842769248355e-01
-2.570783559482352904e-02 3.575921714589905265e-02 -1.016180032106308806e+00 9.851315254131985943e-01 1.279499209333707643e-01 -1.146503177937529538e-01
-6.883654525119957401e-03 -8.125134959967075798e-02 -9.675813497876616376e-01 5.523931259237856439e-01 -1.325114580155802302e-01 -8.229839293247067644e-01
-1.564917715234228138e-02 1.175818620366113620e-01 -8.378355164217532458e-01 9.838906526267429120e-01 1.341174810359684055e-01 -1.182018821943557479e-01
-1.157042660245624979e-02 9.801853310461328128e-02 -8.341217846186005369e-01 -9.853547486972216163e-01 -1.167815625902210996e-01 1.242500939992455533e-01
2.980721395734224448e-03 -1.261585014134867511e-01 -9.090001313316271592e-01 4.362571758658395638e-01 4.276837255543659566e-01 -7.916857377782546834e-01
2.260140892967894832e-02 -1.370191882920831772e-01 -7.889035832441436691e-01 -9.879088345849368347e-01 -1.060043411125558416e-01 1.131336122216767409e-01
3.471689987862273345e-03 -1.550807301679725525e-01 -9.665032943923368425e-01 9.863992784485934306e-01 1.241680987553331061e-01 -1.076974778143852951e-01
-2.010408949645926813e-02 5.455575723727319748e-02 -9.571835973411876308e-01 -9.859761167056643183e-01 -1.182530337410496873e-01 1.177595741205635926e-01
1.613535367645132015e-02 -1.500339619220308340e-01 -8.489834225053536354e-01 9.862671297496964362e-01 1.180770411730618780e-01 -1.154771021593047897e-01
1.750662613656609606e-02 -2.192296905378577632e-01 -9.743573795986456565e-01 -6.411957170437678766e-01 -3.647330363549322607e-01 6.751576590960367552e-01
5.556115369418567276e-03 -1.976745224456579464e-01 -9.946184548069068043e-01 9.863298139593354996e-01 1.244622897591943639e-01 -1.079936874212597403e-01
-2.328311789812687049e-02 1.369193177880219381e-01 -8.950171476624113609e-01 -9.846455921201556771e-01 -1.334153979468178097e-01 1.125761498233080193e-01
-2.285174741822137631e-02 4.682760766793472862e-02 -9.901788016105327328e-01 -9.892258323892988425e-01 -1.044993384670671599e-01 1.025287315519116671e-01
-1.379091057457100707e-02 1.234432352198856497e-01 -7.960355899837593396e-01 3.515782382869093170e-01 3.613688877973338376e-01 -8.636001790731582251e-01
1.663275742155280457e-02 -2.152274565514912530e-01 -9.267521455342215830e-01 -9.849280532380700892e-01 -1.355647244483284553e-01 1.074194369279317524e-01
-1.802810539642199505e-02 2.017309341468363493e-01 -7.783514884079882901e-01 -9.881818300093391239e-01 -1.210238558574988771e-01 9.407389198272265995e-02
-2.555577494120684495e-02 2.660982706363707040e-01 -7.656786037491362107e-01 6.626799310817065025e-02 -9.939564967313612165e-01 -8.751591680908639426e-02
1.208774208390576976e-02 -2.308957350660706051e-02 -7.461001682737934404e-01 9.856796966351296652e-01 1.369049970637175873e-01 -9.845078679351418338e-02
1.597415223836210624e-02 -2.292614497432574339e-01 -9.615735366389601690e-01 -3.987744396652970758e-01 4.816458324893043152e-01 -7.803821104531503128e-01
9.969344058224660979e-03 -7.251285184540146034e-02 -8.301000810559935328e-01 -9.846275866231575247e-01 -1.266489332409187207e-01 1.202853414576926100e-01
-1.670277380224877584e-03 -7.800180092337068161e-02 -9.278764347729182571e-01 9.875171644905522683e-01 1.163103419504342845e-01 -1.062156023939616195e-01
-2.216272101150311685e-03 -3.401776827042302803e-02 -8.955886833776991462e-01 -9.853936232951935326e-01 -1.289051625596257522e-01 1.112783277850920294e-01
-1.408313158928747562e-03 1.517165687846936117e-01 -6.746023342341178619e-01 9.870438654296608272e-01 1.169193905782818232e-01 -1.098829551135045157e-01
2.862813243515189773e-02 -1.724134534964012755e-01 -7.743254737402673893e-01 -9.851349271842528843e-01 -1.301273834889976611e-01 1.121429414095412996e-01
-1.575910603695063195e-02 2.269054323745927498e-02 -9.537015150724394985e-01 -9.858438748232792870e-01 -1.274910153805301483e-01 1.088939643445120953e-01
-1.797128361553769135e-02 1.334067617169582554e-01 -8.411835849487375727e-01 9.844666470332840147e-01 1.208470762372799850e-01 -1.273632798099368912e-01
1.103258289079470621e-02 1.681296194975236830e-02 -7.120884650166409147e-01 9.853431245614836520e-01 1.192465006883745293e-01 -1.219803219908441455e-01
3.008493426890648109e-02 -1.741165845433332859e-01 -7.632574821688006272e-01 -9.864515119076520122e-01 -1.168008359933923601e-01 1.151997368328231686e-01
-6.417452536034660808e-03 1.529414129604748096e-01 -7.288582485050049131e-01 -9.878496244090304579e-01 -1.136773721161947470e-01 1.059744055123378048e-01
-4.348091799984858739e-04 1.143280508968275572e-01 -7.180090170355284407e-01 -9.844102537270332798e-01 -1.268441107720931493e-01 1.218483644515382797e-01
-5.813528927839789473e-03 -8.901683552701353946e-03 -9.002869803381671199e-01 -9.856986827906361048e-01 -1.269230498367500404e-01 1.108541662047153042e-01
9.840543141471135360e-03 -1.577219938778708364e-01 -9.133486904229788372e-01 9.864967614419434261e-01 1.208301596871323713e-01 -1.105631592101975064e-01
