4.259166337222863169e-02 4.206584004885734890e-02 -1.050266044778229269e+00 9.597772530675379166e-01 -7.906069345237261292e-02 2.694012458118207332e-01
-3.319655674603625567e-02 1.026277032677920115e-01 -7.425813688971630855e-01 -9.592977765761678821e-01 5.455263747265341051e-02 -2.770772195630627488e-01
-1.442663062454388641e-02 1.045685973151419534e-01 -8.129136840040298573e-01 -9.665784804676940123e-01 6.122135224678117854e-02 -2.489537851205301244e-01
4.650691815136234752e-02 -6.137147922049195070e-02 -1.088832885910384851e+00 -9.624291043169719284e-01 7.623020600635510569e-02 -2.606130749902232924e-01
2.981409524327226571e-02 -1.017773671266748725e-01 -1.037187077113899791e+00 -9.665077085482512986e-01 6.391680569213289975e-02 -2.485507820686197744e-01
3.366928882720489347e-02 -4.997496690612571180e-02 -1.042222459869772466e+00 9.740893060330925168e-01 -3.053793744123042830e-02 2.240925216262327491e-01
-4.036599384431361487e-02 -1.692314047409414213e-01 -7.958905107271235790e-01 9.654941000165361276e-01 -6.323054177497508532e-02 2.526322256168087588e-01
2.234293309174551975e-02 4.872218969970010249e-02 -9.720464466386745661e-01 9.639055336207575930e-01 -6.148315625027585968e-02 2.590481494872851065e-01
7.475139006433500436e-04 -1.601455233057579863e-01 -9.435882312423830021e-01 -9.650595409593625273e-01 6.634185460788191713e-02 -2.534932755133578741e-01
-2.546648411411812224e-02 -1.731865043374382074e-01 -8.532301445160204167e-01 9.661141044536296629e-01 -6.679075995936654964e-02 2.493241495720204259e-01
-1.891703017072826273e-02 -2.048657229607319871e-02 -8.354847924214799937e-01 9.601153733951273139e-01 -5.589320417127659896e-02 2.739606166911645047e-01
-1.931279591176127478e-02 1.546632292315843760e-01 -7.852763029321004895e-01 9.627470478173105750e-01 -7.922223629034795545e-02 2.585381194257610482e-01
9.634674823833681151e-03 -6.289167083582683504e-02 -9.549806397983000572e-01 9.632710357729039607e-01 -7.291253653568997850e-02 2.584427860415695055e-01
-1.956869371148782163e-02 -1.095913304546664857e-01 -8.529191885756766123e-01 -9.641000712078849899e-01 6.894607447523273813e-02 -2.564322357103466232e-01
-2.560786021765715584e-02 -1.946390718173268419e-01 -8.585286189542035151e-01 9.632763217493909291e-01 -8.078945523924463412e-02 2.560698964718619020e-01
2.332115230618605692e-02 -2.149311624297670364e-01 -1.048743463575389168e+00 9.645424102568792568e-01 -6.654605536281447964e-02 2.554007856908424023e-01
1.190025614352527294e-02 1.481847745380094339e-01 -9.000794045557201084e-01 -9.634680263508683673e-01 8.243992124658276743e-02 -2.548195863437890951e-01
-2.459631370271443684e-02 -8.015416443634572341e-02 -8.305101076097066715e-01 9.641026097045753973e-01 -6.886590446775255059e-02 2.564442340210934534e-01
5.371370783145494078e-03 2.380226681262470334e-01 -8.553277372938017376e-01 9.635618899022811989e-01 -7.267993543686177005e-02 2.574220490028737429e-01
-2.140091562120959370e-02 1.469898030072966932e-01 -7.749017382583875957e-01 -9.621000143053196618e-01 8.242860672491868212e-02 -2.599405456389837221e-01
4.906223211902883616e-03 -3.721131332046435924e-02 -9.248284243785951375e-01 9.188844886720585678e-03 3.141291549985040787e-01 -9.493357883855291224e-01
3.629961710031628930e-02 -7.649937921117168360e-02 -1.054510345843173935e+00 -9.653654783177126886e-01 6.420682140149659711e-02 -2.528773959015123141e-01
4.472463884109295629e-02 6.174512181143102657e-02 -1.048042305208218616e+00 -9.651518902263911404e-01 7.883423421148287591e-02 -2.495335494652241581e-01
-3.277198016146846971e-02 -1.917869102869504405e-01 -8.307428027909126156e-01 9.617656410808409495e-01 -8.391015641454341312e-02 2.607027757559286507e-01
1.621725352809072485e-02 -2.558499669435574785e-03 -9.630893934218589525e-01 9.644285163685847317e-01 -8.131914784584259870e-02 2.515250146778972851e-01
3.880366469093321502e-02 -2.865552322858049353e-02 -1.047701465848463576e+00 -9.328996851155109127e-01 2.935977119167375582e-01 -2.085630865437050618e-01
-9.134306741069570315e-03 -4.965574006559712178e-02 -8.757015155578540266e-01 -9.638556980175048139e-01 6.710916338532542380e-02 -2.578343530038428866e-01
4.926225726796031046e-02 -1.186943742453583778e-01 -1.115863984284767962e+00 -2.114215144371432431e-01 1.050970876417076372e-01 9.717281231920460449e-01
3.958577703532135256e-02 -1.594089006766619687e-01 -1.090055728277216973e+00 -9.634225252327498490e-01 7.405743351064085489e-02 -2.575510326439570119e-01
-2.612147970768662932e-03 1.710862503676199298e-01 -8.497215098568935421e-01 8.213648239668369655e-01 3.616742065186070443e-01 -4.410800316145166988e-01
4.551794578241454350e-03 -1.151220681028598258e-01 -9.503046379143362810e-01 9.663536965687467006e-01 -7.789810386115944563e-02 2.451375502503739534e-01
-2.788103383128852017e-02 -1.896094342424272106e-01 -8.438287356691162033e-01 -9.652918392667149128e-01 7.737313180016193448e-02 -2.494495209867464147e-01
1.985493784800805139e-04 -1.592837082365266832e-01 -9.460870142662829441e-01 9.648002754112302570e-01 -6.741774706594702571e-02 2.541953499711707698e-01
2.273243539287782972e-02 -2.111779439168454467e-02 -9.972928350114061979e-01 7.233606335696847189e-01 -2.298729649829169691e-02 6.900876596501084315e-01
-1.412347214337978003e-02 2.001655339043675874e-01 -7.923596276990173548e-01 9.637656765175917073e-01 -7.705700964208926640e-02 2.553780296572278341e-01
-1.907155097256064621e-02 -2.907866279821183161e-02 -8.372297617670044767e-01 9.644715435179592733e-01 -6.899895347439249926e-02 2.550172271897011012e-01
-2.367991351733115049e-02 -1.931613387571694263e-01 -8.605447380869162277e-01 -9.632087317757623834e-01 8.153248030176329930e-02 -2.560886441972193839e-01
-7.503403543822325349e-03 -9.816999768515412284e-02 -9.002396807754979857e-01 9.635022911564393722e-01 -7.174795341642489777e-02 2.579061188045882469e-01
8.791053032609366658e-03 -1.125447122339852252e-01 -9.607082072820032348e-01 -9.476251848754511098e-01 3.875610584794953600e-02 -3.170244048165213879e-01
-2.599730254919547894e-03 -9.317630759906520010e-02 -9.171345387572336083e-01 9.663383736546661273e-01 -7.121016327865802020e-02 2.472230981285558349e-01
2.565100322093865487e-02 -2.191028003256589030e-01 -1.058808590051565135e+00 9.642519143590733144e-01 -6.284832287963845743e-02 2.574263661051043872e-01
-3.196546242440044538e-02 -1.086257447057681208e-01 -8.059493019590325824e-01 -9.626052077352069691e-01 8.732187361434358419e-02 -2.564490289112824617e-01
3.242443671906307390e-02 9.940639497385395096e-02 -9.960144649112662174e-01 9.627266826764957486e-01 -6.151113879010992186e-02 2.633889030833562739e-01
-3.645774643449094937e-02 -2.388629425379898419e-02 -7.654733384049192679e-01 -9.657404407599158302e-01 6.865151022047720486e-02 -2.502646024216994003e-01
-9.668149021941081778e-03 6.055007891408002718e-02 -8.430134201750564271e-01 -9.640179413171755529e-01 6.939286341567336980e-02 -2.566204187619691157e-01
2.903520563069434193e-02 1.811076623849557782e-02 -1.000977061838616899e+00 -9.638953823318193725e-01 6.360950387016624241e-02 -2.585720846046356547e-01
1.419213636470657673e-02 1.954324351627723111e-02 -9.445227648355052352e-01 -9.646236849283743586e-01 6.319192555878488937e-02 -2.559451640867185240e-01
1.402710827392567028e-02 2.463570027786414485e-01 -8.857055535927236267e-01 9.677947550188983339e-01 -5.966766979544977506e-02 2.445671305369792048e-01
2.118633735561844741e-02 1.265421613578560922e-01 -9.460008496458290894e-01 9.675372334997910384e-01 -6.425975491815225094e-02 2.444225556069445915e-01
-1.845327510546336189e-02 3.116766810147008140e-02 -8.227873815212344288e-01 9.626650248318420200e-01 -7.226650610089420390e-02 2.608708532233496302e-01
-2.979665800679316082e-04 -1.570270198634761416e-01 -9.388054368353819790e-01 -9.651934276821204639e-01 6.431379046386555276e-02 -2.535061804284252651e-01
4.303554897628512552e-03 -8.830508733683659073e-02 -9.419708333069019002e-01 9.666493638368640617e-01 -5.382315995318340957e-02 2.503838550035524801e-01
-2.733550097029270251e-02 -1.466228472351191747e-01 -8.339677114832215743e-01 -9.667381748895279570e-01 8.409298734164616373e-02 -2.415484851768315566e-01
-1.344217213334455464e-02 -2.246511391498399457e-01 -9.126872482293867384e-01 9.665334949596889880e-01 -7.535635138907455233e-02 2.452232114346745706e-01
-3.828000954713632175e-04 -1.735820762600896044e-02 -9.045356689755560398e-01 9.664848788683380043e-01 -6.176551235729848405e-02 2.491826647303024278e-01
-4.026355808347542586e-02 -3.232845496277966801e-02 -7.581052428408817656e-01 9.641924239372028360e-01 -6.196455791667337953e-02 2.578630706097571057e-01
-7.121763802091556940e-03 -7.034061536076113841e-02 -8.889957873934679622e-01 -9.634390917824605660e-01 6.751710444281838752e-02 -2.592808458661094440e-01
3.026041232763933969e-02 2.408789030633006964e-02 -1.003869834489118595e+00 -9.645279665476118591e-01 7.932225107925516827e-02 -2.517812189803851908e-01
-3.890626597477746251e-02 -6.266732948250262891e-02 -7.717004942423778546e-01 9.660920365234864082e-01 -7.056479509217933321e-02 2.483682480904138012e-01
1.071273901187548387e-02 1.546790217593674854e-01 -8.986501392607024741e-01 9.694012658143618122e-01 -7.374673351843882840e-02 2.341422754072256252e-01
-8.013793072112702920e-03 -1.819866181803263261e-01 -9.240895601103433776e-01 2.995342446175064954e-01 2.849672337164598224e-01 9.105344101182604177e-01
3.850124382186997929e-02 -1.216767988019978042e-01 -1.075562311744538535e+00 -9.638338384266778025e-01 7.024736086675284485e-02 -2.570790543684040586e-01
-8.782022095031778025e-03 -1.571716541019431423e-01 -9.068190546842884725e-01 -9.625358881955738966e-01 6.083665335480468311e-02 -2.642414909588293170e-01
1.677970389649314012e-02 1.821584036998911693e-01 -9.049893835345421689e-01 -9.726090482297173878e-01 2.308017919112640703e-01 -2.760746551628597695e-02
-3.475232017037155341e-02 -6.247990015561310367e-02 -7.916153610522396189e-01 7.934834337943634797e-01 -5.637347065978520755e-01 2.293190373059759701e-01
2.841392497631230196e-02 -6.874635508977902654e-02 -1.022823529066574588e+00 -9.626569251807292060e-01 6.483895748933908576e-02 -2.628451140753424453e-01
1.614269433310436611e-02 -1.464528576752369138e-01 -9.920737497190029730e-01 -4.548649159896909211e-01 -4.085240029609205070e-01 7.913318186490907458e-01
-2.305918961552026053e-02 -2.044480237564223479e-01 -8.659664228300205657e-01 -9.657995500756202389e-01 7.045770864743690354e-02 -2.495334453853481349e-01
1.351760583963421136e-02 2.475952796880608875e-01 -8.787796804530862982e-01 -9.664702412054619884e-01 6.739560291234324152e-02 -2.477763216539019264e-01
-2.424440739452692756e-02 -1.897196980442353575e-01 -8.622245294216337452e-01 9.637334451238487310e-01 -6.132572824216846186e-02 2.597248578886615089e-01
4.236512328648829942e-03 -3.963675389362676660e-02 -9.234653415394172837e-01 -9.672933359644493301e-01 6.305521862558073620e-02 -2.456982735040014743e-01
-1.695967195863718260e-02 5.345380638045674204e-02 -8.173848903867065863e-01 -9.685065797737454352e-01 5.365880836851749658e-02 -2.431372806038436807e-01
4.015174841100233732e-02 3.917000430341888856e-02 -1.041962211518141945e+00 9.648985481911247497e-01 -7.057251785679116707e-02 2.529630633551316343e-01
2.952389440053644620e-02 -1.804443849258426658e-01 -1.052797853099755265e+00 -9.177379096063629227e-01 -7.079348699936911793e-02 -3.908265746719548628e-01
-2.491366596730041488e-02 -1.700433112285694090e-02 -8.119540980328043833e-01 9.643714878688347536e-01 -8.334776907566870952e-02 2.510792360506126086e-01
8.832448589674102638e-03 -1.153755044055040785e-01 -9.616740380441264335e-01 -9.458979479960628600e-01 1.488404845924182207e-01 -2.883116059459481240e-01
1.946706774941455234e-02 1.158674858699696442e-01 -9.376204582640168539e-01 -9.618813418813219052e-01 7.783513511311031252e-02 -2.621563958451352261e-01
-2.131460801656908516e-02 -1.106712638835705281e-01 -8.514033585531389781e-01 9.640732609302663514e-01 -6.992910057905098176e-02 2.562667915503053506e-01
6.501412131441011537e-03 -1.313104402943245097e-01 -9.706678156787101885e-01 5.825592869425522125e-01 1.964777308002819134e-01 -7.886831927311226398e-01
-9.335280236675013192e-04 -6.842551536918307920e-02 -9.118114955675934441e-01 -9.629570570856040845e-01 6.898065339307293820e-02 -2.606825189123680442e-01
4.197342082603993524e-02 -8.654650019825943508e-02 -1.083516549170103094e+00 9.619299502762114207e-01 -6.900746280846861702e-02 2.644404296592017811e-01
2.424051674009588056e-02 1.705948215431746517e-01 -9.404166307558562421e-01 -9.611562569716134430e-01 8.143471426427641158e-02 -2.637177221898695523e-01
-4.712326745090236984e-04 9.766664111590701858e-02 -8.822004984490336987e-01 5.193869163740533201e-01 -2.952628713039414099e-01 8.019083912323180519e-01
-3.214286310645924575e-03 -8.599375344113703579e-02 -9.128578053198544984e-01 9.635556569274490446e-01 -7.170879579131064774e-02 2.577175675216420436e-01
4.047034185985914738e-03 -2.302780710741180459e-01 -9.802751501848414595e-01 9.666173094108627684e-01 -5.740606764282880220e-02 2.497108739023817803e-01
-3.411794293550833579e-02 -1.427114255508266649e-01 -8.071707112524193484e-01 -9.666300275087720273e-01 7.131925541847493333e-02 -2.460486816159455359e-01
3.781657553932776111e-02 -9.411862891816405452e-02 -1.065124878978575440e+00 -9.680896569296600918e-01 6.653558917957980157e-02 -2.416100815742980301e-01
-6.571962492901849313e-03 -1.345776176692214943e-01 -9.138344542216222388e-01 9.614947268517821666e-01 -6.135415976348210926e-02 2.678872100641124798e-01
-1.001308870524751302e-02 -6.940422518149601261e-02 -8.779428225916388051e-01 -9.636552629823168514e-01 6.725327114099476089e-02 -2.585450282780881737e-01
-7.536676489140764316e-03 -1.667285795921266967e-01 -9.189166142036088170e-01 9.624707254143259894e-01 -6.191038945361685558e-02 2.642294578545752448e-01
-3.629035929035030750e-02 -4.027672820724946534e-02 -7.705967404023552625e-01 -9.645854890416954985e-01 5.816093722436774249e-02 -2.572783312122809973e-01
3.607136953575001970e-02 8.790046792425976196e-02 -1.007978195460071946e+00 -9.611203664200644869e-01 7.416994476614523213e-02 -2.659820680909675272e-01
3.421728522231540226e-02 2.639245083963451949e-02 -1.018277455969449408e+00 -9.646589931637185034e-01 7.678714930952090789e-02 -2.520649928277986507e-01
3.763729210092005978e-02 8.102261047602736521e-02 -1.015928887214526011e+00 -9.662266487607837906e-01 7.489661576193581971e-02 -2.465695848475920604e-01
1.429600031898472200e-02 -1.564447507316613639e-01 -1.007062034289184504e+00 8.265093629879762815e-01 -1.617122571578853418e-01 -5.391951583407547099e-01
-1.960896638730818056e-02 -1.334966084976956791e-01 -8.592526379871380238e-01 -9.645196071379913416e-01 6.992279909368702417e-02 -2.545834433212003645e-01
-2.243730874513785375e-02 -5.432579976013523354e-02 -8.235394128152603299e-01 -8.527234601336636244e-01 8.475191492655140268e-02 -5.154413773204038485e-01
4.432516048937555457e-03 8.420445191735526080e-02 -8.944881469383709760e-01 9.649983577792582423e-01 -6.394121325971531544e-02 2.543416810713697296e-01
4.040782218908437612e-02 -7.923159284728067964e-02 -1.075665415441947159e+00 9.648989817467905628e-01 -6.623668096442592024e-02 2.541311809259609866e-01
1.493118063104808407e-02 1.515311243026728483e-01 -9.107312634007708185e-01 -9.680346144097207173e-01 5.862303076264769458e-02 -2.438694847020123624e-01
1.367102914111258116e-02 1.800541897508945721e-01 -9.027609120650225139e-01 9.662249400511990771e-01 -1.855183486606499510e-01 1.788639358095486520e-01
-1.588278831616429451e-02 1.267891378693191684e-01 -8.060295874847122066e-01 9.617641935829085442e-01 -7.910895830436606713e-02 2.622048982338346379e-01
-1.562175483849337701e-02 -1.622775020387659251e-01 -8.872084760979688234e-01 9.612501539642589465e-01 -7.691896489411866045e-02 2.647293227870796684e-01
3.593686181737317659e-02 -9.323510291687124585e-02 -1.057872094805386132e+00 -9.625626461935106182e-01 6.689146906543573523e-02 -2.626760048409720327e-01
1.485217714381029466e-02 1.567425675159900833e-01 -9.089002571191504565e-01 -9.622959623855753541e-01 6.897176604717007720e-02 -2.631147587360954110e-01
-1.576304288658205224e-02 4.313839928610239266e-02 -8.247881814101105657e-01 -9.458979479960628600e-01 1.488404845924182207e-01 -2.883116059459481240e-01
2.807644082275869216e-02 -6.534651548698201806e-02 -1.020484906074140774e+00 -9.648289590067168353e-01 7.574184803002195765e-02 -2.517305152718122274e-01
-1.090955961111881277e-02 -1.538342050124114346e-01 -8.978499185176844755e-01 -9.649688744663208473e-01 7.404031599108801265e-02 -2.517004229617852973e-01
7.427052498194653893e-03 -1.998782572506734856e-01 -1.001727534409724063e+00 7.605410506972620777e-01 3.849013601350727010e-01 -5.229036748488921083e-01
3.367128089596847090e-02 -1.738546363556964514e-01 -1.076514295501548535e+00 9.634637150791487414e-01 -6.352151503616940142e-02 2.601973997821552809e-01
-2.920005012396454866e-02 7.818995420449652289e-02 -7.643036894859567276e-01 -9.588021897323852905e-01 8.556663480174184211e-02 -2.708813614353868249e-01
3.352647912285756926e-02 -1.612161543070321779e-01 -1.064201881730501453e+00 -9.423677307523747881e-01 2.984813660883790520e-01 -1.511685619916878498e-01
-9.911927505196012692e-03 9.510814260433729517e-02 -8.397967452470307403e-01 5.226125980032031437e-01 -8.361955841765114084e-01 1.662919643640216050e-01
-1.931212569791024986e-03 1.266216824925177897e-01 -8.586573476761533152e-01 9.670325758664660709e-01 -6.982297068837041432e-02 2.448933440853764409e-01
-1.763398919183082475e-02 -1.931667711199496484e-01 -8.833796347131950277e-01 -9.665345032642016498e-01 6.417621756968566737e-02 -2.483796833444141539e-01
-2.271082720581135000e-02 -3.677965431671210289e-02 -8.207107624314796679e-01 -9.646774737749268525e-01 7.100456931373887171e-02 -2.536842973614955032e-01
-1.943976070169274942e-02 -1.945639178164361160e-01 -8.770923369840978312e-01 -9.604688363993831857e-01 8.158401414182572808e-02 -2.661647289595693855e-01
2.492855191180899307e-02 -2.231084705712229888e-01 -1.022160074757232806e+00 -9.781481963082893083e-01 -9.537339311422989019e-02 1.847431242149995823e-01
-1.033433453805317377e-02 6.492256802385798498e-02 -8.393214542467360983e-01 -9.638993099609216575e-01 7.074809623112847390e-02 -2.566959819251755648e-01
-8.454594613983516110e-03 2.992084405078400747e-02 -8.561403921472241496e-01 -9.647547641913264416e-01 8.348349595747481255e-02 -2.495571094416196012e-01
2.067495326981115891e-02 -9.750866827464160780e-02 -1.001460100236185369e+00 -9.636434404766935913e-01 6.049844635753833660e-02 -2.602522960793333118e-01
-7.976808888090859695e-03 -1.816496822570994318e-01 -9.165896682918081018e-01 -9.630973217784553064e-01 6.264863986744204083e-02 -2.617607623497575919e-01
1.805858709135722828e-02 -1.614639805092375757e-01 -1.003684930034479006e+00 -4.039831532272706860e-01 -2.930571324084031981e-01 -8.665535927183704024e-01
1.392476042575432026e-02 3.245855150717837090e-02 -9.399910865856940800e-01 -9.646974326706729830e-01 6.304888870889457930e-02 -2.557023680594017745e-01
-1.900982356688474609e-02 -1.451064976556838970e-01 -8.648209340332415618e-01 -9.609574020190227994e-01 7.122295175546651536e-02 -2.673727036331284279e-01
-9.682274534818537809e-03 -1.049191248161182172e-01 -8.938225029650374021e-01 4.603856302982107379e-02 -7.565708263904108444e-01 6.522890734705589777e-01
-1.787269312803041466e-02 -1.686136470206588689e-01 -8.741200091972985975e-01 -8.277059899896334061e-01 -4.512764363963079894e-01 3.335451574955480281e-01
1.752156493757528119e-02 -1.642397957075067971e-01 -1.013007598386230335e+00 9.644450611346574442e-01 -7.203146207374093446e-02 2.542777861404451611e-01
1.110156498220988934e-03 -1.078866233361269050e-01 -9.353030497151448852e-01 9.662768526541374303e-01 -7.488207133303502461e-02 2.463771893209451003e-01
-1.321624567052873817e-02 -1.433115481183538931e-01 -8.911504388347103456e-01 9.647408018216636627e-01 -7.214404576852737061e-02 2.531213581676630686e-01
2.489388237847208613e-02 1.028206785335243484e-01 -9.706390528824103692e-01 9.759142693239711841e-01 -1.660757425942673282e-01 -1.414573669047391735e-01
3.704776963087055321e-03 1.919186047650966453e-01 -8.570868626786632971e-01 -9.570668252760919925e-01 7.240697167856292860e-02 -2.806783255049849490e-01
-1.623854126835062948e-03 1.571760839695274803e-01 -8.627235765861192007e-01 6.932866095481843294e-01 -1.927247619385906718e-01 6.944140286291002884e-01
1.509053908494662616e-02 -1.227125784865749358e-01 -9.874380225915845299e-01 -9.651768357132173293e-01 8.250626594632484712e-02 -2.482466351881037758e-01
3.980872044708327201e-02 6.118543659038187116e-02 -1.029572978310989484e+00 -9.677186084814166644e-01 6.871947055321389608e-02 -2.424836678328593509e-01
2.520216082371803945e-02 2.041687101280676986e-01 -9.347409190134468027e-01 -9.590937439229292316e-01 7.445418833462558172e-02 -2.731222513954707498e-01
1.073784823349458210e-03 -3.833982655203875545e-02 -9.110895788819141083e-01 -9.629942484590003904e-01 6.681586947574523483e-02 -2.611086306905326948e-01
3.692417922117208033e-03 -1.322677955316939324e-01 -9.470418769624853184e-01 -9.746683851557131906e-01 1.025965367887662211e-01 -1.987347217194460891e-01
-3.786841310116760562e-02 -1.328313027599591911e-01 -7.950177889431814249e-01 9.636074745132668928e-01 -7.194696856155134712e-02 2.574573144755588627e-01
1.424173277091306949e-02 -2.221883760096205473e-01 -1.030274013934326716e+00 2.057460086944841726e-01 -5.931423681929066660e-01 7.783641249189224842e-01
2.946798555240584018e-03 2.209587721142163286e-01 -8.510656632260585885e-01 9.615860013197301548e-01 -7.171209861715630018e-02 2.649712002800586053e-01
-2.274883693873461579e-02 -1.132667037591554180e-03 -8.155763417695892636e-01 9.616907028341517005e-01 -7.375935208331022008e-02 2.640275554986743489e-01
3.054667161022426788e-03 2.572485096061315479e-01 -8.412495450041657108e-01 9.623094756246898251e-01 -7.328547872372000171e-02 2.618963759412673009e-01
-3.374174144520949298e-02 3.628144047964565466e-02 -7.588479422620310055e-01 -9.639262086211568548e-01 6.218162738503248826e-02 -2.588043847174755219e-01
1.973836211265879784e-02 6.755201619666009738e-02 -9.623905008383267790e-01 9.926200272833869409e-01 -7.546164457484721977e-02 -9.492640114313645461e-02
1.654231388177428153e-02 1.866675637019869771e-01 -9.117800552570263228e-01 9.661768111545622206e-01 -7.308437439047567319e-02 2.473075894653334883e-01
-3.329234809605721018e-02 -1.551340107566848980e-01 -8.138407599209588339e-01 -9.651497897462137932e-01 7.069457104607133890e-02 -2.519685714081245642e-01
7.512619142046580989e-03 1.881738571467164722e-01 -8.724272198910565379e-01 -9.617557125287148345e-01 8.630036028008895854e-02 -2.599580682223786576e-01
-3.749442470020111773e-02 7.331188249145136060e-02 -7.391794614300983834e-01 9.652897505282761470e-01 -8.153466333969715263e-02 2.481285880327787075e-01
2.293674651325972383e-02 -6.400052649990471687e-02 -1.005479555332097874e+00 9.655181968201316245e-01 -5.984382301726292458e-02 2.533640236021683645e-01
-4.234599225815887519e-02 -1.875953907972227608e-01 -7.900648905092051422e-01 2.510026165557888156e-01 4.306533999338961749e-01 -8.669113770204678326e-01
-2.037517506425059414e-03 -4.816955025434571658e-02 -9.006160951817580029e-01 1.253254434775840365e-01 7.242929168649661076e-01 -6.780068611720579952e-01
1.583935655052605418e-02 1.699508813746619940e-01 -9.089878650138268901e-01 -9.617961207005919499e-01 7.148062550409256533e-02 -2.642702071419255061e-01
-2.523141277158593918e-02 -1.714744546821396487e-02 -8.059718095342887079e-01 -9.652513343523373424e-01 6.720180422133889553e-02 -2.525347085856299856e-01
4.229368081138102503e-02 -1.212741396316022874e-01 -1.094547807550719121e+00 9.640873075282090365e-01 -7.378439877698513005e-02 2.551304097126156911e-01
3.100801263444511596e-02 9.704933987622732516e-02 -9.865010850977166124e-01 -9.661595332152747018e-01 6.774720412315674012e-02 -2.488896797995812094e-01
-4.149310984386115481e-02 -1.009779355292785424e-01 -7.677914456618744055e-01 -9.678370144154829768e-01 6.629834616195434682e-02 -2.426850692224670758e-01
-2.939096962365017260e-02 1.349131067376964643e-01 -7.481078663203992729e-01 -9.637983864409884749e-01 6.807620282487301944e-02 -2.577950754042708792e-01
7.727453169442144790e-03 -1.425340678852029808e-01 -9.749844224178156882e-01 5.034668783178736229e-01 3.963466765458983909e-01 -7.677437166319738271e-01
4.177866908402099594e-02 -1.855523370448198400e-02 -1.063993243218118057e+00 9.646689052908777873e-01 -6.293969938715333889e-02 2.558368570123432106e-01
-2.208187046399257610e-03 3.787637865365646450e-02 -8.823546077122259579e-01 9.653328290325356997e-01 -6.265050401443182648e-02 2.533918774127905671e-01
1.022034518208178415e-02 -1.504367485484382934e-02 -9.265093238822668109e-01 -7.950870859923683254e-01 -2.782156797847952778e-01 5.389179540616998443e-01
1.859040469026474254e-02 2.319545668268767902e-01 -9.021734261009880518e-01 -9.222298209463227758e-01 -2.977164790112308834e-01 2.466922282571314129e-01
4.978310903960047121e-03 -1.712510954661423668e-01 -9.979971998807168898e-01 9.458979479960628600e-01 -1.488404845924182207e-01 2.883116059459481240e-01
-1.832351167827737243e-02 4.644237883176108306e-02 -8.142741796689513256e-01 -9.632438824455904491e-01 7.434697626154061767e-02 -2.581351391266045736e-01
2.390421951622782870e-02 2.103938181153229836e-01 -9.282246854297980798e-01 -9.695639674357172666e-01 5.989301619132830073e-02 -2.373995359342905564e-01
-9.922275638245119447e-03 -1.476068298315824923e-01 -8.998100989473811762e-01 -9.618950625261214471e-01 5.885094220308499657e-02 -2.670102157028416134e-01
-2.188643917611171261e-02 1.499673209994685230e-01 -7.769335967893072903e-01 9.662200649624360649e-01 -8.526328676729325040e-02 2.432055879161166279e-01
-2.616241502559951346e-02 -1.489160075594309907e-01 -8.437957774934007338e-01 9.642826601972571687e-01 -6.690960401789784739e-02 2.562851071230425326e-01
7.551530447805545124e-03 -1.666476864875780228e-01 -9.711202546616671816e-01 -9.639088982880398282e-01 7.103550076025773319e-02 -2.565805788302703005e-01
9.685018591802834267e-03 8.699115622719263974e-02 -9.161455833998125575e-01 7.580152449496747602e-01 -2.991985594167258511e-01 5.795628615317243160e-01
-2.173007896980273801e-02 1.369872301737775078e-01 -7.812210834652015823e-01 9.659198850141015313e-01 -8.393466165380904231e-02 2.448545452047098669e-01
3.675050871050104806e-02 1.208741755971501075e-01 -1.001532359778139591e+00 -9.617244372150048903e-01 8.140149940941115991e-02 -2.616484335083666402e-01
-2.614862504659410530e-03 -3.063721192598168469e-02 -8.896808750392110055e-01 -8.223796892224206623e-01 -5.184926646241642123e-01 2.342157199791863875e-01
-2.031096687065286205e-02 -6.750524070713888325e-02 -8.384493031297446386e-01 -9.641241117334231614e-01 6.793685828621312539e-02 -2.566111464072373671e-01
-6.057662015825445237e-03 -3.920699099389617776e-02 -8.892284985092939742e-01 9.638416656039894281e-01 -5.639222333320379615e-02 2.604403209821115062e-01
-1.708885396632140591e-02 3.140470858084650624e-02 -8.313076974228402749e-01 9.330535775133196319e-01 -8.824673096193700250e-04 3.597363517091972662e-01
-1.219352339013796312e-02 -2.013563384648531795e-01 -9.110569331561012563e-01 9.652693796801803394e-01 -8.044794080759470889e-02 2.485621722460150951e-01
3.404724011952928869e-02 -6.806363721141421574e-02 -1.043718011847384997e+00 -9.659017483995441244e-01 6.317560333719127175e-02 -2.510829655346732969e-01
1.048532328114482916e-02 1.737597772152000564e-01 -8.925255980890128837e-01 9.684557799732000927e-01 -5.934131553277333798e-02 2.420165500690822924e-01
7.497620102872833495e-03 -1.719428471160002747e-01 -1.002305965701912438e+00 5.992015088392353972e-01 -2.137333841698506043e-01 7.715410502987425367e-01
-6.686667093765537306e-03 1.966081817432313028e-01 -8.213437332476382080e-01 9.633207342623365532e-01 -6.746819640639527271e-02 2.597329501891139092e-01
-2.435793893233626287e-02 5.081985929861723879e-03 -8.077974887512427982e-01 9.657973053483813741e-01 -7.266270962787639565e-02 2.489090107074076463e-01
9.597341164584115986e-03 1.428412941083739320e-02 -9.093497293013457217e-01 -9.821959971047018456e-01 -8.617599410549717232e-02 1.669272934886027460e-01
1.784757732428174717e-02 -2.705409154223512025e-02 -9.759523300712066307e-01 9.647953479405264599e-01 -6.634455896551220977e-02 2.544962398307489826e-01
-1.026699650521884985e-02 7.037276747872185656e-02 -8.380673758527613648e-01 -9.642405135693231655e-01 7.257843517508696940e-02 -2.548972395674458657e-01
1.924892596295584013e-02 -1.175762440469371312e-01 -1.006365824264423114e+00 9.637179492862212316e-01 -6.330881848024154379e-02 2.593062045655600834e-01
-1.784222663801808897e-02 -1.869755296348945828e-01 -8.808946340083219084e-01 -9.631105773474083476e-01 6.263022228551956561e-02 -2.617163943241008761e-01
-3.184158451949534174e-02 -1.832642861196564776e-01 -8.330345176049924749e-01 5.626828971493205156e-01 8.234272620281833932e-01 7.318129135521096729e-02
2.297599844225247517e-02 2.136037603153116138e-01 -9.287080348785879957e-01 9.637218667517276627e-01 -7.083781821728965533e-02 2.573366803523727819e-01
2.862117929601205174e-02 -1.743843729661447364e-02 -1.009345564104721316e+00 -9.642569044818719570e-01 6.939242549885958622e-02 -2.557211634621259777e-01
1.643127234648814050e-02 5.320094937251219382e-03 -9.616434351525495750e-01 9.643363845596052419e-01 -6.457680332890805563e-02 2.566810742659623168e-01
-2.464882855436948197e-02 2.536419091284379534e-02 -7.963438111302201250e-01 -9.604644463036586810e-01 9.972642374727870573e-02 -2.599282358520996761e-01
-3.728863777017859399e-02 -1.625251254989371064e-01 -8.007293659766363536e-01 -9.648404347418642057e-01 7.717278488004246373e-02 -2.512514612116498736e-01
-1.256432464424284481e-02 1.884530430916487101e-02 -8.484332921221567902e-01 9.660613909560176182e-01 -8.263803617234685706e-02 2.447372956492371854e-01
1.070719007421232043e-02 -9.212256511977240381e-02 -9.490401457734738422e-01 -3.892066843112704233e-01 5.583224498585134254e-01 -7.326624044342762154e-01
-2.908575299637079087e-02 9.999399946510303949e-02 -7.636163342305626323e-01 9.659198222285861890e-01 -6.903459098164012320e-02 2.494656735382528578e-01
-1.916530473747993235e-02 1.499605013496987660e-01 -7.872632256495628589e-01 9.625623048116555003e-01 -7.912514994827989090e-02 2.592547395928103682e-01
1.428551841167647761e-04 9.217018243123806243e-03 -9.164259224210793420e-01 7.012216420297644470e-01 -3.270462652835687267e-01 6.335052873600586221e-01
-1.288769258382788455e-02 -1.989341335931790397e-02 -8.625732876791289971e-01 8.848642164769999763e-01 3.247857474150859791e-01 3.339603818936746071e-01
5.968076497232818398e-03 1.889067800705500066e-01 -8.654408105517533700e-01 -8.121420506668051154e-01 3.155328787406247448e-01 4.907792701127163815e-01
-4.156293714501362035e-02 -1.292005370693807831e-01 -7.754385920907814755e-01 -9.588769961346539361e-01 7.090667645955923970e-02 -2.748220324450755259e-01
3.769662056987109489e-02 -4.712656173568850054e-02 -1.051687195996656499e+00 -9.617318799728051815e-01 6.582005113267876129e-02 -2.659690055492657801e-01
-4.560891135319219991e-04 -7.290806577765514274e-02 -9.306338469133229596e-01 8.479000595865504586e-01 -3.974602339523636285e-01 3.508430580468376858e-01
2.719361682473730307e-03 2.623861403317426233e-01 -8.337957083754516940e-01 -9.639035410494561917e-01 7.447722199232853502e-02 -2.556229781467713180e-01
4.806446888932286443e-02 -1.899884268816891611e-02 -1.087965508597246167e+00 9.581274684718391610e-01 -7.711293853588251090e-02 2.757632115966631714e-01
4.510021639533386140e-02 3.034694778934805826e-02 -1.058162838103201997e+00 -9.651302301602134870e-01 6.083762055463803886e-02 -2.546024798703719894e-01
-3.023916186177795506e-02 -2.081292605911177485e-01 -8.400621000588286424e-01 -9.617594090184334865e-01 6.101579930324482065e-02 -2.670129423827610760e-01
2.366435870793533180e-02 1.834399833146779790e-01 -9.346454483219055476e-01 -9.618471580792450348e-01 7.786872730921436114e-02 -2.622718166370966442e-01
-2.107273798584366475e-02 8.151411044202613865e-02 -7.989752766272885109e-01 9.642477641869493521e-01 -8.015937186167286510e-02 2.525880526929399905e-01
-2.949967489053150274e-02 -1.262801583756426212e-02 -7.934405238615835909e-01 9.649466008189305777e-01 -7.589760944127883768e-02 2.512321843416768785e-01
-2.741482741012879129e-02 -2.088130129187174555e-01 -8.557404258144235554e-01 9.642799365885144081e-01 -7.577651517582438545e-02 2.538151367445583562e-01
3.791137943420672812e-02 2.496659584586385927e-02 -1.037263071329164399e+00 9.639481468929116392e-01 -7.637176152577103416e-02 2.548947314935565700e-01
1.100393053351727234e-02 2.145083983611815459e-01 -8.831410153998767720e-01 9.583212551851973959e-01 -7.765190983587948181e-02 2.749373615191434972e-01
3.280963529455754174e-02 -1.644193238517893396e-01 -1.070582580580676124e+00 9.626625226884243380e-01 -7.470155451900786781e-02 2.601932842400097590e-01
-2.624949895397520744e-02 -2.140110284757461637e-02 -8.032855103857093892e-01 -9.648728872383217636e-01 7.314394452719581718e-02 -2.523296947475412999e-01
5.735219728331934427e-03 -1.999442513813190214e-01 -9.878258088365849954e-01 7.979026061754850296e-01 -4.296898398196264401e-01 4.227506033279580522e-01
4.454481797846287019e-03 -1.497191387129952755e-01 -9.714719505335773775e-01 9.360539589846763597e-01 3.315758188945536200e-01 1.177304641693042858e-01
-1.679610247322578520e-02 -7.317485763052976322e-02 -8.531693737690486667e-01 -9.638773135716495188e-01 6.811927120873713382e-02 -2.574884255105275854e-01
2.223433154665123077e-02 3.563736302546711282e-02 -9.751737735566908816e-01 9.642182389561886335e-01 -6.310853600124713414e-02 2.574888353851593759e-01
2.531293468073739575e-02 2.429288558747212320e-02 -9.898709228441041619e-01 9.639231381863166970e-01 -6.454302828011998505e-02 2.582370638957052211e-01
1.863689151278984102e-02 -1.447641903515572703e-01 -1.006881977275073003e+00 -9.654786280571669987e-01 7.196885834616012501e-02 -2.503427694046729823e-01
1.568355121048625386e-02 -2.888334636928461749e-02 -9.634852759715645254e-01 -9.648019824464602046e-01 6.455194357534824179e-02 -2.549317187954949770e-01
-1.206353751714226742e-03 -2.039218485368352596e-01 -9.532617538319300143e-01 9.636314545033942691e-01 -7.078117784301719839e-02 2.576905988871694975e-01
7.425595517476463701e-03 -1.443411505772941028e-01 -9.907731716725159954e-01 6.068681003338504132e-01 -3.645972877386368660e-01 7.062435320559142804e-01
-1.694976390696721234e-03 -1.337502181909701049e-01 -9.320538950945307377e-01 9.725615268728987628e-01 -4.761669296464901557e-02 2.277207214940398516e-01
3.547890025052821000e-02 4.878705517467032265e-02 -1.016803954447160319e+00 -9.645047448843209192e-01 6.373988075882851267e-02 -2.562573407660376779e-01
7.477145020146635374e-03 8.363318359123823875e-02 -9.117383862506900361e-01 9.683253510945024622e-01 -2.473732456132878010e-01 -3.394836936373315378e-02
-8.215037546377654612e-03 -2.745061558257223810e-02 -8.778156031001940196e-01 9.638837331316043588e-01 -6.601918530545029806e-02 2.580108838322265896e-01
2.447902711673117029e-02 -1.082387906394531411e-02 -9.916367438081395980e-01 -9.643156697307391223e-01 6.637514436670959028e-02 -2.562998816270782854e-01
2.469322473545835020e-02 -3.159311199223061722e-02 -9.982943902746094222e-01 -9.641277460338054661e-01 6.557931672868863582e-02 -2.572101136136998312e-01
6.171472283231836317e-03 1.058347913136407636e-01 -8.756077665035637558e-01 -9.960155642381929297e-01 -1.138669724773299329e-02 -8.844964059317943217e-02
2.271767233136866640e-02 -2.028099135912044826e-01 -1.013101891165539170e+00 -8.917969728920329686e-01 -3.043227242892112550e-01 3.347922320212931568e-01
-4.090728177627881573e-02 -1.733025096203392457e-01 -7.900181351606920810e-01 -9.657742398911770554e-01 6.654755766556107177e-02 -2.507020943896723919e-01
3.023980036673067084e-02 1.234495832536126186e-01 -9.810855986762483383e-01 9.640817981426992311e-01 -7.660946906463618478e-02 2.543172737734776256e-01
3.455844349618590605e-02 -1.181276524315240800e-01 -1.064398144084620412e+00 9.331612306647636412e-01 -1.244698231166426056e-01 -3.372200775718067756e-01
-1.614257286154389612e-02 -1.935178512169576093e-01 -8.891763883325720652e-01 -9.615342149251135950e-01 8.135978631314948195e-02 -2.623595599543194212e-01
-3.701626328030806906e-02 -8.149347837310540188e-02 -7.840364524452140271e-01 9.662726756460214839e-01 -7.002705027304295671e-02 2.478171271924833330e-01
-7.553121567705063828e-03 -5.517323612336805932e-02 -8.879534774300118505e-01 9.838799998955807258e-01 -3.641999628266459621e-02 1.750820655471111154e-01
-1.124045917921331732e-02 1.367687638180666021e-01 -8.207456932182373155e-01 9.663727422091402675e-01 -7.876314519455072938e-02 2.447858044786267728e-01
2.265743101896511985e-02 -2.120721337936244955e-01 -1.045496155939215077e+00 9.610829825382443126e-01 -7.163385741059677403e-02 2.668109651942193183e-01
-2.918463520401624184e-02 -3.712224084605311725e-02 -7.966354717282103648e-01 -9.639898399476420909e-01 7.270104255188078457e-02 -2.558088092493865373e-01
3.113680244270323333e-02 1.162671656447073071e-01 -9.816503647590946180e-01 -9.615272561402899987e-01 6.737445595541777243e-02 -2.663193916785571713e-01
3.023717306255196968e-03 -1.210188502430149526e-01 -9.462434957996254115e-01 9.673389133790388783e-01 -5.903050263891258809e-02 2.465173957773723334e-01
1.058939595160724237e-02 -2.283337156008523883e-01 -1.031438255153776185e+00 7.066463423517288511e-01 -2.648531381006511420e-01 6.561278549788606140e-01
-1.394971017382975846e-02 1.798244516996406472e-01 -7.985378088115900885e-01 9.629997368336237207e-01 -7.923360542001771367e-02 2.575918139819592945e-01
1.854015021341996403e-02 -1.392241660282618476e-01 -1.009798817933901249e+00 9.657549399761073960e-01 -7.028844302550898981e-02 2.497537400897031079e-01
-1.725376277818276710e-02 1.655182131596266426e-01 -7.852077553395512277e-01 -9.648116309692633674e-01 6.313742078213566145e-02 -2.552492563033428308e-01
-2.425069975419360743e-02 -2.014207232578427709e-01 -8.608366268872043037e-01 -9.647689527290765898e-01 7.112946056121846605e-02 -2.533011403257219296e-01
2.136807694196870763e-02 -2.533519836356664667e-01 -1.036352298186768550e+00 -3.740828979584935876e-01 8.456813551777269122e-01 3.806376636116538537e-01
2.558196420430478360e-02 2.222558955689955817e-02 -9.913957608273902267e-01 9.642392567483210053e-01 -7.973462023777891372e-02 2.527549130699199287e-01
7.509033173132366977e-03 1.075699863277240764e-01 -8.995910296933483652e-01 9.619109666054985741e-01 -8.403468054053957192e-02 2.601258633633439232e-01
-2.909639910751510365e-05 -5.470067794031277519e-02 -9.374410090042535337e-01 9.513219149922487183e-01 1.413791544527499278e-01 -2.738586291167512399e-01
2.631733158043557744e-02 -3.532201939267767127e-02 -1.010270889323046761e+00 9.650017046241831098e-01 -6.966269051103869681e-02 2.528217150942222435e-01
7.264636197014794766e-03 8.671992323955660109e-02 -9.045429084577584211e-01 9.663232070229252901e-01 -7.724403632904836003e-02 2.454644952340873099e-01
2.450214216726493907e-02 1.651198216864143142e-01 -9.479213160652855130e-01 9.688258157177396246e-01 -5.570155134960871890e-02 2.413998259653543088e-01
1.274217276084036073e-02 2.074533979242500492e-01 -8.870308373968245341e-01 -9.647086692120440121e-01 6.810156153534105417e-02 -2.543606904841533289e-01
1.939488901965113685e-02 -1.345778261373186402e-01 -1.021316510117275866e+00 7.484004358367787324e-01 1.155852852215894094e-01 6.530978712869636160e-01
2.534783876039420781e-03 -1.127088761786862736e-01 -9.371826961409118750e-01 -9.628755124762392592e-01 7.772720827519535858e-02 -2.585134978436600672e-01
3.887055904059926598e-02 -1.471383214178643428e-01 -1.083602438893847220e+00 -9.047844299472466156e-01 3.071453939514430798e-01 2.950031225249128419e-01
1.612457124501587638e-02 1.343261702850856720e-01 -9.247451354416541536e-01 9.631523156326081692e-01 -7.846588904840487433e-02 2.572561391830878175e-01
-3.547428356179101877e-02 -1.162473651827806986e-01 -7.946643073117266587e-01 -9.629355081870205613e-01 7.048844414737320818e-02 -2.603585725769122505e-01
1.070440762558052487e-03 4.382401707516176033e-03 -9.040846047620938464e-01 9.662871998790606431e-01 -3.311526701338136230e-02 2.553280760913622660e-01
8.809043410003760885e-03 -1.662302271862992065e-01 -9.804650710155645710e-01 9.636465760714402196e-01 -7.251047148762548855e-02 2.571526938424564812e-01
-2.266689571940660314e-03 1.886408261317490051e-02 -8.874404127831955202e-01 9.632180280914695025e-01 -8.278589892356703894e-02 2.556511789509247623e-01
4.518693460931777484e-02 -5.243554258763121617e-02 -1.086224516874796153e+00 9.634341802093902007e-01 -6.828961831751372002e-02 2.590967163711431209e-01
2.601646788878472089e-02 -8.695898279390162910e-02 -1.018731449795098554e+00 -9.632054273182408810e-01 6.167696803358658358e-02 -2.615936857014496408e-01
2.464850717293773016e-02 -1.357112794078800533e-01 -1.016902516582805394e+00 -8.361871294303521163e-01 9.745134164704398472e-02 -5.397168892912455052e-01
2.336461798726573863e-02 1.805743211568455464e-01 -9.343969776439488006e-01 -9.618548293523464521e-01 7.784571188221864335e-02 -2.622505145716955144e-01
3.344303146130407633e-02 -1.833964590312384124e-02 -1.032594988995572782e+00 9.643245930884415396e-01 -7.143756081734781160e-02 2.549014595275581607e-01
3.511490407109275208e-02 -6.016284435165576011e-02 -1.050505477082965822e+00 9.624341227162616086e-01 -6.598905099753590853e-02 2.633742671177738970e-01
3.264070438493474162e-03 -2.303854817235344854e-01 -9.725614048094912700e-01 -9.608865387590341811e-01 8.333676841342289865e-02 -2.641061200769319606e-01
-1.700051643978449942e-03 1.144875555779905768e-01 -8.669217169481898688e-01 8.429900934819883895e-01 4.140761236244000498e-01 -3.433783134320205765e-01
2.828004074677626170e-02 -5.535277128149749398e-03 -1.004555009527119402e+00 -9.643203064688902204e-01 6.826452391734821878e-02 -2.557856550045040089e-01
3.358207306741448767e-02 -1.868824606267374400e-01 -1.075135193423177871e+00 -9.642351545783726108e-01 6.967917374198968894e-02 -2.557252029461615783e-01
2.146284575753291957e-02 -1.243421900686346865e-01 -1.020417142054919957e+00 6.508766921155054730e-01 -6.895110009725609335e-02 -7.560458170350231599e-01
-1.807168127678306785e-02 1.991710679102193515e-01 -7.729941884154551968e-01 -9.606927494970870507e-01 7.481588968414133733e-02 -2.673425213363888053e-01
-1.806272458550401208e-02 -2.217110374296356601e-01 -8.945967586026689622e-01 9.657478671763558564e-01 -6.697517148623191585e-02 2.506898152073779307e-01
2.352430204608419242e-02 -1.371560601093599341e-01 -1.028008173475485343e+00 9.640867577259124577e-01 -8.478327343658220716e-02 2.516913191250653159e-01
-2.651453714700528763e-02 1.558465116530576844e-01 -7.578651057866918617e-01 9.664700244465761481e-01 -7.205942495694239724e-02 2.464612162615228141e-01
2.641096867456637839e-02 -1.652045014653802379e-01 -1.041931239263366393e+00 -9.652879626655413992e-01 5.763515315771016584e-02 -2.547495598690914798e-01
1.944017399160252735e-02 1.570060174526586860e-01 -9.310870617779437586e-01 9.640325672194453022e-01 -6.205159899012005487e-02 2.584391773765255529e-01
-1.698272326570196555e-02 -5.716875470856153107e-02 -8.482134266948435641e-01 -9.640876366781508944e-01 6.797001606427699461e-02 -2.567393731404664647e-01
-2.335616637641635060e-02 -4.860599792049783568e-02 -8.266595973343956461e-01 9.640445430389151804e-01 -7.014361823552676956e-02 2.563161950749853202e-01
3.627035284083028610e-02 -1.251015206721892981e-01 -1.072868268871490782e+00 9.639751265839677785e-01 -6.972877475677381753e-02 2.566901893301388182e-01
1.522609715610763470e-02 -3.783131815876834315e-03 -9.596849072802148273e-01 9.644285163685847317e-01 -8.131914784584259870e-02 2.515250146778972851e-01
5.213274382325826760e-03 1.283993737329108299e-02 -9.032750981668916657e-01 -1.324465423989663881e-01 5.190039688165331011e-01 -8.444482185186052980e-01
1.227841973304783299e-02 -4.901400837052316550e-02 -9.564021455453118881e-01 -9.647233236540785350e-01 6.631448633815896498e-02 -2.547769567671578361e-01
-6.708150708955140651e-03 8.247900601213985217e-02 -8.481419376308783065e-01 -9.458979479960628600e-01 1.488404845924182207e-01 -2.883116059459481240e-01
-2.416682518934223575e-03 3.921648550129949728e-02 -8.764235400878289672e-01 -9.651537406472099345e-01 6.257950549882659863e-02 -2.540906578491632373e-01
-2.118249776868436768e-02 1.081500127375691622e-01 -7.863961238086905059e-01 -9.665449138701692755e-01 6.578160421402942659e-02 -2.479187568917199380e-01
4.601483942512166886e-02 -5.232681466504516751e-03 -1.071532824269692208e+00 -9.665720989278719921e-01 7.071010729896444469e-02 -2.464517362485752761e-01
-2.014539492510342492e-02 -1.311991456388177935e-01 -8.613942556046173538e-01 9.645459819509609734e-01 -6.980713353658965503e-02 2.545152506425917283e-01
-2.245385754945224133e-02 1.798730894882178133e-01 -7.616295853331983556e-01 -9.625782272633726100e-01 6.870495286351800679e-02 -2.621503115590838040e-01
9.851917541465839145e-03 2.042307930237334812e-01 -8.816489077266016494e-01 9.623460586626870761e-01 -7.414786268356891863e-02 2.615189435506552473e-01
1.415004595863761545e-02 1.458462605465521596e-02 -9.455930114972329603e-01 -9.646272354597784648e-01 6.345685430390637927e-02 -2.558662233493864124e-01
2.386857986422130998e-02 -2.139424201908921852e-01 -1.013296045714884741e+00 -9.911308286519010524e-01 6.096008971487553579e-02 -1.180828012783836090e-01
3.467243554293053531e-02 -5.076679769483155753e-03 -1.033588633156396153e+00 9.639814299414826149e-01 -6.901544420710503669e-02 2.568592439233409741e-01
4.007242535522292579e-03 1.726054776923859890e-01 -8.684161199014792665e-01 9.668925015092471043e-01 -7.429616130970875809e-02 2.441290047082328163e-01
2.889865981340518711e-02 -2.142502067435470350e-02 -1.011471472075406108e+00 -9.644812551404297052e-01 6.900682680245176503e-02 -2.549783644496088630e-01
6.314452616162361497e-03 -6.078263924518934914e-03 -9.123042786869550724e-01 -3.476023053279985175e-01 1.703031341778732111e-01 -9.220463544854207161e-01
-1.373921022070154208e-02 -2.120791027131060935e-02 -8.504579545929049633e-01 -9.628868193784821949e-01 2.633607531422653327e-03 -2.698926400970587114e-01
-3.777850241491507305e-02 -1.860374073334261635e-01 -8.053774269570603828e-01 -9.645974659682949870e-01 6.885735503766221566e-02 -2.545788547871978280e-01
4.845832859736248777e-03 6.411817450499925075e-02 -8.969251665928466011e-01 -9.518887122917550903e-01 1.576865367917790473e-01 -2.627600341112762972e-01
-2.251401613072046004e-02 1.695458623908535356e-01 -7.644068134765632516e-01 -9.589048900763200711e-01 8.171441877845131430e-02 -2.717060278157631958e-01
-4.008417610397225356e-02 -1.314030916750454081e-01 -7.863622570891362074e-01 9.636750135976462905e-01 -6.974907511902550539e-02 2.578091051293902036e-01
-2.051096530147950361e-02 5.787681778387660653e-02 -8.029406403861049091e-01 -9.646832845324464500e-01 5.882806982849007882e-02 -2.567594569708099850e-01
-2.179220555112920416e-03 1.427496330719535411e-01 -8.622941248761647470e-01 8.816772239634487196e-01 8.007566838476322391e-02 -4.650087741933911500e-01
1.755821018810882483e-02 -2.435382667556968417e-01 -1.042437377615776484e+00 -8.756999374647026629e-03 -2.415803624061068633e-01 9.703413025640444944e-01
3.556751848314447517e-02 7.578413629785070438e-03 -1.033207401224138566e+00 9.637252350491949393e-01 -6.755409951053255313e-02 2.582055672689793080e-01
-1.648282880593409218e-03 3.192879692050971680e-03 -8.892516666430225758e-01 -9.640836481235975919e-01 6.462344242304504660e-02 -2.576170221668018789e-01
1.457698306679409105e-02 -7.745147294773598035e-02 -9.478778447743213542e-01 -9.684322768308932794e-01 -6.494849733372196066e-02 -2.406670270025031977e-01
