-9.757103178456051629e-03 -7.924399262576667380e-02 -7.493710224038068191e-01 9.939773278754342467e-01 2.139259730677809529e-02 -1.074775718467880642e-01
2.860002272838762377e-03 -2.297929208450408545e-01 -9.279044793495062615e-01 9.789029755717466585e-01 1.967682700485442748e-01 -5.505644666052689207e-02
-1.359780383321901320e-02 -1.062063219341037312e-01 -8.472672855282125104e-01 9.943994809939498136e-01 9.311636112698111478e-02 4.999015392487752424e-02
-2.077743403298414580e-03 8.512738604308868473e-02 -8.354948821773572343e-01 -9.609874105075941753e-01 2.701427725487216547e-01 -5.938079896396090268e-02
-1.056870292808182008e-04 8.487146169103210180e-02 -8.760167121625381803e-01 9.618249101126954415e-01 -2.689351054318940837e-01 5.066311629816520890e-02
1.877544004594065494e-02 1.361964620214360933e-01 -8.769945287823313063e-01 9.227246077811350755e-01 -3.584486439206224229e-01 1.417528407708893434e-01
-2.687038849306824621e-03 -1.804810904288403350e-01 -9.072294833749618981e-01 9.980444707498243861e-01 5.924779342985053016e-02 1.992318697891955204e-02
1.514320105590504862e-03 -2.036731271779154417e-01 -8.744549916829263969e-01 -9.892911783731820341e-01 -1.413816522240063933e-01 3.625179729904746267e-02
-1.187741452736072734e-02 -1.182064878706483996e-01 -8.288482436286409571e-01 9.909488662453912466e-01 1.316699859563459363e-01 -2.614114162061745641e-02
-6.944675227400364144e-03 -2.296051712776678300e-02 -7.433303492833831516e-01 -9.806921244727657694e-01 9.749575134271766530e-02 1.695214896914624680e-01
3.071806698057010475e-03 -1.704951529280666345e-01 -1.013828312824959221e+00 9.783609511688000637e-01 -1.546385580230138501e-01 1.374655069486300230e-01
2.580129022536623712e-02 1.466488030825036926e-01 -8.936070117459141704e-01 -9.165826164438940493e-01 3.853859061210471171e-01 -1.065551997610859752e-01
2.846828359221682467e-02 1.847126630630681887e-01 -8.306657928948650849e-01 -9.344415856197546555e-01 2.469230896123660035e-01 -2.566084778036806235e-01
2.150937631581909502e-03 7.463022401702050501e-02 -9.165078229719751945e-01 -9.537478836866056797e-01 2.548953008134336451e-01 -1.593529415685512873e-01
1.771120135578956728e-02 9.448490453276094103e-02 -7.099365298970229388e-01 -9.626480967626694918e-01 8.911062714888476344e-02 2.556715430554262203e-01
-4.091026993316156102e-03 -1.540803889723067754e-01 -9.191027043662457485e-01 9.972605597766990293e-01 6.768774663937193736e-02 2.982859146437915124e-02
-7.123219304709743627e-03 -8.582067225152927026e-02 -9.358954820080238601e-01 -9.778574624866412934e-01 -2.611209757861899378e-02 -2.076365608924199968e-01
4.674929970872539892e-03 3.194703703107386328e-02 -7.244892278626101634e-01 -9.531545994836139180e-01 1.649311742621653587e-01 2.535626495360364663e-01
5.462242785784881573e-03 4.429715604183841193e-02 -7.276985271444603720e-01 9.463966414929023685e-01 -1.516827464451123986e-01 -2.851766845340314438e-01
-5.743432127311668724e-03 -1.251159799663612016e-01 -9.325001833712396326e-01 -9.933892320104581453e-01 -1.016453014289438461e-01 -5.334853721604249088e-02
-5.004082198139755445e-04 -2.079455303920154374e-01 -9.222190153222252773e-01 -9.889267004200519295e-01 -1.372483511166956160e-01 5.645238092460980878e-02
5.056384821847520732e-04 -1.903518289133984687e-01 -8.460889809237146508e-01 -9.863320401974229323e-01 -1.643426572960398069e-01 1.185738052293633209e-02
8.408929780036425092e-03 1.452365313771382394e-01 -7.828888155448914254e-01 9.727611129487691022e-01 -1.491535201123311005e-01 1.774515273892349754e-01
3.821898616093993752e-03 1.591906663672409267e-02 -9.785784543843122352e-01 -9.669112176812466597e-01 8.539070284029064151e-02 -2.403978473086016421e-01
3.373333931745407886e-03 8.692659323921789194e-02 -8.995505836696459090e-01 -9.455210445121104978e-01 2.889858663301323460e-01 -1.499237254278001363e-01
2.515855556641818144e-03 -1.295187491026765780e-01 -9.848539921433850930e-01 -9.831948636945840869e-01 4.105267925637894055e-02 -1.778834942608815417e-01
4.030608558616303148e-03 -1.360173757465450717e-01 -9.993961829017971032e-01 9.826758745181289889e-01 -6.258136899837381251e-02 1.744468340048616339e-01
-1.533975478781244011e-04 -3.851515525293384284e-02 -9.747207438659777345e-01 -9.602021181658561000e-01 1.288450418323596088e-02 -2.790087486473420975e-01
1.682481619113115542e-02 -1.022663138175576303e-01 -1.043380283121117191e+00 9.607530440093491331e-01 -6.288765179108624093e-02 2.701827745785673751e-01
9.143609469528942227e-03 -1.697893261716696967e-01 -1.040283723517917203e+00 9.406920065673121112e-01 -1.264364545887119162e-01 3.148211742106952205e-01
3.910247137720705875e-03 -5.055829935616709681e-02 -9.907939204811431200e-01 9.605887695764199208e-01 -1.956890069611165461e-02 2.772837425620290341e-01
-7.984690252708783603e-03 -1.416226722657515924e-01 -8.632321976697410193e-01 -9.851814239959928443e-01 -1.715137557229791943e-01 -7.703317638344297016e-04
2.171924937516404776e-03 9.482378736677819775e-02 -7.808000214486435775e-01 -9.806265007370731368e-01 1.419980756130539146e-01 1.349378100250350487e-01
-1.624544688591133407e-02 -2.991534461267312053e-02 -8.182327787148996334e-01 -9.985065356502300649e-01 4.202411012598501056e-02 3.490948913827029987e-02
-7.948010202861087448e-03 -1.442494705868732074e-01 -8.447151102417308488e-01 9.849850932332179232e-01 1.726377508232694313e-01 -7.570330453284737767e-04
-3.273633612424366179e-03 -1.595340469921393833e-01 -9.401367909908189269e-01 9.980444707498243861e-01 5.924779342985053016e-02 1.992318697891955204e-02
-1.319585936939921510e-02 -1.213751197175324398e-02 -7.870686747176728337e-01 -9.894709917377141339e-01 4.017469721165722180e-02 1.390436989350329611e-01
-9.973769102253426597e-03 -3.610040264385618730e-02 -9.263695224426590213e-01 -9.843269675690726750e-01 3.389374419072348210e-02 -1.730654067715658162e-01
8.054790798217829548e-03 1.640545764843544529e-01 -7.607646871212672135e-01 -9.978315482447964735e-01 -1.601889541574995704e-02 6.384039721878101425e-02
-7.847259694053619790e-04 -1.114757746234789626e-01 -9.672353765788735958e-01 9.795758008792753158e-01 6.732227463687137647e-03 2.009625025846955015e-01
-8.386374168171682785e-04 5.744695073268270974e-02 -7.601476939780512643e-01 -9.614496358562149014e-01 1.283397680942000574e-01 2.431943700776777739e-01
1.144191074166102905e-02 7.083744104117764562e-02 -9.749372426672132663e-01 -9.656829473726991075e-01 1.926225686024482242e-01 -1.742210986607881651e-01
4.775732335881702206e-03 1.046411126447250040e-01 -7.678991671710232447e-01 9.777946435173744399e-01 -1.450844181385899934e-01 -1.512221766875393170e-01
-3.061509480971100206e-03 -2.008858774459097440e-01 -9.768360102295730041e-01 9.985962574703324268e-01 -1.495242471557150718e-02 -5.081278934845493561e-02
-1.052399951729786343e-02 2.943477305545591505e-02 -7.952404936305512706e-01 9.817241597440176104e-01 -1.542049714351235168e-01 -1.115280276862967435e-01
7.427738286891654232e-03 1.211284804410953236e-01 -7.666690235114209662e-01 -9.887585511146449457e-01 9.147335428157955806e-02 1.182757500679868651e-01
-1.847756099803229794e-03 -1.765596115109874242e-01 -8.402564990614762586e-01 -9.853594990966286771e-01 -1.704716012826920646e-01 2.467933580100459268e-03
-1.495647774522841297e-02 -6.610060301829193130e-02 -8.862846750997066536e-01 -9.943924133839731061e-01 -9.317727625083942200e-02 -5.001723097965713599e-02
1.315352780286389639e-04 4.014081572118279040e-02 -9.487748435614462572e-01 9.657410473826238961e-01 -1.565656955909282000e-01 2.069575134283402063e-01
2.296754530791538310e-02 1.542370860274250854e-01 -8.543165353154120734e-01 9.130777515226357055e-01 -3.787738564623404636e-01 1.510608663255120498e-01
-1.082231765116469652e-02 -9.525829785756470547e-02 -9.062058844821733183e-01 -9.915888051650537660e-01 -1.133424310473230279e-01 -6.249107772813542599e-02
7.951984307138894661e-03 1.458980740760628947e-01 -7.798278657913820799e-01 9.727611129487691022e-01 -1.491535201123311005e-01 1.774515273892349754e-01
1.518756288923345330e-03 -2.174707961325701433e-01 -9.100055591827553858e-01 -9.889267004200519295e-01 -1.372483511166956160e-01 5.645238092460980878e-02
-1.370675588336718251e-02 -3.920691484846281633e-02 -7.829669027804203596e-01 9.925611489752470540e-01 -5.961406275947320373e-03 -1.216010985976291592e-01
2.693996297454999151e-03 -1.598680674098459653e-01 -1.002084378967024403e+00 9.832579609329604731e-01 -8.947119163904534989e-02 1.587409466037232597e-01
-6.626572981945917651e-03 6.299199424445939277e-02 -8.051559266198192732e-01 9.808459619119052064e-01 -1.544241577506093588e-01 -1.187197477428430098e-01
-5.689895389867038328e-03 -1.546897670214138210e-01 -8.153199086597677780e-01 -9.875729679909740488e-01 -1.569187980481256406e-01 8.724890407911500487e-03
3.974563972505592083e-03 -1.370360830916164119e-01 -9.969534791708778432e-01 -9.846810326572017491e-01 7.994972467748449885e-02 -1.549558177324797392e-01
-1.734716940878708140e-03 -1.971850214172276572e-01 -9.585524739009256834e-01 -9.993554625827110183e-01 -1.811380907396290332e-02 3.099273022706589692e-02
1.793602733607258665e-02 -2.309537795354755715e-02 -1.037139728731251598e+00 9.575712234345565843e-01 -1.642227200216421837e-02 2.877284501614910117e-01
-6.518121284224771307e-03 3.373496474358887720e-02 -9.173258134886286275e-01 9.830349316262456671e-01 -1.404963262118429090e-01 1.179114308434837527e-01
2.099329814111228123e-03 8.583701541252705680e-02 -7.686697046028411195e-01 9.806342542290839015e-01 -1.419988222127199495e-01 -1.348806654890488954e-01
1.504366003084135241e-02 8.842712177517568495e-02 -9.731726079656310979e-01 -9.575498105776667490e-01 2.492745655685743300e-01 -1.447775922692219885e-01
-1.327343215173744893e-02 3.865589271805412730e-02 -8.402734697085544324e-01 9.914892253132795430e-01 -1.050034977164187172e-01 -7.696350794363969461e-02
5.295633916960001096e-03 9.556158719780635802e-02 -7.558265023835859520e-01 9.777946435173744399e-01 -1.450844181385899934e-01 -1.512221766875393170e-01
-1.729075287923422357e-03 7.831211394840113804e-02 -8.791882003025509595e-01 9.706064441568025281e-01 -2.279825604482633439e-01 7.711733068994119922e-02
-2.737327667133804265e-03 -1.498334008057673472e-01 -9.609049432418146353e-01 -9.846810326572017491e-01 7.994972467748449885e-02 -1.549558177324797392e-01
1.129646098894944266e-02 -6.239211943022317242e-02 -1.017027138040533574e+00 9.606776268015136955e-01 -2.613533183172428095e-02 2.764334310336888367e-01
-1.035756139755918299e-02 1.148059461906909091e-03 -7.746483094905312061e-01 -9.819786457292231097e-01 7.130483263318794507e-02 1.750244559338896000e-01
1.170527703353217361e-02 8.007717093450492096e-02 -9.668868096983899152e-01 9.521277051620277154e-01 -2.617634932016100757e-01 1.579009394835307889e-01
-1.624004881582442189e-02 -5.610177222712686013e-02 -8.643174650014185945e-01 -9.979584090017878939e-01 -5.764572219763715311e-02 -2.749517439357714033e-02
2.154781804290829481e-02 -1.117807365558839972e-01 -1.061167207623366471e+00 -9.613540236920306015e-01 6.254226962538245171e-02 -2.681173355850919315e-01
1.259693035477760757e-02 -1.278506577374370901e-01 -1.034504100410613914e+00 -9.591776717817070974e-01 9.553169656606300131e-02 -2.661801812807136347e-01
-1.427163220671220619e-03 -1.974935081875376919e-01 -9.466900559991745512e-01 -9.991816685581914603e-01 -4.044632917787181758e-02 2.960967806566643448e-04
-1.455257937313916318e-03 7.654045009565592361e-02 -8.822526594470549988e-01 -9.705962776077668996e-01 2.280181758012993221e-01 -7.713998572850885860e-02
1.331048664866589992e-04 8.655718536574237565e-02 -8.716017788373032760e-01 9.618249101126954415e-01 -2.689351054318940837e-01 5.066311629816520890e-02
-2.489691306792019779e-03 -6.835652895992337663e-02 -9.599131950867231255e-01 -9.778574624866412934e-01 -2.611209757861899378e-02 -2.076365608924199968e-01
8.645501997685153123e-03 1.508597373158022670e-01 -7.487263549870768475e-01 9.980044913784353877e-01 3.926001046806832512e-02 -4.945388525199424096e-02
-1.718100547415369467e-02 -3.350125094166982176e-02 -8.442343909956363524e-01 9.997589410346640060e-01 -1.401315050994310710e-02 -1.690240911919520944e-02
-1.401311920095754844e-02 -8.793099177730996641e-02 -8.009667367087626166e-01 9.956111944384585799e-01 5.569532690536350972e-02 -7.520890951031140859e-02
6.328612111481226980e-03 -1.181196047109583508e-01 -1.005734245658432169e+00 9.831991793833907423e-01 -4.103596824555613698e-02 1.778634953271102104e-01
1.885586596755869189e-03 -1.993728095437773684e-01 -8.334271531109211928e-01 9.828715413747785012e-01 1.839562031175208390e-01 -1.111973426628093398e-02
-7.638315123202794009e-03 -3.103474551373568147e-02 -9.408720219529485007e-01 9.801606119601802281e-01 8.565528715659381787e-03 1.980197123512358048e-01
-9.435088528969768490e-03 -3.897856536934173055e-02 -9.316347116048198096e-01 9.801606119601802281e-01 8.565528715659381787e-03 1.980197123512358048e-01
2.491788870026216424e-03 1.082450575206693050e-01 -8.048498670920727349e-01 -9.585783890132266727e-01 2.728789158778414103e-01 -8.163681391468564919e-02
6.738562204618550426e-03 -1.457075276413697107e-01 -1.019155533684047876e+00 9.832579609329604731e-01 -8.947119163904534989e-02 1.587409466037232597e-01
5.813133116660757285e-03 1.231293548572687940e-01 -8.022869605933145021e-01 9.628008889388517400e-01 -2.527859318946287792e-01 9.546581008256876943e-02
-1.697273409288802340e-02 -1.759427457636413700e-02 -8.421600013342540603e-01 9.998306802135996652e-01 -9.511948156475064781e-03 -1.575226161156119062e-02
-5.530722370568323491e-03 -1.579755944493621278e-01 -8.340992783146462530e-01 9.839642831636339348e-01 1.783652206796489392e-01 3.708236460841427256e-04
1.107006839071230861e-02 1.474060026983357030e-01 -7.295183591037972537e-01 9.791270263642214422e-01 8.879140152537820518e-02 -1.828287539155601382e-01
-1.267478667276940654e-02 -8.127201387457927417e-02 -9.091104506695718568e-01 9.915915580948090335e-01 1.133133315701837368e-01 6.250016642837627479e-02
1.126761340287900197e-02 1.652527958758742144e-01 -7.813972559320229161e-01 -9.745175305617557182e-01 1.146296268217819880e-01 -1.928098319135115313e-01
9.410229718506163410e-03 7.584244164992387516e-02 -7.308338444936507416e-01 9.511038678195985474e-01 -1.372609274978864591e-01 -2.766963505379492205e-01
1.283127804750923071e-02 8.881451818893838779e-02 -9.580706110308844226e-01 -9.562265190563297157e-01 2.493272083924288340e-01 -1.531887313370443038e-01
-1.655641046403636546e-02 -4.891408981727429772e-02 -8.091889814999410069e-01 9.950719340453316741e-01 2.563594414065317392e-02 -9.578436429449543876e-02
1.473120688265596931e-03 3.960447095229945036e-02 -9.535805236125510786e-01 -9.662496547089408638e-01 1.554565805422416236e-01 -2.054138659900204000e-01
2.316041508909589836e-03 5.166891123688711202e-02 -9.468499061214753487e-01 -9.635835925462061802e-01 1.973570462156178651e-01 -1.804351863822389046e-01
7.331065943333994576e-03 7.999506251106183741e-02 -7.400406637899324958e-01 9.511038678195985474e-01 -1.372609274978864591e-01 -2.766963505379492205e-01
-2.244014004793268551e-03 -1.796789523798328625e-01 -9.647431905404623143e-01 -9.993554625827110183e-01 -1.811380907396290332e-02 3.099273022706589692e-02
-9.149815097508446141e-03 5.973763093724915318e-02 -8.383270959482708173e-01 9.643098349030305716e-01 -2.555850080426114168e-01 6.915812297299801792e-02
2.110024587910368232e-03 6.061260561245691847e-02 -9.367049635318835943e-01 -9.632335687165999305e-01 1.894510427185354950e-01 -1.904977546070891481e-01
-7.296310784489471075e-03 5.345147152539269503e-02 -7.986548417001162470e-01 9.846177960458747380e-01 -1.373381712029169421e-01 -1.080093627441732762e-01
-1.104756577966446891e-02 4.100547153209149753e-03 -9.049828338212948520e-01 -9.854607916874400519e-01 1.016272154017364288e-01 -1.361577656120024349e-01
1.942765400506935719e-03 9.362675460741845535e-02 -8.684302651081816649e-01 9.618249101126954415e-01 -2.689351054318940837e-01 5.066311629816520890e-02
-3.806933635990647057e-03 -1.428052607554526898e-01 -9.414667256525639516e-01 -9.980433966652179079e-01 -5.926991323377377163e-02 -1.991119680520533550e-02
-6.151155829041745141e-03 -4.159679624058090774e-02 -9.477756643851191765e-01 9.799928104541777429e-01 1.120110379355960216e-02 1.987174545225655620e-01
-3.184760975382917251e-03 -1.678673419308149561e-01 -9.198071874216182664e-01 9.980444707498243861e-01 5.924779342985053016e-02 1.992318697891955204e-02
-1.133356395672428796e-02 -6.977597915287521435e-02 -7.649440151168561686e-01 -9.948141437389769193e-01 -2.027500718966753976e-02 9.966816693581456721e-02
-1.601214559979454929e-02 -1.301306138866875454e-02 -8.319067270998865560e-01 -9.985065356502300649e-01 4.202411012598501056e-02 3.490948913827029987e-02
-7.562683028367675996e-03 -4.091009413345876589e-02 -9.408192192208478799e-01 9.801606119601802281e-01 8.565528715659381787e-03 1.980197123512358048e-01
-8.016174672777910248e-04 8.639152508702788169e-02 -7.903444789963945949e-01 9.806342542290839015e-01 -1.419988222127199495e-01 -1.348806654890488954e-01
1.398005133310304370e-02 1.524738556927668354e-01 -8.059654668787294973e-01 -9.678207293621297058e-01 2.086528687330177212e-01 -1.406663292562842782e-01
-1.222610973708028459e-02 -8.720586211740643037e-03 -7.811761070031422172e-01 -9.869385427892458651e-01 5.128709881200647913e-02 1.527152456452447182e-01
-4.895643683720115984e-03 5.441417668025289728e-02 -9.018606411465066586e-01 9.790269953461547825e-01 -1.808022812629180576e-01 9.389716435337658318e-02
1.631509538582222307e-02 1.089712927085861316e-01 -7.172454584287571988e-01 -9.761659849762494012e-01 6.647302780662837712e-05 2.170252643281084526e-01
1.512373353666095037e-02 6.199722580233306239e-03 -1.024983398832404857e+00 -9.652076600946862817e-01 3.081044447906150854e-02 -2.596630304944144707e-01
9.219928360359121514e-03 -7.545882841167370070e-02 -1.011225368881723430e+00 9.606745209331283286e-01 -3.854935402247777060e-02 2.749880218015943179e-01
2.569066726837296137e-03 2.612814822867066261e-02 -9.674016693832301339e-01 -9.673679121029493677e-01 1.194420789492945806e-01 -2.234567349843161466e-01
-1.766492802813736428e-03 -1.947978469950064906e-01 -9.581818889146014318e-01 -9.993554625827110183e-01 -1.811380907396290332e-02 3.099273022706589692e-02
-2.811602354338720109e-03 -1.717677807889570751e-01 -8.644529922333809013e-01 -9.863320401974229323e-01 -1.643426572960398069e-01 1.185738052293633209e-02
4.527059060909170013e-03 -2.188984006779913227e-01 -8.463468257746640244e-01 9.876219246721804623e-01 1.509852589010547141e-01 -4.250159410421625733e-02
1.812810592004942753e-02 1.185222669871021928e-01 -9.280879772921710735e-01 9.237446668316717791e-01 -3.670445365698243312e-01 1.094262248014004346e-01
-1.633194703923107616e-02 -6.858917200141835535e-02 -8.229340427628322185e-01 -9.997889230883525435e-01 -2.023018701639816425e-02 -3.584522717747468373e-03
1.338766167686317350e-02 -1.280287604269216284e-01 -1.038939387756914856e+00 9.594910118707785651e-01 -1.181279175486484728e-01 2.557787974692365962e-01
-1.525928036394672699e-02 -7.995720191949919065e-02 -8.506734222468095297e-01 -9.980770196741899358e-01 -5.580360615380225431e-02 -2.698555796195487022e-02
-2.873553340014213444e-03 -1.723559732180850734e-01 -8.075706788043743867e-01 9.830552925398220454e-01 1.832850556977910772e-01 -2.979960956560287390e-03
-1.080448189328719498e-03 -2.185318646572491919e-01 -9.488270808195850003e-01 9.772851244216022026e-01 1.887589804601763066e-01 -9.635264853592831469e-02
-9.256296781717094496e-03 4.556781619881485751e-02 -8.745247237684671271e-01 9.796577847135440331e-01 -1.709871456573096582e-01 1.050429477409953738e-01
1.756731128047341398e-02 1.244259212032998302e-01 -9.022837624083981378e-01 -9.197170214848486847e-01 3.786340955010187859e-01 -1.037151007094133937e-01
-2.430887968910059888e-03 -1.742034426992783158e-01 -9.474196623143669171e-01 -9.987958860013869122e-01 -4.883078836036164327e-02 -4.725697282955163697e-03
-5.131858156267517582e-03 6.628031409682944020e-02 -8.007203677112623152e-01 -9.808497969443072950e-01 1.543834785809461430e-01 1.187409675535687076e-01
-3.162750656663914088e-04 -2.218054235186705248e-01 -9.474892723105471370e-01 9.772851244216022026e-01 1.887589804601763066e-01 -9.635264853592831469e-02
1.493508677707723782e-02 -9.134383642126772673e-02 -1.033286489378496098e+00 -9.639074336549476874e-01 6.333440250385041770e-02 -2.585946882753260567e-01
-7.350986184863981220e-03 3.200138259701210131e-02 -9.124478015456066737e-01 9.830349316262456671e-01 -1.404963262118429090e-01 1.179114308434837527e-01
1.957590915390274716e-02 -1.009832389437382988e-01 -1.052864349514490483e+00 9.607530440093491331e-01 -6.288765179108624093e-02 2.701827745785673751e-01
1.286973525574772875e-02 7.507595665840909038e-02 -9.780506288078230082e-01 -9.641688556335111793e-01 1.987891514721285002e-01 -1.756738201422070322e-01
-1.704409004053712056e-03 6.696317672055907000e-02 -7.728725690348620114e-01 9.756246340864060951e-01 -1.701070138751366589e-01 -1.386368536654313810e-01
-1.006668388648465640e-02 -1.144290787893589567e-01 -8.896386546988849231e-01 9.902152233647887325e-01 1.221850027324043741e-01 6.741391936316927513e-02
-1.550430435383160117e-02 -4.969703573568961391e-02 -7.984685501264487950e-01 9.950719340453316741e-01 2.563594414065317392e-02 -9.578436429449543876e-02
2.574045078541573051e-02 -7.811387947361797535e-02 -1.069265703665979395e+00 9.589562048717348297e-01 -4.571135207449160409e-02 2.798454384647371951e-01
-8.062895938534255999e-03 5.089179111564143959e-02 -8.723526174700697577e-01 -9.745085950371739081e-01 2.088600807742246324e-01 -8.191742706932270135e-02
-1.533765002271152839e-02 -1.798952674432655052e-02 -8.087183990158705038e-01 -9.981605994474638255e-01 4.616013370132632243e-02 3.930215983066946001e-02
-5.163704436902307056e-05 -2.345539536046849574e-02 -9.736382188931081982e-01 -9.627446268611297153e-01 3.262113796720510217e-02 -2.684374132041744687e-01
-1.298626505000466348e-04 -1.885658293954197429e-01 -8.445527006915177770e-01 9.851260103218398845e-01 1.717892244105815869e-01 -3.899508146540150554e-03
2.053452533165267893e-03 1.008812658449264876e-01 -7.848134114760138003e-01 9.840644128379606448e-01 -1.264674610627908868e-01 -1.249928505083849478e-01
-1.376100540445879435e-02 2.115610281193171585e-03 -8.058620384768321321e-01 -9.951185289805103418e-01 7.936289819076797203e-02 5.865700018264871640e-02
-6.977320966680613124e-04 -1.041033818947126183e-01 -9.678694931990142747e-01 9.809259447550975342e-01 9.553451699159509064e-04 1.943794696513131137e-01
2.291111946786987541e-02 1.450377196331475160e-01 -8.796981696954710994e-01 9.061568928360645980e-01 -4.011407375655158813e-01 1.340365406562070427e-01
-7.953745002582945922e-03 -6.797272954389084465e-02 -9.343783509989513902e-01 -9.775983519911626285e-01 -2.797846423886230297e-02 -2.086112837863707825e-01
1.978654934767272097e-02 -3.123573784504097076e-02 -1.043209245051176737e+00 -9.615566907818515752e-01 1.067913536163787348e-02 -2.743987727388421116e-01
-1.675844326429293870e-03 -1.923151977467943141e-01 -9.198519223813486079e-01 -9.987958860013869122e-01 -4.883078836036164327e-02 -4.725697282955163697e-03
-1.407619114185983296e-02 -7.052384960926480484e-02 -9.043203265501332799e-01 9.944359890969145521e-01 9.287025110799293492e-02 4.972102219363185721e-02
9.074133418522555006e-03 1.396104513804914127e-01 -7.503787406480438849e-01 9.977127619454709828e-01 4.712864900725769607e-02 -4.845755971869149248e-02
-5.768568072903416770e-03 -1.545210106843688813e-01 -8.256379281966735872e-01 -9.851814239959928443e-01 -1.715137557229791943e-01 -7.703317638344297016e-04
2.113720774144531994e-02 1.337108085759045328e-01 -9.028918805436845219e-01 9.153388636210243456e-01 -3.869802017364840085e-01 1.113601733518858466e-01
-1.099566326722092348e-02 -1.196392079570625933e-01 -8.171205925989413199e-01 -9.911045357092915786e-01 -1.308192949909380287e-01 2.445631522824899887e-02
1.432721694438272679e-02 1.481361563659731873e-01 -8.189795533592316712e-01 9.675061789930384792e-01 -2.169229850038025542e-01 1.299084761950916878e-01
-6.842855116618402553e-03 -1.345544649932226555e-01 -9.021842166870825963e-01 9.933843435105523811e-01 1.016742579071414909e-01 5.338437362319631979e-02
6.031969451800703493e-03 -1.637708334770385521e-01 -1.026876085414438977e+00 9.773198925378581148e-01 -1.295669624890021521e-01 1.675059099887615532e-01
-9.544609318434872994e-03 -1.160089657236685473e-01 -8.880033265433109335e-01 -9.902152275933955305e-01 -1.221951697448348528e-01 -6.739542664892583801e-02
7.534917842580756385e-03 1.259450815195074236e-01 -7.651687397600070994e-01 9.909867777778388342e-01 -6.974693779264722060e-02 -1.143703236772758841e-01
-1.475000662579442276e-02 -9.245604517695930327e-04 -8.111417061479191393e-01 9.951187803930807707e-01 -7.938455389037607501e-02 -5.862342119505984522e-02
-1.445516836097158510e-02 -7.660625484404190444e-02 -8.853797849908825457e-01 9.944359890969145521e-01 9.287025110799293492e-02 4.972102219363185721e-02
1.093331952875387959e-02 -1.345786700058809182e-01 -1.031138307632718520e+00 -9.601269718162207534e-01 1.174947069009533301e-01 -2.536753670368354086e-01
1.389007659228625249e-02 -9.491206288524249579e-02 -1.031708287480456843e+00 9.595632188110755356e-01 -5.104706552286762677e-02 2.768259854248371621e-01
2.140343469627730214e-02 1.359716925540401522e-01 -8.941511502386342292e-01 -9.197170214848486847e-01 3.786340955010187859e-01 -1.037151007094133937e-01
9.029986359533708623e-03 1.440054103297273846e-01 -7.558211722764236473e-01 -9.977058275412276078e-01 -4.710299527557865878e-02 4.862498870275568791e-02
-1.337580555106583635e-02 -5.874337695686320665e-02 -9.111801603142107853e-01 9.799928104541777429e-01 1.120110379355960216e-02 1.987174545225655620e-01
-3.259897990190071312e-03 -1.695020647395115432e-01 -8.703408485555814700e-01 -9.863320401974229323e-01 -1.643426572960398069e-01 1.185738052293633209e-02
-1.311541498646499881e-02 -7.901829372302879295e-02 -9.062057099673670457e-01 9.915915580948090335e-01 1.133133315701837368e-01 6.250016642837627479e-02
-1.331363484164051550e-02 -8.489233721299847824e-02 -8.924111775373867461e-01 9.915915580948090335e-01 1.133133315701837368e-01 6.250016642837627479e-02
-1.666215642326623544e-02 -7.300065225819282744e-02 -8.271062865595222302e-01 9.997891139608440225e-01 2.021842671950690659e-02 3.597613984066961538e-03
1.401290957803015894e-02 2.079981968549909355e-01 -7.432662951580975008e-01 9.618783230042688981e-01 -2.626799168050681366e-01 7.608779824503997258e-02
-5.986659601738397035e-03 -1.546189373761988617e-01 -8.081428539134828393e-01 9.871978620230967838e-01 1.592788613384874541e-01 -8.403900745583935475e-03
-2.821897946937806673e-03 -2.082666227298088646e-01 -1.016707513746086367e+00 -8.382000223750429857e-01 5.308811122481604805e-01 1.248437709644881211e-01
1.140071852150443231e-02 6.226103049471420209e-02 -9.834762509406314024e-01 -9.682940422741178610e-01 1.509561173224713559e-01 -1.990449656217745944e-01
-3.487486302282897209e-03 -1.695310038110179329e-01 -8.542217325004373141e-01 9.851260103218398845e-01 1.717892244105815869e-01 -3.899508146540150554e-03
-1.413160748425734518e-02 4.291623616750756855e-03 -8.861235907787962107e-01 9.852980205871311181e-01 -9.792576577277468941e-02 1.399941249656468378e-01
-3.150403368461826992e-03 -1.644537051842591413e-01 -9.681902593547628832e-01 9.997020955345476967e-01 2.437653392835026703e-02 -1.226693716531302228e-03
-4.865976626388612142e-03 -2.158760443939750431e-02 -9.550032249656461580e-01 9.801606119601802281e-01 8.565528715659381787e-03 1.980197123512358048e-01
-4.101062810833714344e-03 7.660121720863034833e-02 -8.401589844118874106e-01 -9.643024378695616017e-01 2.555978308835285540e-01 -6.921385097258583863e-02
-3.091149345853642125e-04 -2.121713692875484281e-01 -9.291419187803625634e-01 -9.889267004200519295e-01 -1.372483511166956160e-01 5.645238092460980878e-02
-6.476822170871731829e-03 5.359846336409770234e-02 -7.953717612198092368e-01 -9.846200128795316031e-01 1.373023546642507808e-01 1.080346872109289730e-01
-1.644686973159199816e-02 -2.656138653048470064e-02 -8.309007667820661469e-01 -9.998306783285249022e-01 9.493753400283234251e-03 1.576335368810770007e-02
4.365372654851957558e-03 -2.328989052708589913e-01 -9.122396041834416325e-01 9.789029755717466585e-01 1.967682700485442748e-01 -5.505644666052689207e-02
-1.168925069593844922e-02 -1.145532161358208817e-01 -8.179345699215346821e-01 -9.910286142907076545e-01 -1.314140804201363311e-01 2.434389295839088987e-02
1.944985804927022721e-02 1.770286528027249229e-01 -8.084060075612612417e-01 9.295982362453263370e-01 -2.274961564495081856e-01 2.899872720832408768e-01
-5.556761985343749641e-03 -1.382336165699764958e-03 -9.442654635595011392e-01 -9.854946170754520507e-01 7.196874787709613142e-02 -1.536907903692057431e-01
1.195933364756388007e-02 1.507892223537048715e-01 -7.250020752877666119e-01 -9.837448387775634684e-01 -5.851730519385812263e-02 1.697698947733507213e-01
-2.174746902371872020e-04 -1.859204645390021560e-01 -8.359396616292154025e-01 -9.853594990966286771e-01 -1.704716012826920646e-01 2.467933580100459268e-03
-4.770329506801429184e-03 -2.165374587826567332e-01 -9.932255715703121046e-01 -9.692697752481838069e-01 1.655874421452583067e-01 1.819255391475477490e-01
1.940541271211130778e-02 -1.261162849712596512e-01 -1.058132783933832366e+00 -9.469780645601211244e-01 6.765454349215076213e-02 -3.140945844595793845e-01
-7.063622938751058962e-03 -1.448866674944974120e-01 -7.903348532748378785e-01 -9.916962607124388818e-01 -1.273959546683189614e-01 1.757262709767945519e-02
-5.059190527407400606e-03 7.889905582814372986e-02 -8.228376315783708650e-01 9.609929985982107459e-01 -2.701360233805482070e-01 5.932103772999063745e-02
-1.555954318969138099e-02 -1.442927605544639183e-02 -8.185353318775018261e-01 -9.981605994474638255e-01 4.616013370132632243e-02 3.930215983066946001e-02
-6.788188698936071033e-03 -1.453955531995833605e-01 -7.784868764808550168e-01 9.902795046891257336e-01 1.350277036575086853e-01 -3.337696567454487978e-02
1.471145421862675613e-02 2.969993286453156620e-02 -1.018150217808674762e+00 -9.694014710134015722e-01 8.150232550291695854e-02 -2.315559520605546817e-01
-7.932682852709975474e-03 4.817331277749972718e-02 -8.017454883173845692e-01 -9.846200128795316031e-01 1.373023546642507808e-01 1.080346872109289730e-01
1.428008580531072401e-02 1.002001690259601285e-01 -9.476467084142983222e-01 9.413335417677725081e-01 -3.083736578710328802e-01 1.371016056586511489e-01
1.095271304647428903e-02 -4.146907501039694827e-02 -1.014549541609824690e+00 9.605887695764199208e-01 -1.956890069611165461e-02 2.772837425620290341e-01
-8.637891793464684553e-03 -5.416674939511466336e-02 -7.422346890394009300e-01 -9.927502782929251701e-01 2.068608019232276093e-02 1.184017357794923259e-01
1.277356138603420212e-02 1.838945501897086277e-01 -7.785894253122961350e-01 9.751442029284280721e-01 -1.331886686569362654e-01 1.770721944193203168e-01
-1.202146220499528996e-02 -8.507197379383579783e-02 -7.724840748030489257e-01 9.956111944384585799e-01 5.569532690536350972e-02 -7.520890951031140859e-02
2.118456414081328759e-02 -7.316103077191127291e-02 -1.051791479988163580e+00 -9.601389147439929328e-01 5.037273257306264934e-02 -2.749469989058806463e-01
-2.728073752458887863e-03 8.619930868391509349e-02 -8.200937517055386650e-01 -9.609874105075941753e-01 2.701427725487216547e-01 -5.938079896396090268e-02
-4.850113683148061204e-03 2.686846075589386859e-02 -9.352353091902493309e-01 9.666877582991695306e-01 -1.482354418805212348e-01 2.086648789926397463e-01
8.724502735350520358e-03 1.068540386392039798e-01 -8.906176672798308269e-01 9.241817408148284008e-01 -3.634013156895041785e-01 1.175907891784503112e-01
-9.505341816755961959e-03 -1.245892415083696136e-01 -7.843017171363005913e-01 -9.952053909508554730e-01 -8.809873925928107807e-02 4.248343163257798510e-02
-7.659484680020920908e-03 -5.760362485105723074e-02 -9.371479999879398504e-01 -9.775983519911626285e-01 -2.797846423886230297e-02 -2.086112837863707825e-01
-1.619127914803341131e-02 -6.842063196108039147e-02 -8.561278082341639006e-01 9.980742755241317488e-01 5.583737912808143383e-02 2.701717285517874628e-02
-1.094779943770372681e-02 -1.194995421037211847e-01 -8.144337999899109448e-01 -9.911045357092915786e-01 -1.308192949909380287e-01 2.445631522824899887e-02
-2.693877298730987767e-03 -1.803174382659561148e-01 -9.113812613622919168e-01 9.997020955345476967e-01 2.437653392835026703e-02 -1.226693716531302228e-03
1.268619862177032369e-02 -9.051620244950950300e-02 -1.026222208507874711e+00 9.633836260811797780e-01 -6.412252266455679972e-02 2.603464827605918019e-01
-1.373431436325589852e-02 -1.387995111134261543e-02 -8.976816953779593877e-01 -9.854946170754520507e-01 7.196874787709613142e-02 -1.536907903692057431e-01
2.143527122476094476e-02 1.667989044967847778e-01 -8.233451394242587984e-01 -9.283779514613078598e-01 2.631258442047333390e-01 -2.624484127443938442e-01
-1.203024433246572059e-02 -8.127785091449875321e-02 -7.709044786864376331e-01 9.946189303947599036e-01 2.111618287122541196e-02 -1.014262792442510858e-01
-1.197607822871553937e-03 -9.347438583110602439e-02 -9.653991360682060430e-01 9.809259447550975342e-01 9.553451699159509064e-04 1.943794696513131137e-01
-7.591771906830988535e-03 8.278501334078447807e-03 -9.266927144368246605e-01 -9.854946170754520507e-01 7.196874787709613142e-02 -1.536907903692057431e-01
-1.380911836192568083e-02 -6.180216964340665142e-03 -8.958520244812462341e-01 9.854633577460853999e-01 -1.016459342679802424e-01 1.361252165713626450e-01
4.285514389851446948e-03 -2.407668064828531740e-01 -9.365199119035086950e-01 9.774519368848102463e-01 1.713259704995211130e-01 -1.234306400879872367e-01
-1.524833881112668682e-02 -8.575590581479203278e-02 -8.390869256330625303e-01 -9.980770196741899358e-01 -5.580360615380225431e-02 -2.698555796195487022e-02
1.339244649225704124e-02 2.526569829135772577e-02 -1.014636890505959288e+00 9.651391284531662951e-01 -9.141096640674388485e-02 2.452559845329936872e-01
1.329972712273160169e-02 -1.051186298289252807e-02 -1.019797194620651215e+00 -9.601591266023077331e-01 1.164415635840530296e-02 -2.792111481029988518e-01
-6.692664835211816453e-03 -1.490407858820778086e-01 -8.639733250121093278e-01 -9.851814239959928443e-01 -1.715137557229791943e-01 -7.703317638344297016e-04
2.437673227022654765e-02 1.747009428048908464e-01 -8.271461014637970788e-01 9.270166004491889877e-01 -2.664965679916520003e-01 2.638556456479555501e-01
2.109285109747312064e-04 -1.883794700711639292e-01 -8.306106661883841946e-01 -9.862810236572716605e-01 -1.650418574688852780e-01 -3.305700649537877001e-03
-3.068716741010071858e-03 -1.562077756580338150e-01 -9.385742125298360827e-01 -9.980433966652179079e-01 -5.926991323377377163e-02 -1.991119680520533550e-02
9.224917917007323387e-03 -2.091018288102969649e-02 -1.007506846813314372e+00 9.596910340833797459e-01 -1.256122868378793840e-02 2.807763071092836404e-01
-4.023097814809251972e-03 -2.130265490228715475e-01 -9.870954468416265337e-01 9.880204383723920625e-01 -8.237263289558097168e-02 -1.305004318317611323e-01
-4.919586611186087949e-03 1.349841356600426506e-02 -9.413829484573698059e-01 -9.854946170754520507e-01 7.196874787709613142e-02 -1.536907903692057431e-01
1.903621762276104306e-03 -2.468779654026087914e-02 -9.823328672664048966e-01 9.628663725101832549e-01 -3.558423773678825314e-02 2.676230758245124464e-01
-7.045790490150135449e-03 5.627472235379138432e-02 -7.999609633358520933e-01 9.846177960458747380e-01 -1.373381712029169421e-01 -1.080093627441732762e-01
-8.875987619380567781e-03 -1.328712419549883950e-01 -8.672540058846250899e-01 -9.902152275933955305e-01 -1.221951697448348528e-01 -6.739542664892583801e-02
2.236164535031513398e-02 -1.415872551801507506e-01 -1.070933623987102790e+00 -9.408966591043309569e-01 6.101930364497361314e-02 -3.331517994383207393e-01
-1.271881297284294804e-02 -9.567598456669819396e-02 -7.951186642679716199e-01 -9.944056355450600071e-01 -9.305017480480937131e-02 4.999096883457604390e-02
3.955359658701805212e-03 1.945347491761344541e-02 -7.190676244840827902e-01 -9.531545994836139180e-01 1.649311742621653587e-01 2.535626495360364663e-01
-1.663230691446949613e-02 -4.664646976145386120e-02 -8.265634137845750962e-01 -9.997588934041069519e-01 1.400077140976222628e-02 1.691547987279758136e-02
-4.175682389531354226e-03 3.504253230442676281e-02 -7.617298081220834627e-01 -9.577788564658680226e-01 1.573393534866729948e-01 2.406324790034170269e-01
-1.515157049003252980e-02 -7.073463607222670035e-03 -8.170202215563610038e-01 -9.951185289805103418e-01 7.936289819076797203e-02 5.865700018264871640e-02
1.143089502792632960e-02 -3.340607129702113931e-02 -1.014351881988869497e+00 -9.602021181658561000e-01 1.288450418323596088e-02 -2.790087486473420975e-01
-1.173154155738490717e-02 -8.894074213828534470e-02 -7.759568186990356553e-01 -9.957864071638999892e-01 -5.484153749300117037e-02 7.349719091921333436e-02
1.906690538334008828e-03 -1.448334681477270180e-01 -9.878360611816856540e-01 -9.846810326572017491e-01 7.994972467748449885e-02 -1.549558177324797392e-01
-1.688150526918197683e-02 -3.664980834364325868e-02 -8.499103173462922989e-01 -9.997889230883525435e-01 -2.023018701639816425e-02 -3.584522717747468373e-03
1.233023514202422934e-02 1.387658512143715994e-01 -8.250898573586262774e-01 9.568407794150750600e-01 -2.761732382223062721e-01 9.046582414457485233e-02
-3.896801661714596396e-03 -1.341743278798517847e-01 -9.504844870758523134e-01 -9.831948636945840869e-01 4.105267925637894055e-02 -1.778834942608815417e-01
3.747031000141587756e-03 -1.595525184474901881e-01 -1.005706199795799671e+00 -9.832483558761537790e-01 8.950101879393446147e-02 -1.587836210120179559e-01
7.853196549830718937e-03 8.254832378594527398e-02 -9.379710662568234714e-01 -9.537478836866056797e-01 2.548953008134336451e-01 -1.593529415685512873e-01
1.285033492627264858e-02 1.945614076411952553e-01 -7.643592515528017106e-01 9.693608014301764442e-01 -2.114504860709926493e-01 1.250133136549337609e-01
4.759897267352843769e-03 9.735918421215186691e-02 -8.834726190957885583e-01 -9.357843181893893414e-01 3.309066350457628425e-01 -1.216902161782535130e-01
1.298149272811858178e-02 -7.815301690066996793e-03 -1.019760955442647887e+00 9.596910340833797459e-01 -1.256122868378793840e-02 2.807763071092836404e-01
1.429320875556565817e-03 3.315298544411165831e-03 -9.750167694979832156e-01 9.666663742327529230e-01 -8.018026371797866425e-02 2.431609471889322471e-01
-1.023129011313846440e-02 1.730119253958422448e-02 -9.044743821917453630e-01 9.852980205871311181e-01 -9.792576577277468941e-02 1.399941249656468378e-01
2.904255736382317763e-04 -2.247614992666878420e-01 -9.471267118003635632e-01 9.772851244216022026e-01 1.887589804601763066e-01 -9.635264853592831469e-02
-1.580667065143388089e-03 -2.016270778675056941e-01 -1.013532078842175110e+00 -9.789061432566200649e-01 1.568428435676727517e-01 -1.309316047257355897e-01
-1.009022109053103224e-02 -9.627280086422596028e-02 -9.224000327675613287e-01 9.906306947043049815e-01 1.201293166999990586e-01 6.495978739849232741e-02
-7.200033831433631576e-04 8.557617591753415021e-02 -8.606132545061727646e-01 9.618249101126954415e-01 -2.689351054318940837e-01 5.066311629816520890e-02
-1.304903855547785187e-02 1.903713323123360640e-02 -8.162462354807208387e-01 -9.914996322973914644e-01 1.049219219665374764e-01 7.694068783800636635e-02
-1.653614837739964330e-02 -5.749877365444171912e-02 -8.664014848377337152e-01 9.979587390552574488e-01 5.763136049310502856e-02 2.751329553060037625e-02
-4.615248733956739749e-03 -8.915378559841634701e-03 -9.540317038282027928e-01 9.843361833940197370e-01 -3.393608146961920452e-02 1.730046832770203713e-01
-7.580672434047917504e-03 -1.463361603980168346e-01 -8.426269704826608864e-01 9.849850932332179232e-01 1.726377508232694313e-01 -7.570330453284737767e-04
2.544003654796945721e-02 -5.586343883490292594e-02 -1.064729391997446317e+00 -9.615256039594985982e-01 2.073290179711943793e-02 -2.739318523162145302e-01
-2.328084743978499696e-03 6.158725048342578862e-02 -7.738470671988951777e-01 -9.760938696886777288e-01 1.682993358620427926e-01 1.375357811792187468e-01
-9.053771159383978626e-03 -3.340288454345996527e-02 -9.310738120636600224e-01 -9.843269675690726750e-01 3.389374419072348210e-02 -1.730654067715658162e-01
-3.114361025213843552e-03 -1.518941105440083927e-01 -9.491268469414364528e-01 -9.980433966652179079e-01 -5.926991323377377163e-02 -1.991119680520533550e-02
-4.149661794529709404e-04 7.114212307234241139e-02 -7.720456937440166589e-01 -9.756240166285212734e-01 1.700769290614480567e-01 1.386781034578202232e-01
1.297537237740179449e-02 1.892860805911751321e-01 -7.742516129068819364e-01 9.693608014301764442e-01 -2.114504860709926493e-01 1.250133136549337609e-01
6.958828450889846529e-03 1.056655174987692486e-01 -8.804136896031002912e-01 9.241817408148284008e-01 -3.634013156895041785e-01 1.175907891784503112e-01
2.632951657352882325e-03 -2.106062419587139134e-01 -8.709672445183520573e-01 -9.892911783731820341e-01 -1.413816522240063933e-01 3.625179729904746267e-02
1.043993945767249937e-02 -1.014804151129971438e-01 -1.020610623868351663e+00 9.633836260811797780e-01 -6.412252266455679972e-02 2.603464827605918019e-01
1.253297569984894271e-02 1.336500014254669300e-01 -8.427990933219070557e-01 9.227246077811350755e-01 -3.584486439206224229e-01 1.417528407708893434e-01
1.737067353130973546e-02 -8.938163655344297243e-02 -1.041444800210332478e+00 -9.601389147439929328e-01 5.037273257306264934e-02 -2.749469989058806463e-01
-6.687561137338286213e-04 6.020221003084398614e-02 -9.238408806362978787e-01 9.577693216009313115e-01 -2.356176765034049825e-01 1.648096997122090179e-01
1.446424568734357152e-02 1.826991933632683418e-01 -7.872884569726503745e-01 9.351753159289865058e-01 -2.448794480989091860e-01 2.558929158376484492e-01
7.246855715946710734e-03 1.131915681100368054e-01 -8.516508562410316507e-01 -9.539604464168974784e-01 2.951246095941027492e-01 -5.348767600113047554e-02
-1.161173458012667963e-02 -1.126766444984569626e-01 -8.052382901114677471e-01 -9.943314663308596701e-01 -9.535833148187032593e-02 4.702896640705903075e-02
-8.510694197237421779e-03 3.993992438570598269e-03 -9.228067156154671213e-01 -9.854946170754520507e-01 7.196874787709613142e-02 -1.536907903692057431e-01
1.176544615588566260e-02 -1.520112457124622729e-01 -1.040732497549748503e+00 -9.486813664447645289e-01 8.486891648711698821e-02 -3.046324539092926109e-01
4.829159676305153125e-04 -2.028593147040207711e-01 -8.888555298781412040e-01 9.889750704720728924e-01 1.432596127110590811e-01 -3.748324093026079301e-02
-1.460250683213303166e-03 -4.718057736901542371e-02 -9.696651645635663286e-01 9.775346494720819068e-01 2.824322178434289510e-02 2.088739560230866155e-01
9.353506358210333937e-03 -4.265070141670138787e-02 -1.007722114232750821e+00 -9.610474246047225888e-01 1.855730080389145914e-02 -2.757598126042005160e-01
-3.236669570917629756e-03 -1.610637074795382177e-03 -9.563390189557071652e-01 -9.671278605051413235e-01 7.911644863596120625e-02 -2.416697932923788095e-01
8.111788482134802553e-03 -1.384834332703988036e-01 -1.023589722547767700e+00 9.832579609329604731e-01 -8.947119163904534989e-02 1.587409466037232597e-01
3.220125493412583258e-03 5.959238966288988443e-02 -9.452977709230808712e-01 9.627022143584985647e-01 -1.905088636834715021e-01 1.921218866430265959e-01
1.608979357915320610e-02 -2.141276988645883506e-02 -1.029912633916267195e+00 -9.618975796495384811e-01 7.792173012313080571e-03 -2.732989723802599080e-01
-9.895310824638714128e-03 3.720821688079740258e-02 -8.782579640514263097e-01 -9.790233434620606578e-01 1.807960517490495855e-01 -9.394722256843417163e-02
5.269656017745349627e-03 1.148010612047644097e-01 -8.155534724343814768e-01 -9.585783890132266727e-01 2.728789158778414103e-01 -8.163681391468564919e-02
-1.676969093066387612e-02 -2.944471520474440523e-02 -8.221165581974267944e-01 9.998306802135996652e-01 -9.511948156475064781e-03 -1.575226161156119062e-02
1.556070193078969805e-03 -2.295953482291518410e-01 -9.437592562870938950e-01 9.772851244216022026e-01 1.887589804601763066e-01 -9.635264853592831469e-02
-2.430048146569779074e-03 -1.754846191309197556e-01 -8.771281932173542462e-01 -9.915275209842278059e-01 -1.244421002025334066e-01 3.724699757100535108e-02
1.829448953574333570e-02 -7.045670319681703042e-02 -1.040959963919405595e+00 -9.611766777690743391e-01 3.752732327497173420e-02 -2.733698851750517855e-01
-9.720776047867814296e-03 3.571846375780823174e-02 -8.829437343316621778e-01 -9.790233434620606578e-01 1.807960517490495855e-01 -9.394722256843417163e-02
1.854153955421768141e-02 1.322580033291183010e-01 -8.832046060110925190e-01 -9.211565497352040000e-01 3.655342693613877758e-01 -1.336237583754138480e-01
-4.595052888288816278e-03 -1.420445983571420046e-01 -9.209799829571214680e-01 -9.925406085722002780e-01 -1.087115364378579280e-01 -5.518099473955119516e-02
2.344995253188551440e-02 1.726031429388038829e-01 -8.260087987654992636e-01 9.270166004491889877e-01 -2.664965679916520003e-01 2.638556456479555501e-01
-1.331560358446389793e-02 -9.659641032672858230e-02 -8.012670918432951428e-01 9.942395351038232354e-01 9.387586734890270013e-02 -5.172106307902781669e-02
1.297770906320568247e-02 -1.400969524035216851e-01 -1.041431946058613667e+00 -9.601269718162207534e-01 1.174947069009533301e-01 -2.536753670368354086e-01
-8.755908392337254445e-03 -1.086342273657170399e-01 -9.132114473954564549e-01 -9.906279414943587325e-01 -1.201534528002600882e-01 -6.495713441050937620e-02
5.089952098698418380e-03 -2.247550348573716106e-01 -8.557547383628971716e-01 9.832365442442592141e-01 1.766456772196452474e-01 -4.519073779238350075e-02
5.899327542586926126e-03 8.573816776126724770e-02 -7.472066864788474705e-01 9.546590715372266223e-01 -1.013539523451730956e-01 -2.799168331410108457e-01
-7.014563439351369223e-03 1.925977639248274004e-02 -9.228575059929402524e-01 -9.854607916874400519e-01 1.016272154017364288e-01 -1.361577656120024349e-01
-6.109093611799536715e-03 7.105040030357542835e-02 -8.326811135977082445e-01 -9.643024378695616017e-01 2.555978308835285540e-01 -6.921385097258583863e-02
-9.765028703573852206e-03 -1.311020856565583426e-01 -8.523565793746272767e-01 -9.875729679909740488e-01 -1.569187980481256406e-01 8.724890407911500487e-03
-5.615452091046132816e-04 -1.893182182860991547e-01 -8.636412943308352519e-01 9.913106516073002528e-01 1.257029779445021367e-01 -3.875504284339927052e-02
-1.522618504802544966e-02 -7.934749199059017155e-02 -8.161462444616592871e-01 -9.957864071638999892e-01 -5.484153749300117037e-02 7.349719091921333436e-02
-1.564402781873280857e-02 -8.063503823059348097e-02 -8.350416052528484290e-01 -9.980770196741899358e-01 -5.580360615380225431e-02 -2.698555796195487022e-02
-1.037203750326956379e-02 -2.522884249950822083e-02 -9.220784261335434051e-01 -9.838478281334352982e-01 3.071569742682233803e-02 -1.763519124044474473e-01
-1.388196515677914133e-02 -9.722622976295468289e-02 -8.219096309511826348e-01 -9.943314663308596701e-01 -9.535833148187032593e-02 4.702896640705903075e-02
-4.161868500775529542e-03 2.964133890878118890e-02 -9.344019988804139754e-01 -9.671804429519617052e-01 1.472072799772009555e-01 -2.071038567795423502e-01
-1.387688811536580413e-02 1.454927111559864775e-02 -8.160501204962302690e-01 9.959244665807972519e-01 -7.029385271497019805e-02 -5.650868195455284460e-02
4.066550872691749099e-03 5.224300788398754392e-02 -9.555702677902448983e-01 -9.635835925462061802e-01 1.973570462156178651e-01 -1.804351863822389046e-01
1.396669388103763225e-03 -3.941374171859328077e-03 -9.772797925840411848e-01 9.666663742327529230e-01 -8.018026371797866425e-02 2.431609471889322471e-01
-7.584567424920736142e-03 -1.254750455144568178e-01 -8.999239253234708746e-01 -9.906279414943587325e-01 -1.201534528002600882e-01 -6.495713441050937620e-02
