-2.751609105157647520e-02 -1.166585206753360388e-01 -8.956538351333281911e-01 9.106520094591622483e-01 2.392911975268213753e-01 -3.368273154810486614e-01
-5.171720995759176986e-02 -7.050974710731090778e-02 -9.381132280088881892e-01 -9.377226176580280015e-01 -2.467255721315553818e-01 2.445460782530209376e-01
5.845997730270030557e-02 -1.416402687851223696e-01 -7.458224752649922351e-01 -7.714111759700605919e-01 -3.957035986863334243e-01 4.983407063196557685e-01
-5.472552260791470335e-02 8.289938849656063036e-02 -8.585548589537637110e-01 -9.354781601406728653e-01 -1.596764399891052039e-02 3.530235774632421997e-01
-1.375604136398136945e-02 -4.566990435742525334e-02 -7.973827713627348324e-01 -8.248269186246788287e-01 -3.070136534188492861e-01 4.747664382899534630e-01
3.649901495622281944e-02 3.364691563469975055e-02 -6.942215182464980261e-01 -7.404381748480464154e-01 -1.112374513009282001e-01 6.628555941196903056e-01
1.394052784403482063e-02 1.984561420790945940e-01 -6.837889995908617013e-01 -9.221877347717718498e-01 -5.214054469969198885e-02 3.832116196501974548e-01
4.438129600391287066e-02 1.440902043107858688e-01 -6.667969532861247606e-01 -7.010936325274691461e-01 -3.059022891585047033e-01 6.441207246448640289e-01
-3.962702261112404506e-02 -1.414292700317579775e-02 -8.443818468495319918e-01 -9.109045233965710198e-01 -1.991665160635092413e-01 3.613663627605507855e-01
-3.307943380996974936e-02 1.482003956127883604e-01 -8.216764808557087685e-01 9.207651216319355791e-01 -1.476213874193916531e-01 -3.611087326034924661e-01
-6.176909702162902867e-03 -9.002016024419329243e-02 -8.160692098666872951e-01 -8.214151930782720434e-01 -3.630313575397152714e-01 4.398696557198013002e-01
-3.378814863831844373e-02 4.124779984276525507e-02 -8.085200985059421974e-01 -9.067254816992460498e-01 -8.069455778636799859e-02 4.139290871404575634e-01
-5.404198135557129745e-02 9.158308871427638109e-02 -8.569866204615161909e-01 9.314133918276621404e-01 -4.637813869471947570e-02 -3.609960689194592343e-01
-6.810636416325262232e-02 3.140021097361570673e-02 -9.076436864136783189e-01 9.466694742488797054e-01 1.374006076901434226e-01 -2.914412111073670375e-01
5.221324729066531382e-03 3.435365453232618223e-03 -7.435320381881940222e-01 8.178692495920893979e-01 1.645839779048112461e-01 -5.513637681138481295e-01
3.496798897499962117e-02 -1.018813907606404140e-01 -7.505492145146062111e-01 7.724516534043550653e-01 3.707597182097522315e-01 -5.156119417797683235e-01
-3.775771131170578554e-03 -8.438705049708480899e-02 -8.059776568221773685e-01 8.231340847906818414e-01 3.425779000715478695e-01 -4.528693639874254995e-01
-2.899773184772352214e-02 -1.099334958081725766e-01 -8.958282120668159543e-01 -9.082017504000784447e-01 -2.735285432737865063e-01 3.167833906390197796e-01
-6.230365362695964443e-02 -5.245638877693736823e-02 -9.598236803612565371e-01 9.408902991201363308e-01 2.427740997638552223e-01 -2.361909852332856330e-01
2.204733058732053289e-02 -1.884675775377695622e-02 -7.266281294490988252e-01 -8.207455694296933446e-01 -1.995231019225950087e-01 5.353197568376441007e-01
-2.083138535112497025e-02 1.319745713177006563e-01 -7.845202383467329010e-01 -9.313879688166396553e-01 9.719044880015922927e-02 3.508140079951733714e-01
2.253891374974871520e-02 -3.669915393958285421e-02 -7.330443234329845348e-01 -8.242130367506315114e-01 -2.334330639559081821e-01 5.159281681614786841e-01
5.602425885534307454e-02 1.116849808769009578e-01 -6.647191693315480654e-01 -6.788628815603053868e-01 -1.263229877680601410e-01 7.233171439976998629e-01
-6.724115968565774586e-03 -1.504534925716502769e-01 -8.629384656077511151e-01 8.207637140597531245e-01 3.077004356829734499e-01 -4.813183640412532771e-01
-1.496708835534681266e-02 -4.473109468369117908e-02 -7.995000228814487242e-01 -9.099494063733066795e-01 -2.357380354152364133e-01 3.412032480786653110e-01
1.975973793104496279e-02 2.178354318140788767e-02 -7.179120080629595169e-01 -8.088162699723824289e-01 -1.267519922145428635e-01 5.742387777724584641e-01
-2.503558470890684430e-04 -1.702396645715743007e-01 -8.635271161717666955e-01 8.213397056515556738e-01 2.721360900000394656e-01 -5.013412375216169670e-01
-3.083783086271690149e-02 4.716412634406906036e-03 -8.134027806883353806e-01 -9.117692801801595692e-01 -1.672686378945740515e-01 3.750972973731582227e-01
-1.439402259184503589e-02 7.064049989247796202e-02 -7.631875637496420284e-01 9.028623118848815299e-01 2.249572531928305686e-03 -4.299239295518577086e-01
4.933797342729620561e-02 -8.434162021804372800e-02 -7.190968334223627467e-01 -7.744862765061005794e-01 -2.921034249263668725e-01 5.611119288074368772e-01
-2.192450694624446805e-02 -1.319449087497064910e-01 -8.926003500189511053e-01 -9.129803272967028649e-01 -2.258124413090308868e-01 3.398171027468465666e-01
6.997898176033090500e-02 -1.791853744659143155e-01 -7.586454090452616761e-01 7.625730243157162747e-01 4.142232793706586147e-01 -4.968917964843045931e-01
-5.007440544665346660e-02 2.575362994903941313e-02 -8.536819517003275681e-01 9.436121823364777006e-01 1.221940190740265775e-01 -3.076762438810092815e-01
9.202780883727309028e-03 -5.300364807805881678e-02 -7.628254148259108192e-01 -8.254669914938467246e-01 -2.714639953886490709e-01 4.948853858841754105e-01
5.321653854784897525e-02 -1.900907525060353820e-01 -7.926755167442062211e-01 -7.632350411807523605e-01 -3.837675243239619949e-01 5.198026156033387357e-01
-5.140462552194585699e-02 -1.254517029644809829e-02 -8.792226676605708890e-01 -9.412052354810047650e-01 -1.925835419952699468e-01 2.775685213703137366e-01
5.752851050977148689e-02 -1.566801390987463127e-01 -7.599149862450325088e-01 -7.682421186232972765e-01 -4.155616473337187533e-01 4.869420544977335341e-01
-3.028059692210601644e-02 1.067096345969350130e-01 -8.012493593699041572e-01 -9.163939275515110561e-01 1.231804382192986380e-01 3.808526607322277324e-01
-3.347503909684643869e-02 -5.152526990725485529e-04 -8.208817686670055735e-01 9.110292179826010583e-01 1.632837619891858438e-01 -3.786346220998144108e-01
4.959966895289515815e-02 -1.280453782725143042e-01 -7.487326849329161149e-01 -7.718010538540842624e-01 -3.972237277524224841e-01 4.965243633299319947e-01
-4.840379906262424342e-02 -4.958750481422180556e-02 -9.015615136161567733e-01 9.362309950772980116e-01 2.580155392382514346e-01 -2.385361720330201885e-01
-4.968898103061536453e-02 -1.004173548372069014e-01 -9.583855587175488244e-01 -9.438054439006583474e-01 -2.223303082408125964e-01 2.445414445467816722e-01
6.313754802421868428e-02 -2.231438970013744083e-01 -8.026576897285753187e-01 7.407291660719013127e-01 4.437197402907493426e-01 -5.044136146127853326e-01
6.590845711159180886e-02 -9.056165304523033921e-02 -6.989881950535991040e-01 7.682858535312437898e-01 2.949568404293840818e-01 -5.680997355638208735e-01
5.024614817829566038e-02 -6.346652428387818123e-02 -7.065133523901364621e-01 7.709928822049426644e-01 2.612653152867549511e-01 -5.807843064489844886e-01
4.300581492973744313e-02 -1.267052958526775075e-01 -7.578858908316348231e-01 -7.714111759700605919e-01 -3.957035986863334243e-01 4.983407063196557685e-01
5.415669945479369141e-02 -1.980273495412882695e-02 -6.856480318757471881e-01 -7.574744260368887483e-01 -1.786909814931885720e-01 6.279347315072538738e-01
-2.153825043527249003e-02 -9.764154459377993867e-02 -8.639185112773524189e-01 -9.057482460353166731e-01 -2.879933625320351132e-01 3.109339768205451882e-01
-4.360811954583700134e-02 -1.195248762594918884e-01 -9.517738416170148374e-01 -9.448032856408392632e-01 -2.101410813616803042e-01 2.513711943847555252e-01
5.477727094518357320e-02 1.380339584582608581e-01 -6.580716398544803614e-01 6.817681320833489655e-01 3.009780905948332697e-01 -6.667866248339641144e-01
6.479166217044941833e-02 -4.208330557611177775e-02 -6.794965612270801314e-01 -7.706829008191125041e-01 -2.135297544263290159e-01 6.003773066661246549e-01
1.440302242659944948e-03 -9.250790757344741488e-02 -8.038979603599235579e-01 -8.214151930782720434e-01 -3.630313575397152714e-01 4.398696557198013002e-01
-1.796559872446629874e-02 3.308150489374965530e-02 -7.751214016505239002e-01 -9.099871610520782195e-01 -9.151104868136393511e-02 4.044120357872849070e-01
2.621145293098224929e-02 -1.155126223705753019e-01 -7.766662284936316496e-01 -8.209421583330452910e-01 -3.648542023301027393e-01 4.392441049274830034e-01
3.545977997314596342e-02 9.654250737640106272e-02 -6.864522112902692319e-01 7.762527688287670369e-01 8.639159685855249404e-02 -6.244742836001352382e-01
-3.341342128667151856e-02 -1.193722189617612561e-01 -9.135258409506753496e-01 9.106520094591622483e-01 2.392911975268213753e-01 -3.368273154810486614e-01
5.762295080321157975e-02 9.813246217481483291e-02 -6.650573506305167415e-01 6.907335080721491716e-01 7.276828804878809898e-02 -7.194386680466867690e-01
-7.377004518894088661e-03 -2.008998726858573225e-01 -8.900162915977040123e-01 8.069600389610882551e-01 2.283105785085899064e-01 -5.446923675442789659e-01
3.736869649079494621e-02 -6.958982127973968590e-02 -7.279099547984430041e-01 -7.731884625613906215e-01 -2.976873798731340948e-01 5.599659143432046404e-01
4.944425305122745334e-02 -1.597132854249325162e-02 -6.896668966536335654e-01 7.560989441485849172e-01 1.791108867757709167e-01 -6.294709500015011061e-01
1.918547450754973238e-02 7.019931072217099055e-02 -7.102952909719236763e-01 7.878973966793367811e-01 6.520445432521021489e-02 -6.123447325176198941e-01
9.883799077569737496e-03 2.044191596881875517e-01 -6.927400604398752382e-01 -9.221877347717718498e-01 -5.214054469969198885e-02 3.832116196501974548e-01
-4.877437256471953836e-02 7.114880033012285776e-02 -8.417837369936219671e-01 9.385489262650651421e-01 9.454185488378287830e-03 -3.450167117451625187e-01
1.066860980109719630e-02 1.939688730218669110e-01 -6.922738447249149329e-01 -9.223053933268122728e-01 -5.222662058286251657e-02 3.829166247928752487e-01
-1.926755304327554957e-02 1.072998609024825023e-01 -7.744973866805072715e-01 8.974071222274633275e-01 -4.017762151261284470e-02 -4.393702489985091275e-01
-3.784656436812908198e-02 1.283715410504229215e-01 -8.257294002000367117e-01 9.187780028348127015e-01 -1.314122202302385745e-01 -3.722604060077194243e-01
5.611886914514695179e-02 -2.218878966416495402e-01 -8.115272365705969992e-01 7.202214647067330944e-01 4.589130666404751535e-01 -5.202690064210271359e-01
-2.795952850609376150e-02 2.789946733848944205e-02 -7.973100570464562997e-01 9.107391855656555846e-01 1.232153640914080001e-01 -3.941726904886081462e-01
5.728407499012824061e-02 7.295018838781498760e-02 -6.682562465941128682e-01 -6.886291499583184761e-01 -5.649777085432858281e-02 7.229093274513586076e-01
-3.869088036854344964e-02 -8.100216472823648650e-03 -8.387778296018156832e-01 -9.115222965271279065e-01 -1.938595578172079836e-01 3.626921211948606616e-01
-2.755910915198264352e-02 5.168112670366078326e-02 -7.916877700579307842e-01 9.047637235260960198e-01 5.113054247712607581e-02 -4.228336223825970852e-01
-4.714035415964090529e-03 1.863616217780544038e-01 -7.446217643742960579e-01 -9.725940108367538972e-01 -6.949417530340053217e-02 2.218816118640210833e-01
-1.074080440451959974e-02 -2.141511742078147096e-01 -8.995804989183264766e-01 7.777103984082375243e-01 1.516359549735776802e-01 -6.100598932620890924e-01
6.813237056179749507e-02 -9.208242418346791747e-02 -6.967702052985614847e-01 7.682858535312437898e-01 2.949568404293840818e-01 -5.680997355638208735e-01
-2.220931102141708580e-02 4.704352821080899638e-02 -7.818253160653767520e-01 -9.047782000709118089e-01 -5.119383581340847256e-02 4.227949856031301135e-01
-4.093625445475938818e-02 -1.052421464824734726e-01 -9.279668113844165012e-01 9.431233943275986187e-01 2.082285097135416208e-01 -2.591508263819862212e-01
-6.305781468136333057e-02 -8.600047467805576815e-03 -9.173320088979050047e-01 -9.351996894012263306e-01 -2.406365858104640154e-01 2.597991041426682690e-01
-3.185371221687343171e-03 -1.381813266298309584e-01 -8.498701835631872203e-01 -8.199004579122688430e-01 -3.579702557909851812e-01 4.467891393982047488e-01
-3.834051727904891523e-03 -9.779457516099421266e-02 -8.171248930563467239e-01 8.214298629874056124e-01 3.630051110889950250e-01 -4.398639215891189669e-01
-2.670531878916910726e-02 3.360025018794707968e-02 -7.934507944079167707e-01 9.067057711781134621e-01 8.068369053687772519e-02 -4.139743791512367488e-01
-8.793915356000219993e-03 -4.620637675470908728e-02 -7.882404434588162756e-01 8.254802351797657645e-01 2.714699929444258641e-01 -4.948600047066968322e-01
7.229514890173929786e-02 -2.127822230139266024e-01 -7.811833808562944625e-01 -7.588537629518201655e-01 -3.925445549925705158e-01 5.196631012488261980e-01
4.144236030299235096e-02 3.559075921640095924e-02 -6.884546375531966911e-01 -7.258852388446994652e-01 -8.697892017037178736e-02 6.822941355994271984e-01
-3.531621799820233720e-02 -9.275790785292357954e-02 -8.977417903895898998e-01 9.081920450527165567e-01 2.735293615714867732e-01 -3.168105074981882874e-01
5.090265890550939309e-02 -2.336276446266043194e-02 -6.900603250571781810e-01 7.619257860753282374e-01 1.921773833255013553e-01 -6.184957153058187052e-01
7.141073674773798508e-02 -1.842747035782489051e-01 -7.607080445240081978e-01 7.589577639955151778e-01 4.202558491258789330e-01 -4.973611703243575044e-01
1.870108121798196412e-03 1.977615210881314700e-01 -7.155927361097650374e-01 -9.658466759686182845e-01 -3.141828280954715030e-02 2.572024300539755837e-01
-1.024031860564698915e-02 1.940294772435051732e-02 -7.615784178286211237e-01 8.170856431191968472e-01 1.737706123663543822e-01 -5.497043078658842008e-01
-6.783945710317385025e-02 -2.117183877168005244e-03 -9.282891682222436103e-01 9.414662284326298369e-01 2.314949124277205506e-01 -2.450539659767236034e-01
2.410529574275948467e-02 1.937767183081300360e-01 -6.693990182837109559e-01 -7.849809479957214897e-01 -1.776479092977252261e-01 5.935032700886202495e-01
4.526318320313476792e-03 -1.099709591767778771e-01 -8.116546897466246913e-01 8.202640797860881738e-01 3.717615157775310264e-01 -4.346955426496510455e-01
-4.255327267570255950e-02 -6.437941551971448906e-02 -8.962230616571288389e-01 -9.362623480073430926e-01 -2.532442617734740886e-01 2.434751724151454633e-01
-3.224677800403197986e-02 -1.636533224023482280e-01 -9.373199954283703006e-01 9.524228934856681095e-01 1.547998047530200205e-01 -2.625407633355518744e-01
-6.003233728397191354e-02 7.121475514135476581e-02 -8.724961467785142810e-01 9.377794441473364939e-01 3.533267731126399098e-03 -3.472135224236705953e-01
-2.351894598396711902e-02 6.082411667130970673e-02 -7.831781337686321010e-01 -9.044376193259227037e-01 -3.124530753319210499e-02 4.254601315108311188e-01
3.517900976446784039e-02 1.709936999904439203e-01 -6.646866026249140802e-01 -7.061961017401994223e-01 -1.965238435959003882e-01 6.801951519859870121e-01
1.161605368271197494e-02 -1.198729419596225726e-01 -8.067448645586273726e-01 8.202640797860881738e-01 3.717615157775310264e-01 -4.346955426496510455e-01
-3.125037201606254561e-02 -1.791165260308796303e-01 -9.471423409492583101e-01 -9.671968811262218191e-01 -1.486882136452350456e-01 2.059660366727923686e-01
-2.371286338823829637e-02 -8.232248729632385062e-03 -8.007030849496804548e-01 9.117645974648719287e-01 1.672671218900567414e-01 -3.751093557142199386e-01
4.407102283497341816e-02 7.185179606177016787e-02 -6.807390344426522688e-01 7.114862810994808662e-01 8.832622544581619772e-02 -6.971267816586345090e-01
-3.153734613831244565e-02 1.393278731910119195e-01 -8.141168266109982676e-01 9.188625738024470690e-01 -1.531473052211435038e-01 -3.636447076043384796e-01
3.095380898642025383e-03 -1.005095462498544617e-01 -8.074111351774643230e-01 -8.214151930782720434e-01 -3.630313575397152714e-01 4.398696557198013002e-01
-3.874257074781291277e-02 -1.628108158563972840e-01 -9.664689301303293067e-01 9.607000370930582900e-01 1.967116502114286403e-01 -1.958570024290503808e-01
-1.664644854770381058e-02 9.658782279998297249e-02 -7.691491667489568362e-01 -8.974370460068423760e-01 4.015922206347913997e-02 4.393108072171326151e-01
5.904500236140089453e-02 -1.565529262158166512e-01 -7.566847833337128071e-01 7.670010345957277709e-01 4.164796520367806676e-01 -4.881128070112539241e-01
1.157036952307488251e-02 1.008212738615183318e-01 -7.164570743794012042e-01 7.857415560515247366e-01 9.195434481518120762e-02 -6.116817845606808968e-01
-4.281876981680195898e-02 -1.786128833883227421e-02 -8.551460705666684703e-01 -9.096103376488087200e-01 -2.324214075556642334e-01 3.443680051228102945e-01
-4.161623006310029987e-02 -6.969375242805625481e-02 -8.964124297791726814e-01 9.369026078363309473e-01 2.523334796592991425e-01 -2.419531328016077953e-01
-1.054527820566029603e-02 1.563919820649015413e-01 -7.627186887254406855e-01 9.464969065315880226e-01 -1.009529023860081809e-01 -3.065160965201914611e-01
9.834572102091517290e-03 1.963097654808719505e-01 -6.928376775506090990e-01 9.222595589995306042e-01 5.240272910365458003e-02 -3.830029501407010151e-01
2.701685008810391156e-02 -1.765024659611760804e-01 -8.229555757484500189e-01 -8.207509261537290213e-01 -3.077200529681105023e-01 4.813276287718166180e-01
1.883491009546477482e-02 5.831413096192779137e-03 -7.226230039590508802e-01 8.178692495920893979e-01 1.645839779048112461e-01 -5.513637681138481295e-01
6.402633188612399939e-02 -1.976766314563879468e-01 -7.817649838164827392e-01 7.618792446161377629e-01 3.850085204212398415e-01 -5.208727827658027332e-01
-5.730919686416884734e-02 -7.140454522321185160e-02 -9.602726850062049957e-01 -9.363606770734319573e-01 -2.510599355754599138e-01 2.453519740687450379e-01
6.107353114325769078e-02 -5.337069341209123990e-02 -6.878596841807592677e-01 7.614325249431436182e-01 2.197558273693692166e-01 -6.098589068759371346e-01
-6.306097939264816710e-02 -5.034284630419150891e-02 -9.606606287550757406e-01 9.386410961231093086e-01 2.558154290486998050e-01 -2.313252232884207560e-01
-5.395527150839306285e-02 -6.007860420875097557e-02 -9.345416252984649619e-01 9.371495650331205240e-01 2.563966892027468858e-01 -2.366673414818848131e-01
3.068551527019047764e-02 -2.065651045015327869e-01 -8.351575085784067598e-01 7.530940946592142859e-01 3.734790476162180295e-01 -5.416296572207811577e-01
-6.220636486896317409e-03 -2.112966681481559528e-02 -7.718967545323230928e-01 -8.236035730514281727e-01 -2.379180685540606410e-01 5.148515777507397528e-01
-2.506384808185697227e-02 -3.198445186255827882e-02 -8.163512003018916774e-01 9.099441368161086396e-01 2.357398423376570740e-01 -3.412160526830527729e-01
-3.280864670039986691e-02 -7.092841804309214793e-02 -8.717064201740938323e-01 -9.044913315776068607e-01 -2.946306231197097780e-01 3.083637900614449312e-01
-3.831180292714468638e-02 4.408847349296304841e-02 -8.178755311884119417e-01 -9.067254816992460498e-01 -8.069455778636799859e-02 4.139290871404575634e-01
-4.714528102052937403e-02 6.264886230701106895e-02 -8.386994154178198935e-01 -9.379546212194570520e-01 -1.070886223872582164e-02 3.465926265843184972e-01
-1.837905070072015645e-02 -1.467008854914592375e-01 -8.922200135263199661e-01 -9.136462185823032156e-01 -1.861287195762265922e-01 3.613954717745822554e-01
6.457998937999445688e-02 -1.770237483992278815e-01 -7.652191024409911169e-01 7.676758246137155295e-01 4.099517297328148513e-01 -4.925580245947934754e-01
-2.601945264904529168e-02 9.723997457246895404e-02 -7.874623819049714202e-01 9.028623118848815299e-01 2.249572531928305686e-03 -4.299239295518577086e-01
6.212337422424019789e-02 -1.866033490754670787e-01 -7.763635034304794402e-01 7.618792446161377629e-01 3.850085204212398415e-01 -5.208727827658027332e-01
5.971539967235064278e-02 1.302542050956839448e-01 -6.562626121091599263e-01 6.728354512409527866e-01 2.019860595074663978e-01 -7.116839799503918984e-01
2.723733377594226429e-02 -6.982199093162201609e-02 -7.420225401078055505e-01 -7.731884625613906215e-01 -2.976873798731340948e-01 5.599659143432046404e-01
3.417426876257722949e-03 -3.382285335073399041e-02 -7.614496949731277553e-01 8.242228399896116553e-01 2.334226827780507829e-01 -5.159172038265019689e-01
5.973889437350813486e-02 -2.153557212463265980e-01 -8.008246320427172549e-01 7.537910150639546281e-01 3.599050140632649164e-01 -5.497885834218223522e-01
-3.128519922470968107e-02 4.009146246241029193e-02 -8.022167210995363451e-01 9.067057711781134621e-01 8.068369053687772519e-02 -4.139743791512367488e-01
-5.339793903121729801e-02 4.219632646585079472e-02 -8.586052202748197804e-01 9.413011877934127636e-01 6.987278121440408662e-02 -3.302572759290467452e-01
-1.698798716348496468e-02 -1.281915022214542565e-01 -8.753832166815294080e-01 9.106520094591622483e-01 2.392911975268213753e-01 -3.368273154810486614e-01
1.128092587236944992e-02 1.319568358164293909e-01 -7.121551169596355146e-01 -7.845210050614647157e-01 -1.664382295352884733e-01 5.973483978102794856e-01
3.939332595860284107e-03 1.452763010337434491e-01 -7.262697988773577640e-01 -9.246343862104344780e-01 -4.718743572148791782e-02 3.779214174233627155e-01
-2.991146323478352693e-03 -1.271097399608515088e-01 -8.408275603146700972e-01 -8.216399022964399057e-01 -3.511747611667739855e-01 4.489812446792805223e-01
-1.905876993815582010e-02 -1.815479935695822056e-01 -9.106884659504923540e-01 -9.203030917403867139e-01 -1.106673599760240045e-01 3.752265379327837658e-01
2.638448825814865631e-02 1.122385998246096112e-01 -6.955618095236174581e-01 7.762527688287670369e-01 8.639159685855249404e-02 -6.244742836001352382e-01
-4.840164472252234118e-02 1.139376489141181309e-01 -8.473434957229065700e-01 9.193538948822732593e-01 -1.103732244257349254e-01 -3.776323175982960745e-01
3.172961340744437364e-02 1.460984175944480268e-01 -6.797503684790356937e-01 -7.903347123086424952e-01 -2.880145946375153865e-01 5.407574648544419826e-01
5.957838841520666368e-02 -9.792129959880295498e-02 -7.120501825757610259e-01 7.731703513754240031e-01 3.317709500092520525e-01 -5.404957395613418925e-01
2.183836383353013333e-02 -1.529491737805717122e-01 -8.148102023909092884e-01 8.199111497116718938e-01 3.579833703218977536e-01 -4.467590101514009593e-01
5.667715754234704806e-02 -1.710311238650396026e-01 -7.732836972282248755e-01 -7.689282900429842416e-01 -4.089082819822989490e-01 4.914705501836880708e-01
-1.748236716176533589e-02 -2.134938118207665991e-01 -9.147801133909370108e-01 9.182827594655414982e-01 1.098716956035253600e-01 -3.803747943457303493e-01
1.561644506144373645e-03 -1.897067597873831613e-01 -8.721679299100838501e-01 -8.082311683077820774e-01 -2.625870739383523444e-01 5.270772307511792931e-01
-4.161437125495347222e-02 -1.310931540499032100e-01 -9.532492165719778088e-01 -9.510673804859083313e-01 -1.776526727358886393e-01 2.528049952937397316e-01
5.175350696622711688e-02 -6.446760208448365503e-02 -7.049626631252544628e-01 7.709928822049426644e-01 2.612653152867549511e-01 -5.807843064489844886e-01
-2.199029882907064040e-02 2.615331255543366235e-02 -7.856191515342551002e-01 -9.067254816992460498e-01 -8.069455778636799859e-02 4.139290871404575634e-01
1.178197627623853334e-02 -2.296267706527514441e-01 -8.760870881246799469e-01 -7.155374455909789821e-01 -3.391778633858672509e-01 6.107082289818391851e-01
-4.364400872890591282e-02 5.404607291823472492e-02 -8.287708237777156040e-01 9.386846436092003421e-01 3.087800974676532459e-02 -3.433914506308324288e-01
3.571246255996197994e-02 -1.356168405783853004e-01 -7.756426158674755156e-01 7.688614046279642622e-01 4.110958198245016626e-01 -4.897472484826584926e-01
-5.394817078094893935e-03 1.599235795717855180e-01 -7.461837535611104411e-01 9.583682445641087400e-01 -4.873436412379370669e-02 -2.813454630246561283e-01
-4.245648589107735293e-02 -3.834553548795081174e-02 -8.695836397959085806e-01 -9.067551389958802277e-01 -2.750515969223384927e-01 3.195962092000364518e-01
-2.988268677480242566e-02 3.885277843346635757e-02 -8.004319580491534580e-01 -9.067254816992460498e-01 -8.069455778636799859e-02 4.139290871404575634e-01
-3.076810562809426455e-02 7.198120048197208937e-03 -8.109713618321269246e-01 9.117645974648719287e-01 1.672671218900567414e-01 -3.751093557142199386e-01
-1.985256622076434635e-02 -3.918514238157674162e-02 -8.074287428055860749e-01 9.099441368161086396e-01 2.357398423376570740e-01 -3.412160526830527729e-01
-6.050554593412402421e-04 1.717289988374281207e-01 -7.300753738960291672e-01 9.335740389281984575e-01 1.205426518253121387e-01 -3.375040487612145923e-01
4.648479310689228317e-02 -1.021581785141980059e-01 -7.334946199027194691e-01 7.724516534043550653e-01 3.707597182097522315e-01 -5.156119417797683235e-01
1.200299985207398633e-02 -2.023263032417457752e-01 -8.616262937929368704e-01 8.082712927116952883e-01 2.626180303392878224e-01 -5.270002727882389104e-01
-4.554249910713037419e-02 -2.352200755374102281e-02 -8.654141040524027106e-01 9.418414134664578885e-01 1.916180564032168576e-01 -2.760747586067197057e-01
7.587983257510835799e-02 -1.821301980036565404e-01 -7.520762971267828112e-01 7.589577639955151778e-01 4.202558491258789330e-01 -4.973611703243575044e-01
5.680786379826871513e-02 3.205663375761460404e-02 -6.725722269881168058e-01 -7.193592146748102323e-01 -5.929065854625264337e-02 6.921032712475732041e-01
-6.354277871238515896e-02 -4.042402901563078160e-02 -9.516466966421054385e-01 9.386410961231093086e-01 2.558154290486998050e-01 -2.313252232884207560e-01
-4.192132470861826415e-02 -5.730444865303492563e-02 -8.862549745954030334e-01 -9.355979369427374071e-01 -2.588643670951150111e-01 2.400952724168871899e-01
-5.732070850364903193e-03 1.495814121463177881e-01 -7.480976846883715670e-01 9.126998094308964582e-01 -1.694447480015684113e-02 -4.082792459072004387e-01
-1.346691926405924370e-04 2.045238717495072855e-01 -7.228195848855256678e-01 -9.461338298495838295e-01 -2.105531630543540367e-02 3.230904666953770543e-01
-5.550574852684039872e-04 -7.466775780190194889e-02 -7.937279918825124181e-01 -8.231586939329886832e-01 -3.428965273012357651e-01 4.525834024434493563e-01
-5.741058030104558702e-02 5.753990185866610790e-02 -8.667958216761056933e-01 9.413011877934127636e-01 6.987278121440408662e-02 -3.302572759290467452e-01
3.225949850165511779e-02 -1.293728293341642743e-01 -7.759155083240021344e-01 8.202640797860881738e-01 3.717615157775310264e-01 -4.346955426496510455e-01
-1.016078384896890695e-02 -7.370254426871590547e-02 -8.095006283890289200e-01 8.231340847906818414e-01 3.425779000715478695e-01 -4.528693639874254995e-01
-1.182576214710277102e-02 -1.941700866143897530e-01 -8.955324981989279953e-01 9.202759706848957499e-01 1.107128543398000209e-01 -3.752796312936625411e-01
3.156903433407176607e-02 -2.363491752175809202e-01 -8.566848231207250253e-01 -7.247687096598223189e-01 -3.223983171093223188e-01 6.089085667184467310e-01
8.561551989672123259e-04 -1.290370717523405264e-01 -8.343285238574625895e-01 8.216454347732580210e-01 3.512055311531648849e-01 -4.489470507795849108e-01
-1.718886526383953117e-02 -8.779119614603718424e-02 -8.405970099593079725e-01 9.044853237326697659e-01 2.946208030863681770e-01 -3.083907935411674961e-01
6.462216728814204614e-02 -1.549364079328336211e-02 -6.713875867030262290e-01 7.504165824849219346e-01 1.808993434790722721e-01 -6.357282283023862890e-01
-1.938978674490978577e-02 1.379689845985367647e-01 -7.813243008918878685e-01 9.261077273122920728e-01 -1.446935354758396297e-01 -3.484081775790623392e-01
-7.157162267433273342e-03 1.661071631052448150e-01 -7.533234650643226837e-01 9.551405975219702249e-01 -8.151617730840136911e-02 -2.847131043742082146e-01
1.373178531372063610e-02 -3.727719279007017661e-02 -7.473755499671252966e-01 -8.242130367506315114e-01 -2.334330639559081821e-01 5.159281681614786841e-01
-8.153095362727369802e-03 -9.286048128168021554e-02 -8.211186057438033536e-01 8.214298629874056124e-01 3.630051110889950250e-01 -4.398639215891189669e-01
5.463143704658098010e-02 -7.215812125184309367e-02 -7.048204882742834521e-01 7.719602510733635237e-01 2.983134132488681756e-01 -5.613256436673453864e-01
-5.087989610406869895e-02 -4.920241734959490687e-02 -9.124291414031363567e-01 -9.355979369427374071e-01 -2.588643670951150111e-01 2.400952724168871899e-01
-1.400605569243659233e-02 -1.392970503257241477e-01 -8.762115775462389067e-01 -9.129803272967028649e-01 -2.258124413090308868e-01 3.398171027468465666e-01
-4.834454938538612634e-02 1.173107066549583521e-01 -8.481903629626833530e-01 9.193538948822732593e-01 -1.103732244257349254e-01 -3.776323175982960745e-01
-2.001428096322660499e-02 4.628163765186759510e-02 -7.761965515398839832e-01 9.047637235260960198e-01 5.113054247712607581e-02 -4.228336223825970852e-01
4.086698073757785016e-02 -1.440443729959265673e-01 -7.746245667830136128e-01 7.688614046279642622e-01 4.110958198245016626e-01 -4.897472484826584926e-01
-3.738816788420744330e-02 -1.040336067404852988e-01 -9.140832520324291277e-01 9.431233943275986187e-01 2.082285097135416208e-01 -2.591508263819862212e-01
-3.720553618892344372e-02 -1.454001674896638341e-01 -9.445464922886500636e-01 9.524228934856681095e-01 1.547998047530200205e-01 -2.625407633355518744e-01
5.953104424922073951e-02 -1.910028070788309384e-01 -7.834072026620128026e-01 7.618792446161377629e-01 3.850085204212398415e-01 -5.208727827658027332e-01
2.186147820718976204e-02 1.160287029238994162e-02 -7.164732354657427083e-01 8.129067696673726306e-01 1.369254289010978232e-01 -5.660689098945530517e-01
7.199041277269056793e-02 -2.068713761616876867e-01 -7.770585336954415334e-01 7.565824867053252412e-01 3.861060279995812139e-01 -5.277358012805015708e-01
-4.899119563313092396e-02 -2.249332077444278141e-02 -8.781415576486546470e-01 -9.379367871879374929e-01 -2.392965133678098266e-01 2.510214371912874443e-01
9.720397736872016942e-03 -1.032032292791092570e-01 -7.962760349717783459e-01 8.214298629874056124e-01 3.630051110889950250e-01 -4.398639215891189669e-01
-5.249904361836098092e-03 1.968993201597076248e-01 -7.429167426359427617e-01 9.738230835144585651e-01 9.830571642580249181e-03 -2.270946099659170991e-01
-7.514854071529430447e-03 -1.647540889140544085e-01 -8.740520699750148337e-01 -9.136462185823032156e-01 -1.861287195762265922e-01 3.613954717745822554e-01
4.551739182675908907e-02 -7.117778214203909770e-02 -7.175026047062650347e-01 -7.731884625613906215e-01 -2.976873798731340948e-01 5.599659143432046404e-01
-5.961622850446855054e-02 1.327723391009382262e-02 -8.891801515582977711e-01 9.432188073749291357e-01 1.455309475295160915e-01 -2.985950848982240613e-01
-1.898684218225376447e-02 -2.086939392144361860e-01 -9.170652229167908231e-01 9.220321578195233014e-01 7.525058895528441427e-02 -3.797289148966092598e-01
-5.312433591734091326e-02 -4.314153954359702114e-02 -9.131167997100309019e-01 9.362309950772980116e-01 2.580155392382514346e-01 -2.385361720330201885e-01
-3.860853725266330527e-02 -1.175549864537146494e-01 -9.295316801224512426e-01 9.444298892770331966e-01 2.217557495306425319e-01 -2.426449500613473698e-01
-5.160443416070718131e-02 1.526094609145214019e-02 -8.626053049699268227e-01 9.441678253215666228e-01 1.508374271924398102e-01 -2.929081565704662049e-01
-4.345313897419954968e-02 -8.890014012161721879e-02 -9.246407871166197889e-01 -9.403858534681128756e-01 -2.347585358792905752e-01 2.460952588508379113e-01
-1.453139374135465657e-02 -1.795542857647143831e-01 -8.973955928477597155e-01 9.217875555260938158e-01 1.331240058198370491e-01 -3.641231955694510525e-01
-2.922136836111297042e-02 1.233099920041032665e-01 -8.030724870522305547e-01 9.291501257513238299e-01 -1.082382357706126313e-01 -3.535032222392945345e-01
-2.018677407955857955e-02 -1.233591909548215765e-01 -8.818850739994053001e-01 -9.106639125275697300e-01 -2.392627400081885625e-01 3.368153495073416548e-01
5.054197798759923338e-02 -1.433957464862159192e-01 -7.596688171376245746e-01 -7.700769335178317965e-01 -4.102403884251306088e-01 4.885533135376028957e-01
9.438795365928879036e-03 1.577545770484635734e-01 -7.072805628367057063e-01 9.336578962835304640e-01 1.192151622958623758e-01 -3.377435088734989654e-01
-1.018569193864936676e-03 -1.966142310146403172e-01 -8.795657486046304374e-01 -8.082311683077820774e-01 -2.625870739383523444e-01 5.270772307511792931e-01
-3.605360290871905543e-02 -1.622063965726023571e-01 -9.535272120240223526e-01 9.587409742218873099e-01 1.910901796788549434e-01 -2.104763349604162337e-01
6.831322379607467077e-02 -4.808628515417320143e-02 -6.769320293886555984e-01 7.586616457606066843e-01 2.177251325473592847e-01 -6.140262811224308503e-01
-1.966003009292864936e-02 6.401724558618651639e-02 -7.747404007574091311e-01 -9.044376193259227037e-01 -3.124530753319210499e-02 4.254601315108311188e-01
-4.195787651799497142e-02 3.071980771640359098e-02 -8.298723939307990349e-01 -9.107546865873179520e-01 -1.231847642741306093e-01 3.941464381546067597e-01
3.153198883283545029e-02 -2.340866751083170716e-01 -8.554239104039020880e-01 -7.155374455909789821e-01 -3.391778633858672509e-01 6.107082289818391851e-01
-1.207333166221497001e-02 1.611982848395637768e-01 -7.690201786191852573e-01 9.464969065315880226e-01 -1.009529023860081809e-01 -3.065160965201914611e-01
4.715254145413302379e-03 1.502914805692646127e-01 -7.223874313771853073e-01 9.278302179655125714e-01 5.658554518569087338e-02 -3.686857234910345116e-01
8.503033889468771325e-03 -2.902368719830484070e-02 -7.511489694108126614e-01 8.236139613571317186e-01 2.379018549248971270e-01 -5.148424517081962026e-01
2.109222724643387836e-02 1.031834419126709534e-01 -7.038362014631482921e-01 7.891684261965791203e-01 1.088860502059910834e-01 -6.044477009344587648e-01
-4.432874057697751974e-02 -5.231391278905322961e-02 -8.885163623894705154e-01 9.362309950772980116e-01 2.580155392382514346e-01 -2.385361720330201885e-01
1.541635062829704687e-02 4.840457370491775546e-02 -7.191824175448362499e-01 -8.013624473440925655e-01 -8.320651536983578178e-02 5.923638272098455948e-01
-1.964272261259317892e-02 -4.470568269309914064e-03 -7.902870129412800093e-01 -9.117692801801595692e-01 -1.672686378945740515e-01 3.750972973731582227e-01
-6.165103663259558636e-02 -4.017411347748637424e-03 -9.068313455041224769e-01 9.418414134664578885e-01 1.916180564032168576e-01 -2.760747586067197057e-01
-4.567582073923626834e-02 -1.301579633081943743e-01 -9.682799105438083531e-01 -9.567317093604672529e-01 -2.069609767869675376e-01 2.045277252393490341e-01
-4.282377327581454035e-02 -1.294854176250965216e-01 -9.566692603017636909e-01 -9.510673804859083313e-01 -1.776526727358886393e-01 2.528049952937397316e-01
-5.081588286412245387e-02 -1.112818762981507004e-01 -9.717609120650689825e-01 -9.422589701778497639e-01 -2.112235679948467615e-01 2.598704243327901731e-01
5.549823247368810414e-02 -6.456693762720297838e-04 -6.787764375789229199e-01 7.496475271997086187e-01 1.327069003015408921e-01 -6.483960699878732470e-01
-1.715019079860679793e-02 1.680811650183012818e-01 -7.873453712563803775e-01 -9.319417125188040885e-01 1.086494419019137375e-01 3.459478909343450259e-01
-6.007438162687697703e-02 2.033514612801511946e-03 -8.974125730135078527e-01 9.427563506217664369e-01 1.853431272694531506e-01 -2.772334549370051304e-01
-5.502289601339539760e-02 -9.998050366086981555e-03 -8.897245853040849362e-01 -9.412052354810047650e-01 -1.925835419952699468e-01 2.775685213703137366e-01
4.027661720464595363e-02 -1.161455259979864429e-01 -7.537045204893586536e-01 -7.718010538540842624e-01 -3.972237277524224841e-01 4.965243633299319947e-01
4.416734583398206071e-02 1.353486522947320581e-01 -6.699101371365089319e-01 6.872277912897892804e-01 2.214216410354089559e-01 -6.918745693838909139e-01
3.343082055954905898e-03 1.683494632904003752e-01 -7.215483773592359373e-01 -9.347646806516772822e-01 -1.607145875799655677e-01 3.168372029057973660e-01
-4.824450889827227446e-02 -7.724259948373292384e-02 -9.315898624148251095e-01 -9.377226176580280015e-01 -2.467255721315553818e-01 2.445460782530209376e-01
3.949175917592484542e-02 -2.230751681058049940e-01 -8.358010304659776457e-01 7.307169703010600870e-01 4.265098012128326066e-01 -5.330498089141667561e-01
2.264256148116607081e-02 5.045759497397582505e-02 -7.090328148391105145e-01 -8.008686837963613359e-01 -1.005655493381596710e-01 5.903354314291138216e-01
1.291542097215109958e-02 -2.685631784386404916e-02 -7.439313132916141047e-01 -8.236035730514281727e-01 -2.379180685540606410e-01 5.148515777507397528e-01
-1.233798721563993464e-02 -1.978173355949675305e-01 -8.978645879109858896e-01 9.202759706848957499e-01 1.107128543398000209e-01 -3.752796312936625411e-01
2.156363086943340751e-02 -1.792500181661927927e-01 -8.326805592267847445e-01 8.213397056515556738e-01 2.721360900000394656e-01 -5.013412375216169670e-01
-2.430474884510104919e-02 -1.399752608430117513e-02 -8.046313634502521017e-01 9.110292179826010583e-01 1.632837619891858438e-01 -3.786346220998144108e-01
5.613583761056204630e-02 7.070570249005207752e-02 -6.695254488934017090e-01 -6.886291499583184761e-01 -5.649777085432858281e-02 7.229093274513586076e-01
1.847646901024231625e-02 -1.428474445294663775e-01 -8.128856837710676242e-01 8.199111497116718938e-01 3.579833703218977536e-01 -4.467590101514009593e-01
8.216371424710549806e-03 1.412700943821072197e-01 -7.149611542577003487e-01 9.278302179655125714e-01 5.658554518569087338e-02 -3.686857234910345116e-01
3.246877007526635661e-02 3.249009173333639727e-02 -6.982794125906208738e-01 7.390022354690950479e-01 1.118615960713149338e-01 -6.643513221903438737e-01
-1.735198336916963027e-02 -1.859311355356056683e-01 -9.077950399881914434e-01 -9.203030917403867139e-01 -1.106673599760240045e-01 3.752265379327837658e-01
4.578275750278209405e-02 -1.637481079010807972e-01 -7.833789315906911632e-01 7.655539553076654569e-01 4.031600518554530055e-01 -5.013871898051419640e-01
-3.182001339107887183e-02 -1.751021869358192762e-01 -9.450499918520796072e-01 9.679372771389469499e-01 1.489553282230978160e-01 -2.022615576890251232e-01
2.959619142658648228e-02 -1.067124804818164741e-01 -7.622072259707982633e-01 8.231679761744680190e-01 3.428365805768502916e-01 -4.526119331383158806e-01
-4.455477204428096027e-02 3.890732605353837414e-02 -8.336721775348827634e-01 9.437825310894246700e-01 7.863955187228786892e-02 -3.210768675749856582e-01
-1.276042305367383091e-02 -2.148532225397505324e-01 -9.049094540753435112e-01 -9.181401416274059812e-01 -1.079736948080714382e-01 3.812615395786732586e-01
6.428150817719892329e-02 -2.124473435218737216e-01 -7.926874190480096560e-01 -7.692501717404360839e-01 -3.714454116254558569e-01 5.198869871998197389e-01
-5.034516405768051789e-02 -1.237228908166435604e-01 -9.811528397542967905e-01 -9.454616557864279347e-01 -2.218086594588886684e-01 2.385438660427823265e-01
-8.762366894757680005e-03 7.840925831272591018e-02 -7.513497621300959661e-01 8.992862755057056123e-01 -1.370535702121576140e-02 -4.371456941066639845e-01
4.509147845142021799e-02 -1.962245112517700674e-02 -6.966642989888522930e-01 -7.632119238917124404e-01 -1.915872825156285097e-01 6.170914619469205498e-01
2.477602750728659722e-02 -2.381509745473812112e-01 -8.655703951712614419e-01 6.871843739025939035e-01 4.269691513261107962e-01 -5.877711970486141357e-01
-3.375917083200715568e-02 1.241805516274858828e-01 -8.143666848821912163e-01 9.168818366858265678e-01 -1.247662805706048761e-01 -3.791583742820437974e-01
4.267911566768076148e-02 6.988079964772260511e-02 -6.824093382644941252e-01 7.114862810994808662e-01 8.832622544581619772e-02 -6.971267816586345090e-01
-3.512716336995568012e-02 1.986343399584035788e-02 -8.164115677585948028e-01 9.102165654480280921e-01 1.324262141088449751e-01 -3.923889674809856176e-01
1.351167320259847801e-02 2.167527312547711527e-01 -6.832685585496647285e-01 9.304142572158645708e-01 -1.031028898059306448e-01 -3.517088342409341872e-01
-8.676418871176871939e-03 1.564043451220367975e-01 -7.581993066251485613e-01 -9.578494218682002126e-01 4.666751869638201267e-02 2.834548072012139652e-01
-3.920920333257100349e-02 -1.511527398038286785e-01 -9.592751730582512737e-01 -9.567317093604672529e-01 -2.069609767869675376e-01 2.045277252393490341e-01
6.773330970949636987e-02 -2.232931689509960738e-01 -7.960876078541788692e-01 -7.560241033526523546e-01 -4.208408595524107398e-01 5.013187868821655790e-01
-6.262631527670355601e-03 1.925751242687998299e-01 -7.482499587906237259e-01 9.768426484653495168e-01 4.562121241896974905e-02 -2.090386211125228599e-01
-5.830706898538254301e-02 -3.480717915746121133e-02 -9.258247557111654036e-01 -9.353222184561132968e-01 -2.600697843197151138e-01 2.398667441439759351e-01
2.541517947135915378e-05 1.942214152028913510e-01 -7.214795967463646376e-01 9.669570142966770199e-01 2.687567950213961762e-02 -2.535188954570334330e-01
2.526872316983237374e-02 3.520911861356865874e-02 -7.069759071894817781e-01 8.013812548988155093e-01 8.318733019870953871e-02 -5.923410777509953151e-01
-2.980493485561455051e-03 1.765568397837292136e-01 -7.392993993758552040e-01 -9.700569152473795809e-01 -9.936072975217013700e-03 2.426743819082876064e-01
-2.848633085666705395e-02 5.002620922864393221e-02 -7.949603351933155482e-01 -9.099871610520782195e-01 -9.151104868136393511e-02 4.044120357872849070e-01
-5.850882250295866283e-02 3.291440314647609694e-02 -8.768107492321187690e-01 9.442700119829656735e-01 1.137506175325387059e-01 -3.088930906975035917e-01
-5.876445575706799873e-02 2.608084486966834314e-02 -8.813357539581123667e-01 -9.429774933669162751e-01 -1.231249103962191449e-01 3.092469942349812539e-01
1.948193318382434452e-02 9.860873459749842918e-02 -7.073319417247638796e-01 -7.857070264550927163e-01 -9.194652783681030173e-02 6.117273122869789637e-01
-5.678987527480569564e-02 -2.685305727750893212e-02 -9.098497030168273270e-01 9.384497280446753020e-01 2.363833625886302137e-01 -2.518630854733719393e-01
4.777540746610271782e-02 1.087557625645749343e-01 -6.732817236955037643e-01 -6.929633411985349767e-01 -1.506870176202982636e-01 7.050498070885934387e-01
-5.365013526220066553e-02 2.097332640436873688e-02 -8.665468601745158761e-01 9.436121823364777006e-01 1.221940190740265775e-01 -3.076762438810092815e-01
-5.423247100951140987e-02 -8.398397566629318967e-02 -9.608794378223678434e-01 -9.411964662902152501e-01 -2.246294727135552116e-01 2.523703862009999965e-01
2.521056008076201158e-02 1.613501245417402891e-02 -7.114813188451754034e-01 -8.088162699723824289e-01 -1.267519922145428635e-01 5.742387777724584641e-01
7.009677956709968807e-03 4.576264204555158255e-02 -7.301965441574148619e-01 8.013812548988155093e-01 8.318733019870953871e-02 -5.923410777509953151e-01
5.568478283814316809e-02 6.692796528962713376e-02 -6.702503575027018989e-01 -6.886291499583184761e-01 -5.649777085432858281e-02 7.229093274513586076e-01
2.596008157078687553e-02 -8.772868872947647834e-02 -7.555062415547452170e-01 -8.251797453484946976e-01 -3.052128862533287079e-01 4.753140876636272050e-01
4.891699717142636294e-02 -1.381338784655282426e-01 -7.578117618039180714e-01 -7.700769335178317965e-01 -4.102403884251306088e-01 4.885533135376028957e-01
5.648187595762265562e-02 -1.855170919884600589e-01 -7.845042567719651139e-01 -7.632350411807523605e-01 -3.837675243239619949e-01 5.198026156033387357e-01
-3.816718797575170685e-02 8.612681872839982045e-02 -8.151643316882142276e-01 9.364530707728644376e-01 -2.644283550166061023e-02 -3.497948294224833554e-01
-5.187729077282392243e-02 -4.508429270312486886e-02 -9.118757138637906268e-01 -9.355979369427374071e-01 -2.588643670951150111e-01 2.400952724168871899e-01
-6.137024143929921405e-02 3.275548621038007480e-02 -8.866906153797765588e-01 -9.436348843230625283e-01 -1.147653253524298089e-01 3.104547071399488267e-01
-5.312431069125941180e-02 1.707484548499934793e-02 -8.665704202282339397e-01 9.441678253215666228e-01 1.508374271924398102e-01 -2.929081565704662049e-01
1.177177682326541793e-03 -1.089427031670342910e-01 -8.180927911451341128e-01 -8.202522768258986297e-01 -3.717691560193784883e-01 4.347112800406359723e-01
-3.023735853076679747e-02 -1.541278243481462029e-01 -9.272530782984663711e-01 -9.169372674494230546e-01 -1.770299729646476750e-01 3.576121309946314053e-01
2.916440902322066028e-02 -1.484412917226474449e-01 -7.977530132279069264e-01 8.199111497116718938e-01 3.579833703218977536e-01 -4.467590101514009593e-01
5.567755100920623174e-03 1.467510551004676533e-01 -7.207854185939664982e-01 9.278302179655125714e-01 5.658554518569087338e-02 -3.686857234910345116e-01
3.455499434164194250e-02 7.524179157780123972e-02 -6.907145960525593598e-01 -7.874066450974764875e-01 -6.326827929466141698e-02 6.131785222033051541e-01
-2.384811689667249227e-02 6.362150843716424253e-02 -7.826553842432540931e-01 9.044252539699547677e-01 3.127946743837706212e-02 -4.254839067440205347e-01
-5.558894460148823546e-03 8.767985760829061226e-02 -7.460368537445773995e-01 -8.993126645963179788e-01 1.370633056540147138e-02 4.370913723686413732e-01
-5.455954541776954214e-02 -1.884507378888286219e-02 -8.954697483086373477e-01 -9.379367871879374929e-01 -2.392965133678098266e-01 2.510214371912874443e-01
-6.691958232373515503e-02 3.233795082256730319e-02 -9.033466408434690509e-01 9.466694742488797054e-01 1.374006076901434226e-01 -2.914412111073670375e-01
-1.332324587824398714e-02 1.092282184644394610e-01 -7.625325648057343919e-01 8.974071222274633275e-01 -4.017762151261284470e-02 -4.393702489985091275e-01
5.023617774827860479e-04 -3.614585395959601932e-02 -7.681326098223631993e-01 -8.248935163927022529e-01 -2.687266543111084260e-01 4.973295405222185606e-01
1.525128352644296997e-02 -1.718879833737105012e-01 -8.390257507005953741e-01 8.213397056515556738e-01 2.721360900000394656e-01 -5.013412375216169670e-01
-3.006458389376707660e-02 -1.145279220096884348e-01 -9.010303486714148491e-01 9.106520094591622483e-01 2.392911975268213753e-01 -3.368273154810486614e-01
-1.099504968558765242e-02 -1.874911012802785160e-01 -8.913449558804162898e-01 9.217875555260938158e-01 1.331240058198370491e-01 -3.641231955694510525e-01
2.151497297995076663e-02 -1.313364554194929590e-01 -7.988689593579522130e-01 -8.202522768258986297e-01 -3.717691560193784883e-01 4.347112800406359723e-01
7.192961612566275975e-02 -4.384747181286699491e-02 -6.709612668048590134e-01 -7.706829008191125041e-01 -2.135297544263290159e-01 6.003773066661246549e-01
6.741441536505722587e-02 4.269877172528690340e-02 -6.606196029789548341e-01 -7.112879558234227462e-01 -4.934478048295982272e-02 7.011665540651701445e-01
-3.701055005996610470e-02 1.392528505950603457e-01 -8.280103703160675011e-01 -9.148826739426891841e-01 1.365149011831741921e-01 3.799386459343446210e-01
-9.141812752373256606e-03 -1.458263239674787159e-01 -8.662098389161824175e-01 9.129695744857125872e-01 2.258272733674097088e-01 -3.398361350221872357e-01
-2.976635948616962457e-02 -1.768770889775238553e-01 -9.365292078118051533e-01 9.679372771389469499e-01 1.489553282230978160e-01 -2.022615576890251232e-01
9.547452118401297122e-03 1.867136504464071700e-01 -6.948420009268512221e-01 9.222595589995306042e-01 5.240272910365458003e-02 -3.830029501407010151e-01
-6.060348996037866892e-02 3.152917824198047531e-02 -8.848133824155571814e-01 -9.436348843230625283e-01 -1.147653253524298089e-01 3.104547071399488267e-01
6.267373909694460080e-03 -1.182834813351627129e-01 -8.164470040794553629e-01 -8.199617871574310657e-01 -3.696267337943600628e-01 4.370797927908643965e-01
-1.051208595234817862e-02 -8.901108187369635716e-02 -8.235953499365550323e-01 -9.044822210608738366e-01 -2.943517066467626342e-01 3.086567423189176540e-01
5.204295124087351954e-02 -2.201743700732480269e-01 -8.163974491163885627e-01 -7.301775102514246329e-01 -4.456467713469012826e-01 5.179186796313812735e-01
2.975178795162375031e-02 -1.769088317429129975e-01 -8.175742521692747067e-01 8.226439455773359999e-01 3.167661131904626615e-01 -4.721399880746809385e-01
-1.297314900279950174e-02 6.160506350113551660e-02 -7.611256135202257855e-01 -8.954317791426882334e-01 1.337932967598518159e-02 4.449976656554293086e-01
-1.018719798516088890e-02 5.593764067483675273e-02 -7.543791865714971623e-01 8.954206971565609186e-01 -1.334419139486385172e-02 -4.450210193459133712e-01
2.571295336593903622e-02 -1.418813039237484253e-01 -7.988844568403675739e-01 8.216454347732580210e-01 3.512055311531648849e-01 -4.489470507795849108e-01
