6.806660141046939894e-02 6.612878749974919479e-02 -7.045561045014442358e-01 6.033140134544927591e-01 -2.003866453693805838e-01 7.719179966337345045e-01
9.780946272846964551e-02 -1.156026808004302769e-01 -8.224873964551321359e-01 5.820731332842395966e-01 -4.660411560612719994e-01 6.663306299171161129e-01
-2.322065472070139122e-02 -7.078829622867405247e-02 -7.084042034471927929e-01 3.560972343619444591e-01 -4.899746472518285434e-01 7.956881328323431868e-01
-2.819435715793554113e-03 7.242236441055119323e-02 -6.600309702128482892e-01 -3.337942471688347124e-01 2.223471322820882168e-01 -9.160475715392309981e-01
9.429046864331623590e-02 -1.311395439136713303e-01 -8.291129559798571247e-01 -5.931826811997854554e-01 4.419909558989827958e-01 -6.728880305282127772e-01
3.197284808140295198e-02 -2.059148335587916989e-01 -8.207367401004858065e-01 -6.510688924220257023e-01 4.260112169759328604e-01 -6.281908470608603690e-01
-1.205688220312712833e-01 -1.667697591071140850e-01 -7.305298456821498476e-01 -2.532445327391739665e-01 4.937049690310783556e-01 -8.319390663935306574e-01
-1.191023929416582944e-01 -1.519278083885505434e-02 -6.472803888667877370e-01 2.776740868205671009e-01 -3.283965783167500097e-01 9.028027408344608817e-01
5.254653983057306537e-04 -7.810289979350687473e-02 -7.235848257007543305e-01 3.566040620427577412e-01 -4.921969773475887711e-01 7.940879538341466537e-01
-2.054556248296520241e-02 9.665266231277727660e-02 -6.490239429360259438e-01 3.238663093142557514e-01 -1.922579904122995731e-01 9.263624986007298334e-01
-9.240526270451283886e-02 -1.589837141601200543e-01 -7.348711529720298730e-01 -2.702922747152184946e-01 4.735950867726467783e-01 -8.382420772152171518e-01
2.358585630740428832e-02 -1.522458187010436170e-01 -7.863959230173180881e-01 5.201302352485775993e-01 -4.186382119137254665e-01 7.444505261640550486e-01
1.061343557081040195e-01 1.071720482924713030e-02 -7.515817702429241631e-01 -5.933690112918358350e-01 3.146498628014754995e-01 -7.408837157594717615e-01
-1.004975381625314718e-01 -1.581067470332862268e-01 -7.317663137681259533e-01 -2.702922747152184946e-01 4.735950867726467783e-01 -8.382420772152171518e-01
-2.718153083273385298e-02 1.313727155752449638e-01 -6.387023736061582246e-01 3.052777832581811679e-01 -2.190154590294134118e-01 9.267349695328791492e-01
-2.237248231967436940e-02 -2.136150814163861045e-01 -7.872138566163848772e-01 -3.321170129140288418e-01 3.396069332946893282e-01 -8.799803523893242607e-01
-1.050858945076183909e-01 -9.794690214745542522e-02 -6.930439533534950014e-01 2.765224675679043842e-01 -5.201788176114681139e-01 8.080527969374848851e-01
4.564615027751814380e-02 9.584293632686489983e-02 -6.828838333046142184e-01 -5.314337318816221289e-01 1.556783709917715641e-01 -8.326718641960471068e-01
1.148890077331419929e-01 4.584673284849307556e-02 -7.461079334090818804e-01 5.856552420933406333e-01 -2.308777683522690582e-01 7.769835220191395608e-01
-1.174181179173900830e-01 8.196733745437629042e-04 -6.422451598669197681e-01 -2.584159073323159528e-01 2.697420692118644436e-01 -9.276100662104296291e-01
2.876473583976973947e-02 7.104124327738985112e-03 -6.977574903810238593e-01 5.189659590632749175e-01 -3.149797724114778985e-01 7.946458810722853983e-01
3.306008016773259034e-02 1.822769843343663154e-01 -6.523467720533324687e-01 6.767159171014741625e-01 -2.882936372772839095e-01 6.774528369170391695e-01
4.798744882684450458e-02 1.587555280740122685e-02 -7.063511639845436729e-01 -5.203124016630295001e-01 3.092430785722929398e-01 -7.960174137735812616e-01
5.141779346951982910e-02 1.226388546244625150e-01 -6.817446594541126670e-01 -6.218763646539484657e-01 1.098770225436493941e-01 -7.753688328800247831e-01
-5.919295798327121882e-02 -2.001270833439144914e-01 -7.680144229473501172e-01 3.459673242907022606e-01 -3.993588761537211762e-01 8.490106586847828707e-01
-9.564559034872342769e-02 -1.167059934104099500e-01 -7.082779036890816116e-01 2.766633715802486182e-01 -5.136014079386562736e-01 8.122013128463158038e-01
6.469537295784226483e-02 -1.495579384225778352e-01 -8.156598938154272505e-01 5.922441771539637134e-01 -4.360270809536704317e-01 6.775892703564939668e-01
-1.364425650907384472e-03 -9.392090031262990968e-02 -7.323194918390907304e-01 -3.550353889483240932e-01 5.090047050581358867e-01 -7.841326946525006836e-01
-4.972100451249724350e-03 -3.269433293533395568e-02 -6.960376747143216525e-01 3.595013214569247606e-01 -4.135373625560263555e-01 8.365080093106883607e-01
6.878485908759339462e-02 1.364159195467799790e-01 -6.945695540231118237e-01 -6.361015724946186278e-01 7.978058513925959105e-02 -7.674697698963203196e-01
7.648807169980967324e-02 1.114991157446259679e-01 -7.034306160127349328e-01 -6.218763646539484657e-01 1.098770225436493941e-01 -7.753688328800247831e-01
-9.533894368862082247e-02 6.339716142010323741e-02 -6.341913785939028436e-01 2.431018484011132075e-01 -1.667469854662425588e-01 9.555610572547850179e-01
-6.898056324318178889e-02 6.002478418201055016e-02 -6.408111828059280812e-01 -2.317019938692565784e-01 1.646121444698943892e-01 -9.587580653793915664e-01
3.131889820833397980e-02 -3.423334542938341607e-02 -7.175261814937388127e-01 -5.158581304418997648e-01 3.857374752431657616e-01 -7.649163283980908723e-01
-2.411688209407116326e-02 -1.876051180417153963e-01 -7.759094573198321854e-01 -3.460167599035673391e-01 3.993558008766095457e-01 -8.489919588382677240e-01
1.195769407544697988e-01 4.118027458761797099e-02 -7.510281072732178931e-01 5.856552420933406333e-01 -2.308777683522690582e-01 7.769835220191395608e-01
3.236738072057239457e-02 1.903864534642625561e-01 -6.474753148002293512e-01 -6.590050080498510710e-01 2.896101168706418094e-01 -6.941457912941551012e-01
-2.550514223246272069e-02 -8.457461338770677628e-02 -7.153606462719560577e-01 -3.566209498432662550e-01 4.921830964686891297e-01 -7.940889734049827453e-01
5.051206858466585764e-02 -6.080638735128227057e-02 -7.457653474048945297e-01 -5.099147285812700714e-01 4.594286072363898965e-01 -7.272635866236674129e-01
-2.948016864714085930e-02 -1.293715026889034718e-02 -6.767715923702314340e-01 3.576247061932784077e-01 -3.467265653012495674e-01 8.671131751014797828e-01
3.596840321246443789e-02 1.320706940586673650e-01 -6.699713029024558786e-01 5.524244926968787661e-01 -1.634806972066416841e-01 8.173746029266056867e-01
-2.920974382820748158e-02 1.419271656331203002e-01 -6.345583629651878610e-01 -3.060929257193305553e-01 2.883136788304171416e-01 -9.072939674790367892e-01
3.699828012124449506e-02 -1.477902330605589121e-01 -7.926792366921896482e-01 -5.201125070940268991e-01 4.186310735990914078e-01 -7.444669261838554597e-01
-1.727861696038240566e-02 4.005425630048430052e-02 -6.631385499041534404e-01 3.490503502213326281e-01 -2.660598963138652295e-01 8.985410311075506806e-01
-8.206709065502830469e-02 -3.512390198985394785e-02 -6.664602702746676988e-01 -2.754374942812191640e-01 3.846960334422332983e-01 -8.809898686125143819e-01
1.023415873236278584e-01 7.521529173045622685e-02 -7.289540649906164349e-01 5.941593406001060007e-01 -1.742897062921298090e-01 7.852374012095005851e-01
-1.864365425157451031e-02 -1.078948810734906560e-01 -7.341081251585604983e-01 3.550987048578652105e-01 -5.072215903081134236e-01 7.852586632018617729e-01
3.987225811902946060e-02 1.867734808529952495e-01 -6.571328991719168622e-01 6.717182324388114578e-01 -3.042651295019040969e-01 6.754386331699337997e-01
8.433107521700119319e-03 -1.946078053960538234e-01 -7.973956271050258726e-01 5.417044538073327864e-01 -3.588415515391678023e-01 7.601243487839750568e-01
7.236908844148452757e-02 -3.970098369610722960e-02 -7.493054327540740189e-01 5.835859413346771163e-01 -3.996279677252284057e-01 7.069122551549963385e-01
1.028580393321530256e-01 -3.301539611482167541e-02 -7.707137481189174633e-01 5.848765563322033678e-01 -3.962068929660697014e-01 7.077708045823564165e-01
2.304194766105547090e-02 3.419121791289470372e-03 -6.949364215168718495e-01 -5.189489088609214873e-01 3.148939389971395775e-01 -7.946910325245433171e-01
3.071157850945600148e-02 1.968482098341494124e-01 -6.432073756956574462e-01 -6.590050080498510710e-01 2.896101168706418094e-01 -6.941457912941551012e-01
-7.825790009696563521e-02 6.996356792012767278e-02 -6.369482264211288047e-01 -2.311856124647640176e-01 1.433547675724367587e-01 -9.622903008986137818e-01
8.591765487148936981e-03 -2.102617282739933924e-01 -8.038591448387486516e-01 -5.559852227519148649e-01 3.691199443955511805e-01 -7.447354555350033101e-01
-3.101615584301813458e-02 1.279064885859451141e-02 -6.664723341426314063e-01 3.541153259171926915e-01 -2.944837925280935909e-01 8.876269666300313776e-01
8.724956530610993022e-02 1.107258534959851132e-01 -7.125257303016206967e-01 6.040379422545096855e-01 -9.130047660464413184e-02 7.917085241985855060e-01
-8.922370610625013354e-02 9.344237228119754712e-02 -6.311737718928390750e-01 2.268664343873256495e-01 -1.398391363414583088e-01 9.638343410024651225e-01
-1.039438329702618569e-01 -2.048129254974525582e-01 -7.579523391525178067e-01 2.201120481347458857e-01 -4.991372268061673445e-01 8.381006592779748354e-01
6.084880626066135195e-02 -9.369260693923970283e-04 -7.216065263658441031e-01 -5.178579944845033145e-01 3.459495446989961920e-01 -7.823950473201151112e-01
2.597606816594324325e-02 1.065953934331823894e-01 -6.688548213786669194e-01 5.313472909263802224e-01 -1.535625500199443438e-01 8.331197991024872351e-01
3.888006460894238847e-03 1.179355241857942410e-01 -6.521481902746217862e-01 -3.142927370078101856e-01 2.163472543159463690e-01 -9.243451417160641892e-01
7.124100532581467693e-02 -1.578745641018339529e-01 -8.265064280450525880e-01 6.066423728466616705e-01 -4.068945360640893738e-01 6.829508532743490123e-01
1.136745930134344836e-02 2.198493960408873238e-01 -6.206805074227952357e-01 3.957330153428164632e-01 -4.200236880803663864e-01 8.166856690422876763e-01
8.830938921514370002e-03 -5.243775437437970394e-02 -7.125606390440616389e-01 5.137170268993321853e-01 -4.222900838863581918e-01 7.468372656241543117e-01
4.356992242959341344e-02 -1.394339738117331140e-01 -7.930186848561060486e-01 5.158431675069985456e-01 -4.303669023471631827e-01 7.407362255894157643e-01
-8.125219230705342521e-02 -1.056099596227875886e-01 -7.056244596486266341e-01 -2.743683970231481362e-01 5.193854168277208805e-01 -8.092964670018290008e-01
7.786290522375709233e-02 -1.106374171502026577e-01 -8.015854248737303012e-01 5.771063867424496285e-01 -4.758044121676334726e-01 6.637457191898767928e-01
-5.941388349661116258e-02 -1.096972729116897811e-02 -6.633916143819588163e-01 -2.680637539062808994e-01 3.439086659702099702e-01 -8.999270266595305046e-01
-1.166671363070858891e-01 5.986729403241858836e-03 -6.410847504599783697e-01 2.762722732884542731e-01 -2.719656680520753933e-01 9.217962390968071906e-01
-3.739643361817012596e-02 -1.536948423186156876e-01 -7.537021903389379274e-01 3.553732792332374713e-01 -4.557000461517853318e-01 8.161172099302134164e-01
-1.121787640644755085e-02 -2.384903052489908137e-01 -7.999020666372922417e-01 -2.258143322140486464e-01 5.316903429520081215e-01 -8.162801397671629600e-01
1.858441612137899657e-02 -1.690681814364197256e-03 -6.940503099149766264e-01 -5.189489088609214873e-01 3.148939389971395775e-01 -7.946910325245433171e-01
2.832124325925420780e-02 -1.302686757726337075e-01 -7.767547165599201220e-01 5.116172128823521792e-01 -4.726797687336819487e-01 7.175107411825739634e-01
-8.846148813636377228e-02 2.793123340292838486e-02 -6.427803215750084176e-01 -2.572428958304128765e-01 2.221126404408327593e-01 -9.404743842876235327e-01
-8.757698846974133755e-02 -2.207770718836074009e-01 -7.710772697563686995e-01 -2.075801177388557073e-01 4.957114260488429403e-01 -8.433152890847794847e-01
-9.048551388886365288e-02 -1.071875770001139427e-01 -7.035066446668897244e-01 -2.743683970231481362e-01 5.193854168277208805e-01 -8.092964670018290008e-01
-2.992896649172568577e-02 1.941704380072478142e-01 -6.147717322673205143e-01 -2.050819526545462068e-01 2.692681622591376334e-01 -9.409761152595665923e-01
-2.520517533256807358e-02 1.784843088208369344e-01 -6.209434183992813550e-01 -1.833423540845059430e-01 3.369866377287016879e-01 -9.234855641487074163e-01
3.728818673432512942e-02 1.785439241229332119e-01 -6.581589028833724209e-01 6.767159171014741625e-01 -2.882936372772839095e-01 6.774528369170391695e-01
-1.005498500851613880e-01 -1.703633912405668749e-01 -7.389422113732346808e-01 -2.614678633979962696e-01 4.915401065759049115e-01 -8.306761583417660022e-01
-1.131566955540602853e-01 -1.955382968253887299e-01 -7.499076455823237009e-01 2.577655452426738658e-01 -4.935836539903626363e-01 8.306215144091013691e-01
6.576446232038937745e-02 -9.497862880292874677e-02 -7.798356952929816899e-01 5.069271945996951523e-01 -4.887560691661200774e-01 7.100298051691670276e-01
-7.449930108907217019e-04 -1.732335666162265198e-01 -7.798326851969049622e-01 -5.221856349717359791e-01 3.820554913288572996e-01 -7.624668938220403591e-01
4.923087229360772164e-03 5.117158471419834499e-04 -6.850843759144205070e-01 -3.576342151617977194e-01 3.466409825094703412e-01 -8.671434699001510094e-01
-2.073548991041811868e-02 -2.013387339398954590e-01 -7.835447777737967190e-01 3.319433242909927140e-01 -3.629069707157257518e-01 8.706963650231809293e-01
6.167383544658191358e-02 7.404082203323970879e-02 -6.981180703968682399e-01 5.997556326392443626e-01 -1.540516007695777734e-01 7.852141653191377912e-01
5.121676089888359262e-02 -7.444156929622254559e-02 -7.549442631576864793e-01 -5.075741923546213119e-01 4.801003246998153395e-01 -7.154523865909496738e-01
6.201080181153163090e-02 -6.055064796285645687e-03 -7.246387112652430407e-01 -5.178579944845033145e-01 3.459495446989961920e-01 -7.823950473201151112e-01
1.576251487886526012e-02 1.645387026360300153e-01 -6.466817252004362082e-01 5.672800087503808708e-01 -3.005167933536674885e-01 7.667353184669380983e-01
8.829058336996109535e-02 9.615392150328786261e-03 -7.382814158363708579e-01 5.917971336893205203e-01 -3.152577854206701780e-01 7.418818513002992665e-01
-7.339857510860066381e-02 -3.201702756241442405e-02 -6.682720726891955287e-01 2.772916821125540054e-01 -3.845923400988265350e-01 8.804533235603684282e-01
-4.768686129266969109e-02 -1.346258156989723898e-01 -7.373355254750232346e-01 -3.528482262082001664e-01 4.903966499969870663e-01 -7.968746795660277549e-01
-4.465889105362619294e-02 1.486738724404131906e-01 -6.291540726960385133e-01 1.669600428585293062e-01 -2.327645718409709907e-01 9.580944620361644404e-01
-3.778341688694651646e-02 1.038728781954071922e-01 -6.410322450218530754e-01 -3.239142294176642900e-01 1.922492791027004821e-01 -9.263475517672902226e-01
1.083667798848413077e-01 5.444855420618132519e-02 -7.385345526798271498e-01 5.907750703030952844e-01 -2.332732490129269809e-01 7.723784095916493841e-01
-4.051106846271089945e-04 -9.208474095326886488e-02 -7.315619376712502175e-01 -3.550353889483240932e-01 5.090047050581358867e-01 -7.841326946525006836e-01
-7.080282889698248650e-02 -2.153812258969342308e-01 -7.723091655602923877e-01 -2.182665689373260165e-01 4.846976183417229245e-01 -8.470111709170009551e-01
-3.888899933072056947e-02 -1.099362043830283131e-01 -7.262716085431090152e-01 3.550987048578652105e-01 -5.072215903081134236e-01 7.852586632018617729e-01
1.380599765552012644e-02 -8.609352835225926592e-02 -7.368280051202775738e-01 5.075918158129453239e-01 -4.801134488339616757e-01 7.154310761830771082e-01
4.727076138612203507e-03 -7.161043978560982515e-02 -7.214474582641545730e-01 3.566040620427577412e-01 -4.921969773475887711e-01 7.940879538341466537e-01
-4.264628999197594972e-02 1.056623885735228641e-01 -6.394274049393049442e-01 3.238663093142557514e-01 -1.922579904122995731e-01 9.263624986007298334e-01
3.026370226354993531e-02 5.465219815682274135e-02 -6.823268770978938580e-01 -5.234712701911660160e-01 2.295949371176369824e-01 -8.205266565654010247e-01
4.124995010365505727e-02 9.894703232138672352e-03 -7.048144476361437594e-01 5.203476081281553922e-01 -3.092522863895130203e-01 7.959908228605191427e-01
-1.165151729301448780e-01 -1.127883717316941065e-01 -6.986862918996806782e-01 2.761756248458381857e-01 -5.192194768129947402e-01 8.087880804877448648e-01
1.243217917224276742e-01 -5.117924751120912254e-03 -7.735724279219128308e-01 5.825082982615957805e-01 -3.559818374095686244e-01 7.307263604735270146e-01
7.174257315495945198e-02 -4.249312835166454277e-02 -7.497589113861959920e-01 -5.850971674473139927e-01 3.991705819211723849e-01 -7.059207825059709007e-01
-3.415025529600369120e-02 -1.002474507419572614e-01 -7.215845920977478345e-01 -3.549001456340942773e-01 5.093408802002297175e-01 -7.839756082849477226e-01
6.425690009945907166e-02 1.763918741751490382e-01 -6.847018561394180303e-01 6.632165077129276165e-01 -2.168499079764217297e-01 7.163239360147655166e-01
-5.680751466529496141e-02 -1.839325213863198527e-01 -7.612102795629420715e-01 3.451772360672009654e-01 -4.274858772095568304e-01 8.355288747179138165e-01
1.343757802823898270e-02 2.475166562889910896e-02 -6.813596691347384438e-01 5.219982728085517110e-01 -2.810252084043033949e-01 8.053214485074930984e-01
3.121025781157790724e-02 1.000737767137870569e-02 -6.976645600409587811e-01 -5.203124016630295001e-01 3.092430785722929398e-01 -7.960174137735812616e-01
9.381070411160384592e-02 -1.035830966291613198e-01 -8.098549328827118199e-01 -5.786137759124558855e-01 4.757142373775337663e-01 -6.624968397514373608e-01
-9.810206447508313526e-03 4.501486704379550896e-02 -6.645944852131580038e-01 3.425921710796606678e-01 -2.485224670251508783e-01 9.060172115907386692e-01
1.155620993258762580e-01 3.525866751703273655e-02 -7.497449716934898589e-01 -6.023538728883417459e-01 2.678204536142623216e-01 -7.519587863987400311e-01
-4.520422400942108315e-02 6.292319777519095325e-02 -6.472660890978555459e-01 3.407547020009285554e-01 -2.006160912080830472e-01 9.184984578172400438e-01
-1.464621350820643087e-03 -1.958159459208282382e-01 -7.903477812557516691e-01 -5.416471009884941124e-01 3.589133340710861098e-01 -7.601313285326011249e-01
-6.010590857401886672e-02 -8.590314675497789931e-02 -7.006585759706561722e-01 -3.561237894093181033e-01 4.900034844833069947e-01 -7.956584894356152349e-01
3.663390106909208271e-02 -1.923186420399633778e-01 -8.170113622679715526e-01 6.489219053229106082e-01 -4.246976584334705151e-01 6.312941150630271281e-01
-1.231114755144675256e-02 -5.583563033540307752e-02 -7.047708150999490995e-01 3.577718314062571792e-01 -4.508319198433128339e-01 8.177712985319337546e-01
-8.609348110547310196e-02 3.247148692638920919e-02 -6.427372697938814605e-01 2.592516809912421283e-01 -2.224262882154706966e-01 9.398484517271407102e-01
-6.239380741784932016e-02 -1.860125402013200202e-01 -7.599666571629417611e-01 3.451772360672009654e-01 -4.274858772095568304e-01 8.355288747179138165e-01
8.149304919211362852e-02 -1.156492089085264519e-01 -8.076950970553863351e-01 -5.836126778304122631e-01 4.658744708516677768e-01 -6.650994058667425435e-01
5.820428183742334602e-03 -8.168480396701777169e-02 -7.282048999596808514e-01 5.100502518016810649e-01 -4.591137668094372737e-01 7.273673691904877225e-01
4.105980089275885342e-02 5.379387567519820085e-02 -6.894546332919672116e-01 -5.234712701911660160e-01 2.295949371176369824e-01 -8.205266565654010247e-01
4.341597420794590136e-03 8.119764336615152567e-02 -6.611283089909593125e-01 3.333184865706045885e-01 -2.050084626445566882e-01 9.202555714334995640e-01
-2.018011965937200475e-02 -1.918345211864838362e-01 -7.797951427193917651e-01 3.319433242909927140e-01 -3.629069707157257518e-01 8.706963650231809293e-01
1.124737043858324292e-01 -8.653694777107638625e-02 -8.142474645920402265e-01 5.698281746711920670e-01 -4.835876110116542614e-01 6.644086647741271889e-01
-7.956859748234523799e-02 -9.764888191905685133e-02 -7.015832504936597713e-01 2.761756248458381857e-01 -5.192194768129947402e-01 8.087880804877448648e-01
1.012119662684565213e-01 -5.333076522873109182e-02 -7.816210536997429958e-01 5.798910401300892969e-01 -4.369305710606164461e-01 6.876176682208556823e-01
6.641034571342793735e-02 1.229478049484525465e-01 -6.942783843213715667e-01 6.320981045575569945e-01 -6.420576825419826994e-02 7.722238053424874682e-01
6.217537180717537526e-02 -1.716288186610790967e-01 -8.268487607489034552e-01 6.054735234495232099e-01 -4.203055334948609945e-01 6.758291728796708142e-01
2.698677013907856831e-02 -1.420100722915478841e-01 -7.823821858130380891e-01 -5.158252311011527480e-01 4.303679409391318877e-01 -7.407481126342840838e-01
-5.803075340576286517e-02 -7.675084476552239410e-02 -6.959509686322339350e-01 -3.561237894093181033e-01 4.900034844833069947e-01 -7.956584894356152349e-01
1.030554662571779717e-01 -1.012498706373172325e-01 -8.162537527030662154e-01 -5.786137759124558855e-01 4.757142373775337663e-01 -6.624968397514373608e-01
1.299729266295703532e-02 -2.277206473893115535e-01 -8.135943252011429427e-01 -6.678122644702109145e-01 2.980319841185317675e-01 -6.820584402128164747e-01
1.883633420468464395e-02 1.309096719598117631e-01 -6.582727422366693171e-01 -5.437024008077026016e-01 1.950884149312477889e-01 -8.162892929075779014e-01
7.346083067729435034e-02 -1.379006878428613858e-01 -8.157654492216808162e-01 5.915971147801318830e-01 -4.419563184923542831e-01 6.743051729955124030e-01
6.222754512527041426e-02 -3.216552587231294533e-03 -7.240819458073268766e-01 5.178729692529662199e-01 -3.459497230077382968e-01 7.823850566492086545e-01
7.929617531546070963e-02 -8.043173176372025307e-03 -7.381828801753260727e-01 -5.912662217064791337e-01 3.214680756764531355e-01 -7.396367563810108958e-01
-7.756700463439732129e-02 -8.539387983032732318e-03 -6.574899044545761129e-01 2.699974909289771241e-01 -3.437995153465290832e-01 8.993904870185968070e-01
7.880904909386182711e-02 -1.019310701940723818e-01 -7.961415288475582885e-01 5.760518522373508921e-01 -4.826987639584585099e-01 6.596712566171831771e-01
-1.984697875487772406e-02 -2.377560021111367605e-01 -7.970366326304316740e-01 -2.258143322140486464e-01 5.316903429520081215e-01 -8.162801397671629600e-01
8.171835257519390050e-02 7.776210150484825535e-03 -7.332761768306054195e-01 -5.933690112918358350e-01 3.146498628014754995e-01 -7.408837157594717615e-01
1.156658713984485692e-01 6.197851988641894794e-02 -7.420075316981646907e-01 5.875357969626010535e-01 -1.855036736540039977e-01 7.876484459125089321e-01
1.175075615828751266e-02 -1.674638130370511013e-01 -7.854994685167129287e-01 -5.221856349717359791e-01 3.820554913288572996e-01 -7.624668938220403591e-01
-5.296471041804334118e-02 -1.030150087909235401e-01 -7.154192582643440490e-01 3.548800197829946601e-01 -5.093617778928029027e-01 7.839711415484015289e-01
-7.430015128712938455e-02 -1.287492028705140290e-01 -7.226626524507353544e-01 -2.719258919461802759e-01 5.191585400971240327e-01 -8.102658326336469319e-01
-7.772945518981765056e-02 -1.911972005623001625e-01 -7.578397085854211568e-01 2.512285992110530053e-01 -4.317320612260077128e-01 8.663091932145213780e-01
1.123857306650719728e-01 -1.893211361669816864e-02 -7.703409229362279120e-01 -5.887272098986294777e-01 3.551987313735522900e-01 -7.261088992400477338e-01
-5.550593864793914450e-02 -1.056705599966300951e-01 -7.154403653646507211e-01 -3.549001456340942773e-01 5.093408802002297175e-01 -7.839756082849477226e-01
4.028631655847841192e-02 6.319462312554356698e-02 -6.870685561030470678e-01 5.207948643339749273e-01 -1.837933499347930710e-01 8.336622300447005252e-01
8.910897757166320876e-02 3.085538484936880058e-02 -7.309400272612981420e-01 5.944904273994143784e-01 -2.832700542998714544e-01 7.525551196207554971e-01
-4.278106425564439860e-03 1.025443235211338650e-01 -6.529739576207973517e-01 -3.142927370078101856e-01 2.163472543159463690e-01 -9.243451417160641892e-01
3.231153443305671835e-02 -1.333514682684473589e-02 -7.081962950607986196e-01 -5.189213713670066674e-01 3.497770491464253229e-01 -7.799850166695537768e-01
-5.800686124380643321e-02 -9.327250864766124805e-02 -7.062533293086430408e-01 -3.549001456340942773e-01 5.093408802002297175e-01 -7.839756082849477226e-01
8.026835745093120755e-02 -1.561342279600767824e-01 -8.329863015153760042e-01 -6.083487771140287936e-01 4.069322160954930157e-01 -6.814087883843857885e-01
6.811990343572653372e-02 -9.982136892727005995e-02 -7.846717999887756756e-01 -5.765410234173585780e-01 4.782279386867419047e-01 -6.624941410882776438e-01
5.541539490811446533e-02 1.264649739194020350e-01 -6.844532628321097212e-01 -6.340022311927050458e-01 6.284710785265418265e-02 -7.707732558134255951e-01
-5.647077354006443950e-02 9.565577178303477646e-02 -6.380232450741656347e-01 2.172617436703355720e-01 -1.829565167301737127e-01 9.588139797287515975e-01
2.267561506426559598e-02 -4.465969441428734726e-02 -7.171059590850433763e-01 -5.136975765096242208e-01 4.222918462269162898e-01 -7.468496478531678751e-01
-5.983497353619048921e-03 1.964012483350397187e-01 -6.207662998880284499e-01 3.128513699481199617e-01 -2.895453584328359087e-01 9.045924528380638874e-01
3.944591017873703975e-02 2.049268515711979294e-02 -6.995970838241418743e-01 5.193723550942593858e-01 -2.732291778661137260e-01 8.096901710694345278e-01
2.676846208708595978e-02 6.198225147129709373e-02 -6.788911395281714833e-01 5.207948643339749273e-01 -1.837933499347930710e-01 8.336622300447005252e-01
-5.797782883766520491e-03 -2.744317518576832454e-02 -6.931784857667588895e-01 3.589780056246208439e-01 -3.775893200514215398e-01 8.535579048083818954e-01
3.276181361069494674e-02 -8.363602442085472932e-02 -7.486277949727290215e-01 5.075918158129453239e-01 -4.801134488339616757e-01 7.154310761830771082e-01
-1.055153255314963262e-01 -9.505409095805016084e-02 -6.906005837758676380e-01 -2.747243767150719940e-01 5.203700100116067651e-01 -8.085428680775281762e-01
-4.482975300198355911e-03 4.050688912869206820e-02 -6.674941691848258474e-01 -3.490576102615596810e-01 2.659870647200819338e-01 -8.985597732594553522e-01
-2.857527085494986421e-03 -6.019248028352892216e-02 -7.113086407043743842e-01 3.577718314062571792e-01 -4.508319198433128339e-01 8.177712985319337546e-01
6.397049976374373503e-02 -8.181778289265177750e-02 -7.695847498155679034e-01 5.078691973945922422e-01 -4.816468804675008708e-01 7.142024649031235572e-01
-1.103803793685159684e-01 -1.556357885226871962e-01 -7.275984160073226681e-01 2.722046980649249215e-01 -4.732182882303404559e-01 8.378359350348548729e-01
-8.421124917993588754e-02 5.007418551996581368e-02 -6.388388490302787659e-01 -2.317019938692565784e-01 1.646121444698943892e-01 -9.587580653793915664e-01
2.617619285519517253e-02 7.285257186204245616e-02 -6.754244012136314534e-01 -5.266847187746978021e-01 1.985981125524999558e-01 -8.265361436136969830e-01
1.176813552757446785e-01 3.907073747599581343e-02 -7.503013176823354335e-01 5.875995104334017505e-01 -2.746864283761042413e-01 7.611006381579284996e-01
-3.587855976621475568e-02 7.607961705748747527e-02 -6.477354654095721642e-01 3.236604695112710872e-01 -1.816473919465143028e-01 9.285731664628118498e-01
5.064068705576482698e-02 -8.331605820837605092e-02 -7.611163365199881126e-01 5.078691973945922422e-01 -4.816468804675008708e-01 7.142024649031235572e-01
-6.793159745412466130e-03 9.538044970021763991e-02 -6.540959670801158587e-01 3.238663093142557514e-01 -1.922579904122995731e-01 9.263624986007298334e-01
-1.161446820852556627e-01 -9.300807073654970836e-02 -6.861635732558308831e-01 2.783479094290340350e-01 -4.972995480390994816e-01 8.217150362726688417e-01
-5.423903508712910743e-02 -2.920646337063749487e-02 -6.735857373135684112e-01 3.589780056246208439e-01 -3.775893200514215398e-01 8.535579048083818954e-01
-7.474587420935870086e-02 -1.184224595141792347e-01 -7.164824771542596116e-01 2.766633715802486182e-01 -5.136014079386562736e-01 8.122013128463158038e-01
-1.363925695541679840e-02 -7.724959663783829977e-02 -7.166949204495670633e-01 3.566040620427577412e-01 -4.921969773475887711e-01 7.940879538341466537e-01
-4.329307336073751067e-02 2.266455446636884627e-02 -6.577707894387645471e-01 -3.502349446395559007e-01 3.084273911245396516e-01 -8.844252528944644975e-01
7.705187042891777083e-02 -1.550311424417253614e-01 -8.294559288198986025e-01 -6.083487771140287936e-01 4.069322160954930157e-01 -6.814087883843857885e-01
-3.618654412997016762e-02 1.626275286423788102e-01 -6.252573503983779313e-01 -1.622168655394366499e-01 3.683615192305684238e-01 -9.154209303291618305e-01
1.996442736211624311e-02 4.930945600764446296e-02 -6.772767531309646927e-01 -5.204847834256419725e-01 2.428185801818418810e-01 -8.186175708722827071e-01
-8.730374088696336854e-02 -1.118934727627974163e-01 -7.080761886949650252e-01 2.766633715802486182e-01 -5.136014079386562736e-01 8.122013128463158038e-01
-1.781272543143122208e-02 -2.043374133710008089e-01 -7.853542837847428126e-01 -3.321170129140288418e-01 3.396069332946893282e-01 -8.799803523893242607e-01
5.549469312937900523e-02 9.644438298554380840e-02 -6.890569921038032231e-01 -5.314337318816221289e-01 1.556783709917715641e-01 -8.326718641960471068e-01
-7.962702317525510720e-02 -1.006013496679902808e-01 -7.029610303524351789e-01 -2.743683970231481362e-01 5.193854168277208805e-01 -8.092964670018290008e-01
6.885671369482036785e-02 -8.639780595326240764e-02 -7.756560252651792942e-01 -5.787885077355952035e-01 4.629357207621180303e-01 -6.713377553479776827e-01
1.944790661399529996e-02 -1.598492469937753124e-01 -7.875221569388831666e-01 5.222026638709151847e-01 -3.820490247557401520e-01 7.624584713473305797e-01
5.184686007165850014e-02 -8.007970764529974417e-02 -7.597915020678522868e-01 5.078691973945922422e-01 -4.816468804675008708e-01 7.142024649031235572e-01
-1.151213415023268349e-01 -3.726773875397017266e-02 -6.574514882561959261e-01 2.823316301314916510e-01 -3.773472157425378226e-01 8.819852206237071002e-01
-1.107766567072132891e-01 -1.418136559951244657e-01 -7.190583827551031426e-01 2.746419925352228675e-01 -5.084631498579776920e-01 8.161109000453224960e-01
-7.090504393256261140e-02 -4.630116016922385114e-02 -6.756548432941117399e-01 2.767768444563442620e-01 -4.139588757524767515e-01 8.671981478062174009e-01
-5.393011198755121781e-05 -2.083939867789715850e-01 -7.973288420917510333e-01 5.423561683506912257e-01 -3.234407596059487577e-01 7.753940041536840910e-01
-1.080768681283752058e-01 -1.694706871506707346e-01 -7.364640307603985692e-01 2.634544454348255460e-01 -4.910242210015472453e-01 8.303535208394386968e-01
1.400517851105627549e-02 -6.214374485625681968e-03 -6.933974978587271742e-01 5.189659590632749175e-01 -3.149797724114778985e-01 7.946458810722853983e-01
-1.064842274854677362e-01 -1.709289986690880059e-01 -7.374089661597178491e-01 -2.614678633979962696e-01 4.915401065759049115e-01 -8.306761583417660022e-01
6.649757858880490924e-02 4.654449991602783998e-02 -7.084137891882852367e-01 6.033140134544927591e-01 -2.003866453693805838e-01 7.719179966337345045e-01
4.990959748688186121e-02 -7.072486540508862718e-02 -7.522035476403612364e-01 5.100502518016810649e-01 -4.591137668094372737e-01 7.273673691904877225e-01
4.827436698203939336e-02 -3.826761486008602858e-02 -7.310989947324447735e-01 -5.136975765096242208e-01 4.222918462269162898e-01 -7.468496478531678751e-01
-4.383940255956053633e-02 6.061616631335019212e-02 -6.478040172121054541e-01 -3.407918238158527680e-01 2.006313352481131906e-01 -9.184813553561248511e-01
-1.254768460289461089e-02 1.159856890803826479e-01 -6.470161496076243246e-01 -3.142927370078101856e-01 2.163472543159463690e-01 -9.243451417160641892e-01
-8.163828790490140763e-02 -2.787463555038624009e-03 -6.540689820154800271e-01 2.699974909289771241e-01 -3.437995153465290832e-01 8.993904870185968070e-01
4.448131044053868499e-02 -5.058730598049648863e-02 -7.354399200395300706e-01 -5.133757313221114504e-01 4.207953257309183792e-01 -7.479148697094459841e-01
5.607119794690478172e-03 1.966900493431174290e-01 -6.249133325554026008e-01 5.211087525017280564e-01 -2.596648442003499646e-01 8.130312643142949547e-01
8.330251988934679608e-02 2.491816551306923287e-03 -7.368067362138596144e-01 -5.912662217064791337e-01 3.214680756764531355e-01 -7.396367563810108958e-01
3.109723878004965608e-02 -1.720840426960935365e-01 -8.014774853716380987e-01 -5.274931986439346243e-01 4.021706765508507586e-01 -7.483379399088498918e-01
-9.243228468772776707e-02 -2.107872357023821419e-01 -7.641065780998573809e-01 -2.182665689373260165e-01 4.846976183417229245e-01 -8.470111709170009551e-01
-1.089044188094055871e-01 -1.841408578886025993e-01 -7.442659971526600637e-01 -2.620885990699564627e-01 4.796906013633433497e-01 -8.373807337174780097e-01
6.704021777156880801e-02 -4.369291137266589908e-02 -7.470456079001656091e-01 -5.133757313221114504e-01 4.207953257309183792e-01 -7.479148697094459841e-01
1.282945561042706656e-02 1.850926418101156712e-01 -6.344232419037131310e-01 -5.645734975827030322e-01 3.360409451821277926e-01 -7.538788025858903508e-01
-6.411678203518930697e-02 2.451667708599204742e-02 -6.506820134269081235e-01 2.592516809912421283e-01 -2.224262882154706966e-01 9.398484517271407102e-01
6.213035771926672668e-02 1.555189104547576306e-01 -6.870774484913481084e-01 6.577181963250321450e-01 -1.501788947103729899e-01 7.381416353292348242e-01
-8.030815144001114680e-02 -8.508252169013126587e-02 -6.930133599910733855e-01 -2.753091570882365002e-01 5.002096648753306951e-01 -8.209720818570349632e-01
-6.154502731219509484e-03 -1.796238789505709699e-01 -7.799706044546723671e-01 3.535795995493853927e-01 -4.039886239262543421e-01 8.436673861900008120e-01
-1.331034073519443972e-01 -1.383459111384217621e-01 -7.092630104242336753e-01 2.821531085966760832e-01 -5.073954444352947180e-01 8.142109593192307093e-01
1.348945564242715750e-02 1.047796213560728967e-01 -6.605891590360357668e-01 -5.428457820479063445e-01 1.769754709173665674e-01 -8.209738970310647144e-01
8.621790457679322228e-02 1.409625504579620769e-01 -7.087795041947404506e-01 6.262792548409801263e-01 -8.819384986062413223e-02 7.745941774907609823e-01
-5.231101484399423851e-02 3.134794172988319971e-02 -6.522725269956868299e-01 3.425921710796606678e-01 -2.485224670251508783e-01 9.060172115907386692e-01
-1.342167934056162290e-02 1.073914694544511050e-01 -6.487304936868119043e-01 -3.142927370078101856e-01 2.163472543159463690e-01 -9.243451417160641892e-01
-5.955406943543562620e-02 5.468932928005055746e-03 -6.577982000120895512e-01 2.690321747631251315e-01 -2.940844059898733431e-01 9.171346962664789215e-01
8.092163080261609298e-03 1.240104994427177788e-02 -6.816987034083065167e-01 -3.502349446395559007e-01 3.084273911245396516e-01 -8.844252528944644975e-01
-6.976808046691131138e-02 4.892319576762912958e-02 -6.431892030078989464e-01 2.481977049499891064e-01 -1.936472395003618896e-01 9.491568078518151097e-01
-1.268237162284506225e-01 -9.439565855592087218e-02 -6.830969032319289536e-01 -2.691447539088939744e-01 4.981759079057420103e-01 -8.242462412565861873e-01
-6.398129935208787811e-02 5.479334091217095276e-02 -6.435047761424562696e-01 2.481977049499891064e-01 -1.936472395003618896e-01 9.491568078518151097e-01
1.221947523358172805e-01 -4.793453448411156767e-03 -7.717187600412613868e-01 5.825082982615957805e-01 -3.559818374095686244e-01 7.307263604735270146e-01
-9.430712107734410751e-03 2.128574326253240279e-01 -6.146408790400664790e-01 2.389119869696320897e-01 -2.248731367196619424e-01 9.446444489140252143e-01
1.103365736427362326e-01 -4.250535486851433897e-03 -7.614975215822330501e-01 -5.887272098986294777e-01 3.551987313735522900e-01 -7.261088992400477338e-01
-3.846969345715649941e-02 -4.156389305144657376e-02 -6.855378466003612115e-01 -3.583103231958854051e-01 4.089677909741898376e-01 -8.392610191334706204e-01
-5.268798275754787985e-02 9.732105358140839824e-02 -6.381338270725828155e-01 -2.149142601458838564e-01 1.827293850523932228e-01 -9.593861749182761578e-01
6.882971763323861292e-02 7.240828396164454561e-02 -7.033783397027297823e-01 -6.014522920820342122e-01 1.533837025894141393e-01 -7.840462869813423774e-01
-1.351949030535756213e-01 -9.436342643449818768e-02 -6.803642647557216483e-01 2.847857402028610707e-01 -4.958461448437702646e-01 8.203863009708773912e-01
-3.244497267749407721e-02 -3.894827411784064497e-02 -6.873520147252902834e-01 3.582941847567768789e-01 -4.089384716781669926e-01 8.392821954211835411e-01
-2.023584702222672518e-02 1.075442696100222667e-01 -6.463777996474618925e-01 -3.142927370078101856e-01 2.163472543159463690e-01 -9.243451417160641892e-01
-2.610145675142666599e-02 1.362638620957876967e-01 -6.378803558673137308e-01 3.060136830640363126e-01 -2.883005314699300659e-01 9.073248752964615527e-01
1.219076560027805151e-01 -4.342967755100129307e-02 -7.926988275121485961e-01 5.737452990050098123e-01 -4.389848464288708119e-01 6.914540017061672206e-01
1.930380850933831674e-02 -2.070328125417376652e-01 -8.108340054150917631e-01 5.560583762153359366e-01 -3.691107203037695128e-01 7.446854090134950033e-01
-4.452744752436996190e-02 -1.116470797120351910e-01 -7.242742560261449247e-01 -3.551161778731757312e-01 5.072269965236771982e-01 -7.852472694701437828e-01
-1.137996827449701820e-01 -1.483249397247156376e-01 -7.216807619758923709e-01 -2.727883356900904777e-01 5.087156220570948628e-01 -8.165751280724226069e-01
-9.762126406770114950e-02 -9.219932370765818175e-02 -6.915031374477934589e-01 -2.765489548994093938e-01 4.974961592190804138e-01 -8.222032881874820065e-01
7.378818263728560700e-02 1.550307225117816268e-01 -6.969276512272991608e-01 -6.574344971870076382e-01 4.722307701370198618e-02 -7.520304933350937526e-01
4.013900742079595796e-02 -1.868836818599655669e-01 -8.165936074469111183e-01 6.054735234495232099e-01 -4.203055334948609945e-01 6.758291728796708142e-01
-1.072652051494512732e-01 -9.961166367118866327e-02 -6.929392223881793988e-01 -2.747243767150719940e-01 5.203700100116067651e-01 -8.085428680775281762e-01
-9.779940618985612233e-02 -1.642073357297673675e-01 -7.361652019815494441e-01 -2.614678633979962696e-01 4.915401065759049115e-01 -8.306761583417660022e-01
-7.824192063733302616e-02 -1.520059305430124241e-01 -7.359897059741826730e-01 2.722046980649249215e-01 -4.732182882303404559e-01 8.378359350348548729e-01
-5.461789573570491330e-02 1.558666836987850079e-01 -6.248549875951732169e-01 1.672922788948007222e-01 -3.261765212404307834e-01 9.303881826494115881e-01
-9.767525498934793993e-02 4.192935631468778374e-02 -6.373259835660751715e-01 2.339465390024468849e-01 -1.650043331245844846e-01 9.581453892488799307e-01
-2.661804012404542924e-02 -2.199655448569793892e-01 -7.882796693444560354e-01 -3.195778335767553990e-01 3.753329087831233091e-01 -8.700547200439678885e-01
3.130071918633343941e-02 3.443048084289448973e-02 -6.895607890491292080e-01 5.219982728085517110e-01 -2.810252084043033949e-01 8.053214485074930984e-01
5.262201042966305198e-02 -1.479404453340912029e-01 -8.036789612127659410e-01 -5.158252311011527480e-01 4.303679409391318877e-01 -7.407481126342840838e-01
-5.107610706987596866e-02 4.705881449792876509e-02 -6.485527312146752710e-01 3.407547020009285554e-01 -2.006160912080830472e-01 9.184984578172400438e-01
1.079677395024565001e-01 -6.291804471179467118e-02 -7.931368821456030727e-01 -5.778001340445235723e-01 4.650818682428214390e-01 -6.707054949304481761e-01
-4.672369406656563806e-02 -9.125796888428623632e-02 -7.106065735340577616e-01 3.550185866667475154e-01 -5.090173929457564306e-01 7.841320659173749430e-01
6.631962195469806587e-02 4.994808118380583695e-02 -7.073911469295500742e-01 6.033140134544927591e-01 -2.003866453693805838e-01 7.719179966337345045e-01
-1.098419634008404172e-01 -8.914695044358755815e-02 -6.859618186331574163e-01 2.783479094290340350e-01 -4.972995480390994816e-01 8.217150362726688417e-01
1.174857877950694490e-01 -4.821893111865741682e-02 -7.916506154076576873e-01 -5.877078273468494540e-01 4.341219303597781964e-01 -6.827427474942121544e-01
8.000051730341749268e-02 -9.090150138749622521e-02 -7.891773419901082498e-01 5.750240692175432322e-01 -4.784972864803870296e-01 6.636171084679814980e-01
5.576178103108492962e-02 3.507618632718782076e-02 -7.051416419715638151e-01 5.193723550942593858e-01 -2.732291778661137260e-01 8.096901710694345278e-01
1.980033133183619828e-02 -1.926599497624890966e-01 -8.045769576812473733e-01 5.417044538073327864e-01 -3.588415515391678023e-01 7.601243487839750568e-01
6.638760951566721746e-02 -1.252787263337001300e-01 -8.011854238754431146e-01 -5.836126778304122631e-01 4.658744708516677768e-01 -6.650994058667425435e-01
2.513448477568088618e-02 -2.097226100076114985e-01 -8.162315962294104388e-01 -6.510688924220257023e-01 4.260112169759328604e-01 -6.281908470608603690e-01
5.900124492621217770e-02 2.582544364577857993e-02 -7.098056812336096533e-01 -5.193382094586803666e-01 2.732356973310850479e-01 -8.097098726706050131e-01
6.152565272910573424e-02 1.206081414547057473e-01 -6.906540991103194971e-01 6.200080360609517838e-01 -1.108336578692601243e-01 7.767277100137224277e-01
1.477895045293798996e-02 5.623530000937995710e-02 -6.721503942557274236e-01 -5.207649271250147649e-01 1.837942607169212594e-01 -8.336807304981915800e-01
8.018936636152589059e-02 9.473625723566866941e-02 -7.089830498865645758e-01 6.040379422545096855e-01 -9.130047660464413184e-02 7.917085241985855060e-01
-9.484283637368878805e-02 -1.712473561623646112e-01 -7.412616530401747728e-01 -2.614678633979962696e-01 4.915401065759049115e-01 -8.306761583417660022e-01
1.515567319657118439e-02 1.041530678953604960e-01 -6.623500132041445498e-01 5.428849907025040666e-01 -1.769370308118973500e-01 8.209562558366991780e-01
8.202699255319075011e-02 6.028656279494637449e-02 -7.169838539018136281e-01 6.033140134544927591e-01 -2.003866453693805838e-01 7.719179966337345045e-01
-4.077896996412857383e-02 -1.763929761494026083e-01 -7.639745642198226827e-01 3.451772360672009654e-01 -4.274858772095568304e-01 8.355288747179138165e-01
-5.817532635804535668e-02 -1.056521968237204984e-01 -7.147740040246951532e-01 3.548800197829946601e-01 -5.093617778928029027e-01 7.839711415484015289e-01
-1.823988606638001983e-02 -2.225032365088941977e-01 -7.921962176973743608e-01 -3.202434286494540983e-01 3.095455139762312013e-01 -8.953355355306928942e-01
-1.397346782968559090e-02 8.187770025980217747e-02 -6.538737817878308434e-01 -3.333689972991674688e-01 2.049773558311306365e-01 -9.202442041307434817e-01
1.923703788817866453e-02 -1.621095340317089406e-01 -7.885103081319976281e-01 5.222026638709151847e-01 -3.820490247557401520e-01 7.624584713473305797e-01
-2.650394936530420936e-02 9.794632482602384782e-02 -6.462062810887676534e-01 -3.239142294176642900e-01 1.922492791027004821e-01 -9.263475517672902226e-01
1.185676303953141220e-01 -1.659510752478051201e-02 -7.742461217205353075e-01 -5.950443389398969440e-01 3.528059464022985647e-01 -7.221150870039757530e-01
1.756834221097638635e-02 -6.603192716435843379e-02 -7.259674625036148798e-01 -5.100319399286464828e-01 4.591038138982285743e-01 -7.273864917062471402e-01
-2.185567861520278446e-02 -1.992714130850779808e-01 -7.822560572088625985e-01 3.319433242909927140e-01 -3.629069707157257518e-01 8.706963650231809293e-01
6.695026712326947183e-02 -1.887752684187334606e-01 -8.442556199745487877e-01 6.300175322879530970e-01 -4.846319390647804148e-01 6.068029273562455250e-01
1.355895379976261236e-02 -4.937508190487460702e-02 -7.140810847751364321e-01 5.137170268993321853e-01 -4.222900838863581918e-01 7.468372656241543117e-01
1.180754772955053267e-01 -5.395908655634851225e-02 -7.962070794554683140e-01 5.735938092780781261e-01 -4.391589315093646362e-01 6.914691423580786589e-01
-9.617654615893697634e-02 -8.580585702335370712e-02 -6.885688246855691252e-01 2.783479094290340350e-01 -4.972995480390994816e-01 8.217150362726688417e-01
-5.591555849202911599e-02 9.067657091565776983e-02 -6.386695544404331626e-01 -2.148869983214772572e-01 1.719102986925106769e-01 -9.613898414045349838e-01
6.529414541802333605e-02 -1.560035157133607062e-02 -7.311234794855873131e-01 -5.168665441316435682e-01 3.822957807929668328e-01 -7.659627350891867748e-01
-9.527357905898103940e-02 2.548478567120468843e-02 -6.414948266690346790e-01 -2.572428958304128765e-01 2.221126404408327593e-01 -9.404743842876235327e-01
-3.840561244933054022e-03 5.771081913428545429e-02 -6.632297386691939911e-01 -3.337942471688347124e-01 2.223471322820882168e-01 -9.160475715392309981e-01
1.041172422518662349e-01 -1.317258455864196154e-01 -8.382842472152487456e-01 -5.996591893201954626e-01 4.420400252269378605e-01 -6.670903033032438145e-01
9.020019513904253827e-02 5.646075748162563551e-02 -7.241059173990762599e-01 5.942108131213426070e-01 -1.819462829738720255e-01 7.834596732963763355e-01
5.681539741963455292e-02 -1.736201796808155007e-01 -8.232852233656612340e-01 6.054735234495232099e-01 -4.203055334948609945e-01 6.758291728796708142e-01
-1.611644788394377831e-02 -1.143819961558523446e-01 -7.388491459552781748e-01 -3.541683508098023014e-01 5.034416733048018289e-01 -7.881061228443322353e-01
4.449819194551218708e-03 -2.246481964935325981e-01 -8.067160892226189484e-01 5.685046827478831277e-01 -2.233652173961063192e-01 7.917767395871887492e-01
-5.637351711663755177e-02 6.897811233604089765e-02 -6.423526498410404573e-01 -2.311856124647640176e-01 1.433547675724367587e-01 -9.622903008986137818e-01
7.952057546904425789e-02 -9.896463556344074763e-02 -7.939885512492212971e-01 -5.775773327305574467e-01 4.824787409369147850e-01 -6.584972963192671225e-01
3.645307776659185289e-02 -4.184722227762373292e-02 -7.249921047992624601e-01 -5.136975765096242208e-01 4.222918462269162898e-01 -7.468496478531678751e-01
-1.091763234427344659e-02 -1.339385088608020802e-01 -7.538035784018571883e-01 3.560454017680776961e-01 -4.827570276095261570e-01 8.001108199327284787e-01
-3.792504670037934872e-02 -7.948250620693876611e-02 -7.066322398035181918e-01 -3.561237894093181033e-01 4.900034844833069947e-01 -7.956584894356152349e-01
-6.937462910644671965e-02 -1.051727172323035503e-01 -7.098942624670185886e-01 2.761756248458381857e-01 -5.192194768129947402e-01 8.087880804877448648e-01
-1.338127666323232490e-01 -7.216304929181292793e-02 -6.680032635504591365e-01 2.876666386634613715e-01 -4.457355600729681622e-01 8.476837355326000134e-01
-1.321187431142878677e-01 -1.248247206038729240e-01 -7.008555021818978492e-01 -2.668059844953112880e-01 5.213494565600814701e-01 -8.105611086044010039e-01
1.617725859967635710e-02 1.227677348067655744e-01 -6.584474986919173212e-01 -5.437024008077026016e-01 1.950884149312477889e-01 -8.162892929075779014e-01
6.798967044790252615e-03 -1.225471823096217772e-01 -7.564856117944710467e-01 5.104594094580509056e-01 -4.670062419062970815e-01 7.220362603888360598e-01
9.589674983862389590e-02 -5.782192761426102612e-02 -7.794502735760826528e-01 -5.814321610444149746e-01 4.363899420354418468e-01 -6.866589113916202747e-01
3.995543621373481846e-02 -1.938410200997665866e-01 -8.214307637965605480e-01 6.227248075744774569e-01 -4.560923715643386278e-01 6.357621903134433872e-01
8.187815627471020652e-02 -1.467336189376342304e-01 -8.283421832454040956e-01 -5.937944276243038999e-01 4.364158330513097650e-01 -6.759803239625076232e-01
-8.535496603099622381e-02 -1.903749664614515502e-01 -7.552041842572313479e-01 2.505833368161515806e-01 -4.542875409717279100e-01 8.548864377377521917e-01
4.046362737475784482e-02 -1.919060740748353144e-01 -8.205404137772841500e-01 6.227248075744774569e-01 -4.560923715643386278e-01 6.357621903134433872e-01
8.524023596775480438e-02 -1.256451412476350671e-01 -8.181349674764391011e-01 5.870236088765588001e-01 -4.246471921519009984e-01 6.892590549416434120e-01
-1.006931120259222517e-01 -1.522461918718136242e-01 -7.288243647169201367e-01 2.705594781736401777e-01 -4.991815104036814721e-01 8.231739721598994031e-01
2.309654428126896308e-02 -6.590664843692688180e-02 -7.303602330325928982e-01 5.100502518016810649e-01 -4.591137668094372737e-01 7.273673691904877225e-01
1.356823834990554881e-02 -2.114040931702812764e-01 -8.087179101230419498e-01 5.560583762153359366e-01 -3.691107203037695128e-01 7.446854090134950033e-01
-1.157765822833016836e-02 -1.660394531852768807e-01 -7.706817744564058437e-01 -3.536046674822693192e-01 4.039874866472779047e-01 -8.436574244129955158e-01
