-7.608578512311320319e-02 -1.301752291855164667e-01 -1.068771291492140119e+00 8.374883179467067507e-01 3.540949828026698776e-01 -4.162091547008217041e-01
-4.567903954720402282e-02 -7.555955210553451373e-02 -9.766964777679426613e-01 -7.417358391426457365e-01 -4.347232371818533503e-01 5.107285501961734697e-01
4.708126515835823339e-02 -1.407153818160355452e-01 -9.201055308405515776e-01 -6.154041302025177185e-01 -4.920014710461953489e-01 6.158021671105603501e-01
-9.282013110713272300e-03 -1.640910258400920252e-01 -9.907189662784295914e-01 -7.505460978159764762e-01 -3.328562829012332025e-01 5.708653518881532385e-01
9.435445232440173302e-02 -1.672620718047842236e-01 -9.014471198717661782e-01 -5.480385407776885431e-01 -5.364695629227662632e-01 6.417586508024007985e-01
8.076440674923998642e-02 -1.492724514507826616e-01 -8.974129084645726673e-01 5.460913192117736736e-01 5.435403703626549010e-01 -6.374544194431261968e-01
-9.282839408076172874e-03 2.060778035060468749e-01 -8.130210431701314633e-01 8.484141579917543474e-01 8.120850600592266488e-02 -5.230665302534929229e-01
-2.153119604910120818e-02 1.277835125072246739e-02 -8.847063377714478039e-01 7.473642311417442174e-01 2.714827427988384390e-01 -6.064188539057216998e-01
-3.195832557121822820e-02 -3.632634894315749791e-02 -9.259400162600978090e-01 -7.458270974216053562e-01 -3.805766688408996901e-01 5.467205317944690002e-01
5.700164246640939542e-02 -1.779054537372419253e-01 -9.400817465401467565e-01 -5.385547127890670804e-01 -5.063501998327099018e-01 6.734747927443611726e-01
1.507693639992051596e-03 -1.133297943058638874e-01 -9.438449055225269779e-01 -6.165108429899216480e-01 -5.031653319577388261e-01 6.055898192602932051e-01
-5.321262223186899731e-02 -1.124499082787825954e-01 -1.016971748377963447e+00 -7.472143171484645352e-01 -3.840009539052655629e-01 5.424149994683036269e-01
-5.940453045868185344e-02 8.127939576562717705e-02 -9.094848707419986855e-01 8.036608827181339620e-01 1.257239721520665154e-01 -5.816551112257295486e-01
1.095537120423678706e-01 -1.547722279873302853e-01 -8.777188497728937167e-01 -5.558958795243493789e-01 -5.401022111296133188e-01 6.318776564025291309e-01
1.123626300224811331e-01 -1.291370036491287232e-01 -8.540248947617071762e-01 -5.566338984410837964e-01 -5.240841879867351727e-01 6.445886029155076802e-01
-6.801091404926580541e-02 -1.454853003125784472e-01 -1.065675056061698767e+00 8.321686198509247179e-01 3.539586201533982956e-01 -4.268590907483517105e-01
-6.522044859548425944e-02 5.313521945728569285e-02 -9.247308816298690504e-01 -7.987294704033777171e-01 -1.835298467670292422e-01 5.730166039957397262e-01
-2.633036395981603467e-02 1.870898789709142182e-02 -8.886786644806254909e-01 -7.473901126748784263e-01 -2.714538121909111923e-01 6.063999070933752122e-01
6.752907824177041551e-02 2.351886300788681022e-02 -8.071965101547680099e-01 -5.145602856923192636e-01 -2.445139924578877411e-01 8.218519452313433060e-01
-7.544834479550022177e-02 -9.709820226707160939e-03 -9.697271759792941426e-01 8.009436823604928479e-01 3.332298706042070569e-01 -4.974405200864898124e-01
9.657548839785695671e-02 -1.846438270262148740e-01 -9.133430103140957046e-01 -5.455004908065299585e-01 -5.075142947582782504e-01 6.669771024149498961e-01
6.133902006130603074e-02 -8.015597998288295778e-02 -8.605612165321218088e-01 -5.519148678503205119e-01 -4.648143346351495397e-01 6.923421213269106422e-01
-6.128412384319757711e-02 8.732781630668605410e-02 -9.115937274393905998e-01 -7.931316959511516274e-01 -8.069273013982385112e-02 6.036810384468203061e-01
-1.199198822161927011e-02 -2.202855257071026640e-01 -1.019703519619719279e+00 7.600272406353177912e-01 2.588948113164382114e-01 -5.960973663468834838e-01
-8.834205562969145442e-02 5.654416607048608906e-02 -9.554893955034323705e-01 8.053836371026606988e-01 2.167176568013030602e-01 -5.517160993825014348e-01
2.671951772986050008e-02 -1.641999116982660045e-01 -9.574638949264924204e-01 -6.136545087755322925e-01 -4.437651078686850603e-01 6.530701898707020892e-01
3.126798409129504658e-02 2.405405481346262198e-02 -8.324850139038550978e-01 -6.014591860792010136e-01 -2.666455378915018049e-01 7.530916309477201365e-01
-5.593109236402808715e-02 -1.200740793615332341e-01 -1.026168486815308034e+00 8.030897817464026645e-01 3.552214382695018102e-01 -4.783978806895592961e-01
-2.110326360606343266e-02 1.112573207230065919e-01 -8.583037364383208079e-01 -7.465919063469490524e-01 -1.194424577669648546e-01 6.544723253582351852e-01
1.401499172962729182e-02 1.547638736502345291e-01 -8.026266737171381394e-01 -5.713486396888217689e-01 -4.220184712441694130e-01 7.038900069289713013e-01
-7.639440175385484727e-03 -1.771293988640715578e-01 -9.963873303758166156e-01 -5.954661944514987315e-01 -3.990265827932104048e-01 6.972788520311105076e-01
9.438346670786290638e-02 3.450531878499537436e-02 -7.881716715513524818e-01 -5.019990005893789631e-01 -1.907514519931305108e-01 8.435703212950165231e-01
4.855714904625756112e-02 4.349744593091922629e-02 -8.131308615438653797e-01 -5.145602856923192636e-01 -2.445139924578877411e-01 8.218519452313433060e-01
5.013939188194427993e-02 -1.789708870028043353e-01 -9.456545709169115188e-01 5.245046384385591010e-01 4.879906904581783889e-01 -6.976818546318852565e-01
-1.000778148062240885e-01 2.480941024525788394e-02 -9.879036222210987317e-01 -7.966730806898126849e-01 -2.961792582903683413e-01 5.268679620766199001e-01
1.902152205855368872e-02 9.429595081346980878e-02 -8.207311733720712432e-01 5.740461980569863121e-01 2.302453879448206064e-01 -7.857849730215372697e-01
9.440979152339022684e-02 6.912233021554203827e-02 -7.809248415915874819e-01 -4.834778371830072419e-01 -1.745628060358149214e-01 8.577744503666125953e-01
2.405506995313121121e-02 -1.044489871150795605e-02 -8.521856441041277819e-01 6.136157149526122456e-01 3.388368454121694073e-01 -7.132077863808864437e-01
-8.139091720130211746e-03 -2.038190577120365110e-01 -1.011233102715807686e+00 -5.814294201514089711e-01 -4.177906387849347203e-01 6.981338063194423293e-01
8.483179010462258210e-03 -2.818565155636121485e-03 -8.625657842578990930e-01 -6.135844595515392852e-01 -3.388667360532374717e-01 7.132204751642167162e-01
4.688211806740034959e-02 -1.621530731740139231e-01 -9.368490129399476007e-01 -6.166998240902913375e-01 -4.526500844066807527e-01 6.440413248027088144e-01
-4.734147079791558091e-03 1.427297041202374162e-01 -8.310697466518109922e-01 7.750256415005819521e-01 1.978501172787914264e-01 -6.001588007430866956e-01
1.228202371738282457e-02 -4.364936586925517031e-02 -8.803743481690725625e-01 6.193651192100187997e-01 4.091497893579223444e-01 -6.700621605301458894e-01
-2.320449449608328468e-03 1.756961758968672849e-01 -8.122077363829640628e-01 7.831819274698702538e-01 3.033344265410223839e-01 -5.427838374156028767e-01
-3.063217534690674745e-02 -1.548184574226064980e-01 -1.013039967646633066e+00 7.559583909066903695e-01 3.508671891353735139e-01 -5.526473801675072517e-01
2.996189243000615260e-02 -9.283032776675745334e-02 -8.974677057995698037e-01 6.189091169158270622e-01 4.774973352877822097e-01 -6.236567964766668304e-01
-5.691076111784489078e-02 -8.711426522779502912e-02 -1.003031794641184860e+00 -8.004440649936713781e-01 -3.805438394763960841e-01 4.631151963096981072e-01
4.794060735714514992e-02 -6.588672794616712985e-04 -8.281405325855055732e-01 5.361774762571074326e-01 3.260194922707791432e-01 -7.786045238849196304e-01
7.957937568342422774e-02 -1.278392470943666426e-01 -8.810492101197495707e-01 -5.503250686894262111e-01 -5.240458774728575797e-01 6.500140283683737419e-01
1.900711282132841462e-02 -1.632375780059577564e-01 -9.639800922651359238e-01 -6.135757449054709545e-01 -4.094423690486627132e-01 6.751901596524607641e-01
2.116625363404193647e-02 6.224871838217267001e-02 -8.283895462623274142e-01 -5.899139390725666177e-01 -2.215591138851417952e-01 7.764747925994243127e-01
9.623429477195299953e-02 -4.898270158173735622e-02 -8.162232603871094616e-01 -5.496338556691440225e-01 -3.497384182319872581e-01 7.586736212066809149e-01
3.304994566823801772e-02 -2.217510038319061849e-01 -9.904049238886053486e-01 -4.744563972225334658e-01 -4.641294105171926421e-01 7.479806263718176140e-01
2.312537656719389559e-02 1.714411706667358093e-01 -7.857461764897154533e-01 -5.869999842776517651e-01 -4.138183631418951847e-01 6.958343055531247545e-01
8.892980177999432190e-02 -1.022956032160114298e-01 -8.529634516428640234e-01 5.500128071679228903e-01 5.001979972871588576e-01 -6.687958398952379424e-01
7.605556299912817099e-03 -1.721901419684757628e-01 -9.791894220525382275e-01 6.077809759561865199e-01 4.321950769063946374e-01 -6.661904388113213393e-01
5.504282129432785248e-02 1.534590927352862400e-01 -7.740118988856069526e-01 -4.563275109905700622e-01 -4.337925754785223464e-01 7.769100360871017408e-01
-8.312416411881942691e-02 5.268778001974595837e-02 -9.501241201100051326e-01 -7.995679462578579866e-01 -2.218960584358696808e-01 5.580799571455833386e-01
6.277326612235359371e-02 5.297996181988643555e-02 -8.024044100006547664e-01 -4.842599029164962876e-01 -2.252426594340796451e-01 8.454336702535384385e-01
-8.097559499909300074e-02 -1.185897559684065267e-01 -1.068849131982852807e+00 -8.092452478028396845e-01 -3.653923509822190052e-01 4.600114767614036926e-01
-3.248075775251343944e-02 -1.886361541863081914e-01 -1.032829994253537720e+00 7.734486395040663931e-01 2.868408155946176041e-01 -5.652429111084219526e-01
4.555799154284067426e-02 1.796776735339614128e-02 -8.232272097126880350e-01 -6.014591860792010136e-01 -2.666455378915018049e-01 7.530916309477201365e-01
-3.547286205233017575e-02 3.532156424143677309e-02 -8.926491027302729808e-01 7.438698366721163691e-01 2.295971390930416633e-01 -6.276486435974266698e-01
-6.370464925140252588e-02 1.685923424350776328e-02 -9.372302829160120696e-01 -8.008591140439875744e-01 -2.729779798006747304e-01 5.330175437981583553e-01
5.219379033150176733e-02 -1.608581393790289582e-01 -9.308128981759760112e-01 5.440914260671263492e-01 4.924974217099111762e-01 -6.792722647726247009e-01
-9.402227628551997063e-02 -6.287276296674072090e-03 -9.979999281555866908e-01 -7.998036699481385625e-01 -3.341856779265535149e-01 4.986321511959079800e-01
-2.625156092035160066e-02 -1.904177984874640128e-01 -1.025970503571632886e+00 -7.734999746571372681e-01 -2.867937095092216171e-01 5.651965652685339014e-01
2.234227834236678523e-03 9.833080126644097238e-03 -8.621830397464490536e-01 -6.096438915674750048e-01 -3.133784583004507462e-01 7.280990779747612551e-01
4.470842433011042866e-03 4.428329164910278781e-02 -8.461511322181783923e-01 6.014856153503318481e-01 2.666064656408630440e-01 -7.530843558361306478e-01
4.974473074865717881e-02 -1.743987561085791616e-01 -9.426073090068993743e-01 5.366224351413777516e-01 5.129110332739226230e-01 -6.700437553240944366e-01
-2.785882577640862862e-02 -1.660979324770019416e-01 -1.015874074402379534e+00 7.558734298913402094e-01 3.242340143577776557e-01 -5.687949207910896199e-01
-4.042650249011828234e-02 -1.151970007567167942e-01 -1.000503031152406352e+00 7.471959753397181547e-01 3.840277635793787336e-01 -5.424212857515346986e-01
-8.101221939534182515e-02 -7.157987387936183554e-02 -1.031624556303832652e+00 -7.967266146870125576e-01 -3.919176141933356505e-01 4.600296567987506857e-01
8.502191339694251115e-02 -1.327792432608309592e-01 -8.804240231275710649e-01 -5.503250686894262111e-01 -5.240458774728575797e-01 6.500140283683737419e-01
-8.298748186911969471e-02 7.659268451928176458e-02 -9.426642382164924783e-01 -7.962314477134802004e-01 -1.676132120121864022e-01 5.813099799857672778e-01
-1.044164666095085195e-02 -4.669608864231635653e-02 -9.040952615010970916e-01 -6.193933191654132919e-01 -4.434242602376474718e-01 6.478632892871363236e-01
5.457388183776434865e-02 3.525737860572016047e-02 -8.118153448129028504e-01 -5.145602856923192636e-01 -2.445139924578877411e-01 8.218519452313433060e-01
1.393610962161449633e-02 1.943973401566624903e-01 -7.834807720375165374e-01 -7.706663492999419329e-01 -2.025267617834918266e-01 6.041988818412299400e-01
5.475652602466973135e-02 1.445406582824166897e-01 -7.791184251479603695e-01 -4.561562068361585953e-01 -4.303604964293958890e-01 7.789167850790558179e-01
-5.189238113016193810e-02 -1.760580805668057747e-02 -9.402582709971412100e-01 -7.462048992614156440e-01 -3.453337297208131651e-01 5.691422172316625838e-01
-6.114214646734185410e-02 1.429475097576393960e-01 -9.078417174783827148e-01 8.017646119695176488e-01 4.069997173193444506e-03 -5.976260888853320852e-01
-2.313568273420193392e-03 -8.870068237804258626e-02 -9.274001936991045358e-01 -6.180280525112484824e-01 -4.969675289276325181e-01 6.091507214973288509e-01
-4.408785103357559104e-02 3.665185754936570173e-02 -9.030630415045722836e-01 -7.438993182862909670e-01 -2.296090966989568494e-01 6.276093267043443280e-01
-8.306953286357839084e-02 8.521672034031685383e-02 -9.406761426767382694e-01 7.985040620740476713e-01 1.056971489716874019e-01 -5.926376427046311512e-01
-1.020448329260734421e-01 2.556064374087780450e-02 -9.903451921954289361e-01 8.072483725279666622e-01 2.869639028549039184e-01 -5.157536073642435825e-01
1.554860272378997751e-02 2.620249999371171597e-03 -8.534615267944805073e-01 6.111905754622459774e-01 3.045147204739707125e-01 -7.305592826600645351e-01
5.605479828822311494e-02 -9.678956914813022228e-02 -8.758816051780538015e-01 5.500128071679228903e-01 5.001979972871588576e-01 -6.687958398952379424e-01
1.928760599201690068e-03 -8.315721235762135732e-02 -9.178812956232008657e-01 6.189091169158270622e-01 4.774973352877822097e-01 -6.236567964766668304e-01
-4.278076317629452008e-02 -1.087638849457318313e-01 -9.997790810079305590e-01 -7.456695518933251776e-01 -4.167469523329220826e-01 5.199027765846503391e-01
-9.932148255525939662e-02 -5.449101988820689857e-02 -1.048419860103523504e+00 8.025096034878624884e-01 3.881678649146956261e-01 -4.531048939895930827e-01
3.908888505885518144e-02 -1.754286473293020093e-02 -8.432314959884916750e-01 -6.135844595515392852e-01 -3.388667360532374717e-01 7.132204751642167162e-01
-3.735850250311743836e-02 1.273305400019930367e-01 -8.764677321095246665e-01 -8.079551134017750602e-01 -5.509534382263627655e-02 5.866626269134501692e-01
4.021400110526782840e-02 -3.487169467821876756e-02 -8.508841435975736944e-01 -6.175746749378064893e-01 -3.721634710605682961e-01 6.928895090009749014e-01
7.072975964825621575e-02 1.141626275200879614e-01 -7.825832960735525923e-01 -4.376186265205781467e-01 -2.525729676864764128e-01 8.629581876987372224e-01
-7.342207626075018985e-03 -1.467443230485905026e-01 -9.769467656147209356e-01 6.136717978372465687e-01 4.437472671510425681e-01 -6.530660666695088379e-01
-1.228848898766498297e-02 -4.586814758494674876e-02 -9.057488755546379000e-01 -7.458270974216053562e-01 -3.805766688408996901e-01 5.467205317944690002e-01
3.383825286992065556e-02 2.194388186612574246e-02 -8.311794044313757235e-01 -6.014591860792010136e-01 -2.666455378915018049e-01 7.530916309477201365e-01
1.307753534338021353e-03 -1.653170391954324747e-01 -9.806858923656749383e-01 6.135914598598948277e-01 4.094382440976839233e-01 -6.751783798798719483e-01
-3.772402343396163982e-02 1.170022115477517034e-03 -9.112866820708402926e-01 -7.475959294706915337e-01 -3.144544891717790391e-01 5.849946157688703519e-01
-1.735896477438401975e-02 6.686893247049183198e-02 -8.622268238625783177e-01 7.463577236132935555e-01 1.521141953019057302e-01 -6.479285608695115606e-01
7.585116895938744108e-02 -7.850892510137871816e-02 -8.480012529259078891e-01 -5.502358277505341455e-01 -4.244764292935956362e-01 7.190690473340118904e-01
-3.224216997763942189e-02 -1.295902982952010785e-01 -1.000166977875645236e+00 -7.504093328667841289e-01 -3.711645394708771306e-01 5.469211257446540131e-01
9.757416267653473696e-02 -1.676953127478755523e-01 -8.985915541818663144e-01 5.398170245902923492e-01 5.409844267234792392e-01 -6.449290116013952634e-01
-6.965186635039016805e-02 2.062401340329899843e-02 -9.434919145829178122e-01 8.020086741662120211e-01 2.720930224056707369e-01 -5.317400433673410420e-01
2.168719190815820985e-02 -5.184122186100093010e-02 -8.773302181957500778e-01 -6.193464879623002961e-01 -4.091428540929731850e-01 6.700836162699549403e-01
7.392347847192781707e-02 -1.796770295197422374e-01 -9.278325972977353731e-01 -5.383674988985178711e-01 -5.118452364457791726e-01 6.694586544795120275e-01
-7.266398152656972087e-02 -1.646239747077562696e-02 -9.706289934253252705e-01 -7.984116533043802422e-01 -3.401680689393893897e-01 4.968143684937190718e-01
8.236194205247110434e-02 -1.472509678484263673e-01 -8.948863166893437082e-01 -5.477108926521963017e-01 -5.427730000792083676e-01 6.367183431118896841e-01
-4.749400724134561491e-02 1.015911993968781346e-01 -8.920313437064708584e-01 -7.890641580070475447e-01 -2.831817884050452303e-02 6.136577509457419310e-01
-4.154617861938236095e-02 -4.109843572702200076e-03 -9.181985992195138557e-01 7.464729787962031127e-01 3.105396953647192593e-01 -5.885092943445419111e-01
7.398113578099779764e-02 -1.205471453491742950e-01 -8.799020626600969619e-01 -5.509809977753005183e-01 -5.255376614765709942e-01 6.482515765196961155e-01
-7.085324822068682360e-02 -5.178585241094437602e-02 -9.957116232830144353e-01 7.954104280559158857e-01 4.026282263178049270e-01 -4.530041526433096211e-01
-8.052498189181635235e-02 -1.000741126224081734e-01 -1.053926732501152319e+00 -8.057746216086764113e-01 -3.687097444916082045e-01 4.634440456930344343e-01
8.511363912746428007e-02 -2.104973350384442554e-01 -9.425114814442566713e-01 5.130388270242176585e-01 5.671813684101182362e-01 -6.442797973660516764e-01
9.787050740992350728e-02 -8.295686268483838666e-02 -8.334070191192674004e-01 5.420701503585610981e-01 4.266404175202699878e-01 -7.239736916686798640e-01
7.730990512807853210e-02 -5.821726754649627494e-02 -8.345454315465605788e-01 5.457375833630261353e-01 3.942221749832547362e-01 -7.394317864796970952e-01
6.506186941794227241e-02 -1.198556369135879707e-01 -8.869038062731829930e-01 -5.503250686894262111e-01 -5.240458774728575797e-01 6.500140283683737419e-01
8.082111296761936015e-02 -1.527100645426700438e-02 -8.121742315833787584e-01 -5.311965699537058994e-01 -3.123867618785242661e-01 7.875561662970252952e-01
-2.875983962674178579e-02 -9.671023634059762453e-02 -9.700622812106045600e-01 -7.429705918093707506e-01 -4.304586751739479245e-01 5.125427091218088815e-01
-7.041420260898614836e-02 -1.183048729656351467e-01 -1.050580006650511544e+00 -8.065197637190854030e-01 -3.570680949039282681e-01 4.711987333728624994e-01
6.781659201627303346e-02 1.397676540800422695e-01 -7.738707008349584582e-01 4.323043960002184161e-01 4.234830842578283794e-01 -7.960998596572942398e-01
9.557665060449764549e-02 -3.594566887003602940e-02 -8.106912301044095770e-01 -5.465439728750464132e-01 -3.477375074755035822e-01 7.618190806278645200e-01
8.542114857440876938e-03 -9.048817943786753581e-02 -9.178446132789567224e-01 -6.180280525112484824e-01 -4.969675289276325181e-01 6.091507214973288509e-01
-1.896885706672846519e-02 2.967040839373943223e-02 -8.756256596981445428e-01 -7.481204880267415813e-01 -2.404241200037972870e-01 6.184755273372017914e-01
4.252341473170612868e-02 -1.105765332448168381e-01 -8.997857282098150611e-01 -6.175017164872925735e-01 -4.986753915175902163e-01 6.082881587126494072e-01
4.730282031855594788e-02 9.696838539372615307e-02 -7.993181088759652164e-01 5.623079200400828981e-01 2.238230574142548168e-01 -7.960609537151855930e-01
-5.047449335887797817e-02 -1.180809112937585281e-01 -1.016386110002001963e+00 7.471959753397181547e-01 3.840277635793787336e-01 -5.424212857515346986e-01
7.396584889918955685e-02 1.010188065651410616e-01 -7.843464304331063675e-01 4.571010704274218739e-01 2.012599431506306158e-01 -8.663446466026729631e-01
-8.504915620579624191e-03 -1.956775514483865830e-01 -1.006656350918479159e+00 5.940959408985214685e-01 3.656262137657818045e-01 -7.164966746714175327e-01
6.011068168198617501e-02 -6.537225187366989265e-02 -8.522691736686937025e-01 -5.485618054398881949e-01 -4.297594991009214271e-01 7.172075839985626589e-01
7.473967913660314877e-02 -1.203165069717228135e-02 -8.145323743141079653e-01 5.294171639216775915e-01 3.126557061502670543e-01 -7.886468639110951750e-01
2.889416655161864550e-02 6.941974636775050111e-02 -8.200425734374977571e-01 5.794807694718091540e-01 2.041539367346269229e-01 -7.890013991927480319e-01
6.877953278652089268e-03 2.000257069558184497e-01 -7.905969531640913983e-01 -7.706663492999419329e-01 -2.025267617834918266e-01 6.041988818412299400e-01
-7.126061658563583034e-02 6.523153360312471116e-02 -9.289468069198130173e-01 8.021692305215060159e-01 1.613302960701163413e-01 -5.748887380828254789e-01
9.140253558948614049e-03 1.897969006487493782e-01 -7.911403640097265377e-01 -7.708461055433947218e-01 -2.026181718393749998e-01 6.039388694305499738e-01
-2.990641530999655837e-02 1.028007264840705287e-01 -8.690853811068165458e-01 7.442624286094605690e-01 1.097321793609643825e-01 -6.588112674909564204e-01
-6.414096388968579254e-02 1.227976875083387348e-01 -9.120042791433481399e-01 7.947314992351913743e-01 2.021341096108103183e-02 -6.066244819826376311e-01
7.587598412268944936e-02 -2.099625064929558360e-01 -9.491362787795465383e-01 4.872072913565102525e-01 5.797541956523902806e-01 -6.530804911130805301e-01
-3.375310195479532677e-02 2.390251383938368432e-02 -8.947888032159282412e-01 7.473642311417442174e-01 2.714827427988384390e-01 -6.064188539057216998e-01
7.613295132229809525e-02 7.620230230112835790e-02 -7.892392280467444010e-01 -4.563264097738867764e-01 -1.849992162495024683e-01 8.703685987729249396e-01
-5.030293890299437215e-02 -1.170595294200133495e-02 -9.346492510117101471e-01 -7.471450350837022247e-01 -3.402304237900624639e-01 5.709794701015160623e-01
-3.502714899013881222e-02 4.725292187909355124e-02 -8.876843667616894917e-01 7.435736959760675946e-01 2.004362904697054026e-01 -6.379055197403722399e-01
-1.853152245086397976e-02 1.819671753958051474e-01 -8.381272659282897886e-01 -8.596187346387427208e-01 -2.210817779855000498e-01 4.606283518204850047e-01
-1.251262687760449493e-02 -2.089121422198761124e-01 -1.015992841745322561e+00 5.588850942127560062e-01 2.879754341650428429e-01 -7.776359050251306915e-01
1.007882611481628471e-01 -8.421368156720454579e-02 -8.319630198594780701e-01 5.420701503585610981e-01 4.266404175202699878e-01 -7.239736916686798640e-01
-2.666728060268870951e-02 4.309170309769001783e-02 -8.799259830787466985e-01 -7.435894361188591928e-01 -2.004995331366748457e-01 6.378672963120247674e-01
-6.339421420242462302e-02 -1.046885794191413227e-01 -1.027272792439637872e+00 8.030897817464026645e-01 3.552214382695018102e-01 -4.783978806895592961e-01
-9.450302552959667646e-02 -1.285796148166046086e-02 -1.004001840164793435e+00 -7.910480350763844370e-01 -3.860995032397175342e-01 4.745210003781020203e-01
-2.100158344023029654e-03 -1.345831046834294331e-01 -9.643557190306284443e-01 -6.154041302025177185e-01 -4.920014710461953489e-01 6.158021671105603501e-01
6.730237519445476675e-04 -9.599707838251095304e-02 -9.296110422246837146e-01 6.180470741740987650e-01 4.969435483315674529e-01 -6.091509861080972588e-01
-3.228136389600296668e-02 2.957712392856074596e-02 -8.909679835857915453e-01 7.438698366721163691e-01 2.295971390930416633e-01 -6.276486435974266698e-01
-3.189322834044667175e-03 -4.683472040231292932e-02 -8.966201536758074964e-01 6.193651192100187997e-01 4.091497893579223444e-01 -6.700621605301458894e-01
9.822039694375062080e-02 -1.997076862460042401e-01 -9.234282882712770979e-01 -5.330572432957407791e-01 -5.198649479058630174e-01 6.675255885048753113e-01
6.057583654279263125e-02 3.769396689699793662e-02 -8.073981419382412206e-01 -4.986955582473213688e-01 -2.191150321291320258e-01 8.386246734263439473e-01
-5.160494845182694162e-02 -9.265407858365326543e-02 -9.986864859140877071e-01 7.456529275497425502e-01 4.167473422003468708e-01 -5.199263067064847643e-01
7.700843924626032955e-02 -1.910545890754105497e-02 -8.158472976860977610e-01 5.361774762571074326e-01 3.260194922707791432e-01 -7.786045238849196304e-01
9.906510934763959608e-02 -1.724352877662972960e-01 -9.013329722682704714e-01 5.354396344517718953e-01 5.464282571175000935e-01 -6.439880105108203301e-01
-5.997975301834690930e-03 1.931178181082516820e-01 -8.110243787139889138e-01 -8.487911470183777674e-01 -1.837806828390234626e-01 4.957602740825939880e-01
-6.156119999116521982e-03 1.678801461253014507e-02 -8.656220109011721897e-01 6.096659130537301907e-01 3.134150316253526136e-01 -7.280648957418844880e-01
-1.028586772599112825e-01 -6.747862937035535406e-03 -1.012822313223562753e+00 8.021873162889795461e-01 3.774394596708069982e-01 -4.626391292016855394e-01
2.810776364936320298e-02 1.907379114416161703e-01 -7.726150516803268475e-01 -5.667959756998409704e-01 -3.141367801968532603e-01 7.616169675486618162e-01
1.173294373389482080e-02 -1.069975668151165044e-01 -9.274314405340891021e-01 6.171534153248571242e-01 5.052302388528971955e-01 -6.032114618452711907e-01
-6.187631209010010375e-02 -6.573797251790811091e-02 -9.932053685333113169e-01 -7.947532563874547540e-01 -3.981031974928472827e-01 4.581278267116147829e-01
-4.984162447135911944e-02 -1.607751264899725252e-01 -1.042940628102013934e+00 8.181575481906530056e-01 3.039251561260172263e-01 -4.881062648772651058e-01
-9.022848350590303990e-02 6.478299837873603695e-02 -9.555929525153717963e-01 8.016340208587853233e-01 1.554474780847263093e-01 -5.772512262082040158e-01
-3.011012155778666766e-02 5.656726462095885283e-02 -8.798487459014497913e-01 -7.452022329820994218e-01 -1.808349949082478647e-01 6.418507120624131757e-01
4.296387089310958057e-02 1.696857605098245902e-01 -7.726693282613702474e-01 -4.659104849603094567e-01 -3.243779298843652570e-01 8.232292381882357901e-01
2.112811748323301098e-02 -1.159175297130104476e-01 -9.252901871541195922e-01 6.171534153248571242e-01 5.052302388528971955e-01 -6.032114618452711907e-01
-4.946327740037383819e-02 -1.755400760404774718e-01 -1.053823416400373914e+00 -8.482019616514133720e-01 -2.979482110533970829e-01 4.379272722505126447e-01
-2.580674915247967507e-02 -1.104828836197184645e-02 -9.018841969065907183e-01 7.475884365543250532e-01 3.144527503798758561e-01 -5.850051258824930933e-01
6.033002441671245220e-02 7.362859013243208683e-02 -7.979141754424247113e-01 4.808073337111381518e-01 2.188709130372238632e-01 -8.490699801994169293e-01
-5.646942315836139814e-02 1.341236019266271451e-01 -9.016326621332370062e-01 8.000048464043226781e-01 -1.577555396717365138e-03 -5.999914641464215714e-01
1.024518052641233516e-02 -9.801867878997230776e-02 -9.222603862576075340e-01 -6.180280525112484824e-01 -4.969675289276325181e-01 6.091507214973288509e-01
-6.394966495184506439e-02 -1.598095654714930813e-01 -1.069257854791575202e+00 8.383243974658498576e-01 3.440654192028277936e-01 -4.228843718113760586e-01
-2.455101107134996172e-02 9.240182651805574354e-02 -8.654242432427303733e-01 -7.443044412544215227e-01 -1.097525619365449234e-01 6.587604070352953700e-01
8.465633085061388674e-02 -1.470219773903708727e-01 -8.921598748845334104e-01 5.460913192117736736e-01 5.435403703626549010e-01 -6.374544194431261968e-01
1.590951082609391373e-02 9.878553701535244813e-02 -8.216891093537755930e-01 5.740461980569863121e-01 2.302453879448206064e-01 -7.857849730215372697e-01
-5.732358633613332533e-02 -2.134885721517501209e-02 -9.500752749437505473e-01 -7.450976974306964262e-01 -3.773676743973211622e-01 5.499300497367201057e-01
-6.032653596048974387e-02 -7.084397324308848443e-02 -9.940318287328311353e-01 7.958924318459501546e-01 3.972407684156890051e-01 -4.568971534589077454e-01
-2.495490553384541177e-02 1.521657002764419675e-01 -8.563012472878838155e-01 8.347232276400231576e-01 5.195081111105633725e-02 -5.482136868622721204e-01
7.882417530708119013e-03 1.920079380813164149e-01 -7.912902501037027969e-01 7.707558720019191956e-01 2.027886658805666820e-01 -6.039968069161798514e-01
3.901470433771894036e-02 -1.689915790920022698e-01 -9.491667440469375716e-01 -6.136545087755322925e-01 -4.437651078686850603e-01 6.530701898707020892e-01
3.381521255311378815e-02 6.219123476931642629e-03 -8.366794667818722164e-01 6.111905754622459774e-01 3.045147204739707125e-01 -7.305592826600645351e-01
8.816623319709152029e-02 -1.859825034309665615e-01 -9.207036522968078396e-01 5.366224351413777516e-01 5.129110332739226230e-01 -6.700437553240944366e-01
-9.215730581181508230e-02 -7.245993504333442248e-02 -1.051577627665517767e+00 -7.946353363277265380e-01 -3.960296059227778609e-01 4.601252367475295868e-01
9.129108834660079608e-02 -4.733702521571322291e-02 -8.186311548378706338e-01 5.343523590598919792e-01 3.528764527539043350e-01 -7.680792702963346041e-01
-1.005489515376247062e-01 -5.248303775226077772e-02 -1.048869764929508897e+00 7.999316613759516192e-01 4.005400368231127328e-01 -4.468523425361553558e-01
-8.357885676965214061e-02 -6.173695703264010098e-02 -1.026817959988999496e+00 7.970020569471977234e-01 4.010942420055046420e-01 -4.515652004439285605e-01
4.324678153113875601e-02 -1.976992471651797811e-01 -9.641356391779205559e-01 5.242182025986573679e-01 5.009955175360379931e-01 -6.886209171039102683e-01
3.060017771809581252e-04 -2.228542679510029864e-02 -8.796586029647808225e-01 -6.166850406355128822e-01 -3.764650700056498822e-01 6.913563565354823304e-01
-2.812551292015050969e-02 -3.413371072286298935e-02 -9.183930562371224182e-01 7.458184032954243703e-01 3.805781550568221316e-01 -5.467313574319744296e-01
-4.514851027067436073e-02 -7.168772337377646298e-02 -9.726215401697504426e-01 -7.415765806516947389e-01 -4.367352297384806126e-01 5.092411159109373475e-01
-5.128489394251426609e-02 3.914058246274842306e-02 -9.106831345000920841e-01 -7.438993182862909670e-01 -2.296090966989568494e-01 6.276093267043443280e-01
-6.775143470370829923e-02 5.695686409666226441e-02 -9.270411804303287928e-01 -8.010138059236795449e-01 -1.625414118315215151e-01 5.761572460357307079e-01
-2.679607015403925527e-02 -1.436620687772430238e-01 -1.001834022461676854e+00 -7.505460978159764762e-01 -3.328562829012332025e-01 5.708653518881532385e-01
9.037602689308404935e-02 -1.661118335115079614e-01 -9.033575405002650660e-01 5.464137121758334548e-01 5.373560881191619121e-01 -6.424021246131562668e-01
-3.848129654691586493e-02 9.234596724554794411e-02 -8.805766814451950752e-01 7.463577236132935555e-01 1.521141953019057302e-01 -6.479285608695115606e-01
8.632353618424976061e-02 -1.755241016842369883e-01 -9.141736353340593757e-01 5.366224351413777516e-01 5.129110332739226230e-01 -6.700437553240944366e-01
7.404696412658659521e-02 1.327427823914144878e-01 -7.739967968986616320e-01 4.249240439248131440e-01 3.260174370931456234e-01 -8.444833850383325347e-01
4.669774595252192129e-02 -6.657220084016987616e-02 -8.632471860077400860e-01 -5.485618054398881949e-01 -4.297594991009214271e-01 7.172075839985626589e-01
1.398518301332142728e-02 -3.379437180311743727e-02 -8.730575054217638575e-01 6.175883429032194005e-01 3.721542520007916632e-01 -6.928822781885726201e-01
8.132554530992777697e-02 -2.033729384980685062e-01 -9.392772971771329305e-01 5.245046384385591010e-01 4.879906904581783889e-01 -6.976818546318852565e-01
-3.985945903806122764e-02 3.564303281891297720e-02 -8.977303674635891406e-01 7.438698366721163691e-01 2.295971390930416633e-01 -6.276486435974266698e-01
-7.632544731616663913e-02 3.656624719755684899e-02 -9.461291890151143358e-01 8.007154737044706039e-01 2.208923982689941501e-01 -5.568314633326654217e-01
-2.342445503695198689e-02 -1.257966094032893778e-01 -9.845867726039992940e-01 7.471959753397181547e-01 3.840277635793787336e-01 -5.424212857515346986e-01
1.264675778815621023e-02 1.293508903457098180e-01 -8.151219599021218842e-01 -5.668180404447359377e-01 -3.031350998241710837e-01 7.660459648617564676e-01
9.499185768227514910e-05 1.419567235907591984e-01 -8.258026682763826010e-01 -7.750745129549413415e-01 -1.977954874764250026e-01 6.001136929796084818e-01
-9.672325965942775048e-04 -1.239525303301517722e-01 -9.548639247816638198e-01 -6.173808025520092224e-01 -4.856258118834035908e-01 6.188768176889664074e-01
-2.775433139097464169e-02 -1.775066845133635440e-01 -1.022069891992541502e+00 -7.632266937928001704e-01 -2.597869712385320606e-01 5.916043808634462442e-01
3.411945134528857060e-02 1.114780774596023927e-01 -8.045507598767646096e-01 5.623079200400828981e-01 2.238230574142548168e-01 -7.960609537151855930e-01
-7.807770079489778636e-02 1.077818984782293460e-01 -9.311669911904479902e-01 7.910486152908274837e-01 4.129242443004928903e-02 -6.103581112192686398e-01
3.895066470044086793e-02 1.451378987830726497e-01 -7.881576181350593568e-01 -5.713486396888217689e-01 -4.220184712441694130e-01 7.038900069289713013e-01
8.931345912721712355e-02 -9.067696936419478160e-02 -8.448973003460421571e-01 5.492234857831816974e-01 4.627085418236429049e-01 -6.958838753611190642e-01
3.312161122563261201e-02 -1.467880379068058072e-01 -9.382033681080661491e-01 6.154206503720927035e-01 4.920148833001217192e-01 -6.157749407914860917e-01
7.988049329829365053e-02 -1.610572250814505668e-01 -9.086204956704698743e-01 -5.480385407776885431e-01 -5.364695629227662632e-01 6.417586508024007985e-01
-2.309944107585936227e-02 -2.086900452008660090e-01 -1.028829473386043469e+00 7.600272406353177912e-01 2.588948113164382114e-01 -5.960973663468834838e-01
3.312532771893667016e-03 -1.839624318985563500e-01 -9.909447906806371220e-01 -5.954661944514987315e-01 -3.990265827932104048e-01 6.972788520311105076e-01
-6.736892687572676452e-02 -1.293865150798463315e-01 -1.053390757137875999e+00 -8.164314076901436623e-01 -3.259430333785934275e-01 4.766559509007012307e-01
7.929626415968177300e-02 -5.904156725789547200e-02 -8.335188682226515322e-01 5.457375833630261353e-01 3.942221749832547362e-01 -7.394317864796970952e-01
-2.469720620539657407e-02 2.262183500030982147e-02 -8.852123401399366598e-01 -7.438993182862909670e-01 -2.296090966989568494e-01 6.276093267043443280e-01
1.732254587375255811e-02 -2.217524038919940488e-01 -1.000381940658988444e+00 -4.744563972225334658e-01 -4.641294105171926421e-01 7.479806263718176140e-01
-6.061114539968700393e-02 4.860072626184992056e-02 -9.190389898537317803e-01 7.998867379855694182e-01 1.824615256938303121e-01 -5.717420729982048977e-01
5.453596388504444031e-02 -1.290757164762990350e-01 -9.027816319352890417e-01 5.481449842450640819e-01 5.385567532114232669e-01 -6.399169475934739504e-01
-1.608601574395123607e-02 1.557975067757081944e-01 -8.414501097182429667e-01 8.458467256408565005e-01 1.043687942613572700e-01 -5.231161166577378285e-01
-5.811771939794059538e-02 -4.099640748881250296e-02 -9.656162580877842849e-01 -7.433342132556245430e-01 -4.181435147144969555e-01 5.221209136836495457e-01
-3.787897808957244733e-02 3.455959274302507211e-02 -8.964691730866786168e-01 -7.438993182862909670e-01 -2.296090966989568494e-01 6.276093267043443280e-01
-3.733688526381017531e-02 3.541557885878656754e-03 -9.087764085643771361e-01 7.475884365543250532e-01 3.144527503798758561e-01 -5.850051258824930933e-01
-1.980869270072224339e-02 -4.081311795497614275e-02 -9.116972612264369058e-01 7.458184032954243703e-01 3.805781550568221316e-01 -5.467313574319744296e-01
-8.774861354670900407e-03 1.675685508380391486e-01 -8.262916408306781868e-01 7.846697606307091455e-01 2.700947892480464740e-01 -5.579804401345973552e-01
7.164450024599605671e-02 -9.599791223155375308e-02 -8.624686614876128088e-01 5.500128071679228903e-01 5.001979972871588576e-01 -6.687958398952379424e-01
1.777385337371682403e-02 -1.952831628106066197e-01 -9.844554048428950654e-01 5.955209588449965619e-01 3.990602277212729199e-01 -6.972128241988826414e-01
-6.191731844434943122e-02 -2.696076630938276306e-02 -9.596825147438950987e-01 7.995466385631736506e-01 3.392520366654395714e-01 -4.956139913084386950e-01
1.053540944133362633e-01 -1.699782793647457990e-01 -8.940192480896228533e-01 5.354396344517718953e-01 5.464282571175000935e-01 -6.439880105108203301e-01
7.995786184987016543e-02 3.588068228154989853e-02 -7.963578158706501320e-01 -4.935227874898466260e-01 -1.911538428788888133e-01 8.484665382800223865e-01
-9.991569168256539402e-02 -4.309075239013628739e-02 -1.039317278511932452e+00 7.999316613759516192e-01 4.005400368231127328e-01 -4.468523425361553558e-01
-5.954703790095972060e-02 -5.902700721242822024e-02 -9.832376857289522043e-01 -7.942764448561304702e-01 -4.034318880016551367e-01 4.542770530085428193e-01
-1.554557622537391763e-02 1.455987659906425591e-01 -8.439860338198308387e-01 7.640862045870288055e-01 1.337895821351066106e-01 -6.310884404518141144e-01
-1.074285655614901254e-02 1.997752986872831094e-01 -8.169522717627784036e-01 -8.137312619758058085e-01 -1.730949047485544900e-01 5.548689820429244524e-01
6.987549279994250025e-03 -7.353523504355949370e-02 -9.061886420463451941e-01 -6.189667537342939951e-01 -4.778051214862889529e-01 6.233637971947861844e-01
-8.438458401326461022e-02 5.144295096723253136e-02 -9.518165915643356234e-01 8.007154737044706039e-01 2.208923982689941501e-01 -5.568314633326654217e-01
5.033792157477808699e-02 -1.234062696134186066e-01 -9.016775845953005630e-01 6.171534153248571242e-01 5.052302388528971955e-01 -6.032114618452711907e-01
-6.526878830621291212e-03 -7.341163409125442407e-02 -9.188109490523259648e-01 6.189091169158270622e-01 4.774973352877822097e-01 -6.236567964766668304e-01
-1.512033567797268184e-02 -1.894785431900745942e-01 -1.010305804897812187e+00 7.631805639861515278e-01 2.598299086485705289e-01 -5.916450332128677658e-01
4.228945748200722832e-02 -2.261938115443220820e-01 -9.873399507873300562e-01 -4.859773175478230289e-01 -4.488467354277706489e-01 7.499084310266521669e-01
4.698934218808315313e-03 -1.255315097799807600e-01 -9.497497103524228379e-01 6.173911400916518577e-01 4.856557552705999536e-01 -6.188430071584176684e-01
-1.967980444622693947e-02 -8.720753519081046734e-02 -9.479921527194195008e-01 7.415649289663865940e-01 4.367256496689407297e-01 -5.092662987556898502e-01
9.405072293557519003e-02 -9.998084067607835093e-03 -8.008327891891285910e-01 5.220828134123473019e-01 3.138165364249104194e-01 -7.930628710296055983e-01
-3.592437220163686995e-02 1.333480107961271255e-01 -8.733120184250616758e-01 8.098714768419790211e-01 7.277672594220271733e-03 -5.865622102380986247e-01
-2.049931754809892342e-02 1.619156551297520896e-01 -8.474006621408480822e-01 8.462215793510462492e-01 7.162044623428510948e-02 -5.279957862727908680e-01
2.805233365118630501e-02 -3.620908083752531759e-02 -8.624422116528959181e-01 -6.175746749378064893e-01 -3.721634710605682961e-01 6.928895090009749014e-01
-5.172757858412871217e-03 -9.161065824121322754e-02 -9.319637676798440129e-01 6.180470741740987650e-01 4.969435483315674529e-01 -6.091509861080972588e-01
8.310276240791332480e-02 -6.622079889723116175e-02 -8.347088196729844922e-01 5.469427656920409220e-01 4.302473342435696457e-01 -7.181509886043765389e-01
-7.617438173879159669e-02 -5.136375800733635616e-02 -1.005504072263087911e+00 -7.942764448561304702e-01 -4.034318880016551367e-01 4.542770530085428193e-01
-1.932452200737211356e-02 -1.362988890729452396e-01 -9.869959149015308242e-01 -7.504093328667841289e-01 -3.711645394708771306e-01 5.469211257446540131e-01
-7.869793537765615299e-02 1.111556126453229348e-01 -9.317425989592236224e-01 7.910486152908274837e-01 4.129242443004928903e-02 -6.103581112192686398e-01
-2.296561278653173194e-02 4.245242682044669813e-02 -8.751332171253756176e-01 7.435736959760675946e-01 2.004362904697054026e-01 -6.379055197403722399e-01
6.084735228887544478e-02 -1.366789877045415103e-01 -9.037743188326661237e-01 5.481449842450640819e-01 5.385567532114232669e-01 -6.399169475934739504e-01
-5.645507264949984477e-02 -1.034902854112914605e-01 -1.014734247353406005e+00 8.030897817464026645e-01 3.552214382695018102e-01 -4.783978806895592961e-01
-5.893243233434310863e-02 -1.431993858269793307e-01 -1.047234781850988616e+00 8.181575481906530056e-01 3.039251561260172263e-01 -4.881062648772651058e-01
8.255006079323076729e-02 -1.799912413340319373e-01 -9.206152695296385691e-01 5.366224351413777516e-01 5.129110332739226230e-01 -6.700437553240944366e-01
3.758168912067946094e-02 1.214005565490281803e-02 -8.311075998027011025e-01 6.061964479003414397e-01 2.769984457761439645e-01 -7.455184287397657039e-01
9.824746994311989168e-02 -1.940663799005117041e-01 -9.189315929860283338e-01 5.295858758817940659e-01 5.134689066389085399e-01 -6.751951436300153153e-01
-6.874964695957810901e-02 -2.597682497492580234e-02 -9.709648427737583853e-01 -7.961861277520195790e-01 -3.848508238297391193e-01 4.668805986254043749e-01
1.990416918842907376e-02 -1.001177345990781065e-01 -9.134606626428066756e-01 6.180470741740987650e-01 4.969435483315674529e-01 -6.091509861080972588e-01
-1.998709379007940906e-02 1.922376662827417482e-01 -8.355512863367730025e-01 8.673252748732327433e-01 1.624968748226586213e-01 -4.704695880064306279e-01
-9.169305613664654672e-03 -1.605765315003506444e-01 -9.885215764908744651e-01 -7.505460978159764762e-01 -3.328562829012332025e-01 5.708653518881532385e-01
7.088221905127538303e-02 -6.612553250218185241e-02 -8.444818543406817923e-01 -5.485618054398881949e-01 -4.297594991009214271e-01 7.172075839985626589e-01
-8.659543404873620842e-02 8.214458449841956222e-03 -9.761377029491429269e-01 8.009613408424174352e-01 2.947563875777837739e-01 -5.211329988189310480e-01
-2.578426529335904605e-02 -2.040835497341353111e-01 -1.030277184028933979e+00 7.683786282272137003e-01 2.252114712427866206e-01 -5.990609959798122164e-01
-7.930566797037034987e-02 -4.568069520905935349e-02 -1.005126623500409710e+00 7.954104280559158857e-01 4.026282263178049270e-01 -4.530041526433096211e-01
-5.995521526013384422e-02 -1.164532061730000345e-01 -1.030312521591211006e+00 8.069541874834184059e-01 3.681631785004498281e-01 -4.618233572475755055e-01
-7.210464665366091153e-02 1.036319244875737698e-02 -9.524787415033548754e-01 8.026830766539267970e-01 2.999274514831382077e-01 -5.155030575081158695e-01
-6.707805588921091078e-02 -8.903630031239183340e-02 -1.022184198704277680e+00 -8.004440649936713781e-01 -3.805438394763960841e-01 4.631151963096981072e-01
-2.014292617679409869e-02 -1.753651927074462991e-01 -1.010294790936727027e+00 7.646293544321938196e-01 2.817825767230116019e-01 -5.796037696529818817e-01
-4.917658884863450319e-02 1.182219729424119070e-01 -8.928084641271288868e-01 8.065680993851332969e-01 4.394687071934088446e-02 -5.895053635109955836e-01
-2.885846790493919872e-02 -1.212506025917245156e-01 -9.896526333120961860e-01 -7.472143171484645352e-01 -3.840009539052655629e-01 5.424149994683036269e-01
7.399494506323561760e-02 -1.351667520012788670e-01 -8.918346922467990101e-01 -5.497380552388714259e-01 -5.378465648763435247e-01 6.391472000039591927e-01
8.764621313007932291e-03 1.543896107687282582e-01 -8.080036966770527407e-01 7.848621328177044498e-01 2.688043101588390438e-01 -5.583329430625372236e-01
-2.108413348449859361e-04 -1.908930273237727238e-01 -9.979198222136425045e-01 -5.954661944514987315e-01 -3.990265827932104048e-01 6.972788520311105076e-01
-5.800208012354810677e-02 -1.593001690799223935e-01 -1.057448930696642364e+00 8.332913254278604409e-01 3.387690480806206383e-01 -4.368765260679837725e-01
1.004211016739223750e-01 -4.145285304271350418e-02 -8.095884155360650869e-01 5.308630909924771935e-01 3.506157395132275534e-01 -7.715263973627248806e-01
-2.459469954587970367e-02 5.997748477290625740e-02 -8.724844291622241288e-01 -7.452022329820994218e-01 -1.808349949082478647e-01 6.418507120624131757e-01
-5.619708901055092687e-02 2.583959074231802558e-02 -9.222975114442731881e-01 -7.473901126748784263e-01 -2.714538121909111923e-01 6.063999070933752122e-01
4.229073785775314814e-02 -2.240107469690570674e-01 -9.859455306878310843e-01 -4.744563972225334658e-01 -4.641294105171926421e-01 7.479806263718176140e-01
-2.873739158888378650e-02 1.569259570202137521e-01 -8.616094507114153700e-01 8.347232276400231576e-01 5.195081111105633725e-02 -5.482136868622721204e-01
1.207553473005338988e-03 1.468820676609746412e-01 -8.218873075173888099e-01 7.793460536382949000e-01 2.072096061280779278e-01 -5.913407713042140301e-01
2.095621541543751798e-02 -2.868526645233505923e-02 -8.640963620056124617e-01 6.166995502562258036e-01 3.764502427307937493e-01 -6.913514876397499620e-01
2.805872787923837167e-02 1.020562271330739124e-01 -8.118285233304499693e-01 5.770017947725765151e-01 2.472140414575132727e-01 -7.784305662905771639e-01
-6.311257988806433239e-02 -5.436672921508171191e-02 -9.844139907292456249e-01 7.954104280559158857e-01 4.026282263178049270e-01 -4.530041526433096211e-01
2.581596699059052549e-02 4.765658974175974311e-02 -8.292668661652050632e-01 -5.952836811324868638e-01 -2.231883904589294365e-01 7.718965483416208029e-01
-1.963612284624279350e-02 -7.119234586707916083e-03 -8.926269430306735808e-01 -7.475959294706915337e-01 -3.144544891717790391e-01 5.849946157688703519e-01
-9.096065831723416928e-02 -8.515289081929033541e-03 -9.939104408089924902e-01 7.995466385631736506e-01 3.392520366654395714e-01 -4.956139913084386950e-01
-7.538968992598955865e-02 -1.284992020100083621e-01 -1.066738856272929414e+00 -8.308560388407330022e-01 -3.539323117661369311e-01 4.294300425095621820e-01
-6.965155662452333918e-02 -1.278483133998674637e-01 -1.056248676974921974e+00 -8.164314076901436623e-01 -3.259430333785934275e-01 4.766559509007012307e-01
-8.373445150114391944e-02 -1.104754238164220859e-01 -1.067332695419226596e+00 -8.016743581482617120e-01 -3.580803091480811440e-01 4.786404868875879237e-01
8.139389428365549628e-02 3.601593167096985276e-03 -8.044600507667962752e-01 5.243641396567387813e-01 2.665521668477545125e-01 -8.086978368901545089e-01
-3.939874707516372726e-02 1.636644681589328465e-01 -8.774173345123692513e-01 -8.113078172055144810e-01 -4.367014315004557473e-02 5.829858869119201037e-01
-8.774065551737253443e-02 -2.655761714116760923e-03 -9.847939534255857330e-01 8.009436823604928479e-01 3.332298706042070569e-01 -4.974405200864898124e-01
-7.926462115937751851e-02 -1.408659188875111684e-02 -9.796099220941387742e-01 -7.984116533043802422e-01 -3.401680689393893897e-01 4.968143684937190718e-01
6.217252232987929145e-02 -1.099812640482184939e-01 -8.813730240982721176e-01 -5.509809977753005183e-01 -5.255376614765709942e-01 6.482515765196961155e-01
5.488117839284781252e-02 1.359870544111956847e-01 -7.827201945203967615e-01 4.413755668064706095e-01 3.466123736838258029e-01 -8.276759459085003545e-01
-2.277055301728093516e-03 1.644931687727436698e-01 -8.193606046929426956e-01 -7.859961035459702705e-01 -3.091947751592773463e-01 5.353584931844794781e-01
-7.505850262530902595e-02 -7.796433279863382304e-02 -1.026752473240680530e+00 -7.967266146870125576e-01 -3.919176141933356505e-01 4.600296567987506857e-01
5.367276750230524224e-02 -2.126867690690316115e-01 -9.682852483251511710e-01 4.981107922246195141e-01 5.497663816231711520e-01 -6.705539234888776567e-01
3.515437801641617399e-02 5.037456460946550946e-02 -8.212136589260572439e-01 -5.930483885467551231e-01 -2.401941838055012823e-01 7.685052783866263004e-01
2.680979955323635477e-02 -2.616093416462916474e-02 -8.581277349621501127e-01 -6.166850406355128822e-01 -3.764650700056498822e-01 6.913563565354823304e-01
-1.574833395862255958e-02 -1.930712086708648578e-01 -1.012693652249484266e+00 7.631805639861515278e-01 2.598299086485705289e-01 -5.916450332128677658e-01
3.157422553852928110e-02 -1.721492524266089452e-01 -9.573233561482193954e-01 6.135914598598948277e-01 4.094382440976839233e-01 -6.751783798798719483e-01
-2.665628389027378808e-02 -1.668593425400679772e-02 -9.059481067079592220e-01 7.464729787962031127e-01 3.105396953647192593e-01 -5.885092943445419111e-01
7.499587677904111238e-02 7.386177925877737693e-02 -7.903328705262187004e-01 -4.563264097738867764e-01 -1.849992162495024683e-01 8.703685987729249396e-01
2.908564357844942161e-02 -1.373752532151758798e-01 -9.347160350176497712e-01 6.154206503720927035e-01 4.920148833001217192e-01 -6.157749407914860917e-01
7.733995466614077691e-03 1.382062410752528114e-01 -8.163259757744375511e-01 7.793460536382949000e-01 2.072096061280779278e-01 -5.913407713042140301e-01
