4.960915867622892744e-02 -8.515640762557002974e-02 -8.170449943172199969e-01 7.478010957119214375e-01 2.270159255925319752e-01 -6.239048731813333637e-01
-8.232902533674396617e-02 9.745807360310410061e-02 -8.352431038319739764e-01 5.043632702038128857e-01 6.016525380404860179e-01 -6.193802669917384263e-01
-9.815244131176759090e-02 4.033732679738315924e-02 -8.937666069012087933e-01 5.573459551690094216e-01 4.290257060695548685e-01 -7.108462771853450990e-01
4.742635257927337727e-02 3.642263436192776094e-03 -7.734504174156612288e-01 -7.483239705772718464e-01 -4.150397370745056436e-01 5.174487913877002798e-01
-2.277381627825733265e-02 1.230450446199119058e-01 -7.587337427925440192e-01 -5.824075704956958033e-01 -5.353572323718339687e-01 6.117140308808285409e-01
-7.248601842725486098e-03 -1.778404765707060631e-01 -9.185960506186741092e-01 6.009042887484419282e-01 3.871659815291209061e-01 -6.992971746763471108e-01
-5.750783019159945442e-02 2.845787061415349511e-02 -8.695119717198714904e-01 5.485422658585632494e-01 4.682615678113916102e-01 -6.926994201510282556e-01
9.100269665435732624e-02 -5.700044051632373321e-02 -7.446917040124401144e-01 8.062996729944953422e-01 3.173324194901541162e-01 -4.991803009629833254e-01
9.621423322137985512e-02 -6.530370209259897529e-02 -7.414569035947519149e-01 8.007562220473286585e-01 2.941670782421670349e-01 -5.217807996955771133e-01
-2.067708963583395412e-02 7.166820131428593144e-02 -8.043247073983048612e-01 -6.005961055487423206e-01 -5.421695914186718257e-01 5.876533435117973214e-01
-2.921473540122427204e-03 -1.456321819300439024e-01 -8.986075094320923329e-01 6.189822503448141333e-01 3.261032273237048917e-01 -7.145051846467834755e-01
-7.985957714247417238e-02 -1.630658041696234073e-01 -9.650171671536347251e-01 -5.187324590926620793e-01 -2.548977413453456520e-01 8.160537833627883320e-01
-1.721135424203535519e-02 -2.143068507494367558e-01 -9.477713049272575851e-01 -4.469177956972203436e-01 -3.932745205725707294e-01 8.034921501530379873e-01
-3.738319086152950416e-02 1.597798656696294839e-01 -7.419999333859531587e-01 5.743377585990070422e-01 4.442355723090650743e-01 -6.875979169127158785e-01
9.842457125359180270e-02 -8.254243986510109710e-02 -7.478346724194043782e-01 -8.095855931149442686e-01 -2.474384920160941637e-01 5.323019444728015470e-01
-3.945926388762324016e-02 5.282740006261645027e-02 -8.381671996209770770e-01 -6.165063268998316470e-01 -4.645939897993754397e-01 6.356668730827300662e-01
5.802357147875359528e-02 -1.101018803484873909e-01 -8.152231874977984294e-01 7.982928592408066182e-01 1.764785699422120602e-01 -5.758331574651547324e-01
-2.717320453537738767e-02 2.060280384747933402e-01 -7.055423175676036607e-01 7.510180505483442515e-01 1.015230593261941816e-01 -6.524300392958732875e-01
-2.332384334196653530e-02 3.070558688852499662e-02 -8.383875312560096216e-01 -6.189446792884898407e-01 -4.319473811905872318e-01 6.559946218247996175e-01
-3.184637176787086937e-02 7.371442607045475270e-02 -8.138521381056930126e-01 -6.005961055487423206e-01 -5.421695914186718257e-01 5.876533435117973214e-01
-4.474981037470011913e-02 1.623883747907622910e-02 -8.668836624008459113e-01 6.228959841253095542e-01 3.972757659508249772e-01 -6.739232587978747357e-01
2.622337871824990951e-02 -8.472896588536085738e-02 -8.446065622271853313e-01 7.459810659660813803e-01 2.067613803648969129e-01 -6.330576441444422109e-01
-7.408219213561592631e-02 1.020929674282688021e-01 -8.238217181624826191e-01 4.991545065662825742e-01 6.245883333918252900e-01 -6.006115153453128741e-01
-8.137595228795284352e-02 -9.461458180248662198e-02 -9.407875970409105282e-01 -5.519951306121920753e-01 -2.686543317638094841e-01 7.893834466246235637e-01
5.069133834583160886e-02 -6.008471615185258935e-02 -8.064442280718344680e-01 -7.495718565420835811e-01 -2.720086285584155106e-01 6.034511893018555950e-01
5.189858469296308729e-02 7.200430856523971912e-02 -6.834389324290003342e-01 -8.181352040638855128e-01 -4.933840656931884339e-01 2.953420924815893245e-01
4.249629636043864706e-02 -1.711686926512937246e-01 -8.575890705949560378e-01 -7.548468863839098431e-01 -2.725702498044000333e-01 5.965833026812632500e-01
1.699068773654452977e-03 1.001268084823424553e-01 -7.504761914750930352e-01 7.620922960111434774e-01 4.723681702979386499e-01 -4.428133286722987783e-01
5.436318376867134428e-02 -2.168987480685713731e-01 -8.621448722188247427e-01 8.345585988736866634e-01 1.807935550765343291e-01 -5.204091039641572936e-01
6.615533682588768671e-02 -1.107736776133761286e-01 -8.041557935722828399e-01 7.982928592408066182e-01 1.764785699422120602e-01 -5.758331574651547324e-01
-4.955467821584865623e-02 -1.087025342765159802e-02 -8.861016594670697577e-01 -5.548687541863842609e-01 -3.530908972171158400e-01 7.532911017196886050e-01
8.394123149035165321e-02 -9.095864766507089083e-02 -7.732717340174448672e-01 -8.013326779806085876e-01 -1.961537144020062406e-01 5.651456976096717044e-01
-1.631745183338584315e-02 -4.291873434417417532e-02 -8.718401215256170733e-01 -6.242430930259410538e-01 -2.830898228693604080e-01 7.281350925461569368e-01
3.156213925704740020e-02 -2.299312694762312148e-01 -9.062937625115344842e-01 8.425007426276244216e-01 2.339284359662749391e-01 -4.852524966636169723e-01
6.039430187247087772e-02 -6.640807840236842563e-02 -7.964361676915562294e-01 8.024657085553537073e-01 2.456488732758206339e-01 -5.437880263954639748e-01
-6.651547018417465484e-02 5.978311162080181262e-02 -8.555370480556413471e-01 -5.351044885320660471e-01 -5.103004663057959522e-01 6.732433590024659020e-01
7.995689013540417667e-02 -1.852143485384818156e-01 -8.094333480155142535e-01 8.097279276319743202e-01 2.022897351280299738e-01 -5.508353168367655650e-01
-3.006988306103000955e-02 -1.777319961705999540e-01 -9.388291635734846707e-01 -6.131661225291382689e-01 -3.520769278750330855e-01 7.071556710093331866e-01
-2.805003304343189029e-03 -1.986570755406361910e-01 -9.275515702698887699e-01 -5.870075258256924888e-01 -3.781956757984942241e-01 7.158143582181899500e-01
-8.990923799820509099e-02 7.969827885056003647e-02 -8.582922486947965890e-01 -5.226505655784474680e-01 -5.547333188347854938e-01 6.473849946323078086e-01
-3.441635203089915551e-02 3.384922672867173021e-02 -8.467835791097213516e-01 -6.189446792884898407e-01 -4.319473811905872318e-01 6.559946218247996175e-01
5.755604699196190804e-02 -4.664816891066749655e-02 -7.912081636561659748e-01 -7.516256718490199606e-01 -3.091658480608461823e-01 5.826451130922900568e-01
1.680739069810387523e-02 -1.647726119998340621e-01 -8.876927079750285277e-01 -7.549954128493586714e-01 -3.129142503410357046e-01 5.762522004382577556e-01
7.736877515544482442e-02 -1.179558641542900743e-01 -7.914554415810818311e-01 -7.994166107291651446e-01 -1.758035014659373452e-01 5.744790782636129967e-01
-3.393375909017237735e-02 -1.938795844251246792e-01 -9.479408172342905781e-01 -4.779141115082431446e-01 -3.193863015878249390e-01 8.182850923604421123e-01
7.007648872108716842e-02 -1.825894423277653889e-01 -8.229935631124317696e-01 8.097279276319743202e-01 2.022897351280299738e-01 -5.508353168367655650e-01
-2.661326098934048076e-02 1.856431134833163021e-01 -7.187990867720491783e-01 5.865915216059839343e-01 4.498179363813711862e-01 -6.734791837091782529e-01
-7.161634290033069838e-02 -2.055131277887998348e-02 -9.068586777299064705e-01 -5.559985810190617439e-01 -3.494583252756510161e-01 7.541514813353661362e-01
-3.682953075233933588e-02 -5.021418181405658265e-02 -8.916654627051394666e-01 6.241583524675983208e-01 2.834324628470573093e-01 -7.280744399093986852e-01
6.776945499939455997e-02 -2.253355499471872483e-02 -7.606206440171671135e-01 -8.047216997380208792e-01 -3.588249461480740310e-01 4.729351371938677051e-01
4.990473344199849309e-02 -2.081772582189968801e-01 -8.663638667061235310e-01 -8.220378548387347051e-01 -2.569399571659164438e-01 5.081688928139029837e-01
-5.313234544923518127e-02 -1.446127125267079698e-02 -8.898556572594225056e-01 5.575462912090235479e-01 3.489617419966070111e-01 -7.532382330854935359e-01
-9.585171477759607539e-02 1.244359442580537517e-01 -8.183173702365774682e-01 4.891087968055696233e-01 6.411854665197372904e-01 -5.913152986447036685e-01
4.629811340273426445e-02 -1.093052299216852180e-01 -8.289697483838718295e-01 7.461914280904144992e-01 2.086809465528501328e-01 -6.321792587472275793e-01
5.208649750969061160e-02 -1.317921829076476592e-01 -8.302474395552650321e-01 -7.474189311529901847e-01 -2.124710610787976794e-01 6.294608721423209374e-01
2.872639233734939831e-02 -1.886138624805613340e-01 -8.838722975073854959e-01 7.603332160380847915e-01 3.155775188626321337e-01 -5.677184426964549946e-01
-1.372246793724504060e-02 1.625772852878153152e-02 -8.381078599942667351e-01 6.205406405401291403e-01 4.264877275368970655e-01 -6.580558727786415263e-01
5.208064995630860838e-02 -1.363892828103803745e-01 -8.312073511540917226e-01 7.501186095302670997e-01 2.258363625993998480e-01 -6.215464656518053799e-01
8.844113924624472101e-02 -6.517936674151990351e-02 -7.539913738963751610e-01 -8.050058003826727759e-01 -2.899881198192255649e-01 5.175640556626422972e-01
7.711050585908257871e-02 -2.102801234622773685e-01 -8.238850515200698554e-01 -8.116334057619654097e-01 -2.135092687135228817e-01 5.437508683438121437e-01
7.666757198159181164e-02 -1.108651555521295712e-01 -7.896215004671832682e-01 7.979322768400125554e-01 1.755604155824909141e-01 -5.766130609493829162e-01
-6.309831150850012116e-02 -8.435205886531450814e-02 -9.240528474771008138e-01 5.532770198701781883e-01 2.609808712456501145e-01 -7.910584833799810811e-01
-2.429767582377606247e-02 -1.573433906828707873e-01 -9.237477690233070193e-01 -6.131472256673300425e-01 -3.433412578128551274e-01 7.114543276556427598e-01
4.831338356150791102e-02 -4.452386071811725854e-02 -8.020042030038788683e-01 -7.516256718490199606e-01 -3.091658480608461823e-01 5.826451130922900568e-01
-2.104706477223843714e-02 -1.173597274895487874e-01 -9.028068896428984580e-01 -6.206909733346126501e-01 -2.691835219420936620e-01 7.363986333065681844e-01
7.420770471522009082e-02 -3.982083675696109631e-02 -7.608835375856239924e-01 8.049003096972029425e-01 3.114462676766824867e-01 -5.051105956121005880e-01
2.722223697490044544e-02 -2.338479361310775648e-02 -8.172515422824376818e-01 7.516375109187255488e-01 3.091907086399066640e-01 -5.826166474369361969e-01
-7.752342146377989851e-02 2.490046022009007737e-02 -8.875897167951315447e-01 -5.490129992846337625e-01 -4.323760350292982224e-01 7.152871388112843620e-01
-2.423472994150657409e-02 -1.770725335340630757e-01 -9.334412412984020024e-01 -6.131661225291382689e-01 -3.520769278750330855e-01 7.071556710093331866e-01
-6.003921930853968469e-02 1.260306205513235522e-01 -7.887637974830733478e-01 4.620673327270988784e-01 6.466280299592087610e-01 -6.069316031461348127e-01
1.087510927283701773e-02 -2.190441264273094157e-01 -9.297176885321397632e-01 -5.644237918933806553e-01 -5.135927175442824844e-01 6.462571497710308810e-01
-6.600625292982787058e-03 -1.864170998681229652e-01 -9.234023999630256441e-01 -6.009587760370452836e-01 -3.870918994199171737e-01 6.992913633869198842e-01
-1.859270568132669402e-02 -4.670817325646894891e-02 -8.752640233749233722e-01 -6.242430930259410538e-01 -2.830898228693604080e-01 7.281350925461569368e-01
1.919257026071548300e-02 -3.296736949870136824e-02 -8.325673936103834549e-01 7.507037462277540429e-01 3.049757788007048664e-01 -5.860321320068718753e-01
3.173676412686522036e-02 7.391893966757973056e-02 -7.284246506430889223e-01 7.485385447561828665e-01 5.038052624884316044e-01 -4.311267847202938097e-01
5.454478912551567749e-03 -5.244418801774920758e-02 -8.562846551315469457e-01 6.241583524675983208e-01 2.834324628470573093e-01 -7.280744399093986852e-01
-7.886246640021944698e-02 -5.148007313089138920e-02 -9.238271543917974116e-01 5.565570035517874992e-01 2.797708776770269079e-01 -7.822867490896683318e-01
-8.116842200672452767e-02 -1.208672192202970008e-01 -9.505688254462726361e-01 -5.422846891233858990e-01 -3.049987733019150493e-01 7.828812580632389384e-01
-7.200879710816449064e-02 1.253320172067275140e-02 -8.905930217219663048e-01 -5.526100471132509018e-01 -3.889741598763327146e-01 7.371032755170686679e-01
-3.405146088688879719e-02 1.633767108083437614e-01 -7.370477475125890576e-01 5.769036286755876430e-01 3.809704666723495725e-01 -7.225259211574295293e-01
1.792697027332657012e-02 3.085760567109261786e-03 -8.146063689516194195e-01 -7.506037508336981245e-01 -3.683290184819743018e-01 5.485688137130009245e-01
-5.711716114493443908e-02 6.715483863276244803e-02 -8.414644074494679327e-01 5.317981969684436594e-01 5.505724509373149944e-01 -6.434754493918088958e-01
-2.940917225478324737e-02 1.020969728828448747e-01 -7.841784190907431507e-01 5.847637024620058188e-01 5.667350456767198397e-01 -5.803988286383191531e-01
-8.139005872484314508e-02 1.184086805911239576e-01 -8.136887465691753363e-01 -4.596336135987931781e-01 -6.477109724087124487e-01 6.076244213915988901e-01
-8.452301454582671070e-02 -7.158596939064340581e-02 -9.348258697929520133e-01 5.532770198701781883e-01 2.609808712456501145e-01 -7.910584833799810811e-01
-4.444272259880839918e-04 -1.663127839033091138e-01 -9.068633573471734932e-01 6.189183165112374096e-01 3.628191055526769904e-01 -6.966365007181660740e-01
-4.476591919775119166e-02 1.287961508077556660e-01 -7.745370854015137807e-01 -5.677391988737438000e-01 -5.626121815458162700e-01 6.009490288189647256e-01
3.630938530222478644e-02 2.569553891999104382e-03 -7.889347916223251600e-01 7.518598275706667167e-01 3.751491736184729975e-01 -5.421899088131246769e-01
-6.118589134014524450e-02 1.408261129679330703e-02 -8.814897628556509490e-01 -5.514090460910604508e-01 -4.258594418435830975e-01 7.173505417030217046e-01
8.705682126642470126e-03 1.099802071744383075e-01 -7.282296511328499866e-01 7.665379334315798321e-01 4.519901801125074670e-01 -4.562066129423225647e-01
-9.541836610009873931e-02 5.839929313488866069e-02 -8.795285572258657592e-01 -5.330887773068430091e-01 -5.155581763512285809e-01 6.708324100003595358e-01
7.854512826689009908e-02 -1.725100708171720398e-01 -8.066654254430082327e-01 8.059281501188333419e-01 2.230082283141092969e-01 -5.484041821049847609e-01
-4.847512654539475746e-02 5.199263518057300332e-02 -8.468843014591159735e-01 -5.418504465037581319e-01 -4.947603881578772067e-01 6.794190547324563401e-01
7.317605616179327643e-02 -1.014153549364716494e-01 -7.922059695363543597e-01 -8.008632380720032140e-01 -1.993161548447457965e-01 5.647044752104688481e-01
1.213400459542826951e-02 -1.872463711235655137e-01 -9.061978767179911243e-01 7.690206029232987683e-01 3.467992147984559903e-01 -5.369707784364624592e-01
-6.704556694906230185e-02 -1.634109996373041274e-01 -9.574488212964084033e-01 -5.025990769889674414e-01 -2.617998028256586229e-01 8.239265932413422089e-01
1.045042424960060390e-01 -1.109659946143799619e-01 -7.508700391525024997e-01 -8.061653427378899783e-01 -1.970849045404338140e-01 5.579023037867725243e-01
5.357661187850824153e-02 -1.730982653300228713e-01 -8.435980439408700127e-01 8.059281501188333419e-01 2.230082283141092969e-01 -5.484041821049847609e-01
-3.287598556026456037e-02 9.814116968584751799e-02 -7.915339799208919169e-01 5.847637024620058188e-01 5.667350456767198397e-01 -5.803988286383191531e-01
-1.001088283428314962e-01 -2.873494311538120002e-02 -9.308216543907108509e-01 -5.493980821730155562e-01 -3.133393114620094955e-01 7.745839032649246558e-01
4.343161286518232994e-02 3.873271536177875368e-02 -7.481117026806757275e-01 7.416514785334535897e-01 4.926512281248157099e-01 -4.552448262377652433e-01
8.247022175376812758e-02 -7.979309474485440923e-02 -7.705439049261217921e-01 -8.049780176526236675e-01 -2.497750067277651476e-01 5.381661798275670927e-01
1.477817904516443275e-03 7.917358236442013919e-02 -7.746984632586649822e-01 -7.474348156420556055e-01 -4.870684013912388588e-01 4.517804430609067556e-01
-6.633704099871654165e-03 7.253780102221342452e-02 -7.894001258001557275e-01 -5.984010587617010213e-01 -5.304641698188857779e-01 6.004364557646674205e-01
3.821729286415483096e-02 -1.130927483051616250e-01 -8.397581787931367447e-01 7.461914280904144992e-01 2.086809465528501328e-01 -6.321792587472275793e-01
-3.366327453966418137e-02 1.806089219488160591e-01 -7.275142351720897960e-01 5.924795448399575726e-01 3.782857102505550739e-01 -7.112439176305619393e-01
1.628758221000175394e-02 -1.078700029366859567e-03 -8.186280492737145753e-01 7.520842294353125013e-01 3.345422323321087243e-01 -5.678475205730334485e-01
-1.120992478449393398e-01 -3.616467038368947895e-02 -9.421780400736243788e-01 5.621832975267302412e-01 2.773746925624196447e-01 -7.791105312520651971e-01
2.245183682331769806e-02 -1.465002403909957951e-01 -8.710023880161356091e-01 7.516857855697218760e-01 2.620643156149222719e-01 -6.052196082858787296e-01
-7.318858141517319005e-02 2.448095315190802757e-02 -8.845161277224258267e-01 -5.490129992846337625e-01 -4.323760350292982224e-01 7.152871388112843620e-01
4.331969037494808744e-02 -2.283402286134791070e-01 -8.866315148906630528e-01 -8.499972861711621031e-01 -1.540413456663331515e-01 5.037617267389067344e-01
-2.479561805653689513e-02 4.817911744759219815e-03 -8.558167211939100572e-01 -6.229095781393558795e-01 -3.972743215161110841e-01 6.739115453278442525e-01
-6.575778300929436757e-03 2.778420595911980026e-02 -8.238505896366138392e-01 6.189135999785038145e-01 4.319428263790959788e-01 -6.560269434263250599e-01
-7.358605333977750670e-03 1.283150481175335533e-01 -7.370561730149869373e-01 7.665379334315798321e-01 4.519901801125074670e-01 -4.562066129423225647e-01
-8.035075075174655246e-02 7.882381444831996695e-03 -8.988599364840733630e-01 5.558890204706826710e-01 3.927418180881899756e-01 -7.326262766546991489e-01
8.498032038100492014e-02 -3.323668008368813043e-02 -7.394562014266323757e-01 -8.047216997380208792e-01 -3.588249461480740310e-01 4.729351371938677051e-01
9.684994290526868777e-02 -1.016694518344261888e-01 -7.586463519176497305e-01 -8.061653427378899783e-01 -1.970849045404338140e-01 5.579023037867725243e-01
-6.396023725645808011e-02 -1.797057908948259120e-01 -9.607426986133202895e-01 5.157085641621427241e-01 2.984927640511899072e-01 -8.030857654440786142e-01
6.799753231227696759e-02 -1.356109245984678524e-01 -8.100765719783885599e-01 -8.009945608925270744e-01 -1.753638164132503563e-01 5.724117795028047517e-01
2.213243995352248000e-02 -1.962013374625665441e-01 -8.984619169841497888e-01 -7.689755343863861059e-01 -3.468258040299523337e-01 5.370181460380544225e-01
-4.353166371677873875e-02 -1.317304167858513418e-02 -8.823807893689450399e-01 -6.251242067051647755e-01 -3.232951494775659906e-01 7.104223902126935997e-01
-8.396935095130220184e-02 1.194521363306180889e-01 -8.145275404967041721e-01 -4.596336135987931781e-01 -6.477109724087124487e-01 6.076244213915988901e-01
9.461854857072844738e-02 -4.849849024896847605e-02 -7.335604902854573339e-01 8.015580446015968530e-01 3.197561299925846257e-01 -5.052333307162444331e-01
-3.067932795902881052e-02 1.765182289116726810e-01 -7.272042478590409198e-01 5.924795448399575726e-01 3.782857102505550739e-01 -7.112439176305619393e-01
6.347336570592999362e-03 1.146494196641514723e-01 -7.275661866920233312e-01 7.665379334315798321e-01 4.519901801125074670e-01 -4.562066129423225647e-01
-8.382416602855659316e-02 7.033878052010948678e-02 -8.607932055000688809e-01 5.368765213087554056e-01 5.095016602271621453e-01 -6.724371041912953206e-01
-4.661180913945218302e-02 -1.502857854990315156e-01 -9.382938961492531815e-01 5.321308021125458199e-01 3.416540676581924507e-01 -7.746672237132985472e-01
7.924971797710844701e-02 2.124207421050622671e-02 -6.947887646783236226e-01 7.848756632017562795e-01 5.005327438522924055e-01 -3.652905222494809978e-01
-9.480698276347371278e-02 6.081468934586185121e-02 -8.771863942092020805e-01 -5.330887773068430091e-01 -5.155581763512285809e-01 6.708324100003595358e-01
-6.358194992779941934e-02 -1.603736798658977891e-01 -9.539373338041853279e-01 5.048568227844671963e-01 2.631560675445208108e-01 -8.221122019544998549e-01
2.761867002651001782e-02 -7.228381960010095419e-02 -8.386893204679255476e-01 7.471560580101997973e-01 2.248081158888782238e-01 -6.254751282098685028e-01
-4.059474139109494478e-02 -3.469382100479927178e-02 -8.894557277431106579e-01 -6.242430930259410538e-01 -2.830898228693604080e-01 7.281350925461569368e-01
-2.225191129453257810e-02 -1.004276283325046260e-01 -8.969679809173601859e-01 6.217586515239772460e-01 2.546882007876715703e-01 -7.406416810000798767e-01
2.758200568090747248e-02 -4.248282070218203227e-02 -8.265801130030696608e-01 7.503124440015548346e-01 2.675261104912977084e-01 -6.045337183166968886e-01
7.894501758051185314e-02 -9.008143111394445457e-02 -7.800515081597649836e-01 -8.013326779806085876e-01 -1.961537144020062406e-01 5.651456976096717044e-01
-1.284341843547792683e-02 2.041459948626618212e-02 -8.352425401055770804e-01 -6.205505473503579728e-01 -4.265654119882614226e-01 6.579961758843708708e-01
-6.770664383605130843e-02 1.537215603895842886e-01 -7.674879573198647442e-01 4.435437409205334469e-01 6.053007228667185435e-01 -6.609689741487466685e-01
1.537304345421401826e-02 -1.066683113168458291e-01 -8.646716496618132020e-01 7.474224896529774176e-01 2.124400685406157285e-01 -6.294671073530397898e-01
-1.749471493035715738e-02 -1.544545930583956783e-01 -9.164558734289388608e-01 -6.189339478065022382e-01 -3.628111228260152976e-01 6.966267705209039374e-01
-4.295729522233247138e-02 1.700724680170681014e-01 -7.397409670082507605e-01 4.557769128336892628e-01 4.559863064529778853e-01 -7.644238968368023412e-01
-8.736305005884938135e-02 -4.167364260443180701e-02 -9.263677901580745777e-01 5.565570035517874992e-01 2.797708776770269079e-01 -7.822867490896683318e-01
-5.367576894426962647e-02 -1.524772114292177738e-01 -9.441127304074536930e-01 5.321308021125458199e-01 3.416540676581924507e-01 -7.746672237132985472e-01
-3.901874831619380618e-02 -1.898100672873051231e-01 -9.493222918458170678e-01 -4.779141115082431446e-01 -3.193863015878249390e-01 8.182850923604421123e-01
-4.003987994034060444e-02 -1.492539553816515652e-01 -9.334108656149009420e-01 -6.131472256673300425e-01 -3.433412578128551274e-01 7.114543276556427598e-01
-8.568519779580241469e-02 3.412566737875880746e-02 -8.878054062506088862e-01 5.506475563511199489e-01 4.317470418903825435e-01 -7.144100786687184179e-01
-2.599855414939167622e-02 -1.754893927175569801e-01 -9.335704943241435183e-01 6.131379254750706220e-01 3.521024344535498285e-01 -7.071674200611975936e-01
3.981539462386349260e-02 -8.878851589440288350e-03 -7.919000531227411432e-01 7.506155510945422549e-01 3.682472229486707938e-01 -5.486075803756528257e-01
7.041622510837466931e-02 -1.090479064196985814e-01 -7.977199045058144256e-01 7.982928592408066182e-01 1.764785699422120602e-01 -5.758331574651547324e-01
-7.329310966351500201e-02 4.157246341802436213e-02 -8.731467851872156682e-01 5.485422658585632494e-01 4.682615678113916102e-01 -6.926994201510282556e-01
-5.532565268902762262e-02 1.160557387322988798e-01 -7.956996806945400014e-01 -4.865361866620800946e-01 -6.107679886341942366e-01 6.246959285348853141e-01
-5.343182320487317033e-02 7.274196743345552607e-02 -8.339912919213214870e-01 5.262228434808937649e-01 5.353923359757040146e-01 -6.606395125765347487e-01
8.048513677720514625e-02 -1.512475784726348693e-01 -7.974180044893184327e-01 -8.018750722473806380e-01 -1.865798874117016448e-01 5.676128206107529106e-01
-2.279666982778225104e-02 -2.071533966489349787e-01 -9.470262721963321750e-01 4.729225569611408275e-01 3.703121349450755329e-01 -7.995080849058103789e-01
-8.033155958094917448e-02 1.611803970263992747e-01 -7.693931647129891305e-01 -4.270664389714707854e-01 -6.159383919971549437e-01 6.619925633783102503e-01
-6.356805466394178927e-02 9.126198811335727024e-02 -8.266092829431382905e-01 -5.023333936686150691e-01 -6.025514699652539941e-01 6.201555350459140303e-01
1.365960742214930405e-02 7.665456601788186997e-02 -7.572604345473307186e-01 -7.474348156420556055e-01 -4.870684013912388588e-01 4.517804430609067556e-01
9.236092390435565735e-02 -3.759605781521731943e-02 -7.301156398141536163e-01 -8.093455619044220839e-01 -3.566019664752369533e-01 4.666849032608716419e-01
4.220160273913657958e-03 -1.260304761622105529e-01 -8.846283036109851006e-01 -6.226580943488875253e-01 -2.750987618618253583e-01 7.325418546157635991e-01
6.634089706768089845e-02 -1.430621903270837270e-01 -8.147091650902722471e-01 -8.018750722473806380e-01 -1.865798874117016448e-01 5.676128206107529106e-01
7.591204112210660215e-02 -3.069177100040909600e-02 -7.521702329539110554e-01 8.035849336145067801e-01 3.593754452303664637e-01 -4.744476196939390600e-01
5.736461962879932375e-02 -9.738434289129016541e-02 -8.127270532684895965e-01 -7.460186446537925287e-01 -2.063926554773088951e-01 6.331336775073199696e-01
-3.350080647856031740e-02 1.779273374512255201e-01 -7.294088353720126205e-01 -5.926478395589503956e-01 -3.781411740849001113e-01 7.111805612696412426e-01
-6.829091121666555630e-02 6.119407515523855867e-02 -8.558787240825497245e-01 -5.351044885320660471e-01 -5.103004663057959522e-01 6.732433590024659020e-01
5.215536042121332594e-02 3.776789205260899784e-02 -7.329573735990232430e-01 -7.981099578583443765e-01 -4.710736036765835744e-01 3.756463164820186273e-01
9.218860159348073180e-02 -1.365589435704868959e-01 -7.764827420630008303e-01 -8.038944613155524221e-01 -1.716125353350395621e-01 5.694759281849038901e-01
6.089004191435170438e-02 -1.076257969784043533e-01 -8.104904650124008514e-01 7.982928592408066182e-01 1.764785699422120602e-01 -5.758331574651547324e-01
-1.173160231084731994e-03 2.664429962317265560e-02 -8.194924242063135189e-01 6.164751738068833253e-01 4.646038820264554725e-01 -6.356898558933598009e-01
8.580670488229052983e-02 -2.231673782009577309e-03 -7.102776158476327151e-01 -8.023336291468329273e-01 -4.492007270442162081e-01 3.930387440991278680e-01
2.833951722655642450e-02 -8.465482565485187016e-02 -8.420887368580388666e-01 7.459810659660813803e-01 2.067613803648969129e-01 -6.330576441444422109e-01
5.950284684324019802e-02 -1.202775572212011757e-01 -8.163500152698952572e-01 7.987744167580571597e-01 1.825333464863424238e-01 -5.732721941218866801e-01
-4.111558862314898533e-02 -1.556677125804353280e-02 -8.813441302289859447e-01 -6.251242067051647755e-01 -3.232951494775659906e-01 7.104223902126935997e-01
-5.044325743957079645e-03 1.273745726988859302e-02 -8.328642163956641031e-01 -6.205505473503579728e-01 -4.265654119882614226e-01 6.579961758843708708e-01
4.845892339522696324e-02 -7.750190351417107770e-02 -8.163342221161939971e-01 -7.477782703817891230e-01 -2.269917096421324165e-01 6.239410405627775491e-01
2.247139585188318023e-02 -2.274709850558506163e-01 -9.200606654256564543e-01 5.863821885581212978e-01 7.357154103482899110e-01 -3.389376991687931828e-01
-4.559836899394150572e-02 1.755756365769791660e-01 -7.380866780794819171e-01 4.621840321682984531e-01 4.411643692570849651e-01 -7.692593318944214165e-01
-7.897088077270156270e-02 -7.855007392891778795e-02 -9.337040061036064875e-01 -5.516644038536501204e-01 -2.612174213041016935e-01 7.921059552408582505e-01
5.558228223540538637e-02 -9.482163986719775728e-02 -8.133062596389190047e-01 7.460301799195887540e-01 2.063661181238949094e-01 -6.331287356767344443e-01
1.923211474301935245e-02 -7.172770335448501455e-02 -8.491999892808882455e-01 -7.471455242343809644e-01 -2.248263227332706893e-01 6.254811669608981717e-01
-4.512523282260552659e-02 -1.043067219698894516e-01 -9.177403712506327915e-01 6.206745688404764483e-01 2.692138102620785234e-01 -7.364013878034602056e-01
-6.365731560981929826e-02 -1.840207640715015858e-01 -9.619330437900168729e-01 -4.617726330174127813e-01 -2.241355754276276036e-01 8.582128402814139800e-01
-3.623921313621524670e-02 -7.641822316577209784e-02 -9.011087333079474959e-01 -6.223941438924089908e-01 -2.515816134738271259e-01 7.411694957365291270e-01
9.038739284947790165e-02 -1.843182878874545794e-01 -7.939666586307724261e-01 8.001282974633679990e-01 2.060000546972180491e-01 -5.633459727939086337e-01
7.015928951381793233e-02 6.840930635757135796e-04 -7.367031940362650522e-01 8.049375180726839885e-01 4.056153097312640288e-01 -4.330725256935589740e-01
8.502289108486887903e-02 -8.434433164454570309e-02 -7.688380053266221648e-01 -8.049780176526236675e-01 -2.497750067277651476e-01 5.381661798275670927e-01
-8.892105620895948692e-02 -1.048743163904992948e-01 -9.492456502096709992e-01 5.513770695427604451e-01 3.232635879422560143e-01 -7.690799567620633104e-01
4.157130298859999795e-02 -9.753397089069410289e-03 -7.908746325514171005e-01 -7.506037508336981245e-01 -3.683290184819743018e-01 5.485688137130009245e-01
-2.161666041550087264e-02 8.108967911260538119e-02 -7.967770130103100090e-01 -5.984010587617010213e-01 -5.304641698188857779e-01 6.004364557646674205e-01
5.973714236174646613e-02 -1.385402349407784395e-01 -8.225519765868091193e-01 -8.018750722473806380e-01 -1.865798874117016448e-01 5.676128206107529106e-01
4.036555168067924859e-02 -5.772693551592893851e-02 -8.174890214242007680e-01 7.495911731614962603e-01 2.719370515000108512e-01 -6.034594544290874385e-01
-8.972670384214480321e-02 -1.186708922514808640e-01 -9.552217336102091227e-01 5.440226778241902261e-01 3.050456898402446049e-01 -7.816562243869656923e-01
1.203304545169213771e-02 -1.347911577975446362e-01 -8.796550222880941128e-01 -7.501021255367986695e-01 -2.258563315147379125e-01 6.215591032073151112e-01
-3.618990525504710981e-02 2.244642963297285507e-02 -8.559432177237477068e-01 -6.205505473503579728e-01 -4.265654119882614226e-01 6.579961758843708708e-01
5.852962476385961677e-02 5.576806058340524203e-02 -6.926103788471027478e-01 -7.983558669281852760e-01 -5.055150958545039375e-01 3.272344688515522737e-01
3.909866847651520538e-02 -5.645070864835691898e-02 -8.192059191838125809e-01 -7.495718565420835811e-01 -2.720086285584155106e-01 6.034511893018555950e-01
3.890833793559904386e-02 -8.443238858221421839e-02 -8.295620236778571410e-01 7.459810659660813803e-01 2.067613803648969129e-01 -6.330576441444422109e-01
-3.263762542744273049e-02 1.146358037035603017e-01 -7.751357222036208139e-01 5.843680258337375921e-01 5.684414697084626544e-01 -5.791271931958149599e-01
-7.919022677389334075e-02 -2.169112600800195481e-02 -9.129625353346350058e-01 -5.556246119897326752e-01 -3.104826493737372628e-01 7.712858192584146622e-01
2.385849195680491905e-02 -2.272289582520674311e-01 -9.181211917704255043e-01 -5.929535320345284966e-01 -7.258102363440538385e-01 3.487199588007064421e-01
-5.336412016337667430e-02 2.094998671223889664e-02 -8.708236631910794001e-01 5.530243620417466532e-01 4.252699991612867714e-01 -7.164561974061488536e-01
-9.929160897148542331e-02 1.005810407667550588e-01 -8.463553624951735133e-01 5.224733060174924226e-01 5.999830696122829821e-01 -6.058398803956160927e-01
-8.034159812284191737e-02 1.779479985683021792e-02 -8.935201084284198902e-01 5.530243620417466532e-01 4.252699991612867714e-01 -7.164561974061488536e-01
7.096063771539180311e-03 -1.639184777769880919e-01 -8.995365335480741686e-01 -6.189339478065022382e-01 -3.628111228260152976e-01 6.966267705209039374e-01
2.096229659192770309e-02 -7.293163668055188675e-02 -8.475660124707252718e-01 -7.471455242343809644e-01 -2.248263227332706893e-01 6.254811669608981717e-01
-3.793624174079008454e-02 1.508246068539325357e-01 -7.483352699190121138e-01 5.723392815216459262e-01 4.957940969142149434e-01 -6.531584496064520851e-01
4.760318582735929534e-04 -1.046256266668666168e-01 -8.799174643620175651e-01 -6.217713447781623159e-01 -2.547022193011331814e-01 7.406262041649841477e-01
2.517164910026174415e-02 -3.258171446284770234e-02 -8.247075305121389643e-01 7.507037462277540429e-01 3.049757788007048664e-01 -5.860321320068718753e-01
8.875565996323528384e-02 -1.235684718602320098e-01 -7.767614447769778385e-01 7.979322768400125554e-01 1.755604155824909141e-01 -5.766130609493829162e-01
4.852057261059587040e-02 -2.339499193476284045e-01 -8.788643230177969334e-01 8.487432256549628518e-01 1.603809763392919363e-01 -5.038976873664577916e-01
4.013005481700981231e-02 7.223546640618613845e-02 -7.127335370326366437e-01 -8.127868288624536808e-01 -4.697062399249255504e-01 3.446064697641418317e-01
-5.115566517192672580e-02 1.591953099734793597e-01 -7.525933321405861021e-01 -4.509757609810401968e-01 -5.317977199940464583e-01 7.168068414968606916e-01
-1.092853359898079274e-01 -8.971762902111943272e-02 -9.583825156907560538e-01 5.563256192279355528e-01 2.650386408858281806e-01 -7.875635366292975670e-01
1.742545842841210961e-03 1.078121939892073972e-01 -7.422030325790479610e-01 7.620922960111434774e-01 4.723681702979386499e-01 -4.428133286722987783e-01
5.875523140728444726e-02 3.346825536391999367e-02 -7.233285060967933333e-01 7.969423063360745463e-01 4.716305845391624563e-01 -3.774222464283023548e-01
-9.139818184843134796e-02 7.538254820522465038e-02 -8.631923884197233443e-01 -5.226505655784474680e-01 -5.547333188347854938e-01 6.473849946323078086e-01
-3.408887901797423570e-02 -1.547587576992632274e-01 -9.303295467069062630e-01 6.131186526355173472e-01 3.433265810922833117e-01 -7.114860339499936570e-01
8.917275410692815374e-02 -1.664214351627897881e-01 -7.896053849569405481e-01 7.960972499270526637e-01 1.905509292192629767e-01 -5.743862045977944364e-01
6.861407626066742815e-02 -1.789725274388354326e-01 -8.245050134976874556e-01 -8.108960766334465387e-01 -2.011838175602294332e-01 5.495203585422253623e-01
7.442702233842753146e-02 -2.223933625304339301e-01 -8.324257786665155701e-01 -8.411133664625924933e-01 -1.693845025751460065e-01 5.136508493571628753e-01
-1.826857080743262644e-03 -2.151120387703333581e-01 -9.376863437806670643e-01 -5.644237918933806553e-01 -5.135927175442824844e-01 6.462571497710308810e-01
4.996123024174629890e-02 -8.042532330592497281e-02 -8.155972929372344860e-01 -7.477782703817891230e-01 -2.269917096421324165e-01 6.239410405627775491e-01
-2.665806209773426139e-02 2.200261362542002292e-03 -8.590813328878704747e-01 -6.229095781393558795e-01 -3.972743215161110841e-01 6.739115453278442525e-01
8.296137787617821960e-03 9.750257815552415552e-03 -8.222194797889772477e-01 -6.205505473503579728e-01 -4.265654119882614226e-01 6.579961758843708708e-01
7.651264312935973644e-02 -3.644279850370875547e-03 -7.289483766064800419e-01 8.049375180726839885e-01 4.056153097312640288e-01 -4.330725256935589740e-01
7.749516748768069119e-02 -1.485228513493105640e-01 -8.007463341033758120e-01 -8.018750722473806380e-01 -1.865798874117016448e-01 5.676128206107529106e-01
-2.215148489612303248e-02 8.926749983120538245e-02 -7.898845015697921745e-01 -5.952489681296052604e-01 -5.469598818321922407e-01 5.886540185939058700e-01
-5.640361281428109275e-02 1.840821649173137176e-01 -7.400687079925818423e-01 -4.411958003924612015e-01 -4.572459841547062975e-01 7.721867492326255356e-01
-7.167431559174698708e-02 8.901644964266297588e-02 -8.353311779483244548e-01 -5.183684731660270772e-01 -5.747252057635769962e-01 6.332338145484144309e-01
-7.732922155516855356e-02 -5.913711588955478451e-03 -9.042369015065385707e-01 -5.548687541863842609e-01 -3.530908972171158400e-01 7.532911017196886050e-01
3.079988258168792764e-02 -1.096518659024771636e-01 -8.473774755479568377e-01 7.461914280904144992e-01 2.086809465528501328e-01 -6.321792587472275793e-01
-4.986288981153828154e-02 1.420151441892097133e-01 -7.663045063876228191e-01 -4.492961620824992841e-01 -6.162761030954662100e-01 6.467895511612742343e-01
-2.779119312815298698e-02 6.404480796073520887e-02 -8.179804663809508991e-01 -6.068067381189772291e-01 -5.035478585070404245e-01 6.150001111921692409e-01
-7.669259883655078769e-02 -1.086981142002981515e-01 -9.425613054735726415e-01 -5.497391840850353040e-01 -3.234533109453645028e-01 7.701719191972665746e-01
3.954998269002810846e-02 6.783266513839168732e-02 -7.203331030037239957e-01 -8.101711951404348966e-01 -4.785289903541740664e-01 3.385744230672689259e-01
-1.211426874133342897e-04 -1.355207409554511355e-01 -8.921717273222096178e-01 -6.189994546666521824e-01 -3.261089001796588227e-01 7.144876908288908535e-01
6.161162744725454457e-03 5.617247001770346582e-02 -7.904653947998130370e-01 -7.479901326354153612e-01 -4.389365989452247430e-01 4.978407612745791022e-01
3.297033654960622451e-02 2.337699647527821320e-02 -7.786512050332595747e-01 -7.525548599146496542e-01 -4.015222633073721181e-01 5.219588632137284190e-01
8.309096474227402329e-02 -1.105910530363094779e-01 -7.812665267081914111e-01 -7.990474163015511833e-01 -1.748617273758830415e-01 5.752795866367393929e-01
4.032805987561279698e-03 7.182306496445649280e-02 -7.772422611192977282e-01 7.507085350616643504e-01 4.725296586061313309e-01 -4.616843262697387651e-01
-2.016110762361473033e-02 -6.130251402598792601e-03 -8.577103801876045930e-01 -6.238391026520413440e-01 -3.620518636344817187e-01 6.926349847077424293e-01
-9.179384002172611551e-03 2.007898098929595532e-01 -6.864447640741692114e-01 -8.135764517731530754e-01 -4.489781432867736011e-01 3.694752819485599415e-01
-9.552929051430714136e-02 7.632739524491817529e-02 -8.657179152084530926e-01 -5.226505655784474680e-01 -5.547333188347854938e-01 6.473849946323078086e-01
-2.225429736753904708e-02 2.026500461883597726e-01 -7.025356762042905823e-01 7.141951873301669584e-01 3.488800009040566863e-01 -6.068014332247517739e-01
-9.082963743547274593e-02 -2.107730816163901066e-02 -9.211012798745720209e-01 -5.558019517546584076e-01 -3.109064146713831356e-01 7.709872837744460305e-01
7.344063789862065317e-02 4.266166300174034122e-03 -7.269302150428814668e-01 7.967199420411238409e-01 4.510717481952044028e-01 -4.022084185271491141e-01
-8.686214046305645864e-02 1.087001259758952204e-01 -8.280810639343807456e-01 -4.885690963466229331e-01 -6.294940069864337628e-01 6.041833606308666393e-01
5.920242465227590345e-02 2.537742716779376254e-02 -7.329159400873325181e-01 -8.074930173842288506e-01 -4.294057176169380763e-01 4.044326353715728128e-01
-9.902793829086586896e-02 -3.941702978145728009e-02 -9.338898060060467632e-01 5.628998578754368376e-01 2.778219430674847001e-01 -7.784335025896689242e-01
-2.390072072593939917e-02 -1.091163800205034035e-01 -9.015865758443576405e-01 6.226478555033291284e-01 2.751432342669267728e-01 -7.325338549679737410e-01
1.255196894566991406e-02 1.052229243925840163e-01 -7.264802691081602148e-01 7.665379334315798321e-01 4.519901801125074670e-01 -4.562066129423225647e-01
-7.081560099946190845e-02 1.549819461866515924e-01 -7.689316821390649315e-01 -4.404034057518382839e-01 -6.073991326952081771e-01 6.611438072033123392e-01
5.202590947495724233e-02 -1.935928441580278270e-01 -8.557600482653553442e-01 -8.215810407673506122e-01 -2.345722983459960220e-01 5.195964109771294970e-01
1.857996205025776518e-04 7.759028085044053502e-02 -7.774147472751899990e-01 5.952215479455733593e-01 5.469510640228711917e-01 -5.886899374250628147e-01
-7.347147455442330777e-02 -9.574784320786611236e-02 -9.351684387169634238e-01 5.536131463144756681e-01 2.685587434338400081e-01 -7.882821103849965150e-01
-3.122918577261028089e-02 -9.439499361169641223e-02 -9.024298085386952550e-01 6.217586515239772460e-01 2.546882007876715703e-01 -7.406416810000798767e-01
4.385320946283743915e-02 -1.194336876924636248e-01 -8.358855401343525671e-01 -7.461778681775167454e-01 -2.086790304592859302e-01 6.321958962921452319e-01
2.544206992073881970e-02 -1.561824795516084941e-01 -8.715950868842706756e-01 7.548640782915316816e-01 2.725650160221481655e-01 -5.965639407020193463e-01
9.918089456700177053e-02 -7.856008680492054808e-02 -7.446325506536692895e-01 -8.095842506435878549e-01 -2.878060439273159021e-01 5.116063156263498390e-01
2.484722963647537086e-02 4.351969205503177646e-02 -7.734277943840400793e-01 -7.495534215964902991e-01 -4.524698251639101554e-01 4.831570401941120974e-01
7.249559197103365438e-02 -1.894331816671608604e-02 -7.499309797809410316e-01 -8.083574237409539842e-01 -3.467345142632849431e-01 4.757451545748958566e-01
-5.714862503710711056e-02 9.341246458121933716e-02 -8.193200363408872366e-01 -5.023333936686150691e-01 -6.025514699652539941e-01 6.201555350459140303e-01
1.029050837306089566e-01 -1.041122526342470461e-01 -7.506581119649224920e-01 7.958086093625784674e-01 2.032982778066362572e-01 -5.704020227043856694e-01
1.520738796685907994e-02 -1.820809790300308151e-01 -8.992587073509177298e-01 -7.689755343863861059e-01 -3.468258040299523337e-01 5.370181460380544225e-01
-2.541983441574924979e-02 -6.856888155621854164e-02 -8.892391991262389439e-01 -6.227672601765474880e-01 -2.593271869720292777e-01 7.381804317030969953e-01
2.477625584624669128e-02 1.304359694391779012e-01 -6.758883291717141528e-01 8.594878496324955819e-01 2.697951875411117029e-01 -4.341557244972881202e-01
-8.783705918465521678e-03 -2.934236120685310058e-03 -8.449432643845818935e-01 6.228959841253095542e-01 3.972757659508249772e-01 -6.739232587978747357e-01
-3.847206730674473940e-02 -1.523039535890688134e-01 -9.335315905172135720e-01 -6.131472256673300425e-01 -3.433412578128551274e-01 7.114543276556427598e-01
-4.561879385170114487e-02 1.254731767321906055e-01 -7.783788427594976467e-01 -5.794382688161380246e-01 -5.504568188833099951e-01 6.010395853654098008e-01
1.941530873412865288e-02 1.223556932275381495e-02 -8.064263696565808770e-01 -7.506037508336981245e-01 -3.683290184819743018e-01 5.485688137130009245e-01
9.000204356068719491e-02 -1.693764666241256989e-01 -7.898739653658422011e-01 -8.064675482074015189e-01 -1.833675016856043949e-01 5.621267232696932625e-01
-7.430016510326406358e-03 -7.506964130836084326e-02 -8.757471024612016874e-01 6.232759498540809684e-01 2.609425827771977291e-01 -7.371811574009867751e-01
-6.223979920294385459e-02 1.107346924195943688e-01 -8.062582584679288678e-01 -4.878297501918079648e-01 -6.050713342733331501e-01 6.292144429910095926e-01
1.693527464774751551e-02 1.289690108992358197e-01 -6.955874477655829002e-01 -8.634003436312601698e-01 -3.301965635504636731e-01 3.814578299588127219e-01
-4.268909119591499796e-02 -1.506805624086687001e-01 -9.357727985375449142e-01 6.131186526355173472e-01 3.433265810922833117e-01 -7.114860339499936570e-01
3.137789004962194400e-02 9.094450705495796261e-02 -7.075512159191662542e-01 -8.133337388142362068e-01 -4.950239214611545924e-01 3.056788289817872206e-01
-4.787982659380096012e-02 9.994831025013467540e-02 -8.048150152514849109e-01 4.899886937010959898e-01 6.043425463395781794e-01 -6.282365531620142107e-01
-8.186395693703647433e-03 1.272544798761740814e-01 -7.394978279811618149e-01 7.665379334315798321e-01 4.519901801125074670e-01 -4.562066129423225647e-01
2.568019362408037552e-03 8.323937684926643876e-02 -7.685114434601242328e-01 -7.474348156420556055e-01 -4.870684013912388588e-01 4.517804430609067556e-01
-1.634376284539542853e-02 4.056875485806717141e-02 -8.247096582253264918e-01 -6.149969560976370486e-01 -4.578495069487943936e-01 6.419911003879937850e-01
5.850772982243701570e-02 5.410833353349144004e-02 -6.942795457445544161e-01 7.881993929573922752e-01 5.087230587411825100e-01 -3.463272533985937707e-01
-6.736261221842475277e-02 1.180955948941360134e-01 -8.030801314590960693e-01 -4.865361866620800946e-01 -6.107679886341942366e-01 6.246959285348853141e-01
2.325441178460014788e-02 5.731918084867032581e-02 -7.608692468211788462e-01 7.416514785334535897e-01 4.926512281248157099e-01 -4.552448262377652433e-01
3.962980967176805286e-02 8.863536904666598215e-02 -6.885481161063086164e-01 8.196430744688245618e-01 4.722549964352353857e-01 -3.242845183126207842e-01
-3.611724080129912612e-02 -1.303214245340253707e-01 -9.204709715532184422e-01 6.220041949225088018e-01 3.137651826598779059e-01 -7.173996038814176579e-01
-7.365353759296496168e-03 1.586665211128489850e-01 -7.160171580384824264e-01 -7.873832480283502466e-01 -3.041066206735589805e-01 5.362338892562027448e-01
-1.251878690785320977e-02 -2.381600214716542152e-02 -8.593545977109534606e-01 6.246890988968887282e-01 3.218096520572082397e-01 -7.114787962843389657e-01
-5.269792681274709789e-02 1.774922980804793105e-01 -7.417089040966033942e-01 -4.582107742917910231e-01 -4.444782208938199974e-01 7.697285219309348836e-01
4.169513668748056623e-02 -2.788821319839950713e-02 -8.008744617512697506e-01 7.509821961928077050e-01 3.395464565233372589e-01 -5.663337751396014808e-01
5.421268415035674368e-04 1.723967237256278651e-01 -6.959245410760358519e-01 -7.842210908536829672e-01 -3.266655182920534251e-01 5.275290701176983399e-01
-1.263735595172320834e-02 -3.077701964418686972e-02 -8.626072475719732680e-01 6.246890988968887282e-01 3.218096520572082397e-01 -7.114787962843389657e-01
-1.478469468279873175e-02 4.449292905930410380e-02 -8.204175373596355181e-01 -6.149969560976370486e-01 -4.578495069487943936e-01 6.419911003879937850e-01
3.885664905306874389e-02 4.315424423150836242e-02 -7.517323054782897307e-01 -7.416302013436090190e-01 -4.926481805306565098e-01 4.552827853926302293e-01
-5.544182676294496029e-03 -1.624739157844126052e-03 -8.411801101741189779e-01 6.220118135105213719e-01 3.937365338619039368e-01 -6.768107902181865754e-01
5.028906603233922190e-02 -2.050240060942174758e-01 -8.633174773695134752e-01 8.207710048629331956e-01 2.582494786367303119e-01 -5.095509438320646733e-01
2.735855993975640438e-04 8.260880213842793085e-02 -7.729872297055947472e-01 -7.474348156420556055e-01 -4.870684013912388588e-01 4.517804430609067556e-01
7.142767068500813048e-03 -9.125695698583284610e-03 -8.338840799378315349e-01 6.220118135105213719e-01 3.937365338619039368e-01 -6.768107902181865754e-01
-4.064803293862898070e-02 -1.419609858644044764e-01 -9.298063099634756856e-01 6.131186526355173472e-01 3.433265810922833117e-01 -7.114860339499936570e-01
-2.878642335787713960e-02 -4.547310597576046526e-02 -8.829274941008696809e-01 6.242338889497279775e-01 2.830309794320556294e-01 -7.281658578706021734e-01
-9.274314037124468946e-03 -5.512602256608344076e-02 -8.699552601778214322e-01 6.241583524675983208e-01 2.834324628470573093e-01 -7.280744399093986852e-01
-9.649728588224108783e-02 1.761571664247695707e-02 -9.059500120808746670e-01 5.606794212159933455e-01 3.923676510705748632e-01 -7.291681651157422284e-01
3.315943109978543996e-02 -7.664727949564445475e-02 -8.343319447120703947e-01 -7.471455242343809644e-01 -2.248263227332706893e-01 6.254811669608981717e-01
-3.695177461339077540e-02 1.617142376489488498e-01 -7.403898419981816970e-01 5.743377585990070422e-01 4.442355723090650743e-01 -6.875979169127158785e-01
-2.662409440758364484e-02 6.828963388772631149e-02 -8.133533511639362557e-01 -6.068067381189772291e-01 -5.035478585070404245e-01 6.150001111921692409e-01
5.056134179708317300e-02 4.431212458388252701e-02 -7.281373794038682457e-01 -7.981099578583443765e-01 -4.710736036765835744e-01 3.756463164820186273e-01
-1.555725896542607331e-02 5.732814934818268593e-02 -8.106589039458885759e-01 6.114989156547104843e-01 4.916112896012667655e-01 -6.199898516021795647e-01
7.737326630687883788e-02 -4.527208968385025567e-02 -7.592003633765773696e-01 8.049003096972029425e-01 3.114462676766824867e-01 -5.051105956121005880e-01
-4.931020898912307805e-03 3.708475587461633471e-02 -8.162614813927283608e-01 -6.149969560976370486e-01 -4.578495069487943936e-01 6.419911003879937850e-01
1.140977085625440902e-02 -1.719742047422690434e-01 -8.986751549146640983e-01 -7.549954128493586714e-01 -3.129142503410357046e-01 5.762522004382577556e-01
8.612242397296952789e-02 -1.714736900171480727e-01 -7.961026457878929152e-01 -8.018750722473806380e-01 -1.865798874117016448e-01 5.676128206107529106e-01
4.938737505820580548e-02 -7.216626371540456678e-03 -7.775706227508638602e-01 7.518598275706667167e-01 3.751491736184729975e-01 -5.421899088131246769e-01
7.973297456206900058e-02 -8.100219584782593352e-02 -7.744908643818283478e-01 8.024657085553537073e-01 2.456488732758206339e-01 -5.437880263954639748e-01
1.657045875365171714e-02 -1.267991117879083418e-01 -8.704720868268462919e-01 7.486867107280859024e-01 2.345056031051492296e-01 -6.200607480654207748e-01
-1.425348273014906582e-02 1.249534288306622665e-01 -7.489514364388388801e-01 -5.824075704956958033e-01 -5.353572323718339687e-01 6.117140308808285409e-01
