2.505680363665604288e-02 1.347583105085668753e-01 -7.191561425766443971e-01 -8.760843960152139287e-01 1.704946722744871482e-02 -4.818562511018386063e-01
5.599931557297758988e-03 3.425422326722272082e-03 -7.045974130062740981e-01 -7.713838883431626270e-01 2.193184449074930265e-01 -5.973828893833019738e-01
-8.417061005205178637e-02 -1.697469425293695600e-01 -6.907416296880268813e-01 -7.036041473887212350e-01 4.004633295494609002e-01 -5.870011290138635873e-01
1.927082098584182238e-02 -8.353259805378157599e-02 -7.780796881556588662e-01 8.620822759995354634e-01 -3.257650227443645297e-01 3.881897723586038018e-01
3.936309305010279175e-02 1.190354218324506802e-01 -7.477719321666482788e-01 -9.116833620160048612e-01 -5.582354088890258137e-02 -4.070837502355251214e-01
-3.456504157403340882e-02 1.426918947715780650e-01 -6.345278893640800000e-01 -6.272249561416164410e-01 2.349126622380366958e-01 -7.425664249839103448e-01
2.915462115058927231e-02 -1.537922518878205302e-01 -8.524382079378248767e-01 8.776989779389622326e-01 -2.438287468973703576e-01 4.125433871865591962e-01
-4.010128128061838521e-02 1.007354044186355019e-01 -6.370943553890507927e-01 -6.326174356457243686e-01 4.925655906876943296e-02 -7.728964817527200770e-01
3.528316922289207597e-02 1.046516266918424837e-01 -7.377171589946688313e-01 9.108408032965265022e-01 5.468539257748154803e-02 4.091192233185642069e-01
-1.570082796471576180e-03 1.352140534737723554e-01 -6.721785734593542783e-01 7.343171804605677089e-01 -1.220586974345083398e-01 6.677424300289995784e-01
4.140010304185693518e-03 8.341335549576117669e-02 -6.855523966450479678e-01 -7.441913849760107835e-01 8.342660207140871476e-02 -6.627361349694956827e-01
2.914001060005695989e-02 3.489840587583399600e-02 -7.341113966220796927e-01 -8.728576472225472171e-01 1.238663663153136557e-01 -4.719922149580014215e-01
-6.478649916952544663e-02 6.397938974273635615e-02 -6.195243662613318936e-01 6.701738974767667001e-01 -4.278278473975719726e-02 7.409700267019657671e-01
3.931353684968980078e-02 1.284617113081669981e-01 -7.490639076379972394e-01 -9.103015299416731265e-01 -6.277549814718963450e-02 -4.091581129810597517e-01
-1.150724744146134314e-02 5.623660648495175385e-02 -6.723321772872871138e-01 7.489152897252918661e-01 -7.770343085925307536e-02 6.580942680561678859e-01
-5.626590433671668084e-02 1.025563558795951624e-01 -6.240585126652293813e-01 6.387960380127613025e-01 -7.772803612786918781e-02 7.654397260522237678e-01
2.676220821595779939e-02 -1.339718690645766153e-01 -8.353134186907575920e-01 8.700921047809402342e-01 -2.741803358849538297e-01 4.095911041659562324e-01
-6.661627378656197369e-03 1.696622813417301701e-01 -6.541195569857323200e-01 -7.359625104379518001e-01 2.830694746404420759e-01 -6.150047607593388532e-01
2.883498541626228553e-02 -3.292059096541574692e-02 -7.616938155622702267e-01 8.692692791964902188e-01 -2.664332579814599478e-01 4.163943314775063742e-01
1.716757918248535547e-02 1.945134594371526471e-01 -6.975258438061044952e-01 -9.512543779970893398e-01 1.173571763663026901e-01 -2.852058931661464181e-01
-1.478425376409474475e-02 -3.692579103788853900e-02 -6.949332054540946491e-01 7.729966449632345027e-01 -2.499387132292954505e-01 5.831010431347789513e-01
-1.614448986134409472e-02 1.852679444434166545e-01 -6.361947538367246358e-01 -7.387370201652033730e-01 2.598414555170795448e-01 -6.218923001872603828e-01
2.829030002419214568e-02 -3.984267310177277283e-02 -7.649858743484385659e-01 8.692692791964902188e-01 -2.664332579814599478e-01 4.163943314775063742e-01
2.756766981937133765e-02 3.910412654092227519e-02 -7.300999384857383978e-01 -8.728576472225472171e-01 1.238663663153136557e-01 -4.719922149580014215e-01
-2.364173206609027772e-02 4.145670983244147817e-02 -6.596094467592534816e-01 -7.489431347982986598e-01 7.771137101014105597e-02 -6.580616412268853743e-01
2.490612078980692853e-02 -1.067115600156254979e-02 -7.426955019262944102e-01 8.733507932264701346e-01 -1.928678833067751230e-01 4.472810878624979836e-01
-4.430132567098354207e-02 -2.102562198427389839e-01 -7.615318530551151710e-01 6.964015707803855593e-01 -3.248184122648116734e-01 6.399358180852033895e-01
7.328169271674490025e-03 8.216335723970157046e-02 -6.892897566801264864e-01 -7.441913849760107835e-01 8.342660207140871476e-02 -6.627361349694956827e-01
1.707729807560445789e-02 -1.942700848642206837e-02 -7.311846512959192523e-01 8.733507932264701346e-01 -1.928678833067751230e-01 4.472810878624979836e-01
2.851113116748196785e-02 -1.452005564357549405e-01 -8.459911458374560489e-01 8.776989779389622326e-01 -2.438287468973703576e-01 4.125433871865591962e-01
3.617073995870088987e-02 -5.286762240947814190e-02 -7.906360032471204669e-01 8.650317888089161800e-01 -3.045389248986501429e-01 3.987180050757940797e-01
2.352071078877123259e-02 -6.411782317855391211e-02 -7.717789142232431843e-01 8.651328393676361861e-01 -3.041414766813586579e-01 3.988021218722066497e-01
7.525567949227768283e-02 1.890164376164736940e-02 -8.397942854811772939e-01 9.079278953213927306e-01 -1.880408765923950731e-01 3.745765150508370556e-01
-1.063863787087341098e-02 -8.621444636488885538e-02 -7.284466401788917134e-01 -7.684972845212356685e-01 3.653239906040841034e-01 -5.253097234704435792e-01
1.103017167568616855e-02 1.753835216187214774e-01 -6.877787348478413554e-01 8.991007742430949801e-01 -1.352702459468974883e-01 4.163168965066552651e-01
3.094323231363921289e-02 6.637846056880802870e-02 -7.311360631521758302e-01 -8.701144044216534423e-01 7.252068303199016297e-02 -4.874850497712980846e-01
-4.154904783456655343e-02 4.642400404932779667e-02 -6.409087760298228797e-01 -6.790578341639499360e-01 8.909476563367679791e-02 -7.286580683676300296e-01
2.516581944925247796e-02 5.370777020628006437e-02 -7.236551446152144074e-01 8.694670482236582787e-01 -8.622526375603262183e-02 4.864074998840389186e-01
-5.327974702731718554e-02 -5.048102014890753358e-02 -6.543596755076811489e-01 7.154607538114823306e-01 -2.725970517791695413e-01 6.432781335602899553e-01
2.203323464545709279e-02 3.042690012446154155e-02 -7.221422700334304556e-01 -8.728576472225472171e-01 1.238663663153136557e-01 -4.719922149580014215e-01
-4.276282083421775737e-03 -1.800452351366906845e-01 -7.981289378172097271e-01 -7.694575272164838609e-01 2.773429917827940350e-01 -5.753398810432518440e-01
-8.042902739936844125e-02 -1.722038279319294818e-01 -6.969230961222565579e-01 -7.091309819527797931e-01 3.979607551440648150e-01 -5.820313460629521485e-01
-2.375021379060953536e-02 -1.428963805877287753e-02 -6.740341603955690708e-01 7.693480170769818605e-01 -2.118072045338856568e-01 6.026950611439062522e-01
-5.680653326315072971e-02 -8.672686157800749140e-02 -6.681367901719873492e-01 7.169440131267389438e-01 -3.404769061177311817e-01 6.083311256562694558e-01
-6.150844136372921565e-03 -1.342828539736002635e-01 -7.704680401461428962e-01 7.687033201909048152e-01 -3.559374654341619926e-01 5.314167161727072486e-01
4.501937140259417054e-03 1.322876299780735843e-01 -6.814544407128610981e-01 -8.785488055355707981e-01 3.479033009751063971e-02 -4.763839094928881135e-01
5.256167854374475118e-02 -2.613208537937079866e-04 -7.922825815709703123e-01 -9.118419993325952433e-01 1.904520081429091349e-01 -3.636924536575770195e-01
-3.607949383471114463e-02 -1.208684576638346525e-01 -7.161999657906443773e-01 -7.664049728310421417e-01 3.807755942474664312e-01 -5.173329338495071816e-01
-1.076221541359357638e-02 -1.651809393522074842e-01 -7.829360782941092722e-01 7.676484307289835884e-01 -3.182520130269750336e-01 5.562657125903116562e-01
3.989250454368031135e-02 -1.623060078781944915e-01 -8.939253901273357394e-01 9.148078152946252928e-01 -3.026235209746905297e-01 2.674802153968702800e-01
-4.838433387153098786e-02 -1.109428003343762917e-02 -6.449667164716121892e-01 -7.041803483393739294e-01 1.844413968474542254e-01 -6.856467079638012274e-01
-4.204218280764315807e-02 7.737046164466566955e-02 -6.378545434389603086e-01 -6.525937978428204556e-01 7.398247604672374134e-02 -7.540874805054648133e-01
-5.558940288298348104e-02 -1.760090497389094344e-01 -7.287221817889111275e-01 -7.092489407955635539e-01 3.631004793872908420e-01 -6.042548980762099120e-01
1.688568722812175404e-02 1.895863284447836250e-01 -6.998945243794506554e-01 9.499075609362688244e-01 -1.215822120143722485e-01 2.879121244369559629e-01
-1.097583809961768207e-02 -5.617586841299218592e-02 -7.097486800543982843e-01 7.713752694032643964e-01 -3.235115225982636566e-01 5.480150440445903381e-01
1.382143782637940826e-02 7.310930965172782181e-02 -7.007257692032498042e-01 -8.690689300678116069e-01 4.127790576257976685e-02 -4.929658500207137473e-01
7.652701895905112718e-03 -1.909875510923944586e-01 -8.274648331355876074e-01 8.861858183278893408e-01 -1.979279381179568920e-01 4.189262783675707369e-01
4.254840106681787026e-02 1.180586275246926081e-01 -7.547716323588262721e-01 -9.116833620160048612e-01 -5.582354088890258137e-02 -4.070837502355251214e-01
-3.377861354528024357e-02 -2.751812921274346749e-02 -6.664716612807137786e-01 7.089929861050504600e-01 -2.333462468886575158e-01 6.654911529966581751e-01
4.370381409503555636e-02 -1.176205467676771227e-01 -8.652699731805979511e-01 9.077797185656683032e-01 -2.562288582198133380e-01 3.320884743200329114e-01
-5.343045376394101043e-02 8.925554603838009582e-02 -6.269160083801070815e-01 -6.326174356457243686e-01 4.925655906876943296e-02 -7.728964817527200770e-01
6.331591641932873826e-02 3.645120025458705587e-02 -8.038552379372205792e-01 -9.116021674808297837e-01 1.055976742112593875e-01 -3.972790196391272621e-01
-7.294234935493021377e-02 -1.323742303898553796e-01 -6.782979310159291675e-01 -7.094986218829989477e-01 4.084138625243720067e-01 -5.742907124828406928e-01
3.014204823020983498e-02 9.278743169558778536e-02 -7.288104817723056739e-01 8.663094381822354917e-01 -2.189879786599455494e-02 4.990274541229209881e-01
5.147968497433176409e-03 1.595075372855381535e-01 -6.794167430230323435e-01 -8.977636367158638997e-01 1.473559926679864629e-01 -4.150983787194776342e-01
-9.536720100563365193e-03 -5.259677872276822402e-02 -7.097884789879576051e-01 7.734005040603988412e-01 -2.857881872349783414e-01 5.658416495416949132e-01
-4.242793157608718002e-02 -1.169701678795564831e-01 -7.057739588598784808e-01 7.108079442917205615e-01 -4.078974397397705509e-01 5.730372980753684065e-01
2.790257789320430351e-02 3.223433037365568132e-02 -7.325069266781725208e-01 -8.708738085451021016e-01 1.165446730955097127e-01 -4.774894226715495349e-01
-4.279600816747036740e-02 -1.472430560502792363e-01 -7.255926952206469549e-01 -7.067524247717692498e-01 3.892968318651347515e-01 -5.907190421672503522e-01
2.141358402132398364e-02 1.734364028362061494e-01 -7.150913603788756623e-01 -9.326580833374094048e-01 -6.558774006392220635e-02 -3.547494156988811320e-01
-6.209086934582341843e-02 4.330970936399925614e-02 -6.227971827112351866e-01 -6.645024864416325672e-01 6.345340479581297599e-02 -7.445872084132971747e-01
6.252940116934710413e-02 1.712443117092006528e-02 -8.088769961647490625e-01 -9.122592646436693542e-01 1.520513864468040488e-01 -3.803464341247286273e-01
-2.517232261959025802e-02 1.379721323591132920e-01 -6.449094611362748974e-01 -7.322301905836230418e-01 1.711820168836407918e-01 -6.591931925418526017e-01
4.542487450746499067e-02 -1.468818474191098677e-01 -8.953879916819472706e-01 9.054673916848445803e-01 -3.076626827043471568e-01 2.923567619649130034e-01
-3.950017907566369391e-02 -1.921650009324388231e-01 -7.573362145183539784e-01 -7.634787535848372997e-01 3.024073236705666634e-01 -5.706575184950675173e-01
-2.313649329705372987e-02 1.917098704656841623e-01 -6.287443318712689910e-01 6.426455989219840292e-01 -1.491125463212620295e-01 7.515131953038443058e-01
1.415784836279252584e-02 -2.678061121298231165e-02 -7.283704337069547563e-01 -7.734082775623178918e-01 2.857961306585066752e-01 -5.658270123445101607e-01
1.829531848679054296e-04 -5.525895754792178177e-02 -7.241242077110195963e-01 -7.713839320211774986e-01 3.235035036328326452e-01 -5.480075843971774496e-01
6.512824901718892653e-03 -1.195986742567330119e-01 -7.804075023502334840e-01 8.647679394904407291e-01 -3.120307706659380953e-01 3.934630973637531781e-01
-4.648388988294963053e-02 7.062766425597452602e-02 -6.351787005756894811e-01 6.544349197996613965e-01 -7.377951465165054346e-02 7.525101454230219700e-01
-5.024821303124642896e-02 -1.882359913623543601e-01 -7.431711950418935508e-01 6.954845271433307552e-01 -3.475535259413503608e-01 6.288941239270350314e-01
2.470863981699427531e-02 -1.867828589403279227e-01 -8.665507061611287254e-01 -9.219780867403796210e-01 2.839805137328096363e-01 -2.632707264216789245e-01
-5.997004243544854646e-02 -1.735353717291052422e-01 -7.220939233394486623e-01 -7.092489407955635539e-01 3.631004793872908420e-01 -6.042548980762099120e-01
1.094222978231469863e-02 2.142954042694562855e-01 -6.723123040271230533e-01 -9.356648025178321282e-01 9.334512376211158424e-02 -3.403205330260019035e-01
5.404221320087794489e-02 -4.868764190894703074e-03 -7.995448606522552737e-01 9.110454559681608888e-01 -1.912434562115944148e-01 3.652699243244779126e-01
2.537673398953138159e-03 -1.897174016443628486e-01 -8.150187950952804128e-01 -8.861541779836054067e-01 1.980097312329472115e-01 -4.189545550286533637e-01
-3.566760029510043783e-02 1.238798038730733880e-01 -6.383665780055615135e-01 6.277559227376668938e-01 -1.125671537728935162e-01 7.702279775230513881e-01
3.662163679995015381e-02 -1.100297186410267025e-01 -8.392330688237292780e-01 8.649468625345737571e-01 -3.175554243442277880e-01 3.886199653403755172e-01
-6.377801161306424771e-02 1.170980140916346030e-01 -6.163397088522780676e-01 6.408648829560383842e-01 -1.440290361619394333e-01 7.540211127919467238e-01
-3.486125843186805434e-02 3.368278599211590313e-02 -6.492824571986866022e-01 6.870676477857623476e-01 -1.379840507992120269e-01 7.133711860533618054e-01
-2.193348138071882572e-02 6.047712716629085467e-02 -6.598840647458200648e-01 7.463087209867220739e-01 -1.005411945868566886e-01 6.579625834120133021e-01
7.313241632118842872e-02 4.012222560664759768e-02 -8.255642988843081564e-01 -9.164609797204605890e-01 1.411286914562537020e-01 -3.744088208064270673e-01
-6.173906848008679088e-02 -1.458837312720950297e-01 -7.022655074538224351e-01 7.091036455908672487e-01 -4.081097409681043731e-01 5.749943122646418159e-01
2.632428844802493784e-02 -1.468712942280538808e-02 -7.461749883702750719e-01 -8.726881450709920163e-01 1.892301402681733080e-01 -4.501192680464130014e-01
2.341508606110281193e-02 -1.629315586373050462e-01 -8.456288432578882297e-01 8.776989779389622326e-01 -2.438287468973703576e-01 4.125433871865591962e-01
-1.267220983308062470e-03 1.704885679327409753e-01 -6.621420951836465285e-01 8.981556544134154940e-01 -1.962800391916477705e-01 3.934343231851218925e-01
5.889985702607768853e-02 -6.469208530924723533e-02 -8.581440804587555649e-01 8.972240937516952064e-01 -3.126253652237948044e-01 3.118562274673036261e-01
-4.171060887412427615e-02 -1.757922965104605495e-01 -7.453873239904084125e-01 -7.695910320344897526e-01 3.288618756691724099e-01 -5.473385699395239001e-01
5.762325451795822367e-02 -5.462041069653324719e-03 -8.087777992069485888e-01 9.103141159652723413e-01 -1.870281563758132148e-01 3.692542200124856455e-01
-2.180238948591630907e-02 3.342453094491580623e-02 -6.637681594902893334e-01 7.550203326164675044e-01 -1.247203749176452880e-01 6.437306310997799041e-01
-8.142803504246283464e-02 -2.067736317512625377e-01 -7.177602047885460745e-01 -6.967949871882214152e-01 3.758456587595780385e-01 -6.109147130499850142e-01
3.556237829918841575e-02 9.140308208862472916e-02 -7.375007789285878967e-01 -8.639977350421462754e-01 2.770827952057105040e-02 -5.027326974526834524e-01
3.883548102819674164e-02 1.445798878605874249e-01 -7.527825992466267158e-01 9.081705849428842736e-01 1.093560131483877901e-01 4.040636720032984575e-01
-7.432428675018924735e-02 -4.092885991195444745e-02 -6.275421122093717274e-01 7.173835125587696426e-01 -2.194829865901683219e-01 6.612020224608375907e-01
-3.484791366138934726e-02 1.524327753326567558e-01 -6.311637924712093506e-01 -6.276092974701867888e-01 2.791864006719856350e-01 -7.267472211221727152e-01
-7.290923082112459042e-02 -1.120301751864864609e-01 -6.640533654315469159e-01 -7.125539583977011926e-01 3.859311414577311083e-01 -5.859385722282668407e-01
4.373949825451893536e-02 1.093723931730774673e-01 -7.568718504364702060e-01 8.981812939277544761e-01 7.798679979229188042e-02 4.326527733603723336e-01
4.974033466858437252e-02 -1.389657176684105933e-01 -9.005048083966127326e-01 9.101637438711684958e-01 -2.777048449728287127e-01 3.073792094807901165e-01
4.388422835644974901e-02 -1.032136480913820736e-01 -8.520006554229425655e-01 -9.026972404709920905e-01 2.984199112104973239e-01 -3.099729804985826287e-01
-5.301721998693639110e-02 -2.691469325918950661e-02 -6.451845724523775916e-01 -7.103474592972881529e-01 2.212699731512054457e-01 -6.681662113962009153e-01
5.145366985232970036e-02 -6.898073378514869847e-02 -8.410329309009640930e-01 8.998754253199940933e-01 -2.969817179646362382e-01 3.194152126933423874e-01
-1.060849390875094958e-02 -3.317591066405763123e-02 -6.988615264713911035e-01 7.729966449632345027e-01 -2.499387132292954505e-01 5.831010431347789513e-01
-6.153526469371448787e-02 -1.608991416134430696e-01 -7.128172718484268033e-01 7.081345129004513739e-01 -3.887873104557504900e-01 5.893979461007856635e-01
3.936130452016507741e-02 -5.257452433644090733e-02 -7.973341707837315884e-01 8.650317888089161800e-01 -3.045389248986501429e-01 3.987180050757940797e-01
-9.350887036597980290e-03 1.252846381999236369e-01 -6.654370417934432069e-01 7.343171804605677089e-01 -1.220586974345083398e-01 6.677424300289995784e-01
-1.190863424205294667e-02 -7.502383969237824690e-02 -7.188505864673954138e-01 -7.683074763085756542e-01 3.632211424474904859e-01 -5.270427150881484835e-01
-7.097184265009838511e-02 -1.931150706444168808e-01 -7.214697404876649900e-01 -7.030139748284129908e-01 3.708208280358114006e-01 -6.068469862253507152e-01
2.858256928587418755e-03 1.452436793532141668e-01 -6.783699075323478267e-01 8.881841748758130262e-01 -6.222171183371135589e-02 4.552552361880684018e-01
-7.157348804199258063e-02 6.757126608099298104e-02 -6.133640679295646603e-01 6.562120002131687224e-01 -3.288724178614126081e-02 7.538595625870460060e-01
1.532135040087539112e-02 1.824966807695261595e-01 -6.973547873904388794e-01 9.517911361388763369e-01 -1.048358056047792031e-01 2.882760604536280802e-01
2.167022938045402511e-02 9.732789750228846432e-03 -7.275204391355927225e-01 -8.725936129188445189e-01 1.580582805880415553e-01 -4.621666005141324973e-01
-4.544574220294450573e-02 6.024394813221114906e-05 -6.450414857488522280e-01 -6.968815551105213002e-01 1.679005610090374689e-01 -6.972556918086736388e-01
-6.896437466158533702e-02 -9.749248947238995863e-03 -6.243327048695871406e-01 7.045446921934952478e-01 -1.668818892812946875e-01 6.897588069259275034e-01
5.070105193657827025e-02 -6.126689965436924595e-02 -8.317405429327586752e-01 8.998754253199940933e-01 -2.969817179646362382e-01 3.194152126933423874e-01
-7.387331272162597773e-02 -5.817590108351972794e-02 -6.344105158677252332e-01 -7.084271832361114241e-01 2.649851514700974908e-01 -6.541512023626635530e-01
3.650854348831107654e-02 5.958267324968791190e-02 -7.429695180413754541e-01 8.701356787661842507e-01 -7.253529606240691208e-02 4.874449008485485235e-01
6.189751701562618696e-02 1.148014271654499291e-01 -7.953160108123794592e-01 -9.013979533795934973e-01 -5.825809215498927579e-02 -4.290544538185578904e-01
-3.555312778883156638e-02 1.499705513925456979e-01 -6.313611716640858962e-01 -6.259270451425587023e-01 2.385282425700058773e-01 -7.425089976933408886e-01
-2.031730337365227415e-02 -1.968278102166089172e-02 -6.803404810844599915e-01 7.713800989628901705e-01 -2.194055341624206734e-01 5.973558022677143420e-01
1.351515819871277127e-02 -1.304519948627439752e-01 -8.044930328431397770e-01 8.649468625345737571e-01 -3.175554243442277880e-01 3.886199653403755172e-01
3.977714269290008077e-03 -2.008688137856806943e-01 -8.229655379312147412e-01 -8.860937875745392711e-01 1.624782162323020751e-01 -4.340951841149318646e-01
-1.140796083472710425e-03 -1.912752194169605180e-01 -8.089992080269882146e-01 8.861858183278893408e-01 -1.979279381179568920e-01 4.189262783675707369e-01
6.457232621095620930e-04 -1.659586375799482205e-01 -7.988080499162876214e-01 -8.751471060381923461e-01 2.245792243798652998e-01 -4.285810480759916774e-01
4.417260624174502298e-02 -2.542609163540991007e-03 -7.756736279942064716e-01 -8.726881450709920163e-01 1.892301402681733080e-01 -4.501192680464130014e-01
6.912151036982046304e-02 2.186241334972850725e-02 -8.237190438376185142e-01 9.124167912563233562e-01 -1.457628802408755253e-01 3.824248707620873655e-01
-8.089129727580186835e-02 -2.100334798939400283e-01 -7.203779121767031057e-01 -6.967949871882214152e-01 3.758456587595780385e-01 -6.109147130499850142e-01
8.241845820648321247e-03 1.969711368527305995e-01 -6.707935296577316464e-01 8.908774401082828476e-01 -2.062331335469730076e-01 4.047286514857943995e-01
2.022387618799325465e-02 2.784321147904264895e-02 -7.203894619486695960e-01 8.728656264335968862e-01 -1.238122645928650400e-01 4.719916538743786361e-01
-2.201342713991845911e-03 -2.000780774241354421e-01 -8.098917848367895855e-01 -8.861541779836054067e-01 1.980097312329472115e-01 -4.189545550286533637e-01
4.777763228184916250e-02 1.165707791011453970e-01 -7.657421020887940077e-01 -8.989135049788284926e-01 -7.938236662783640374e-02 -4.308746342443956490e-01
-4.308795072005375953e-02 -6.537543727172802355e-02 -6.727767969794853364e-01 7.172711669712577010e-01 -2.946727775037258357e-01 6.314190583360071996e-01
-5.890352356352909768e-02 -2.021710824738970347e-01 -7.406941550386678674e-01 -6.938671518019045026e-01 3.484876831511908302e-01 -6.301624475817548809e-01
-6.251254119117091723e-02 -6.905923116810253060e-02 -6.524302700155740764e-01 7.172711669712577010e-01 -2.946727775037258357e-01 6.314190583360071996e-01
1.807242662115948403e-02 7.303737868517193310e-02 -7.091017012598057612e-01 8.690904474518076350e-01 -4.128081001540685746e-02 4.929276710355068314e-01
1.533796922115586436e-02 -1.157145604041227710e-01 -7.956205464688825835e-01 -8.647552144861915258e-01 3.120747776181543309e-01 -3.934561629883570610e-01
4.349333856733481746e-02 1.473020099435797259e-01 -7.638382722447514261e-01 9.051182820272318796e-01 1.022516184702407516e-01 4.126808719340996356e-01
3.618740454005078128e-02 1.704198614930059752e-01 -7.531092561018022380e-01 9.116764363200342558e-01 1.093595604083261591e-01 3.960890834220257006e-01
5.168110586892100261e-02 -4.576754615811120391e-02 -8.195190676385327722e-01 -9.042539141115487622e-01 2.693891783006888141e-01 -3.312919096935867391e-01
5.733422054542505232e-03 1.807098213811035581e-01 -6.719368990226279870e-01 -8.980938825443742779e-01 1.963979817014773199e-01 -3.935164684228066867e-01
7.442744020275693373e-02 7.149044526706473113e-02 -8.215752705699397307e-01 -9.120858449590696360e-01 5.277035161662189250e-02 -4.065891063660685423e-01
9.112019048612036987e-03 -1.865317772162353172e-01 -8.274189448627786714e-01 -8.861541779836054067e-01 1.980097312329472115e-01 -4.189545550286533637e-01
1.642616381141041371e-04 -1.485373685475747663e-01 -7.877157046310571120e-01 -7.676648552523778202e-01 3.182478009519765783e-01 -5.562454558911712477e-01
-7.948380645265124000e-02 -1.492518009521464351e-01 -6.827725905629277170e-01 7.091036455908672487e-01 -4.081097409681043731e-01 5.749943122646418159e-01
1.538748328662810534e-02 1.504608274467298668e-01 -7.010844265996805103e-01 -8.799276395387604088e-01 2.074321197444735539e-03 -4.751031954926375200e-01
2.115239077592661471e-02 -1.195526437133065389e-01 -8.114687866971308505e-01 -8.649326474764124084e-01 3.175862541366171188e-01 -3.886264099529474492e-01
-8.914210039865162055e-03 -1.246366302569618112e-01 -7.590953660585024743e-01 -7.660614000556236203e-01 3.771346066102356787e-01 -5.204992025371033559e-01
3.724463628241074520e-03 1.520248953572571060e-01 -6.779452763252571401e-01 -8.936845176951973002e-01 7.890550124698578194e-02 -4.417034126026928020e-01
-1.329192067266366482e-02 -1.459284900982015243e-01 -7.680231097208125579e-01 7.660677143376607434e-01 -3.642510569558479738e-01 5.295860879555087664e-01
4.636995116924028798e-02 -2.973307042035151435e-02 -7.951803053792312337e-01 -8.691393642549923859e-01 2.649911538807900313e-01 -4.175840680238595004e-01
2.535337178728334570e-02 -1.733448147713881060e-01 -8.551965948981992138e-01 -9.176402208095003621e-01 2.491018518698021877e-01 -3.096525351869843790e-01
-9.837336638437539291e-03 8.298556146070618089e-02 -6.706099409020239710e-01 7.345603186211813185e-01 -6.226979660721415621e-02 6.756801097691454983e-01
6.852004171077621941e-02 -3.738177354049918716e-02 -8.596474319881370896e-01 9.034300820780934993e-01 -2.698046947113865723e-01 3.331959086004280257e-01
7.741382804202918966e-02 -7.336835391743532246e-04 -8.558294486166105886e-01 9.049182087522580353e-01 -2.313216453692990282e-01 3.572300825130004798e-01
5.598928617518249273e-02 5.058485030190264242e-02 -7.842848259539302314e-01 9.101681450413716679e-01 -7.771950413247749601e-02 4.068828165815687736e-01
-2.669633854813020443e-02 1.433629208375560848e-01 -6.417533783694727711e-01 -7.326442388247685900e-01 2.499097734272298643e-01 -6.330699206741906560e-01
3.654256896694762363e-02 -4.322708489455462377e-02 -7.843266222833307211e-01 8.691472389731473847e-01 -2.649469913537036425e-01 4.175957001191170082e-01
-2.490346293095145255e-02 -6.306016334096915810e-02 -6.942084559039835012e-01 7.713752694032643964e-01 -3.235115225982636566e-01 5.480150440445903381e-01
2.603860894134687239e-03 -9.796520508768387370e-02 -7.574670033030515004e-01 7.661987015197205819e-01 -3.826005555541558412e-01 5.162909690079282576e-01
6.497586307650211890e-02 3.600159637234927323e-02 -8.086803178705198603e-01 9.108204798491967846e-01 -1.065468868091680038e-01 3.988155142400474640e-01
6.411267204535346653e-02 -1.717676563242147986e-02 -8.323361879674002761e-01 9.081975278548277686e-01 -2.279768774206813453e-01 3.510039796923889455e-01
-7.673966614210168957e-02 2.280201063577119713e-02 -6.114289543373471192e-01 -6.667678199975324294e-01 5.489890502192460581e-02 -7.432407311518468562e-01
-4.407023846303113890e-02 -1.305686789462642480e-02 -6.499253688133946882e-01 -7.041803483393739294e-01 1.844413968474542254e-01 -6.856467079638012274e-01
-5.984902592265452237e-03 9.797655567059948556e-02 -6.727024781915129648e-01 -7.360181920732744576e-01 7.267985212027569530e-02 -6.730489284093417179e-01
5.778405369595590590e-02 9.832744566777429363e-02 -7.842221063377095014e-01 -9.050123436916152064e-01 -5.107940911336464329e-02 -4.223074137763146996e-01
8.304606070668234252e-03 -1.441567617134797696e-01 -8.017486323277893678e-01 -8.730009185036299302e-01 2.616356089382560479e-01 -4.116019975988050583e-01
-8.467457593832316556e-05 -6.447167786367705156e-02 -7.299584175203981395e-01 7.724427790375844038e-01 -3.191641056039022373e-01 5.490595840223123636e-01
7.777351799323384274e-02 -2.073787686304683076e-02 -8.709262474441759050e-01 9.002328268887966889e-01 -2.729088897052794893e-01 3.392662602022742391e-01
4.123411813696113704e-02 -5.899913090311088154e-03 -7.714086462620187712e-01 -8.721346594639327598e-01 2.257557455728283202e-01 -4.340685189029339641e-01
3.618301600451130640e-02 -1.241127103319593916e-01 -8.484392061849737043e-01 -9.085471648323365512e-01 2.557974216320806349e-01 -3.303176173949897154e-01
1.710424683542518740e-02 1.091423673613612227e-01 -7.060475890882057515e-01 8.665849285893034715e-01 4.004994667646746484e-03 4.990135484729687487e-01
2.025735458504946546e-02 4.662227556428804849e-04 -7.280219728326107198e-01 -8.725936129188445189e-01 1.580582805880415553e-01 -4.621666005141324973e-01
-1.180411000444846203e-02 1.637915279669731605e-01 -6.507279735257872622e-01 -7.329838881031176534e-01 2.924618976414535276e-01 -6.141666371671424818e-01
9.967779951287216822e-05 2.110874017490698210e-02 -6.922790522521750090e-01 -7.646280279807716740e-01 1.826916690344198013e-01 -6.180353815855968991e-01
5.390919883383879507e-02 -5.563258662461648824e-02 -8.355401258652722651e-01 8.998754253199940933e-01 -2.969817179646362382e-01 3.194152126933423874e-01
5.874449420156655464e-03 -7.972230324417869940e-02 -7.480893893014834983e-01 -7.684972845212356685e-01 3.653239906040841034e-01 -5.253097234704435792e-01
3.255012094629605637e-03 2.160753480669096727e-01 -6.547281908938050732e-01 8.953270809463551583e-01 -8.938946815452471217e-02 4.363472712268637310e-01
-7.538088095313289459e-03 3.403450628933073208e-02 -6.804380251763432197e-01 7.609869096308626846e-01 -1.408623717645945683e-01 6.332903880458967683e-01
-7.963055166158884701e-02 -2.741720658134608538e-02 -6.175147480952042356e-01 -6.959426977113630786e-01 1.620507034417430492e-01 -6.995736780470422911e-01
-8.586730599603777103e-02 -1.305922335667548395e-01 -6.612146929679133533e-01 -7.038649733972681677e-01 4.121238905016730847e-01 -5.785568235724370956e-01
-2.918610737888767404e-02 -1.248847307874131340e-01 -7.302074190809476617e-01 7.663937327117619214e-01 -3.807734148060341051e-01 5.173511892680681123e-01
-1.759263940445424113e-02 -6.064418499373818577e-02 -7.030727958275405642e-01 7.713752694032643964e-01 -3.235115225982636566e-01 5.480150440445903381e-01
1.783836857791036221e-02 -1.409581796333550519e-01 -8.199363974480214923e-01 -8.730009185036299302e-01 2.616356089382560479e-01 -4.116019975988050583e-01
3.616491270871295682e-02 1.197364790781556831e-01 -7.417057930512341857e-01 9.094855276200073391e-01 6.151729764537384321e-02 4.111589682107972821e-01
3.567476837781217991e-02 6.393560257977151662e-02 -7.399448161927196788e-01 -8.701144044216534423e-01 7.252068303199016297e-02 -4.874850497712980846e-01
4.259144192462366307e-02 5.920038852337349000e-02 -7.538849591225883495e-01 8.701356787661842507e-01 -7.253529606240691208e-02 4.874449008485485235e-01
6.910400828342676272e-02 -2.249999299744058490e-02 -8.481545410651371020e-01 -9.042539141115487622e-01 2.693891783006888141e-01 -3.312919096935867391e-01
2.534164243201355096e-02 -1.095036295114255320e-01 -8.126807791641407208e-01 -8.647552144861915258e-01 3.120747776181543309e-01 -3.934561629883570610e-01
7.864051041028161104e-02 4.561366951282270349e-02 -8.370147454850095370e-01 9.091252341281272908e-01 -1.494731075286893918e-01 3.887789845107307296e-01
-1.598784372831884432e-02 6.377096981959418098e-02 -6.654669472264490571e-01 -7.463423118472337636e-01 1.005079386974904593e-01 -6.579295614313953600e-01
7.676120102264673284e-02 -2.628646280445045072e-02 -8.727036700470601760e-01 9.001445141152524254e-01 -2.731099507127850989e-01 3.393387813526128616e-01
-7.547190124608811612e-02 4.686682563613124575e-02 -6.108561660699597384e-01 -6.382645448713655245e-01 3.164099025183932101e-02 -7.691665739591341255e-01
-3.311701143455543679e-03 2.200350521484092658e-01 -6.429408051089002818e-01 7.974128653524132915e-01 -2.855029248992380086e-01 5.316209194947409955e-01
-5.224242325033692097e-02 1.035809023440196208e-01 -6.273122604230603194e-01 6.387960380127613025e-01 -7.772803612786918781e-02 7.654397260522237678e-01
1.167897110330722715e-02 8.970617230346953491e-03 -7.104112883300319758e-01 -7.713838883431626270e-01 2.193184449074930265e-01 -5.973828893833019738e-01
-2.522151713937697409e-03 1.813087587367365749e-01 -6.545742954818635218e-01 7.360006735246770182e-01 -2.536003202470768492e-01 6.276861366493622363e-01
8.393413623189792047e-03 -1.174908247163012204e-01 -7.817510301285988117e-01 -8.618238053558865408e-01 3.315831451728903922e-01 -3.838129054098531334e-01
3.578161006001984168e-02 8.732448582540153562e-03 -7.545943397496082117e-01 -8.733416081534730591e-01 1.928652898737323873e-01 -4.473001402076984823e-01
-6.901526384264022873e-02 -1.888230845650531731e-01 -7.210236076285257978e-01 -7.019728295078292435e-01 3.828595792155171096e-01 -6.005436613899853837e-01
3.139995610986935637e-02 1.203113022591748293e-01 -7.312516917668331340e-01 9.094855276200073391e-01 6.151729764537384321e-02 4.111589682107972821e-01
4.900186840865233817e-02 -3.507292866052463820e-02 -8.040468267730649377e-01 -8.691393642549923859e-01 2.649911538807900313e-01 -4.175840680238595004e-01
-2.236756123743146793e-02 1.580559389349365795e-01 -6.415507301418563735e-01 7.329017999321645327e-01 -2.924241263618276854e-01 6.142825750236737825e-01
-1.082500695712454268e-02 1.866149729398595691e-01 -6.419508712597354894e-01 -7.387370201652033730e-01 2.598414555170795448e-01 -6.218923001872603828e-01
-4.943063120763170615e-02 -7.566343519199590639e-02 -6.706773537236451199e-01 7.157887446580689650e-01 -3.356386118639621552e-01 6.123668796129150271e-01
6.754034026690486359e-02 -2.978483852113995856e-02 -8.508394592197541240e-01 9.034300820780934993e-01 -2.698046947113865723e-01 3.331959086004280257e-01
-3.494940605503277231e-02 -1.278171668433284065e-02 -6.600571954918230677e-01 7.089929861050504600e-01 -2.333462468886575158e-01 6.654911529966581751e-01
4.699095493492060766e-02 -1.004331690642495389e-01 -8.596209113467611074e-01 9.019438011611384809e-01 -2.988441728448270607e-01 3.117523695237741088e-01
4.253228858006864038e-02 -8.692948595143498713e-02 -8.333461107940057788e-01 8.972240937516952064e-01 -3.126253652237948044e-01 3.118562274673036261e-01
-6.493886580345602233e-02 -1.752576042909259335e-01 -7.172966279411405743e-01 -7.092489407955635539e-01 3.631004793872908420e-01 -6.042548980762099120e-01
-1.682596074536853170e-02 1.801165262751339147e-01 -6.382297265060005165e-01 7.386207982794382731e-01 -2.598237037488668189e-01 6.220377475035310244e-01
1.108740938063215373e-02 -2.138360972083097888e-01 -8.429203484987592976e-01 -8.913150372045455239e-01 9.267092156333053832e-02 -4.438125784040633515e-01
-1.091014817934123082e-02 -1.261206109487760137e-02 -6.891662820788958532e-01 -7.713838883431626270e-01 2.193184449074930265e-01 -5.973828893833019738e-01
-4.057812128387796452e-02 8.785037359727634887e-02 -6.379816193697585014e-01 -6.539996173714097694e-01 8.464099674934932871e-02 -7.517449049693161189e-01
7.548126236638380386e-03 -1.574320280769115829e-02 -7.146286424514449731e-01 -7.720931070854365474e-01 2.550919899627246967e-01 -5.820655552839508751e-01
1.117722498201681111e-02 -4.709220273035918253e-02 -7.347788610005818732e-01 -7.713839320211774986e-01 3.235035036328326452e-01 -5.480075843971774496e-01
-8.573362870285698711e-02 -1.780267305158813873e-01 -6.949514709291280123e-01 7.122536450187315626e-01 -3.995152833720970187e-01 5.771328127126751362e-01
-2.339461701436200067e-02 8.810621365584132836e-02 -6.547298003892575435e-01 -7.360181920732744576e-01 7.267985212027569530e-02 -6.730489284093417179e-01
3.490545679411467123e-02 6.869464097667507541e-02 -7.378636902052487789e-01 -8.701144044216534423e-01 7.252068303199016297e-02 -4.874850497712980846e-01
1.180605065685050824e-02 4.012315857427629223e-02 -7.016456433505877666e-01 -7.609862657596744295e-01 1.407887894414789898e-01 -6.333075241087452456e-01
-1.861156965080001599e-02 -1.699691011369472149e-01 -7.740653566397662777e-01 -7.676648552523778202e-01 3.182478009519765783e-01 -5.562454558911712477e-01
4.695763252624478995e-03 -1.933672965900071206e-01 -8.223341476600225519e-01 8.861858183278893408e-01 -1.979279381179568920e-01 4.189262783675707369e-01
-5.678432558716386275e-02 8.359510392206427609e-02 -6.245315960631370178e-01 -6.326174356457243686e-01 4.925655906876943296e-02 -7.728964817527200770e-01
2.731330880054580815e-02 1.603037538073098789e-01 -7.286578429803584056e-01 -9.259633749853641849e-01 -7.460482935402255877e-02 -3.701701603624623083e-01
5.162420020838717066e-02 1.055550321832428307e-01 -7.718956294082447434e-01 -9.050123436916152064e-01 -5.107940911336464329e-02 -4.223074137763146996e-01
2.866353254184956373e-02 -1.820632029845987987e-01 -8.766209717130344359e-01 9.215383697035622879e-01 -2.821271814673064759e-01 2.667794719265595971e-01
8.576600021411366582e-04 1.460031473778381217e-01 -6.741885786679820969e-01 8.937396052810765434e-01 -7.887431725123418558e-02 4.415975090851140816e-01
7.552852980558814877e-02 -1.845529683064851476e-02 -8.625768370926566453e-01 -9.075822216201605563e-01 2.653703379115759375e-01 -3.253814603749114465e-01
-2.275929895189575392e-02 -4.058152430398041105e-02 -6.851835182072064656e-01 -7.730084063175873821e-01 2.499029638423309330e-01 -5.831007738162953258e-01
5.431361161017856515e-02 9.306327241814539575e-02 -7.762586826825266240e-01 -9.055777494150019091e-01 -1.644227287486743280e-02 -4.238615238815249819e-01
-2.539940511849458557e-02 2.864462792225003218e-02 -6.604753712651001418e-01 7.550203326164675044e-01 -1.247203749176452880e-01 6.437306310997799041e-01
-3.760090866163102313e-02 -3.405538023752828491e-02 -6.648372778867184252e-01 7.154607538114823306e-01 -2.725970517791695413e-01 6.432781335602899553e-01
1.148815060877729152e-02 -1.389465114074366903e-01 -8.061968492579604240e-01 8.700921047809402342e-01 -2.741803358849538297e-01 4.095911041659562324e-01
-1.052625781288721654e-02 -1.678006112942833084e-01 -7.846175658244591844e-01 7.694404207955174435e-01 -2.773488708891609922e-01 5.753599244494916887e-01
-2.098933331774151950e-02 1.416010323495981160e-01 -6.492570589403677817e-01 7.298567149951643573e-01 -1.845109822492121410e-01 6.582285871989291826e-01
-2.336951557299307702e-02 3.133484406900735597e-02 -6.623349738000005038e-01 7.550203326164675044e-01 -1.247203749176452880e-01 6.437306310997799041e-01
-4.820123076440509247e-02 -2.573021091097876800e-02 -6.499051021487907143e-01 -7.075742876916931712e-01 2.338324110823029600e-01 -6.668290867418953383e-01
-6.381531302303276865e-02 -1.243295150143803318e-01 -6.838517309569551728e-01 -7.096786864228707969e-01 4.093383976742218100e-01 -5.734093112486134958e-01
-2.869016796359825580e-02 1.452626331873914933e-01 -6.393692731241887861e-01 7.328549524419990524e-01 -2.507790236834758213e-01 6.324820155242345532e-01
-1.194480497113001999e-02 7.446552835026505612e-02 -6.692693197562705754e-01 7.441590922326914992e-01 -8.346702156514573812e-02 6.627673058913361448e-01
8.223890783925724007e-03 8.834705755078046951e-02 -6.900920679396175261e-01 -8.662871119394284225e-01 2.188945287844564977e-02 -4.990666203427421843e-01
-8.927735485700639961e-02 -1.600412169179849520e-01 -6.781734422384793071e-01 7.159395281852215520e-01 -3.948216567777825259e-01 5.758007045160410398e-01
5.983547826099573641e-02 -7.543622582581656355e-02 -8.706922362830666895e-01 -8.979946732001902188e-01 3.162345695085321262e-01 -3.059432364865047882e-01
-5.768106619882391178e-02 7.170003997802031070e-02 -6.248768363106249613e-01 -6.525937978428204556e-01 7.398247604672374134e-02 -7.540874805054648133e-01
-8.148804053906734401e-02 -5.209175705635103043e-02 -6.236994020149674300e-01 -7.084271832361114241e-01 2.649851514700974908e-01 -6.541512023626635530e-01
-6.190440612420121738e-03 2.003855057891570646e-01 -6.432380116638819478e-01 -7.374396708148206470e-01 1.708633277374041193e-01 -6.534435363082488069e-01
5.891846419225841430e-02 -8.298636038671675097e-02 -8.768320423775876060e-01 8.985253176116291263e-01 -3.095517531958209556e-01 3.111751367065090923e-01
1.271867344403003995e-02 -1.791652268210492949e-01 -8.322465549688696784e-01 8.781764882181793963e-01 -2.349647617215979978e-01 4.166504725665128861e-01
2.274722508250530493e-03 1.529499326812624738e-01 -6.758157661456900556e-01 8.937396052810765434e-01 -7.887431725123418558e-02 4.415975090851140816e-01
7.653730894140525765e-02 -1.639600022894042997e-02 -8.641533585060465761e-01 9.002328268887966889e-01 -2.729088897052794893e-01 3.392662602022742391e-01
1.955115909781324560e-02 1.510281372308408532e-01 -7.087933973672467802e-01 -8.799276395387604088e-01 2.074321197444735539e-03 -4.751031954926375200e-01
-1.460510067225288984e-02 1.209579660111773092e-01 -6.598054473627343874e-01 -7.343474583252704857e-01 1.220144846821608481e-01 -6.677172125825139304e-01
-5.961358144735244557e-03 -1.828336918826594937e-01 -7.972626507196156620e-01 -7.634787535848372997e-01 3.024073236705666634e-01 -5.706575184950675173e-01
-8.477224017847899418e-02 -1.174520968203038723e-01 -6.535275549654436800e-01 7.191794119223964277e-01 -3.832429479073119483e-01 5.795738230340199415e-01
-3.438373291753787225e-02 3.751628441146981352e-02 -6.492526533539070277e-01 6.806675188567092860e-01 -8.881695974828336670e-02 7.271886113206965652e-01
-3.867812072082573577e-02 -2.137640588922479212e-01 -7.690220998713008793e-01 -7.642683360093673883e-01 2.741471037430431301e-01 -5.837270561510525813e-01
-4.024408474603695385e-02 -1.656033157213682994e-01 -7.421205877322110123e-01 7.695753563817271381e-01 -3.288525912814435070e-01 5.473661882665182832e-01
-1.255817241307969484e-02 -1.175661581540800027e-01 -7.486092431099189426e-01 -7.660614000556236203e-01 3.771346066102356787e-01 -5.204992025371033559e-01
-5.477457514746957544e-03 2.160877262841062740e-01 -6.405412271797322754e-01 -7.369775474429283157e-01 1.295687938413930540e-01 -6.633822595061562577e-01
2.773879220947109495e-02 -1.484791891214533033e-01 -8.452352500317105166e-01 -8.776832781262082772e-01 2.438166490994766733e-01 -4.125839368171468902e-01
-1.322609783195155542e-02 -1.060674215287343569e-01 -7.399838030317139603e-01 7.660788048168896136e-01 -3.829740754564847638e-01 5.161919433104090738e-01
1.220380842461934318e-02 -1.506498105344551419e-01 -8.151977917543183905e-01 8.730105081998169592e-01 -2.616396791564206681e-01 4.115790700018927550e-01
3.529348988120969283e-02 -1.673477461505349928e-01 -8.836469687004619988e-01 9.172240308627715999e-01 -3.063233911116783337e-01 2.546881569011230639e-01
-6.806293425924828111e-02 -3.696679959638844021e-02 -6.325178804482736172e-01 -7.103474592972881529e-01 2.212699731512054457e-01 -6.681662113962009153e-01
3.162760609014476920e-02 1.230153761760448550e-01 -7.321598360888396106e-01 9.094855276200073391e-01 6.151729764537384321e-02 4.111589682107972821e-01
1.143122147427093685e-02 5.411535130459221160e-02 -6.981457881708851287e-01 -8.694481449346568303e-01 8.615595323142301309e-02 -4.864535692051905058e-01
-2.291307399775873582e-02 -7.459685488643836952e-03 -6.719831599366068442e-01 -7.693744197304612786e-01 2.118085045717810200e-01 -6.026608993915913981e-01
3.370087150068747095e-02 -1.383104885930529770e-01 -8.540746243646469837e-01 9.095002863079431066e-01 -2.668317119485868472e-01 3.187633396492706161e-01
5.229516413502278971e-02 6.361862278109818580e-02 -7.728160207797712955e-01 -9.119763164382306275e-01 5.886603158145944925e-02 -4.059975228761958377e-01
6.382830755757916419e-02 -8.596389819913981267e-02 -8.931860397534719942e-01 -9.021786289823739979e-01 3.078869661849725214e-01 -3.021247051482185420e-01
5.241360089066997990e-02 -1.111231932221873053e-01 -8.844600748812000424e-01 9.087183661934520318e-01 -2.729228373262579943e-01 3.158228234445512594e-01
-2.757745888082106106e-02 4.157661775006084998e-02 -6.551160169621687013e-01 -7.489431347982986598e-01 7.771137101014105597e-02 -6.580616412268853743e-01
2.039518640547631489e-02 -1.394900490513545643e-01 -8.244238493304130166e-01 -8.700820387645573639e-01 2.741845211194061105e-01 -4.096096851855838272e-01
-8.376834409736090559e-02 -2.155080827630574680e-01 -7.206721758561733804e-01 -6.841183584384928906e-01 3.956620851760184188e-01 -6.127263549102378581e-01
-6.909376093131888719e-02 -6.852018128046064027e-02 -6.441809976017870421e-01 -7.159521088509179787e-01 2.950516956313250505e-01 -6.327377614280683682e-01
2.608360772944450998e-02 -1.683823786416566992e-01 -8.533685518687692539e-01 -9.176402208095003621e-01 2.491018518698021877e-01 -3.096525351869843790e-01
4.766515351602594597e-02 7.712841561005522040e-02 -7.619031466943316788e-01 -9.124899146297319463e-01 2.870539639593724587e-02 -4.080908672302983042e-01
-1.272685661687122764e-02 2.173626532085164154e-02 -6.769384844088032205e-01 7.609869096308626846e-01 -1.408623717645945683e-01 6.332903880458967683e-01
-1.556201196541821645e-02 5.067903867715854022e-02 -6.677159382303489155e-01 -7.489431347982986598e-01 7.771137101014105597e-02 -6.580616412268853743e-01
-1.349880322707745425e-02 -2.383806353424971769e-01 -8.082580753733977774e-01 -7.444923586377255598e-01 -2.173920966895144247e-01 -6.312462310596185233e-01
2.438351940453587895e-03 -1.024716561768160283e-01 -7.605591120753661949e-01 7.663937327117619214e-01 -3.807734148060341051e-01 5.173511892680681123e-01
2.549297504005351364e-02 9.974188155653469778e-02 -7.197194068091232744e-01 -8.669053197148098855e-01 -1.934796812014779764e-03 -4.984690794938635428e-01
5.895877554488710912e-03 1.628898409213561937e-01 -6.808634020561741274e-01 8.978121450028088146e-01 -1.472066987196948562e-01 4.150464313031790864e-01
2.136788563363914255e-03 -1.173804124010283112e-02 -7.056953855273023768e-01 -7.720931070854365474e-01 2.550919899627246967e-01 -5.820655552839508751e-01
-4.614053679768169436e-02 -1.006529462862804231e-01 -6.898008799183504847e-01 7.128125915169915006e-01 -3.883322696782861572e-01 5.840344661929993686e-01
-3.414988104802529206e-02 -5.091264276722191895e-02 -6.753286779296856501e-01 -7.139239372786400084e-01 3.025189672077231440e-01 -6.315020872967378462e-01
-5.795304700613815307e-02 4.037829770837626092e-02 -6.267397716389147000e-01 -6.645024864416325672e-01 6.345340479581297599e-02 -7.445872084132971747e-01
-5.383192701545740783e-02 -1.754065517999514601e-01 -7.304229882040896848e-01 -7.092489407955635539e-01 3.631004793872908420e-01 -6.042548980762099120e-01
4.905203469119851639e-02 8.681261577506300606e-03 -7.813801203905493820e-01 8.726967393854447863e-01 -1.892276701054753651e-01 4.501036435449802253e-01
1.170663076776199372e-02 -1.154988943722193018e-01 -7.874683732566978289e-01 -8.647552144861915258e-01 3.120747776181543309e-01 -3.934561629883570610e-01
-5.509696716068047950e-02 -9.183207015058705847e-02 -6.730089209525563776e-01 7.169440131267389438e-01 -3.404769061177311817e-01 6.083311256562694558e-01
3.929968686905608438e-02 -1.267447747083106091e-01 -8.602710436942304639e-01 9.077797185656683032e-01 -2.562288582198133380e-01 3.320884743200329114e-01
1.205487263282968569e-02 -9.718006723464839292e-02 -7.735414954404525867e-01 8.609102664889489720e-01 -3.346161111605214789e-01 3.832304413870802340e-01
3.082319089333484738e-02 1.491267064205200610e-01 -7.347552631513040167e-01 -9.128059269817799803e-01 -9.475157667153083496e-02 -3.972498941286108920e-01
-4.783265677323338821e-02 -1.583763962185609497e-01 -7.269038268846966799e-01 -7.067524247717692498e-01 3.892968318651347515e-01 -5.907190421672503522e-01
-1.262299930123031086e-02 -2.822161300037883194e-02 -6.933239059145557270e-01 -7.730084063175873821e-01 2.499029638423309330e-01 -5.831007738162953258e-01
2.681084988442510725e-02 7.394924433663799257e-02 -7.242828639499796495e-01 8.640153078476353610e-01 -2.770202945788916710e-02 5.027028400246712492e-01
3.027830133011865862e-02 -1.101219551968576071e-01 -8.251901518849965589e-01 8.649468625345737571e-01 -3.175554243442277880e-01 3.886199653403755172e-01
6.000508854169613049e-02 3.898118661180759170e-02 -7.955856883710270555e-01 -9.116021674808297837e-01 1.055976742112593875e-01 -3.972790196391272621e-01
-8.061121227784254217e-02 -1.541179214917634266e-01 -6.842865992625477567e-01 -7.022855525179391156e-01 4.107416190007104340e-01 -5.814519112921104904e-01
-7.885749032579615625e-02 -1.777477171617785345e-01 -7.030158949207567787e-01 7.034474351349669918e-01 -3.819543718085857686e-01 5.993934966767200390e-01
1.732123382964841085e-02 -1.752410801476715074e-01 -8.386958016671868243e-01 -8.781587131768103793e-01 2.349931991057598590e-01 -4.166718983153164246e-01
-4.118441685734654245e-02 -2.165944777490378392e-01 -7.674733892815710501e-01 -6.947876162574136982e-01 3.259076127638779186e-01 -6.411352402090301217e-01
-3.493347568905377093e-02 1.641359398846801987e-01 -6.264647384812653819e-01 -6.336665909269755259e-01 2.932899419614025116e-01 -7.158544974275585782e-01
