-3.398380874680331093e-02 -1.570300733642822633e-01 -1.072383474863315422e+00 9.487582743941257446e-01 1.673300079394969275e-01 -2.680641811425918952e-01
1.308172784961060021e-02 -1.771497965081316461e-01 -9.819185756557992084e-01 -8.099487037963082336e-01 -3.142986566368716761e-01 4.951761824390767397e-01
-6.199994950284933720e-02 2.703092319943642755e-02 -1.015017590880069154e+00 9.392214803707248372e-01 1.590159924496211963e-01 -3.042645640811396657e-01
-5.036890491659276603e-02 -1.242376292869022958e-01 -1.113056595235117463e+00 -9.416990408797092371e-01 -2.336061444903756723e-01 2.421385670697200621e-01
-9.389899188575885972e-03 5.967784336552106605e-02 -8.809673917663439768e-01 -8.982554115262091354e-01 -1.920968163674920473e-02 4.390537595731245912e-01
5.793177551571628003e-02 -4.725828098861050049e-03 -8.072575397142586207e-01 7.420235636604108898e-01 1.548452836626849627e-01 -6.522453289216616490e-01
-3.128935730021077232e-03 -1.314130006851221832e-01 -9.775663949729923585e-01 8.149799743878255454e-01 3.681117938629613340e-01 -4.475503866223464744e-01
-2.267025540096011260e-02 -8.640581374719809304e-02 -9.874420141164133025e-01 8.998358403408062145e-01 3.060454906173084577e-01 -3.108562659992012978e-01
-2.345232924748831549e-02 -1.670496734675281092e-01 -1.048924977881846132e+00 9.171624929521143832e-01 1.483165335849272182e-01 -3.698853435690768188e-01
-2.391481759438045425e-03 1.141006738653079639e-01 -8.654244842014219286e-01 9.045127609323987405e-01 2.328062589701580636e-03 -4.264402014761597415e-01
-4.771717220338316662e-02 3.598890050116949901e-02 -9.704432340342777907e-01 -9.392350916481365664e-01 -9.378307877079414268e-02 3.302153490572289352e-01
4.630250721394210678e-02 -1.042762671515809758e-01 -8.684655868264596901e-01 7.649800595489049115e-01 3.892379016877945408e-01 -5.131270450699676466e-01
2.344463592581672723e-03 -4.653694137579104245e-02 -9.005959717080668225e-01 8.187477031121066506e-01 2.897059570214240432e-01 -4.957042032451916547e-01
-2.182852354954548796e-02 1.172176671071945564e-01 -9.070015248281246834e-01 -9.253402914875576979e-01 9.168491626894009761e-02 3.678847932145050126e-01
8.296459167789053436e-05 -4.583351627445626103e-02 -9.047944700012388042e-01 -8.187342229061207455e-01 -2.897005938348795051e-01 4.957296018738728272e-01
-3.940131897999854527e-02 -1.418784093955416103e-01 -1.083514246198074238e+00 -9.480602327598512957e-01 -1.679091178439127419e-01 2.701635119778676986e-01
-5.919871907508799172e-03 1.130553105559983229e-01 -8.729141804698204998e-01 9.045127609323987405e-01 2.328062589701580636e-03 -4.264402014761597415e-01
-2.969984776528492715e-02 5.234637624842445464e-02 -9.225950649171053009e-01 8.999492924650805969e-01 6.789349476512870907e-02 -4.306759156955238255e-01
-5.870089950104775967e-02 -3.410000149946683379e-02 -1.054852296119533017e+00 -9.313448258008512060e-01 -2.718323061918339056e-01 2.422891098758074846e-01
-6.925283523638603791e-03 5.827297654717706471e-02 -8.750047284120957558e-01 8.982302456291400006e-01 1.921870632075647553e-02 -4.391048475755778280e-01
2.150878033302184092e-02 -1.318777739097963531e-01 -9.337465333069906448e-01 -8.133252339950870491e-01 -3.861863351492881291e-01 4.351576476299117702e-01
4.524707498536794520e-02 -1.918731855143605558e-01 -9.422806965084032926e-01 -7.560494838339806289e-01 -3.966521849074023942e-01 5.206306005245516788e-01
9.022470618742459494e-03 1.613370869733703750e-01 -8.303966998283929257e-01 9.288167393491444379e-01 1.688825351247025819e-01 -3.298153332316079989e-01
-3.072326518560002107e-02 9.259295525682388617e-02 -9.223141532125089803e-01 9.224208764683688999e-01 -5.699743665497743889e-02 -3.819568285422945131e-01
1.160459582993354777e-02 -1.152884527255470387e-01 -9.374887188001669314e-01 -8.136295273571215736e-01 -3.882636684803320581e-01 4.327335392026152028e-01
2.886178157044228323e-02 -2.481324442925062108e-03 -8.411197824247269583e-01 -7.556087860079057084e-01 -2.129071585025849311e-01 6.194561359499265452e-01
1.319693759306715328e-02 8.470275822814174460e-02 -8.440464286473846611e-01 -7.805189586224732246e-01 -8.466543957356142958e-02 6.193721971260134351e-01
6.382357099963713309e-02 -9.284340691918567534e-02 -8.366027739380796913e-01 -7.719124391947898012e-01 -3.094807912997813992e-01 5.553132683745374276e-01
-6.137504905969062841e-02 3.986531892985087366e-02 -1.008510677913109665e+00 -9.396738200311346434e-01 -1.285947351032619979e-01 3.169802928445495938e-01
2.458362685389198568e-02 3.194203561493694048e-03 -8.445213780507603296e-01 8.111011524140563367e-01 1.843913493509170554e-01 -5.550808507209897824e-01
-3.175683259033726391e-02 -1.639016118919399134e-01 -1.071162768147079891e+00 -9.548927839857220823e-01 -2.009371454931167811e-01 2.186413379328694673e-01
-4.518363832088846677e-02 5.437081628386133264e-02 -9.579576522760947510e-01 9.348165258640662723e-01 4.562923127594131073e-02 -3.521875015167404421e-01
-5.110115774460731453e-02 -1.172132703064086845e-01 -1.108616517166703952e+00 9.470125880970737819e-01 2.353539214806079638e-01 -2.185765074965323740e-01
-4.105093718685532550e-02 -1.155440596315135265e-01 -1.068802945979639318e+00 9.415941018899440795e-01 2.219988703560609178e-01 -2.532134452328755891e-01
2.562849070877937230e-02 -1.878258358547537921e-01 -9.672971029420499578e-01 8.099703397333569699e-01 3.142606900600148911e-01 -4.951648891381872364e-01
-3.446011885329501589e-02 6.196922908719190021e-02 -9.311389411623290924e-01 8.996872818181406162e-01 4.812219244491393322e-02 -4.338744628679824800e-01
-6.942057881838793743e-02 4.901528944563145196e-02 -1.028119423543926159e+00 -9.358951519397337160e-01 -1.320846119542654351e-01 3.265791173063485320e-01
5.844744822353853397e-02 -8.413430898678107839e-02 -8.391135752015334015e-01 -7.669464314779712577e-01 -3.118893896378558961e-01 5.608192042668751487e-01
-4.002782054032515135e-02 6.433065300037601499e-03 -9.623803978786489299e-01 -9.061011420477592671e-01 -1.788281034703435024e-01 3.834073940196594532e-01
-2.264532345606287342e-02 -1.270487566934274670e-01 -1.023050955057331679e+00 9.057580206763089503e-01 2.536203569428914228e-01 -3.395277934495132821e-01
-4.851212989938812753e-02 -1.097850123302794856e-01 -1.092832919786690837e+00 -9.409661896876256870e-01 -2.222961843133940407e-01 2.552783506379983636e-01
-4.242946691903434764e-02 -5.974780411686844706e-02 -1.020979557116793890e+00 -9.322825820869498070e-01 -2.651150636829369134e-01 2.460958962390102089e-01
-5.009063365615164937e-02 9.462520444026141508e-02 -9.700659478919061440e-01 9.254551749092673196e-01 -2.531351384840427668e-02 -3.780105094442533509e-01
1.310213848266792921e-02 -1.162749041082102308e-01 -9.355581042014683435e-01 -8.136295273571215736e-01 -3.882636684803320581e-01 4.327335392026152028e-01
1.644757253692098048e-02 1.911993520514303768e-01 -8.036647080467224091e-01 8.082839894840142536e-01 1.729505739234370731e-01 -5.628188796792085169e-01
6.808197233931198578e-02 -3.711858577342906640e-02 -8.048881475392898333e-01 7.466204041222783694e-01 1.961140101170599226e-01 -6.356864535162687346e-01
4.538652719808498881e-02 6.081674562964942132e-02 -8.095220877184283736e-01 -7.053441115101148906e-01 -1.110553941794078237e-01 7.001116937901142867e-01
-3.932401504894211114e-02 -6.028913267060304060e-02 -1.011299527370181472e+00 -8.996080810105355763e-01 -3.081120363276160790e-01 3.094709576851938371e-01
9.061735053042052970e-03 3.174484217733145042e-02 -8.591888288193519907e-01 -8.020055493065580965e-01 -1.471601527103271467e-01 5.789049907677075169e-01
-5.782611133948895726e-02 -7.456536677827420301e-02 -1.094176160632350570e+00 9.401416544054278512e-01 2.389005535738431274e-01 -2.430230342044475689e-01
7.393069486629806619e-02 -1.011544916323940529e-01 -8.272046284106063796e-01 -7.718091787902835454e-01 -3.478840330479145426e-01 5.322473965040932509e-01
-5.173566587206316486e-02 3.405327327180372038e-02 -9.822930305121315708e-01 -9.396738200311346434e-01 -1.285947351032619979e-01 3.169802928445495938e-01
1.986969637101174829e-02 1.573672398596226082e-02 -8.475362872683975812e-01 8.020234802624334192e-01 1.471182588396734714e-01 -5.788907971489241078e-01
-3.033090132963173462e-03 -1.532937333993500961e-01 -9.940106102591415027e-01 -8.139712852395982745e-01 -3.255389718332991067e-01 4.811186180383328348e-01
1.430907605483098394e-02 -2.007198550427030381e-01 -9.943963198454077723e-01 -8.012051309650982667e-01 -2.816263389866705547e-01 5.279743775072466283e-01
-1.150395784306152552e-02 -1.975741744257661914e-01 -1.030767508369287100e+00 9.156507683474760517e-01 1.262161262559907404e-01 -3.816453326029399795e-01
1.979363836017497200e-02 1.435943776198091160e-01 -8.217223473250256927e-01 -7.835985387890849196e-01 -2.525959163377095584e-01 5.675990072728489544e-01
-2.070880713213652663e-02 1.682966653016410019e-01 -9.185655175079036061e-01 -9.285538170627612997e-01 1.195655518689462266e-01 3.514141255334655711e-01
5.988979646318959293e-02 -1.330240427992832319e-01 -8.704168472974355142e-01 7.631863271480999744e-01 4.158790672312641656e-01 -4.945616559065682538e-01
3.156348179912957935e-02 9.077898596191111280e-02 -8.199963194075852169e-01 -7.786838342472616192e-01 -1.132823720368257431e-01 6.171050076507995641e-01
-2.485501695789360879e-02 -1.201146278755788332e-01 -1.025042996347836688e+00 -9.057701995891418445e-01 -2.535916443819186128e-01 3.395167498606223022e-01
2.607438580363475450e-02 -9.026558499594747320e-02 -8.898142304041061212e-01 -8.164983355181781866e-01 -3.599156282715497701e-01 4.514323965135199623e-01
4.360358407579841000e-02 -1.562484533567193579e-01 -9.159248520412854866e-01 7.602425578621890834e-01 4.277467368498710787e-01 -4.889416962475620076e-01
-5.811536110605153987e-02 -5.958277658463595472e-02 -1.080579116923696459e+00 -9.310790553941954428e-01 -2.619477941106667651e-01 2.539195655454858369e-01
-6.166272664342119930e-02 -2.071845751628563145e-02 -1.049847292032525914e+00 9.319924118022235859e-01 2.709751490158067155e-01 -2.407542584440313382e-01
-5.420966432933536222e-02 2.762884805661447105e-02 -9.922868614719332347e-01 -9.389852584331714880e-01 -1.369137328210972004e-01 3.155333805006743098e-01
-2.218338670228267931e-02 1.455464823621499815e-01 -9.154288982398994801e-01 -9.226636174145250724e-01 1.278498935886153154e-01 3.637942465308140472e-01
1.783208793125244662e-02 1.506561684741463125e-01 -8.205918686856227273e-01 7.807040698011777913e-01 2.440001699253032119e-01 -5.752956391911039358e-01
9.523619031032303991e-03 3.354563563064560244e-02 -8.573443217202193489e-01 8.020234802624334192e-01 1.471182588396734714e-01 -5.788907971489241078e-01
1.545845014476962716e-03 1.422641195847918205e-01 -8.568530478581330989e-01 -9.203153735429895344e-01 -6.281390543038974095e-02 3.861010573735970675e-01
-6.286399658614971742e-02 -5.235967202767673190e-02 -1.090559107269055472e+00 -9.323725127722668482e-01 -2.629843353457404498e-01 2.480337412318899815e-01
2.365880312269304578e-02 9.692535193084875211e-02 -8.288424161272890389e-01 -7.786838342472616192e-01 -1.132823720368257431e-01 6.171050076507995641e-01
6.082854599906914461e-02 -9.502847014416096472e-02 -8.415050972877786695e-01 7.656402485469322450e-01 3.509605456659208866e-01 -5.390934104502399515e-01
2.183849744901964623e-02 -5.605088260493103908e-02 -8.749141688622433799e-01 -8.181492947425297313e-01 -2.870291105683454025e-01 4.982429339174272998e-01
3.056182191329146966e-02 -1.565700338396508462e-01 -9.371269425326319569e-01 8.132333138765724945e-01 3.748164433343231239e-01 -4.451563893819072137e-01
-3.734362551324752616e-02 -9.210947136750698150e-02 -1.036105177044876147e+00 -9.033401104495988321e-01 -2.872731194015844536e-01 3.185134215730780483e-01
4.237543960748237776e-02 5.919947389301474794e-02 -8.128318353712687960e-01 -7.068898489297013032e-01 -1.176371101951804166e-01 6.974727606043629180e-01
2.592381348624209214e-02 -1.981068486448223087e-01 -9.732519314787294595e-01 8.101229185987566250e-01 3.058888889768358599e-01 -5.001328267186119225e-01
-3.150115149422322985e-02 6.116034637873626889e-02 -9.260911395148075931e-01 -8.997000781847829254e-01 -4.808745407232929703e-02 4.338517789235593058e-01
-1.051726112980086968e-02 -2.144654369462103138e-01 -1.035656471791115196e+00 -7.703224820193292910e-01 -1.731312600200996532e-01 6.137009373460600159e-01
5.426890694028724260e-02 -1.133588881702942003e-01 -8.641831699258343269e-01 -7.663360910626062505e-01 -3.881190271178485141e-01 5.119498181696906514e-01
5.783991301252937312e-02 -2.091775051572736799e-01 -9.365234019546740951e-01 7.546557979621305590e-01 3.982526021207104527e-01 -5.214302364710192705e-01
3.096530434536071130e-02 -5.552649075814511392e-02 -8.606435213302783271e-01 -7.646575040655916311e-01 -2.809687045500957048e-01 5.799616267819973636e-01
-1.625039799595698331e-02 -1.261422941530037367e-01 -1.005314108482881608e+00 9.057580206763089503e-01 2.536203569428914228e-01 -3.395277934495132821e-01
4.486096841108520167e-02 -1.527802305197627775e-01 -9.109283848449225562e-01 7.595805591144020319e-01 4.341447116380033333e-01 -4.843095534595693863e-01
3.135763313443663131e-02 -3.924626997900194925e-02 -8.515264660896471050e-01 7.614885983718520102e-01 2.766041503692303061e-01 -5.861955804577412277e-01
3.689316129453815152e-02 -1.493029066566146645e-01 -9.202824555332876910e-01 7.602425578621890834e-01 4.277467368498710787e-01 -4.889416962475620076e-01
3.115721771121054279e-02 1.712005382938419640e-01 -7.921578915990616920e-01 6.935697110798242360e-01 2.187306278437124996e-01 -6.863803379437265484e-01
6.586652585282405138e-03 1.600080370897611626e-01 -8.391996737019806751e-01 -9.293302380713898136e-01 -1.347834080028463555e-01 3.437713506581257517e-01
-4.819302081462851356e-02 -2.805881045234636870e-02 -1.007258930822256815e+00 9.345977409688543958e-01 2.505571927706943258e-01 -2.524839712274491443e-01
-4.732651106616879433e-02 -1.184290732549090203e-01 -1.094668527920078294e+00 9.415941018899440795e-01 2.219988703560609178e-01 -2.532134452328755891e-01
-4.082533513061727126e-02 -1.433935510852241413e-01 -1.091364500151163375e+00 -9.534070409075847685e-01 -2.178814563012656802e-01 2.086688413440837830e-01
-4.724425960493412041e-02 1.110677688595327062e-01 -9.658345371118938205e-01 9.213952181167939237e-01 -9.695756233443332539e-02 -3.763377248398969144e-01
5.348979641345157077e-02 -2.222566339286494511e-02 -8.179485653441185278e-01 -7.498246628150491144e-01 -2.002855819821141026e-01 6.305938952165519584e-01
-5.770726986347322202e-02 1.063542588936349995e-02 -1.011531461665468479e+00 -9.385712229549484364e-01 -1.600429127204794633e-01 3.057291702288111868e-01
3.692926177152891509e-02 4.464861292783564584e-02 -8.202058401774742213e-01 7.099913817851515319e-01 8.281680784441815268e-02 -6.993236833750675618e-01
1.774869512715174236e-02 -1.961942319726528161e-01 -9.853243295168311322e-01 8.101229185987566250e-01 3.058888889768358599e-01 -5.001328267186119225e-01
2.772918545240340288e-02 4.910653175213232358e-02 -8.300170079434942005e-01 7.903750162375531296e-01 1.029524317151529200e-01 -6.039106974639746328e-01
2.085752653407603116e-02 1.089795180841975075e-01 -8.292052420805200441e-01 7.821329559001882759e-01 1.300319596167854586e-01 -6.093929182170175762e-01
7.356029040515384143e-02 -1.934004489078526567e-01 -9.019747772428960975e-01 -7.661078743098858057e-01 -3.976025095008089427e-01 5.049663051719859297e-01
5.047883016807169082e-02 1.314312655230830997e-02 -8.118366568791834936e-01 -7.327746409851092491e-01 -1.337352352318427195e-01 6.672002790666590188e-01
-2.106554703406287102e-02 1.571355659375948260e-02 -9.143686960897874361e-01 -9.053060863604047714e-01 -1.484160564798141235e-01 3.979868894546500502e-01
2.419558182554374520e-02 1.933337747113269278e-01 -7.925321618174949734e-01 -7.776997072817239953e-01 -1.984386604967753320e-01 5.964941435707196149e-01
-2.448940346188698339e-02 -1.307512015268534611e-01 -1.031808899093852538e+00 -9.081254582802188446e-01 -2.402430734244130894e-01 3.429160505064386411e-01
9.485527209356052133e-03 2.046842773426377771e-01 -8.165161323794727366e-01 -9.117241889394551713e-01 -3.799234477603164600e-02 4.090422778162562945e-01
1.456306852929733532e-02 -2.354724483137555502e-01 -1.013253468073983088e+00 -7.079015058743810540e-01 -1.663965824023033169e-01 6.864310856492565893e-01
5.901269525597511306e-02 -1.634248725168966632e-01 -8.982438641314497429e-01 7.602425578621890834e-01 4.277467368498710787e-01 -4.889416962475620076e-01
-2.153406961371841580e-02 -1.618050661847800498e-01 -1.041394456920513578e+00 9.121287759860160493e-01 1.920240435590607475e-01 -3.621434283726271963e-01
6.243886015213230556e-02 4.932773740768544440e-02 -7.941647577449487683e-01 -7.053441115101148906e-01 -1.110553941794078237e-01 7.001116937901142867e-01
-4.945681349104664309e-02 7.848819507468239240e-03 -9.860906401734372828e-01 9.402027689579000036e-01 1.641675230131962038e-01 -2.984422517533483754e-01
-6.231597510390668448e-02 -8.986921387230879452e-03 -1.041855309710715716e+00 -9.338213754858005755e-01 -2.493588041906301955e-01 2.565108681097671428e-01
-5.949703168423998989e-02 -6.725180684445143664e-02 -1.093692280388161464e+00 -9.323725127722668482e-01 -2.629843353457404498e-01 2.480337412318899815e-01
2.941481115348908160e-02 -1.608335679114149541e-01 -9.427927686978961885e-01 8.159139240646676727e-01 3.343365105490206934e-01 -4.717028367853006721e-01
-5.834949338745214209e-02 6.279092022587196009e-02 -9.920484997819668527e-01 9.398990889742008248e-01 9.277958845530206999e-02 -3.286056154595231593e-01
-4.904251802807287758e-02 1.011935674340640468e-01 -9.679397750363272213e-01 9.254551749092673196e-01 -2.531351384840427668e-02 -3.780105094442533509e-01
-6.485696854368085823e-03 9.263273537946986602e-02 -8.742455130068210734e-01 -8.946888922405620281e-01 -3.448733967515385350e-03 4.466764962871642153e-01
-3.421406872937561572e-02 -4.259597109772057105e-02 -9.798124202766487212e-01 -9.018557661372547107e-01 -2.888657137123551988e-01 3.212674532635341196e-01
6.977258208932200778e-02 1.030851003860981663e-02 -7.916136622819623936e-01 -7.319727917836884590e-01 -9.734496818216084590e-02 6.743439695422560609e-01
-1.726878347119072685e-03 1.566338363264682398e-01 -8.611891030603042729e-01 9.235593890563986719e-01 7.196925771742813949e-02 -3.766410503773771623e-01
-4.777539278599335359e-02 -1.278183288527654782e-01 -1.105626263676385390e+00 9.470125880970737819e-01 2.353539214806079638e-01 -2.185765074965323740e-01
-2.823891796596895293e-02 9.694732113221543601e-02 -9.169642657542135256e-01 9.224208764683688999e-01 -5.699743665497743889e-02 -3.819568285422945131e-01
-3.559642768176092542e-02 5.902187651188754713e-02 -9.348708033749018043e-01 -8.999638442524582338e-01 -6.795576906287444097e-02 4.306356841802710944e-01
5.617303575287501544e-02 -8.260566579485766059e-02 -8.413738133073921377e-01 -7.669464314779712577e-01 -3.118893896378558961e-01 5.608192042668751487e-01
-2.510674983611776989e-02 -2.203163453496027879e-02 -9.413942343559110748e-01 -9.059616936934298259e-01 -2.141953691835313534e-01 3.651763319007171882e-01
-2.986214095162204735e-02 1.132381228750657109e-01 -9.249893964280031522e-01 9.134556876072797982e-01 -1.090794047476963263e-01 -3.920464133719371858e-01
4.905341710349954421e-02 1.341034434206032910e-01 -7.907027476276453637e-01 6.845271795665168746e-01 3.163980194981237948e-01 -6.567456385027422572e-01
4.154136218533120706e-02 4.229902593176352449e-02 -8.163726526677783646e-01 -7.116606747484612860e-01 -8.250521269544090763e-02 6.976617904792009606e-01
7.031695021597464401e-02 -2.816612529666479708e-02 -7.995012417918899716e-01 7.466204041222783694e-01 1.961140101170599226e-01 -6.356864535162687346e-01
1.539229971273948193e-02 -6.148558244949613866e-02 -8.877815242130694395e-01 8.187477031121066506e-01 2.897059570214240432e-01 -4.957042032451916547e-01
-1.475766237985961550e-02 9.079025454628660008e-02 -8.898602389701918414e-01 8.946619240880365753e-01 3.451070531640863370e-03 -4.467304911233142550e-01
-1.984318386152891106e-02 -3.625018550398827893e-02 -9.366905158280278698e-01 -9.050277934172274996e-01 -2.501863644429265787e-01 3.439934246307260191e-01
1.527131127871972534e-02 1.399763465433949139e-01 -8.294184740772144737e-01 -7.772580652656163602e-01 -1.873378206149648451e-01 6.006450207458529089e-01
5.518511077428021189e-02 -1.427482655025118403e-02 -8.134074073580295217e-01 -7.498246628150491144e-01 -2.002855819821141026e-01 6.305938952165519584e-01
3.652901206601645578e-02 -1.982336885350673150e-01 -9.581022218309299676e-01 7.460156284924522874e-01 3.792339147812249234e-01 -5.473959443809552905e-01
-1.160974487710041310e-02 1.695367589098984440e-01 -8.923747370528223311e-01 -9.521127544440121104e-01 6.507292164486645769e-02 2.987420587959405682e-01
-2.799966799333243606e-02 -4.873506730791636599e-02 -9.665380173069523240e-01 9.018394425468396758e-01 2.889118697248035939e-01 -3.212717718675628387e-01
4.203117394613144209e-02 -3.835696466176570507e-02 -8.376676781702566688e-01 7.590991488408044274e-01 2.387469638800956140e-01 -6.056140433206633755e-01
7.133490021276200910e-02 -1.079156458348476261e-01 -8.351275978537401334e-01 7.615316828793239345e-01 3.519698863732676486e-01 -5.442303694736023711e-01
-1.251523553859700336e-02 2.910842543244564901e-02 -8.917889124174129822e-01 -9.051549982112478965e-01 -1.077747022420035006e-01 4.111922211932557691e-01
-6.184937321928969320e-03 -1.016711890081215541e-01 -9.586998556960021345e-01 -8.133252339950870491e-01 -3.861863351492881291e-01 4.351576476299117702e-01
7.303276031465741336e-02 2.013273241065443794e-02 -7.866684183874594893e-01 -7.035462853947174189e-01 -7.277041911267681518e-02 7.069137786247061683e-01
2.265426727406644192e-02 7.933241384045323918e-04 -8.489193250010849123e-01 -8.110782451241490554e-01 -1.844088863400474843e-01 5.551084965348254130e-01
-5.174788084854246850e-02 1.255846957566233470e-02 -9.907176535380649574e-01 9.402027689579000036e-01 1.641675230131962038e-01 -2.984422517533483754e-01
6.724979823037620374e-02 -2.149271502359443864e-01 -9.278856804040773731e-01 -7.512254719253035340e-01 -4.110510174875455780e-01 5.164274889595424911e-01
7.287896453013649467e-02 -1.507722338342970259e-01 -8.653872649235513359e-01 7.575998791107686481e-01 4.197442497084519220e-01 -4.998571676069446523e-01
-5.055862532734502895e-02 9.016945821245648043e-03 -9.902662336338425852e-01 -9.395438500305572926e-01 -1.651307509112220073e-01 2.999819810809535303e-01
-4.132183856926432974e-02 7.830261036968026722e-02 -9.472365179969968185e-01 9.328190626907887362e-01 -1.150297146172609732e-02 -3.601614609147245627e-01
-7.271554066770179181e-03 -1.945645942177121612e-01 -1.022707553151118942e+00 7.999278635483519917e-01 2.478462392158425898e-01 -5.465232427129995685e-01
-2.033975769074126624e-02 -2.089043076411398192e-01 -1.057045256642529685e+00 -9.595592585182859402e-01 -1.617115781786984952e-01 2.304243799488063793e-01
-6.758321558895781511e-02 1.373119972388687354e-02 -1.040628163841202714e+00 9.414394758881760028e-01 1.940780085382291797e-01 -2.757271111828349941e-01
-3.028005233930498863e-02 1.558091418115518101e-01 -9.388626486937293736e-01 9.176503627972103505e-01 -1.324055039218653695e-01 -3.746819907459456589e-01
-3.821676877205727046e-02 -1.122014294812666568e-01 -1.056854104907241521e+00 -9.385553858701456420e-01 -2.213221179176526610e-01 2.648212751547477373e-01
4.574471801932561421e-02 3.850209195745721291e-02 -8.125339786276705167e-01 -7.116606747484612860e-01 -8.250521269544090763e-02 6.976617904792009606e-01
-2.905250360538518331e-02 7.084200934667744809e-02 -9.189415413252960407e-01 8.996872818181406162e-01 4.812219244491393322e-02 -4.338744628679824800e-01
3.097327477719129599e-02 -1.693000616635215519e-02 -8.435102098743748611e-01 -7.556087860079057084e-01 -2.129071585025849311e-01 6.194561359499265452e-01
-5.469267956488121918e-02 -5.286484964232296413e-02 -1.060239724545953388e+00 -9.325646683391871639e-01 -2.689691825753426357e-01 2.407877035692928824e-01
4.013793604662604236e-02 -7.690928551498472932e-02 -8.594303200362394257e-01 7.657147313569413472e-01 3.125000669942874509e-01 -5.621607050582001497e-01
-3.146792542403540477e-02 -7.032315209699487035e-02 -9.970501182004770646e-01 8.996018390705831091e-01 3.081029375186791763e-01 -3.094981599835213149e-01
-2.207003464689587593e-02 -6.433767296390488499e-02 -9.640157624569966055e-01 9.013153879572464167e-01 2.914602137194096665e-01 -3.204395656752049848e-01
-1.229156154893715712e-04 -9.622938870790523347e-02 -9.426270026183146689e-01 -8.147836952467218952e-01 -3.796792441024446352e-01 4.381451831960421761e-01
-5.189202608134942801e-02 7.166746236168811124e-02 -9.749619134738417570e-01 -9.341588254535305724e-01 -2.555312216880067586e-02 3.559414653769724102e-01
-2.244282965791011622e-02 -1.808038734515997892e-01 -1.052590568763997814e+00 -9.156786898202344815e-01 -1.261693249826227881e-01 3.815938134227652712e-01
1.782932618264472177e-02 7.548738275166086420e-02 -8.394779475501916721e-01 -7.809785265898652185e-01 -8.660334889401977154e-02 6.185243737847876400e-01
3.303034568263805201e-03 -1.685862306149310264e-01 -9.927614166502096715e-01 -8.145237332906981598e-01 -2.905345905318720834e-01 5.021361763612152140e-01
5.512335453833931004e-02 -1.428094190920410345e-01 -8.859877899687470526e-01 7.614518234264817664e-01 4.288188201303030356e-01 -4.861126825156291131e-01
-6.100825397347935802e-02 2.447174213221904419e-03 -1.027682266707101721e+00 -9.381174663319006291e-01 -1.992593109683847008e-01 2.832513836778552396e-01
3.452084989853287933e-02 1.298015772636301468e-01 -8.067894685842158520e-01 7.807040698011777913e-01 2.440001699253032119e-01 -5.752956391911039358e-01
3.982524671593509064e-02 1.302434428740751049e-01 -8.011259092120806002e-01 6.786802163934702037e-01 2.443860711747359027e-01 -6.925811231125847955e-01
7.531252418606535284e-03 1.505315643064455422e-01 -8.403346379734920601e-01 -9.294123068499082763e-01 -1.335581936392374047e-01 3.440275756211352287e-01
4.456345741569549268e-02 5.843784048617772092e-02 -8.107427341085436945e-01 -7.068898489297013032e-01 -1.176371101951804166e-01 6.974727606043629180e-01
-5.659015836056024290e-02 4.252888520548550686e-04 -1.014472046407750350e+00 -9.381174663319006291e-01 -1.992593109683847008e-01 2.832513836778552396e-01
-2.733041623050823724e-02 1.521451929230300260e-01 -9.306713241373401058e-01 -9.206840401526386053e-01 1.196701823033861495e-01 3.715103574272038411e-01
-1.246377738656885385e-02 5.770032060929623091e-02 -8.871553762078446814e-01 -8.907227539065453170e-01 -3.973819300450241038e-03 4.545296298739028296e-01
4.190094050897875261e-02 -7.816626541782036031e-02 -8.584226778439884020e-01 -7.669464314779712577e-01 -3.118893896378558961e-01 5.608192042668751487e-01
4.215720023195004135e-02 1.065100214775627496e-01 -8.049699588353173008e-01 6.740172568729835278e-01 1.316595279948405417e-01 -7.268882349616024863e-01
6.831205029951580021e-02 7.408087369937953193e-02 -7.854958038688335531e-01 6.738403259386869237e-01 9.678058183696403027e-02 -7.325112518713570164e-01
1.672388209954657826e-02 -5.280862447315069416e-03 -8.588215955322712203e-01 8.111011524140563367e-01 1.843913493509170554e-01 -5.550808507209897824e-01
-1.721771639940639434e-02 -7.571766677010217939e-02 -9.624139425741763398e-01 -8.995973346306810337e-01 -3.078413251217005930e-01 3.097714545801303898e-01
2.837920781206218143e-02 -2.659997129694845544e-02 -8.507161818912595264e-01 -7.586028665159140205e-01 -2.475851092760862349e-01 6.026801013627268722e-01
-1.751523364729277651e-02 -5.878298615743455385e-02 -9.475027698399977050e-01 -9.013215342631106797e-01 -2.914639327325364571e-01 3.204188942457594780e-01
-3.266992492887720034e-02 5.453725338471959033e-02 -9.294903393391100721e-01 -9.051549982112478965e-01 -1.077747022420035006e-01 4.111922211932557691e-01
4.812967168534849904e-02 -1.627847572599563086e-01 -9.145851109310145777e-01 7.580630142748809863e-01 4.211914370405483998e-01 -4.979339712775169846e-01
-3.259188327388233553e-02 1.266687440266413556e-01 -9.359737910396727090e-01 -9.129415036951801232e-01 1.074498122072514855e-01 3.936906764039627138e-01
2.340263869126489593e-02 -1.279345645644603957e-01 -9.256483810382063471e-01 8.136415365294198399e-01 3.882556594307901010e-01 -4.327181449327113794e-01
1.084936846999747309e-02 1.329561501732814399e-01 -8.373302003653769754e-01 -7.772580652656163602e-01 -1.873378206149648451e-01 6.006450207458529089e-01
-3.442679305348225055e-02 -1.226552283042765396e-01 -1.052422202410496999e+00 -9.087715395421009923e-01 -2.011788617701492088e-01 3.655972572314332703e-01
-4.146131863751154056e-02 -3.782505510726077297e-02 -9.958670190641991660e-01 -9.018557661372547107e-01 -2.888657137123551988e-01 3.212674532635341196e-01
1.131093574386476779e-02 -6.310433667692441628e-02 -8.965941307826996720e-01 -8.181202572355207314e-01 -3.246731174557236366e-01 4.746225990220728219e-01
-3.636422819953828711e-02 7.179934943842333772e-02 -9.341885914608286656e-01 9.328190626907887362e-01 -1.150297146172609732e-02 -3.601614609147245627e-01
6.282201487620972524e-02 -1.208404890129999298e-01 -8.570519950877445448e-01 -7.663360910626062505e-01 -3.881190271178485141e-01 5.119498181696906514e-01
4.212672484465735528e-03 1.648032296230853566e-01 -8.437110380756358552e-01 -9.304946379213533403e-01 -1.746536518816323713e-01 3.219873144768579665e-01
-1.868174296731580850e-02 9.836786401516126044e-02 -8.987587484433720020e-01 -8.929291692448595441e-01 2.294225282687245571e-02 4.496122237516599340e-01
3.215918083072646233e-02 -1.935743750052277418e-02 -8.422914298952416390e-01 7.573026040855878049e-01 2.481864761788221685e-01 -6.040664192678864008e-01
3.001438167565244602e-03 1.369518731193515304e-01 -8.540444356352213662e-01 -9.084257431639821689e-01 5.570617876013969410e-04 4.180458812608150998e-01
3.094085309312306561e-02 -6.931681419098391361e-02 -8.684496471138719587e-01 -7.656314530061916201e-01 -3.174320282289947448e-01 5.595045894557560962e-01
2.071100653753290416e-02 -5.352439229243316499e-02 -8.744388247560785921e-01 8.181592241039250535e-01 2.870191169060156144e-01 -4.982323860852024833e-01
3.225215643345658457e-03 8.586412590681397061e-02 -8.565338977518063279e-01 -7.903563195054099655e-01 -1.029904686980007283e-01 6.039286808682199359e-01
-1.421293888679478999e-02 1.162127178985648407e-01 -8.897038513302444329e-01 8.954106515081362572e-01 -1.343749782984218939e-02 -4.450384239791522201e-01
1.883728796205524220e-02 -2.068191253286403020e-01 -9.907781301482754266e-01 -8.012051309650982667e-01 -2.816263389866705547e-01 5.279743775072466283e-01
-1.579540985755303537e-02 -3.878710086869537749e-02 -9.269366163743225639e-01 9.059561684410770699e-01 2.142125130643044717e-01 -3.651799831730072055e-01
2.375242305238264504e-02 -1.959412089699621162e-01 -9.754446450600867680e-01 8.101229185987566250e-01 3.058888889768358599e-01 -5.001328267186119225e-01
-1.123533364250913109e-02 4.042800666471911553e-02 -8.868939545548385484e-01 -8.999638442524582338e-01 -6.795576906287444097e-02 4.306356841802710944e-01
7.758814011131266730e-02 -1.929429538675072331e-01 -8.953462071274366219e-01 7.540947665640511666e-01 4.091870482820408328e-01 -5.137188360951345789e-01
-1.980708560923096287e-02 -4.865610422638480537e-02 -9.443598862226737500e-01 9.050223789920921469e-01 2.501884973046287763e-01 -3.440061181722581241e-01
2.763109172622030610e-02 3.515208197899125780e-02 -8.333668496725489261e-01 -7.945894231511595462e-01 -1.040946056468215891e-01 5.981571379591988924e-01
-9.494424902873237551e-03 -1.444614017252139337e-01 -1.001703743246985967e+00 -9.081254582802188446e-01 -2.402430734244130894e-01 3.429160505064386411e-01
5.548305750245550311e-02 1.135189463669784016e-01 -7.913452122384784237e-01 -6.704833637518585743e-01 -1.501532188758373521e-01 7.265714485122695132e-01
-2.488197271043992437e-02 1.193102303767718669e-01 -9.141106527245730362e-01 9.259080201852439851e-01 -9.320299960356566438e-02 -3.660704017283278877e-01
-2.169044966485946316e-02 1.205468200704617743e-01 -9.063466159991984128e-01 9.286977746623621410e-01 -8.370490448000654504e-02 -3.612671204291486027e-01
3.832904941377161812e-03 1.766097384123996028e-01 -8.371910212325340828e-01 9.288167393491444379e-01 1.688825351247025819e-01 -3.298153332316079989e-01
-5.674915073508077917e-02 5.422582773998876893e-02 -9.897757498128709752e-01 9.373667735278927715e-01 8.425775580922545416e-02 -3.380002403429637758e-01
2.848890393084438019e-02 1.416595276289403516e-01 -8.099457985439680874e-01 7.807040698011777913e-01 2.440001699253032119e-01 -5.752956391911039358e-01
-1.181534711593783824e-03 7.258054565546508130e-02 -8.645662785630787717e-01 -7.903563195054099655e-01 -1.029904686980007283e-01 6.039286808682199359e-01
6.751638283257342665e-02 7.856716715455951128e-02 -7.858914850163892796e-01 -6.933604173877138122e-01 -9.633980707719629055e-02 7.141218195604052132e-01
4.153534153815673785e-02 1.314059139056103220e-01 -7.996057268114572514e-01 -6.815379392988266671e-01 -2.444569010066543480e-01 6.897440545931015077e-01
4.214910550300218772e-02 -1.215812941756723720e-01 -8.881712628408933163e-01 7.631863271480999744e-01 4.158790672312641656e-01 -4.945616559065682538e-01
5.004688583376277165e-03 9.013596861298825424e-02 -8.536271362174752131e-01 -7.786838342472616192e-01 -1.132823720368257431e-01 6.171050076507995641e-01
-4.561951348541307127e-02 6.265972343956515908e-03 -9.763112559896056641e-01 -9.395438500305572926e-01 -1.651307509112220073e-01 2.999819810809535303e-01
1.689678682959346034e-02 1.150937703860753225e-01 -8.329840468145022214e-01 7.821329559001882759e-01 1.300319596167854586e-01 -6.093929182170175762e-01
-3.235814351356644525e-02 -4.468504957821396034e-02 -9.764808854440486519e-01 -9.018557661372547107e-01 -2.888657137123551988e-01 3.212674532635341196e-01
3.939165860971646782e-02 -3.023450654138709962e-02 -8.376932057082708827e-01 7.573026040855878049e-01 2.481864761788221685e-01 -6.040664192678864008e-01
3.998415972837949042e-03 2.114356189209182224e-01 -8.322895398972102177e-01 -9.425320928340672477e-01 -3.528754322742676253e-02 3.322469612664734062e-01
-1.820867786353786572e-02 6.412887761398483599e-02 -8.974057783413542655e-01 8.907112401363109777e-01 4.009531070829024275e-03 -4.545518786183014304e-01
-2.326710347461628109e-02 5.938872677376533238e-02 -9.082151809421125099e-01 8.996872818181406162e-01 4.812219244491393322e-02 -4.338744628679824800e-01
6.299803459452800458e-02 -4.109730627159000060e-02 -8.124935193430554703e-01 7.537578502296856664e-01 2.408534325793612318e-01 -6.114235252522277619e-01
-8.734093761115922089e-03 -1.078362678624732347e-02 -9.004454955062716204e-01 -8.168359409901148060e-01 -2.567128339751945654e-01 5.166019419042263694e-01
-3.613042057022756298e-02 -1.207475350870158004e-01 -1.056739601074073054e+00 -9.409661896876256870e-01 -2.222961843133940407e-01 2.552783506379983636e-01
-5.098468574787730356e-02 -1.485444917330602799e-02 -1.005445338155090962e+00 9.378402132213106146e-01 2.044508771457763385e-01 -2.804560095618014448e-01
-3.858584639154562929e-02 -2.165425157746763557e-02 -9.741073784862177565e-01 9.046618500228897908e-01 2.469133049016080939e-01 -3.473049912911242987e-01
-9.954735008492624285e-03 -6.359220265155889062e-02 -9.327548820801553342e-01 8.165076303508279620e-01 3.598565503635675067e-01 -4.514626814469926419e-01
-8.646224042061763024e-03 2.417305085159024165e-03 -8.938979439611356437e-01 8.152854265288927982e-01 2.232656928510374783e-01 -5.342865370616662890e-01
-7.064144537426070292e-03 1.751287368461863503e-01 -8.772671228586873537e-01 -9.668009899556913034e-01 -2.058957404561189211e-02 2.546996569713343983e-01
-5.004870126806483521e-02 -8.802809803678562917e-02 -1.077241746420087853e+00 9.392140264758374046e-01 2.205913103702965838e-01 -2.630902625719172550e-01
-3.514625265456328834e-02 -1.717974283832976456e-01 -1.092778126235128155e+00 -9.608308617492168358e-01 -1.544128681290709293e-01 2.301319648949519125e-01
-1.892050176547340964e-02 3.971402694754307822e-02 -9.020617354636703000e-01 8.999492924650805969e-01 6.789349476512870907e-02 -4.306759156955238255e-01
6.927068563129984424e-02 9.130030959706417204e-02 -7.826778787073951360e-01 -6.756321829522489164e-01 -8.634566325479803295e-02 7.321649949268729252e-01
6.133133639526422431e-02 -6.545543040116834355e-02 -8.255196552983459224e-01 -7.627562816215418540e-01 -2.760152869685182364e-01 5.848234060009616098e-01
-1.416174791756782438e-02 1.587051685383132349e-01 -8.981748470238074544e-01 -9.431381252866352094e-01 8.527478409297341300e-02 3.212766531024433547e-01
-1.360168230701177400e-02 1.256041376435202972e-01 -8.887575769251384594e-01 8.954106515081362572e-01 -1.343749782984218939e-02 -4.450384239791522201e-01
-3.887347291885358963e-02 -7.256247888062410112e-02 -1.020716381635338399e+00 8.998358403408062145e-01 3.060454906173084577e-01 -3.108562659992012978e-01
5.074128402407865508e-03 -8.811971558495838852e-02 -9.260771722611460532e-01 -8.164580856917285079e-01 -3.596282424868152416e-01 4.517341270199122794e-01
1.464549439226508348e-02 -1.559362245306921135e-01 -9.648683842877867622e-01 8.159139240646676727e-01 3.343365105490206934e-01 -4.717028367853006721e-01
3.111176733565016936e-02 6.788924435001263309e-03 -8.349360921593986795e-01 7.387809510887037856e-01 1.783045025134873396e-01 -6.499309276314583217e-01
2.277813872343817728e-02 -5.497848003826064089e-02 -8.718820012331465197e-01 8.181592241039250535e-01 2.870191169060156144e-01 -4.982323860852024833e-01
-2.797848074833376650e-02 -8.648635412536002931e-02 -1.004282720068196078e+00 -8.998450295888089645e-01 -3.060289585011447544e-01 3.108459413970528495e-01
6.723770772189827105e-02 -6.494424879835687670e-02 -8.171507549949449389e-01 7.561888383914987521e-01 2.789149954950782551e-01 -5.919331600612489641e-01
5.749968324900679023e-02 -9.230672425315376850e-02 -8.451012395399084554e-01 -7.668657739192636935e-01 -3.503761076794898455e-01 5.377299210185156886e-01
-5.800956002920209555e-03 1.704988039302915981e-01 -8.713110710395620684e-01 9.680974367387413793e-01 1.918346609415564133e-02 -2.498386431449163836e-01
-3.732149689939334714e-02 -6.997617117619568672e-02 -1.015074794551220405e+00 -8.998450295888089645e-01 -3.060289585011447544e-01 3.108459413970528495e-01
6.334162414955793463e-02 1.105612931717426667e-01 -7.843847268658363792e-01 6.563698660468633150e-01 1.472819663276185576e-01 -7.399233888317714447e-01
2.695404583333266876e-03 -3.108206300615266524e-02 -8.924358655996704748e-01 -8.174575667063904705e-01 -2.522629479290824372e-01 5.178093584868816990e-01
-3.510666602448171691e-02 -2.654207767334752083e-02 -9.685197465748562884e-01 9.046618500228897908e-01 2.469133049016080939e-01 -3.473049912911242987e-01
-2.494675149493970692e-02 -3.535429810430187891e-03 -9.302044766521997410e-01 9.068440065028616770e-01 1.826956194633755914e-01 -3.798108193544928457e-01
3.013004581864420217e-02 -9.114940177047434200e-02 -8.835075021718606925e-01 -7.676344879565315527e-01 -3.528487971618614605e-01 5.350093636948245468e-01
-6.456927937244134191e-03 1.704478011167407381e-01 -8.753406218841512931e-01 -9.668009899556913034e-01 -2.058957404561189211e-02 2.546996569713343983e-01
4.774664162366296788e-02 -2.293465998881112078e-01 -9.677553010927042454e-01 7.143917521663587511e-01 4.595472060128174552e-01 -5.276938410503695387e-01
-1.937513550870685955e-02 -1.564546920272217589e-01 -1.032941917434424095e+00 9.119766311979499163e-01 2.191348996907369340e-01 -3.468119373469846223e-01
7.003845774937243751e-02 -1.113749601831421632e-01 -8.395227384271494175e-01 -7.726291609155484519e-01 -3.465488107203296142e-01 5.319286620321004300e-01
5.023810332333319972e-02 -3.718334749879727286e-02 -8.269181410499626406e-01 7.590991488408044274e-01 2.387469638800956140e-01 -6.056140433206633755e-01
2.570344098880707889e-02 1.382439579897799253e-01 -8.159446442052719073e-01 -7.835985387890849196e-01 -2.525959163377095584e-01 5.675990072728489544e-01
-1.114019331099834996e-02 1.222379096470691401e-01 -8.846741645759889083e-01 -8.954311496367178824e-01 1.345805812614234674e-02 4.449965583369597244e-01
-3.495218588117565695e-02 -5.712636778193513898e-02 -9.940403397311138312e-01 8.996018390705831091e-01 3.081029375186791763e-01 -3.094981599835213149e-01
-2.398078187924571406e-02 -1.228340692737509426e-01 -1.024741896429337995e+00 -9.057701995891418445e-01 -2.535916443819186128e-01 3.395167498606223022e-01
6.001233129331643573e-02 -1.472906923316684158e-01 -8.822827519677882702e-01 7.614518234264817664e-01 4.288188201303030356e-01 -4.861126825156291131e-01
5.617935818975330203e-02 7.075203925144656070e-02 -7.971140627309251103e-01 6.786028558658110388e-01 8.069056432098110909e-02 -7.300597214203278229e-01
-2.672754681577090702e-02 1.492752453119604306e-01 -9.282528198229920147e-01 -9.206840401526386053e-01 1.196701823033861495e-01 3.715103574272038411e-01
7.240910415508026998e-02 -1.315998234585129545e-01 -8.503761665042728346e-01 7.602032834861114363e-01 3.911908795509330128e-01 -5.187105778110778775e-01
5.825499964066132436e-02 4.090922278696952630e-02 -7.989976270207814757e-01 7.099913817851515319e-01 8.281680784441815268e-02 -6.993236833750675618e-01
-3.152810565638265033e-02 -5.955700999477147456e-02 -9.865124601788615166e-01 8.995913487200212222e-01 3.078386709069131366e-01 -3.097914750317671273e-01
-2.072066879705386153e-02 1.630578326861084892e-01 -9.170650466127021616e-01 -9.287816594892149835e-01 9.380855476253924241e-02 3.585590384439131251e-01
3.555459654058465424e-02 9.686988801426291151e-02 -8.131968812528095336e-01 7.691243769074616043e-01 1.080314765037038438e-01 -6.299022883996678868e-01
4.886377389254072806e-02 -1.784503398359695014e-01 -9.260918163145063220e-01 7.608250498260448191e-01 3.819206671564917555e-01 -5.246730863651541954e-01
3.956832583818362115e-02 -1.080229818072565434e-01 -8.821396052493514217e-01 -7.661641649136874399e-01 -3.886797102560404782e-01 5.117817457055224839e-01
-1.760585241020168681e-02 -7.775242246012088743e-02 -9.641648891738571203e-01 8.995913487200212222e-01 3.078386709069131366e-01 -3.097914750317671273e-01
-5.654951545735151242e-02 7.536736804764558421e-03 -1.009599321066393385e+00 -9.385712229549484364e-01 -1.600429127204794633e-01 3.057291702288111868e-01
7.788495855614464142e-03 1.384826311292115530e-01 -8.424589827962251087e-01 -9.235910385126334665e-01 -7.190087694554171682e-02 3.765764961778908515e-01
-1.255717337987714843e-02 -1.269087360141156473e-01 -9.971940911675850616e-01 -9.033401104495988321e-01 -2.872731194015844536e-01 3.185134215730780483e-01
-5.407413990071235910e-02 -2.078228980476020532e-02 -1.021807561405687181e+00 9.345977409688543958e-01 2.505571927706943258e-01 -2.524839712274491443e-01
5.254579784735272097e-03 -2.315890570623719003e-01 -1.021613934311565552e+00 -6.964280096211893367e-01 -2.905408241979629547e-01 6.561814207133854771e-01
-4.649190252156341907e-03 -1.524268996021910239e-01 -9.952595463244979790e-01 8.139842737474768386e-01 3.255191759631654302e-01 -4.811100374883635622e-01
-3.105737705778616534e-02 -1.222195969911323565e-01 -1.041884499574330158e+00 9.057580206763089503e-01 2.536203569428914228e-01 -3.395277934495132821e-01
2.380373125945229804e-02 -1.342403329901343256e-01 -9.315538717011707659e-01 -8.133252339950870491e-01 -3.861863351492881291e-01 4.351576476299117702e-01
3.455686820341049431e-02 4.184461369095304056e-02 -8.235932743754359464e-01 -7.181444198309746563e-01 -1.099459355655302284e-01 6.871539008972100682e-01
3.786418845233659267e-03 3.524559233473157499e-02 -8.648660544571709075e-01 8.061287903319538373e-01 1.571251225838902754e-01 -5.704980887355697305e-01
-1.370274811874287388e-02 -9.304704302702657137e-02 -9.694159747919398606e-01 -8.998450295888089645e-01 -3.060289585011447544e-01 3.108459413970528495e-01
-5.624883056616259563e-02 1.536860785650070137e-02 -1.004576412588052525e+00 -9.385712229549484364e-01 -1.600429127204794633e-01 3.057291702288111868e-01
-3.419292614870145242e-02 1.405649681190273281e-01 -9.435340483784867560e-01 -9.115102573938511643e-01 1.208127247890635331e-01 3.931327208397148998e-01
-2.236558115521733447e-02 -9.171465813121129629e-02 -9.931406074605285683e-01 -9.008726135660182210e-01 -3.015558787908598215e-01 3.122380279424720184e-01
3.375024578247081547e-02 -7.056837375229550735e-02 -8.645758218430517061e-01 7.643856186608518621e-01 3.180887822227544404e-01 -5.608334446237240867e-01
4.580720645265162067e-02 -4.669357762111175231e-02 -8.362700748297686726e-01 7.614885983718520102e-01 2.766041503692303061e-01 -5.861955804577412277e-01
4.743508455895571047e-02 -4.026685283271714405e-02 -8.322597125015713804e-01 -7.603785599491557079e-01 -2.382318060391156178e-01 6.042102714792172424e-01
-1.200406266956636006e-02 3.930243802630312144e-02 -8.886781012037583416e-01 -8.999638442524582338e-01 -6.795576906287444097e-02 4.306356841802710944e-01
-3.812403286838362410e-02 -1.561721671439628145e-01 -1.090245690235762677e+00 9.554366812278473065e-01 2.021935724147594649e-01 -2.150779101592588116e-01
-6.608522465738636553e-02 1.356622896924532945e-02 -1.036568805843363972e+00 -9.353721109026145175e-01 -2.033977619552870819e-01 2.893239785727540481e-01
3.068365043957203483e-02 -1.103030323356527648e-01 -8.975387172678470638e-01 -8.143077258773304683e-01 -3.814813371526130648e-01 4.374641893695351835e-01
5.954865067033632969e-02 -3.070908777436592851e-02 -8.129105706908804629e-01 7.484307830638595727e-01 2.007403783675808517e-01 -6.321033645340438101e-01
-3.106643844391661358e-02 1.383303214123623170e-01 -9.345695724182648823e-01 9.286977746623621410e-01 -8.370490448000654504e-02 -3.612671204291486027e-01
7.405841301828629264e-02 -1.547001582993935420e-01 -8.673743866436181005e-01 -7.670901075321440166e-01 -4.296821496890989023e-01 4.763885149380472916e-01
-7.814730790342743275e-03 -1.587404579183865072e-01 -1.006128913721876961e+00 -9.087715395421009923e-01 -2.011788617701492088e-01 3.655972572314332703e-01
5.938817139370840270e-02 7.488522470745866133e-02 -7.941446423492759532e-01 -6.806209392889484011e-01 -8.039901509773307586e-02 7.282109140714275730e-01
-2.780174517673335635e-02 -1.435058459948340137e-01 -1.048168585470401037e+00 -9.119964268279407982e-01 -2.191564879401917409e-01 3.467462346540891582e-01
-3.700873784897162205e-02 -1.288028546013680609e-01 -1.066058049668581420e+00 -9.473857177023282672e-01 -1.898955107765468997e-01 2.576819684816122891e-01
-5.079542896202693392e-02 3.732945950662846374e-02 -9.786336494676420861e-01 -9.367222042649496760e-01 -8.534698953956225409e-02 3.395105350553168089e-01
3.688025342415490737e-02 1.080507398265546926e-01 -8.103472412128283064e-01 -7.690723219914807895e-01 -1.080617753658686259e-01 6.299606465894581619e-01
-9.878718520108117906e-03 9.853441006552465797e-02 -8.803245535934789423e-01 8.928987143907328727e-01 -2.295915878459669698e-02 -4.496718390863274628e-01
2.633397917626101661e-02 1.578490220312977477e-01 -8.043263832802020064e-01 7.842972759547889305e-01 2.759833954749855711e-01 -5.556176278269033819e-01
1.824688371380552704e-02 -1.084575394498769330e-01 -9.180868349244466486e-01 8.143208080634617430e-01 3.814620682419518349e-01 -4.374566401912800551e-01
6.878415280375126117e-02 7.706784579654946121e-02 -7.846668710691336868e-01 6.738403259386869237e-01 9.678058183696403027e-02 -7.325112518713570164e-01
-3.797474254734421739e-02 -1.197467380590655078e-01 -1.062666352241955936e+00 -9.409661896876256870e-01 -2.222961843133940407e-01 2.552783506379983636e-01
-1.794417177374016750e-02 -1.629922643274830940e-01 -1.034174525242451903e+00 -9.121503694225578940e-01 -1.919968919950231778e-01 3.621034341545829038e-01
-2.499153448207616646e-02 -5.520741440539495698e-02 -9.652807499675789549e-01 -9.013215342631106797e-01 -2.914639327325364571e-01 3.204188942457594780e-01
2.548734367015341104e-02 -1.173141513259953750e-01 -9.123317600502303115e-01 8.143208080634617430e-01 3.814620682419518349e-01 -4.374566401912800551e-01
