-6.814191105728401553e-03 -1.542238276407993103e-01 -1.000378315146603470e+00 -6.654177581870686087e-01 -3.038517213491901958e-01 6.818308723741027810e-01
8.974226576516529039e-03 -8.645096080350557488e-02 -9.644208941024114967e-01 -7.842583710789090556e-01 -1.486536437189949211e-01 6.023627657829805360e-01
8.117638955516634502e-02 -1.125070422775276829e-01 -8.703276559210506580e-01 -8.332334345738142689e-01 -1.188942907982789149e-01 5.399872138522350262e-01
7.164729740149770876e-02 -1.289604966480605366e-02 -8.399755782530601289e-01 8.365985366750401386e-01 3.430984323742582998e-01 -4.270671541286074624e-01
-7.455531633271980652e-02 -1.085642019482951914e-01 -1.043435535657674551e+00 5.991259098109449344e-01 2.167813636321555826e-01 -7.707489763697323859e-01
-7.392393727621963950e-02 1.295290857887643754e-01 -9.166993954384837773e-01 5.124334156039248578e-01 5.965694044830315290e-01 -6.176705757985047063e-01
-6.837160305555277373e-02 1.767409882210187883e-02 -9.956880008474658927e-01 6.025189876752472529e-01 3.667093394586050659e-01 -7.088689087868285110e-01
-8.685324322297303945e-02 -5.598621968467590304e-02 -1.039449982153530794e+00 -6.037576843344530930e-01 -2.179202654161788155e-01 7.668033754020916470e-01
7.326905278758849560e-02 2.441316638422710329e-03 -8.236627215746450403e-01 8.383596929321945890e-01 3.575590458243844694e-01 -4.114663461521395060e-01
1.383776219385789152e-02 1.497769755474921693e-01 -7.980929676788750537e-01 -8.938622206040409690e-01 -2.286375966199383492e-01 3.856620022619172694e-01
4.873404048097928348e-02 -3.238964669651585911e-03 -8.755600130091427680e-01 -7.902470299021610023e-01 -3.219787887363727008e-01 5.213820972517863028e-01
4.201014406725581130e-02 1.588742554004573398e-02 -8.719063708701849658e-01 7.866304072121562685e-01 3.633260112769075012e-01 -4.992061818315648991e-01
6.383394262094423122e-03 1.074386554565901902e-01 -8.476427223357785312e-01 7.980740754721091790e-01 4.247043150512085363e-01 -4.274389018751357794e-01
4.105843184677394897e-02 -1.992740482565677484e-01 -9.582828519349918528e-01 -7.982980522353390063e-01 -2.607899390771657444e-01 5.428709123478550058e-01
9.598014317882014312e-02 -1.270459540005239862e-01 -8.503964721590214770e-01 8.281921295484850898e-01 1.217215703101863777e-01 -5.470664090173765759e-01
2.206596261412854809e-02 8.021362319038193023e-02 -8.480266207576110382e-01 -7.848107952763654360e-01 -4.571872144716815356e-01 4.183920010484226681e-01
-1.593669150343533791e-02 5.651109494090804375e-03 -9.537796179564836940e-01 -6.683625594368698408e-01 -3.358270251166371456e-01 6.637105531361590094e-01
3.874277502573377635e-02 -2.165254953496806023e-01 -9.705008876268959028e-01 -8.047727049520604359e-01 -3.160112370821092642e-01 5.024716821891348495e-01
-2.747610787689209588e-03 -1.987890293817666520e-01 -1.016179292275048107e+00 6.468719288948714397e-01 3.633244328049036742e-01 -6.704864384421382884e-01
2.043625809647438632e-02 -6.356387448829811659e-02 -9.433761095205559499e-01 -7.855598509748759062e-01 -1.670883761553099423e-01 5.957996266280402020e-01
7.283950151905550612e-03 8.642106298422759514e-02 -8.687506083240824628e-01 -7.843517140718717640e-01 -4.392170285443331434e-01 4.380419962391766675e-01
3.370469323711483556e-02 -1.146049628750926141e-01 -9.391953695487583742e-01 -7.844750135947807790e-01 -1.505969488828654557e-01 6.015974667771135653e-01
-7.219213650615938227e-02 1.164711271828417355e-01 -9.280149986805648066e-01 -5.381075282656574421e-01 -5.530852158466708079e-01 6.360322570716568924e-01
-9.141481274655237702e-03 8.078508529629274681e-02 -8.959300954335229772e-01 6.447260245622090657e-01 4.774689003370893303e-01 -5.969520939431407491e-01
-4.862626898154116112e-02 1.556065895947658304e-02 -9.805842421400939868e-01 -6.009714239787538048e-01 -3.672859950184257927e-01 7.098833322626149078e-01
3.794249202059966214e-02 -1.693411524370268817e-01 -9.492661416381369399e-01 7.901127628882101961e-01 2.053471136427055532e-01 -5.775416736823141273e-01
-2.408182884085734859e-02 -1.564744982350125824e-01 -1.018192246843980131e+00 -6.598552616934481030e-01 -2.836826612241962753e-01 6.957838610777262733e-01
-2.695683195976372390e-02 -1.867440854111472870e-01 -1.033650197861951892e+00 -6.469206493389245693e-01 -3.633081256679038806e-01 6.704482674170905154e-01
-3.117224548644167981e-02 -3.426121489215339794e-02 -9.863093833031834068e-01 -6.711656389580343829e-01 -2.634280172372150397e-01 6.929230583668888332e-01
-2.786727288408874167e-02 -1.482728503663247044e-01 -1.017638341848885464e+00 6.654029066264746106e-01 3.038595106366056564e-01 -6.818418949057926115e-01
1.190333747493824493e-02 9.276865124720798383e-02 -8.534359770834977210e-01 -7.871753070623626058e-01 -4.480460638855708333e-01 4.238039176174778211e-01
2.140332434698450498e-02 -3.497709000082754177e-02 -9.318302493609618153e-01 -7.893695492580782291e-01 -2.493392685035425438e-01 5.610041389207539586e-01
-1.665369534227216508e-02 -6.718395242607633211e-02 -9.824527980372149694e-01 6.689054294751426433e-01 1.996470983698688251e-01 -7.160353081595675073e-01
5.968407705883686798e-02 -6.600887330802102104e-02 -8.897953379793503981e-01 8.370579389302256201e-01 1.913354326688012363e-01 -5.125668337683634279e-01
-7.556605016762581173e-02 3.193471934272233692e-02 -9.942821314954033429e-01 6.002286092644443238e-01 3.733579210991166408e-01 -7.073397199175349703e-01
-5.045472898042840937e-02 -1.478520474323025136e-01 -1.037561213522366410e+00 5.822910961055596246e-01 2.803161399283887745e-01 -7.631251149659757926e-01
-6.977877408943516935e-02 -6.402070085969353841e-02 -1.027811827505318965e+00 6.046545247816291768e-01 2.197838215386041794e-01 -7.655638297692681782e-01
5.139595878571459608e-02 -5.185649670351994561e-02 -8.963578314240893130e-01 7.893774408844035362e-01 2.493471501547008529e-01 -5.609895315712398745e-01
-9.220370025471383291e-02 6.249082864606315783e-03 -1.021527313023237182e+00 -5.974913631924093638e-01 -3.362388110944959374e-01 7.279749534319407411e-01
-1.209197235318856985e-02 -1.574884488488776380e-01 -1.006983897736068778e+00 -6.654177581870686087e-01 -3.038517213491901958e-01 6.818308723741027810e-01
-9.450125966157456314e-02 -6.533078548218017312e-02 -1.048003483493117338e+00 -5.958040073129391434e-01 -1.973596756998895196e-01 7.785028858504492444e-01
6.786988077997255231e-02 -3.380851093839334215e-02 -8.613296037665818528e-01 -8.416778411113579050e-01 -2.649296904239303863e-01 4.705217007896705383e-01
3.763968198275872978e-02 -1.269671431883483970e-01 -9.371927127931301005e-01 -7.856803026197000106e-01 -1.545129639368018060e-01 5.990260478901406893e-01
9.505397968433199063e-02 -7.318111294412893431e-02 -8.338276282277281570e-01 8.356119208293320000e-01 2.411189816296941124e-01 -4.935730487635781039e-01
-9.430297686074246011e-02 -6.846821643383134426e-02 -1.048297215063496823e+00 6.081573548301588694e-01 1.973783972418514943e-01 -7.688864676063834613e-01
3.180451947271893676e-02 -1.438348716060481869e-01 -9.490583516262430797e-01 7.883484889839015297e-01 1.682552497365522592e-01 -5.917743073612520277e-01
-4.604879385266658076e-02 -1.499518940015437674e-01 -1.035519515375111332e+00 -5.804780474770544485e-01 -2.802266727865030949e-01 7.645379312082775103e-01
8.567876546326888554e-03 -7.707432444312359299e-02 -9.616489883208093614e-01 6.689054294751426433e-01 1.996470983698688251e-01 -7.160353081595675073e-01
1.284872300423269172e-02 9.741532000944849723e-02 -8.457493686403194655e-01 7.872056476003834735e-01 4.480270251748174060e-01 -4.237676876533468251e-01
8.122323899779227557e-03 8.375802500828018193e-02 -8.699196098009159828e-01 -7.843517140718717640e-01 -4.392170285443331434e-01 4.380419962391766675e-01
-3.062290733304911042e-02 7.944691636182325822e-02 -9.203833367071844185e-01 6.465861045606641211e-01 4.898699703450002385e-01 -5.847681776082332972e-01
5.281306737293299525e-02 -5.963153595846897026e-02 -8.974538997308136867e-01 7.882191375032244762e-01 2.153594381253502166e-01 -5.764814859854617835e-01
3.525686151174592387e-02 8.836500865475623023e-02 -8.071503763367204876e-01 8.416142533795770708e-01 4.544734844361947856e-01 -2.917863952496086988e-01
8.389723923198789957e-03 7.341357119704007561e-02 -8.796922183859768873e-01 -7.876814241872374112e-01 -4.240602700505340938e-01 4.469125880471859213e-01
-5.240273561742510994e-02 1.070349776544436415e-01 -9.194779618572772595e-01 -5.381075282656574421e-01 -5.530852158466708079e-01 6.360322570716568924e-01
-3.398153507584483236e-03 -2.237969887530112667e-01 -1.031640370867339174e+00 5.880648905160313911e-01 4.932271942618455807e-01 -6.410199836065608725e-01
4.841089442026485362e-02 -2.008962853342181887e-01 -9.465983369303900830e-01 8.533807441788421322e-01 1.823433237253406225e-01 -4.883566501621138811e-01
-1.297538944385701574e-02 -3.443201636161290213e-02 -9.681270209423697981e-01 6.707436547675553751e-01 2.618935155792402325e-01 -6.939126285683298034e-01
-5.015202495561532636e-02 -1.022876982760488052e-01 -1.023251280774516880e+00 -5.975468850487262173e-01 -2.169332665339194499e-01 7.719311355551659037e-01
-2.632008006437432795e-02 1.604337658896736463e-01 -8.512039108131799203e-01 6.228205607739668581e-01 3.868131230275368426e-01 -6.800515840220395791e-01
-7.917611359952984873e-02 1.011259767974071883e-01 -9.484505531627658304e-01 -5.520298523343627473e-01 -5.507361300335293919e-01 6.260613046718294106e-01
-2.495302198568265586e-02 -1.338574526698076660e-02 -9.712642125280830374e-01 6.700670302860849414e-01 3.032073664172932892e-01 -6.775510813760660112e-01
2.711212548490158497e-02 -2.331230837767846731e-01 -9.997830193685571798e-01 -8.092354813032894834e-01 -3.416580693193286833e-01 4.779201810646020454e-01
6.057632828474723841e-02 -1.569321141368880679e-01 -9.119820943343680542e-01 8.384628617425761155e-01 1.406043398145306877e-01 -5.265077863657571244e-01
7.740824913522509343e-02 -9.942821853884124816e-02 -8.728312599032244101e-01 -8.352045480586621773e-01 -1.438851580031259847e-01 5.307828409138160008e-01
2.409013431167312050e-02 -3.951626292676522351e-02 -9.300671751781106611e-01 -7.893695492580782291e-01 -2.493392685035425438e-01 5.610041389207539586e-01
7.529199191854632316e-03 1.071206887364832411e-01 -8.458193146662882356e-01 7.980740754721091790e-01 4.247043150512085363e-01 -4.274389018751357794e-01
-4.273869618484958666e-02 -1.814632244486384747e-03 -9.835824483035190413e-01 6.036764011835816790e-01 3.287146618458364200e-01 -7.263067352996368520e-01
-9.868426445799306779e-02 -6.403625367078825958e-02 -1.050876642581529019e+00 -5.958040073129391434e-01 -1.973596756998895196e-01 7.785028858504492444e-01
2.066317472824580077e-03 -2.138447783015353376e-01 -1.020040256858014249e+00 -6.276622591463476564e-01 -4.282036366715576969e-01 6.501397803430858380e-01
7.434315511086757311e-02 -5.992938240841109987e-02 -8.633637666809591549e-01 -8.395070657234563472e-01 -2.370915839297874916e-01 4.888920815783958096e-01
-3.674038974000257141e-02 -1.254935780142974466e-01 -1.018234324263625146e+00 -6.681569326960523636e-01 -2.535779392263305398e-01 6.994744756086029858e-01
7.717137672535157034e-02 -1.556578907574436010e-01 -8.855848757473737676e-01 8.349535601827715592e-01 1.317034057513299661e-01 -5.343283309460724606e-01
2.796951907562132689e-02 4.317101958249990913e-04 -9.038252715173563656e-01 7.891660988805908605e-01 3.147380257364423839e-01 -5.274057674439253107e-01
-4.466492439077933592e-03 -2.765276226074844107e-02 -9.579539738310893782e-01 -6.708690839772207815e-01 -2.996437434267835154e-01 6.783423171148537101e-01
4.177378189910597311e-02 8.739849591304095500e-02 -7.899224377077079806e-01 8.373177496304560208e-01 4.555286510783633225e-01 -3.023121469615727697e-01
-2.982024631930116007e-02 -4.530426757610969690e-02 -9.881544536385999944e-01 6.700333542701717437e-01 2.222055988465128085e-01 -7.082937074453824478e-01
6.534204927165465637e-02 -2.021823480261643047e-01 -9.185197472293825660e-01 -8.452611375967427065e-01 -1.590271403481168522e-01 5.101411352766612728e-01
-5.430881982061022684e-02 -9.255830608514621638e-02 -1.023862718262645410e+00 -6.003469638038902989e-01 -1.984909466276872092e-01 7.747159912886111277e-01
-5.794670906431705765e-03 2.582235674589023616e-02 -9.322985794917607594e-01 -6.653075947824165226e-01 -3.752853185550688586e-01 6.453888238897976803e-01
6.644868438009007838e-02 -1.503875233838446457e-01 -9.017571811931772707e-01 -8.359940333348266917e-01 -1.309747237154102739e-01 5.328785959073986112e-01
-7.793734376419751697e-02 -9.689744641645655146e-03 -1.016718818634762656e+00 -6.041899276129408802e-01 -2.924195116376396841e-01 7.412458165714486125e-01
2.166878615176851333e-02 1.548722565769465945e-02 -9.050178728952343876e-01 -7.902470299021610023e-01 -3.219787887363727008e-01 5.213820972517863028e-01
2.715374799724217317e-02 -2.251678954852357473e-01 -9.940254958414279640e-01 -8.092354813032894834e-01 -3.416580693193286833e-01 4.779201810646020454e-01
-3.389366794045279175e-03 -8.409201930909694644e-02 -9.747758932402417198e-01 6.689054294751426433e-01 1.996470983698688251e-01 -7.160353081595675073e-01
1.188130159599005801e-03 9.503508988806920466e-02 -8.709930331037052387e-01 -7.848107952763654360e-01 -4.571872144716815356e-01 4.183920010484226681e-01
2.708371624896049185e-02 6.265867149589222918e-02 -8.569491023961606224e-01 -7.876814241872374112e-01 -4.240602700505340938e-01 4.469125880471859213e-01
-2.355796335952902235e-02 1.392385042620412072e-01 -8.630110304539456711e-01 -6.151214063797713072e-01 -5.103251692219686886e-01 6.009940740738972664e-01
-5.244986721159122789e-02 -6.578668426448458506e-02 -1.014632172224621876e+00 6.046545247816291768e-01 2.197838215386041794e-01 -7.655638297692681782e-01
1.568550497298284302e-02 1.103990112938722963e-02 -9.158754363225497519e-01 7.891660988805908605e-01 3.147380257364423839e-01 -5.274057674439253107e-01
-3.961519799977615552e-02 -1.755667770318773968e-01 -1.039737009400271361e+00 -5.800966431923316735e-01 -2.653874749829654434e-01 7.701021832712554582e-01
5.108391410310893221e-02 -8.054284860124741319e-02 -9.069543565947937314e-01 7.861950356966075359e-01 1.693509917775294082e-01 -5.943211315694379993e-01
-3.649228186024091550e-03 1.478668131611762110e-02 -9.364276301235567868e-01 -6.668583118209955307e-01 -3.697523389459128063e-01 6.469800613614600238e-01
8.978200298594567891e-03 1.047641825169398494e-01 -8.464633345932286446e-01 -7.980524619186456503e-01 -4.246925146542193663e-01 4.274909777086112750e-01
-8.081148955601774597e-02 1.433895028239322300e-01 -9.097190249061375411e-01 -5.032700302216289723e-01 -5.895396494147490118e-01 6.317929078809410015e-01
3.088467262784453608e-03 1.808198042156572150e-01 -7.998992642830206057e-01 8.674398851185542991e-01 3.665450686791644208e-01 -3.364413148418252675e-01
-7.821096384546609437e-03 2.082672978137504738e-01 -7.984155156300372091e-01 -8.355577398908725639e-01 -3.960350010585146352e-01 3.807880529179442086e-01
4.786642417850751202e-02 -2.168999862228259690e-01 -9.552954805267460658e-01 -8.550370719051917368e-01 -2.042340860589497709e-01 4.766550574151721675e-01
-1.786200956814895310e-02 -1.614848546910520877e-01 -1.013714674099125856e+00 6.598279910979496510e-01 2.836668558263497064e-01 -6.958161661453667879e-01
8.313420101016388841e-02 -5.846176498638808866e-02 -8.475563826427506831e-01 -8.395070657234563472e-01 -2.370915839297874916e-01 4.888920815783958096e-01
7.523884289746970988e-02 -2.280671540086617877e-01 -9.092068317837288527e-01 8.463243543673808489e-01 1.432827274595008804e-01 -5.130352299953702122e-01
8.957324009531345346e-03 6.266219201739375855e-02 -8.879280636953095218e-01 7.877169209986059073e-01 4.240274415864471180e-01 -4.468811711787910035e-01
-7.785522814000409020e-02 7.631120963891371844e-02 -9.678684676214504012e-01 -5.794327270580608147e-01 -4.974931051523421854e-01 6.455682188118769815e-01
1.861391128969321985e-03 -1.291050749964969269e-01 -9.831186136596435921e-01 -6.684591678030469275e-01 -2.140682902898260187e-01 7.122760055431101023e-01
2.754614536048283213e-02 -1.081609929206918813e-01 -9.456129243567972242e-01 -7.844750135947807790e-01 -1.505969488828654557e-01 6.015974667771135653e-01
3.195270061816356255e-02 -2.052425672229087616e-01 -9.745947942971469047e-01 -8.062473029855820039e-01 -2.935794978422444079e-01 5.135916324037717029e-01
4.763048725047925973e-03 1.069130548425094168e-01 -8.521974956090969666e-01 -7.980524619186456503e-01 -4.246925146542193663e-01 4.274909777086112750e-01
6.140184273093305528e-02 -1.901269480619294239e-02 -8.631317426219505817e-01 8.412363969875824576e-01 2.967625235513594584e-01 -4.519439445315970860e-01
-6.489862245493814574e-02 -3.082088981599713159e-02 -1.014201981017459619e+00 -6.046451434993533880e-01 -2.487997936733971072e-01 7.566392225563788321e-01
-9.714832295724964983e-03 -1.762093480533588954e-02 -9.587131401205652992e-01 -6.708690839772207815e-01 -2.996437434267835154e-01 6.783423171148537101e-01
3.219278207121012425e-02 7.756693348404035404e-02 -8.297792120559946971e-01 8.396493115904335447e-01 4.363496192297890985e-01 -3.234007472838137387e-01
-6.613139406350452068e-03 -2.032315070094630957e-02 -9.562003522274952205e-01 6.708515194180304508e-01 2.996658637343263543e-01 -6.783499163461877979e-01
5.691187370225729569e-02 -2.161708159062161183e-01 -9.379615668827429031e-01 8.538843870221464183e-01 2.054907609286198977e-01 -4.781788376463246282e-01
9.562947063336119796e-03 1.006679554103435820e-01 -8.494411246792731296e-01 -7.980524619186456503e-01 -4.246925146542193663e-01 4.274909777086112750e-01
3.615813774091333754e-02 2.710897905693136420e-02 -8.739569372638822387e-01 -7.859328052937570863e-01 -3.884008081052678918e-01 4.810971189128656622e-01
8.135198031484325298e-02 -1.270395312250797160e-01 -8.726281016519625844e-01 8.322116317867996882e-01 1.195403997114039274e-01 -5.414184082164088530e-01
5.238471342369272442e-03 6.632876917391979099e-02 -8.919688163757412136e-01 -7.876814241872374112e-01 -4.240602700505340938e-01 4.469125880471859213e-01
-3.080224098775919198e-02 -9.688727522239656831e-02 -1.003673755547746183e+00 6.673904431656013658e-01 1.932375996954492359e-01 -7.192004076995254236e-01
-5.853258061923885536e-02 -1.418466289500291966e-01 -1.041693129088974157e+00 5.936928033706204699e-01 2.494764946824186425e-01 -7.650427006559220588e-01
-8.307022607816990159e-03 1.619421255658671233e-01 -8.324623158286179603e-01 -8.233225961750804123e-01 -2.505172443156362116e-01 5.092946229129314828e-01
4.129930049872785475e-02 5.150750755935797759e-02 -8.423469124474530778e-01 -8.304248727843002165e-01 -4.265132287464198924e-01 3.584424589323687571e-01
-1.868108917843576411e-02 -8.898934414958623029e-02 -9.903319879034191420e-01 6.679457911631692113e-01 1.900955788022637705e-01 -7.195221268225460154e-01
-4.263702301755169233e-02 5.350538713703337224e-02 -9.524955591787374054e-01 5.930515752579286204e-01 4.379772429550152224e-01 -6.756225009112802882e-01
-1.769481316754107150e-02 1.048371922789353011e-01 -8.846873825713741368e-01 6.307337286204900417e-01 5.170200921946868089e-01 -5.786753734586357334e-01
-8.703752797319960766e-02 -3.148210641572140602e-04 -1.019875202870807351e+00 6.114518369864631042e-01 3.307398872218258457e-01 -7.188447523953790386e-01
8.258777787066734488e-02 -4.566721599596094278e-02 -8.409644884860980607e-01 8.406280586917913578e-01 2.654500081368894593e-01 -4.721024890002122332e-01
-3.720664485101132790e-02 5.460521291902640378e-02 -9.468931976295011932e-01 -6.627561377045416702e-01 -4.091495078236604965e-01 6.271769943027365457e-01
4.473888509203918090e-02 -2.202534087436483490e-01 -9.610086798130539343e-01 8.672041476501216595e-01 1.453996650799093682e-01 -4.762519330071808832e-01
5.840077323834928780e-02 1.673679291854967242e-03 -8.551774430178185060e-01 -8.376428233485759822e-01 -3.426255323509422301e-01 4.253965738858974110e-01
7.581488403821751154e-02 -2.202623493893919038e-01 -9.063180071085760181e-01 -8.559432607408969940e-01 -1.240023912369097592e-01 5.019806185100865736e-01
5.838258183987056482e-02 -1.885547969000842816e-01 -9.258028628536776328e-01 -8.452611375967427065e-01 -1.590271403481168522e-01 5.101411352766612728e-01
-3.407625276069903286e-02 -1.574439099825383770e-01 -1.028065828138063909e+00 -6.598552616934481030e-01 -2.836826612241962753e-01 6.957838610777262733e-01
4.347873936992174143e-02 2.652555254578548710e-02 -8.623670406216739082e-01 -7.871125986323034285e-01 -4.027480982961337275e-01 4.671699116950386310e-01
9.523201427700098143e-02 -5.502084073487240740e-02 -8.240651274124901615e-01 8.346974419749917384e-01 2.706358754504899489e-01 -4.796211038721630016e-01
-8.039483698600992378e-02 3.413858359326818817e-03 -1.012593251752456069e+00 6.052789323882145078e-01 3.332025248175937704e-01 -7.229201141634972183e-01
4.924031234926865702e-02 -3.101769599603945368e-02 -8.896960038673680238e-01 7.896277786417679190e-01 2.850221338011122429e-01 -5.433694456267558204e-01
3.026484438245342565e-02 -1.608060681666093616e-01 -9.574851960789980687e-01 -7.900957274002324837e-01 -2.053375534773126954e-01 5.775683774894962985e-01
7.097033011493575350e-02 -2.035103921075877009e-01 -9.089459820914522759e-01 8.442129770628511443e-01 1.604317396155815756e-01 -5.114353392977417645e-01
5.616921605287666930e-02 -1.169973528823746584e-01 -9.091645872954863261e-01 8.330801911719682984e-01 1.266773885104071073e-01 -5.384517010067476628e-01
6.975878502597916697e-02 1.659343167977128664e-02 -8.172366767010765809e-01 -8.308520641801856454e-01 -4.047106621497927881e-01 3.819608977235770531e-01
-2.062271186632205419e-02 -8.818732582488060523e-02 -9.919225415807737534e-01 6.679457911631692113e-01 1.900955788022637705e-01 -7.195221268225460154e-01
-1.767353268301938632e-02 2.003606011669615827e-01 -8.225741602775452632e-01 -6.596854198593511409e-01 -4.218793155241785664e-01 6.219589937912642919e-01
-9.159561282349423794e-02 5.784340750565540590e-02 -9.929298597957959549e-01 -5.828568371499954770e-01 -4.600726547300276748e-01 6.697843382441606153e-01
-5.834209540715208642e-02 1.149236283331657865e-01 -9.170092582538114101e-01 5.388511631149310865e-01 5.582487148273700406e-01 -6.308706653532683006e-01
5.118665803746072496e-02 -1.099183393566828537e-01 -9.145219679000297086e-01 7.843090207794762847e-01 1.482367257513166336e-01 -6.023995626346915211e-01
-1.621795295390771746e-02 6.150645482007994352e-02 -9.189101692878418604e-01 6.530997751214351332e-01 4.495026075030550405e-01 -6.094325964241539273e-01
8.398905620707362851e-02 -1.826153712991181177e-01 -8.820593896075322737e-01 -8.440801350035191941e-01 -1.406695768871835672e-01 5.174367553922134544e-01
-9.960209839918249264e-02 1.219684655631900726e-03 -1.029841650760008998e+00 6.118681639897433078e-01 2.894058165243820757e-01 -7.361125072009551129e-01
6.744172822902252951e-02 -2.921201664275167170e-02 -8.586813226477117977e-01 8.406280586917913578e-01 2.654500081368894593e-01 -4.721024890002122332e-01
-3.071086103605336071e-02 6.016255749203439779e-02 -9.361439487853996377e-01 -6.531244117070604815e-01 -4.495180993169212713e-01 6.093947663204931642e-01
2.710046779821992380e-03 -1.552862636631369420e-01 -9.910566871321723204e-01 6.653341599466079392e-01 2.661451674179377558e-01 -6.974935164345397176e-01
-1.907062395105050406e-02 -1.856297392660908874e-01 -1.025042160278008652e+00 6.482795260668052784e-01 3.284658067015903127e-01 -6.869089240288496212e-01
1.355797979348901706e-02 -2.102051014510554205e-01 -1.006862579112406175e+00 -8.047727049520604359e-01 -3.160112370821092642e-01 5.024716821891348495e-01
-2.236099395019912686e-02 1.571947679033561251e-01 -8.493742839519146104e-01 6.263708936123544291e-01 3.756660236163681943e-01 -6.830333391098321050e-01
3.869708125799012355e-02 9.881679626820143170e-02 -7.823431374729851173e-01 8.489208066514143392e-01 4.402339326993529589e-01 -2.924509335501830343e-01
-8.076274873939233434e-02 -5.087539758854351529e-02 -1.033202051188137904e+00 -6.037576843344530930e-01 -2.179202654161788155e-01 7.668033754020916470e-01
-3.968483057527610186e-02 1.258421762430560753e-01 -8.899682941467275121e-01 6.264038029832613708e-01 4.979206861976956389e-01 -5.997443337494097193e-01
3.353331694692541359e-02 -1.580304978522314441e-01 -9.512766203274374277e-01 7.901127628882101961e-01 2.053471136427055532e-01 -5.775416736823141273e-01
-3.952787185476944881e-02 -3.748137436315984033e-02 -9.948835014592037895e-01 6.700333542701717437e-01 2.222055988465128085e-01 -7.082937074453824478e-01
-5.838214557112404723e-02 -9.940955208878961280e-02 -1.028827476442568445e+00 -6.007515003611875182e-01 -2.060670812907895166e-01 7.724208650872120829e-01
8.316769856833899910e-02 -1.628073810324815185e-01 -8.780084433996518944e-01 8.307029418275138077e-01 1.346807521584514611e-01 -5.401793382175477110e-01
8.465428362457630418e-02 -1.147681940984059540e-01 -8.654589117897734107e-01 -8.332334345738142689e-01 -1.188942907982789149e-01 5.399872138522350262e-01
7.114349599387889689e-02 -4.076843157844895621e-02 -8.585518845764210649e-01 8.393726186149716995e-01 2.592561215944625963e-01 -4.777445662016914785e-01
3.714652256701662242e-02 8.784379917685990191e-02 -8.025117440609642605e-01 8.416142533795770708e-01 4.544734844361947856e-01 -2.917863952496086988e-01
-1.993346055350274718e-02 1.625070155355733403e-01 -8.448046385814641512e-01 -6.229361341569412680e-01 -3.866534884164645192e-01 6.800365083265633714e-01
-1.684214558328893385e-02 6.400680957000473570e-02 -9.184443259715550090e-01 -6.531244117070604815e-01 -4.495180993169212713e-01 6.093947663204931642e-01
2.181176947145388109e-03 1.302023915402256982e-01 -8.339466744711637736e-01 8.150609609961039226e-01 3.579330400545118196e-01 -4.555870594051623090e-01
9.050823654506295890e-02 -1.659700347700522327e-01 -8.674995372146305783e-01 8.330101436635370948e-01 1.295023483077445137e-01 -5.378877599801215048e-01
-2.960175976042608847e-02 1.232404225486375682e-01 -8.815970488730253685e-01 6.264038029832613708e-01 4.979206861976956389e-01 -5.997443337494097193e-01
-8.338393340311817115e-02 -5.234537550026278907e-03 -1.019400769848863630e+00 -6.041899276129408802e-01 -2.924195116376396841e-01 7.412458165714486125e-01
-3.475045967134200720e-02 -4.752631775933895478e-03 -9.770900705000370445e-01 6.700670302860849414e-01 3.032073664172932892e-01 -6.775510813760660112e-01
-4.154207567119024697e-02 -1.152173331170763121e-01 -1.019540619049416952e+00 -6.665261825359742875e-01 -2.079851302301052862e-01 7.158806000983594098e-01
5.080061611706396252e-02 -1.488785857570821547e-01 -9.251862224608657925e-01 7.883484889839015297e-01 1.682552497365522592e-01 -5.917743073612520277e-01
-5.492590611770089420e-02 1.116121016028459312e-01 -9.169999133677426695e-01 5.401891875011065602e-01 5.523602965043347135e-01 -6.348966408420648744e-01
-3.426896636708266775e-02 -1.683600690491365293e-01 -1.032761225366449542e+00 -6.599031589980554058e-01 -2.926578422929966283e-01 6.920109884162206626e-01
3.951945515399379882e-02 2.977339074626652801e-02 -8.653107960567961721e-01 7.871331473645327703e-01 4.027520620634021942e-01 -4.671318709140729886e-01
1.179259098238404774e-02 -2.242941439361821609e-01 -1.017282395208499501e+00 6.126755913220549576e-01 4.586063731952531586e-01 -6.436682486054959851e-01
-7.445325653865918214e-02 -3.361226783718469779e-02 -1.022277487190404566e+00 6.063148680259113910e-01 2.486627696229505580e-01 -7.553470115213040126e-01
-7.374496426038115726e-02 -1.488272723675938547e-01 -1.056219638989578158e+00 -5.920101759450216994e-01 -2.490214364865793173e-01 7.664934936108102059e-01
-4.639298770423635337e-02 6.037976563349716289e-03 -9.830263390742433049e-01 6.025189876752472529e-01 3.667093394586050659e-01 -7.088689087868285110e-01
2.064610675382219304e-02 -1.467671009552609096e-01 -9.656521880866667518e-01 -7.900957274002324837e-01 -2.053375534773126954e-01 5.775683774894962985e-01
-6.022611126452247915e-02 -9.348050455644081602e-02 -1.028684454281838745e+00 -6.003469638038902989e-01 -1.984909466276872092e-01 7.747159912886111277e-01
-4.686502822797511403e-02 2.299275908563494508e-02 -9.752396366834319430e-01 -5.986620868451425492e-01 -3.739755869673253574e-01 7.083402897807404841e-01
-5.026030356753603823e-02 -9.807702504525039888e-02 -1.022155208821505123e+00 -6.007515003611875182e-01 -2.060670812907895166e-01 7.724208650872120829e-01
-3.635838238862706268e-02 1.961388614400803587e-01 -8.421135139716081630e-01 -5.188312011064240004e-01 -4.817796044918873366e-01 7.061887831551177941e-01
-4.344469782850372309e-03 1.543776522438459475e-01 -8.289596239246537213e-01 8.246436692260838974e-01 2.820684741124098727e-01 -4.903062254522551067e-01
6.240394109632062952e-02 -8.657122247786190605e-02 -8.930076924473999700e-01 -8.356034765953757049e-01 -1.406906692773045031e-01 5.310112668108140088e-01
6.927256105666361463e-02 -2.102556853174903095e-01 -9.145239331707432084e-01 -8.452611375967427065e-01 -1.590271403481168522e-01 5.101411352766612728e-01
5.968166261321551647e-02 -2.231858065384886569e-01 -9.349502317498007420e-01 8.659435023733547121e-01 1.271867664025282119e-01 -4.836996766067105380e-01
6.786898836408282454e-02 2.952297037369280494e-02 -8.060286302678393300e-01 -8.346952293209414231e-01 -4.458499194549658262e-01 3.232672632217210018e-01
-7.325327426870742453e-02 5.776339089249328540e-02 -9.765329862461018529e-01 5.865445167409945038e-01 4.538332884737406037e-01 -6.708210462963902776e-01
7.655481089032464825e-02 -6.590876635773221248e-02 -8.617213508269004896e-01 8.384787238856430402e-01 2.375799948591551525e-01 -4.904173484225730628e-01
-4.968766312319997103e-02 9.756371617938744412e-02 -9.254241659788213781e-01 -5.464826309899408763e-01 -5.749611677067214544e-01 6.089141069606085477e-01
-2.373119968333006757e-02 -1.760353172530502719e-01 -1.025958321910036997e+00 -6.599031589980554058e-01 -2.926578422929966283e-01 6.920109884162206626e-01
-3.832844073295509774e-02 9.330846821009861070e-02 -9.181006156879060187e-01 -6.414678734412745387e-01 -4.947259430445808404e-01 5.863149397903647531e-01
-2.554185732611560095e-02 1.304318798198413898e-01 -8.723730665773388182e-01 -6.295318083357145378e-01 -4.820962774637204129e-01 6.093216568850877701e-01
-9.420166671061568076e-02 -1.134128031740233716e-01 -1.060341766515434436e+00 6.064725003357506194e-01 2.374117891013867165e-01 -7.588324905617719329e-01
-6.782647846093380062e-02 8.407352620611574512e-02 -9.525392513963550911e-01 5.696843754589703268e-01 5.211313941405931738e-01 -6.355169410794685447e-01
2.230494624954056787e-02 1.090968409283402628e-02 -9.060483644247453450e-01 7.891660988805908605e-01 3.147380257364423839e-01 -5.274057674439253107e-01
-2.718838438561940393e-02 2.097502191436510788e-01 -8.257084329049516613e-01 6.206027217792348116e-01 4.304859579861592955e-01 -6.553885120269842268e-01
3.339402543960795500e-02 -1.698113641811157815e-01 -9.557754644737647132e-01 7.931350811366081333e-01 2.162630764876469769e-01 -5.693566762746565812e-01
-6.958586774904118415e-03 1.988720755636936288e-01 -8.058874404576554795e-01 8.047750193263628615e-01 3.902083084033889926e-01 -4.472970426028073931e-01
-1.924575123592393161e-02 -2.214460857905313496e-01 -1.041792024236562142e+00 5.382543621809361412e-01 5.145036944800145395e-01 -6.675089437300517625e-01
-7.762212417996265656e-02 -9.111579344254111534e-02 -1.041578783177274925e+00 -6.007515003611875182e-01 -2.060670812907895166e-01 7.724208650872120829e-01
2.915275848897198874e-02 -1.962982994957027660e-01 -9.743607634891032765e-01 -7.982980522353390063e-01 -2.607899390771657444e-01 5.428709123478550058e-01
-7.917846547475743124e-02 1.186311230752161994e-01 -9.315257012808704218e-01 5.388511631149310865e-01 5.582487148273700406e-01 -6.308706653532683006e-01
6.323092933614672673e-02 -4.812832483835799424e-02 -8.768673299427145462e-01 -8.410681796028313117e-01 -2.294720204790931806e-01 4.898437598631034673e-01
8.494781945384584365e-02 -1.013292640076059320e-01 -8.608506095360043409e-01 8.341818604546684668e-01 1.445366611724138162e-01 -5.322121543759770201e-01
8.628627812532670138e-02 -1.776948092645426747e-01 -8.768608211010073816e-01 8.330101436635370948e-01 1.295023483077445137e-01 -5.378877599801215048e-01
-3.975743255544410965e-02 -1.221652667805746550e-01 -1.019909684566954411e+00 -6.681569326960523636e-01 -2.535779392263305398e-01 6.994744756086029858e-01
7.880116757868538269e-02 -1.914630596309506785e-02 -8.315813437969920008e-01 -8.423041502099897215e-01 -2.961459586314408310e-01 4.503568470949366187e-01
6.900510900586044605e-02 2.211370423130061894e-02 -8.130270314412585408e-01 -8.308520641801856454e-01 -4.047106621497927881e-01 3.819608977235770531e-01
8.245287829375575611e-03 8.744568392472631957e-02 -8.650170513592275734e-01 7.843888404522743052e-01 4.391780595037351187e-01 -4.380145876845543129e-01
4.187557291307398427e-02 -7.477462734499575048e-02 -9.174919225795831190e-01 7.861950356966075359e-01 1.693509917775294082e-01 -5.943211315694379993e-01
-9.089961347803074410e-02 9.661407833828665470e-02 -9.625201540189057825e-01 5.712978283253341560e-01 5.485074297784705566e-01 -6.105394261049597038e-01
7.721432605130694113e-03 1.356634331961022455e-01 -8.206996580738472602e-01 -8.191239489177092326e-01 -3.452414997739598479e-01 4.580876151385070427e-01
7.087953453789312686e-02 -2.245469977195727884e-01 -9.157918505347831806e-01 -8.559432607408969940e-01 -1.240023912369097592e-01 5.019806185100865736e-01
3.828215662040115874e-02 5.813005467774125939e-02 -8.414566924840981565e-01 -8.304248727843002165e-01 -4.265132287464198924e-01 3.584424589323687571e-01
4.501100624429910102e-02 2.190254249974844802e-02 -8.627969439484317604e-01 7.859483865413748882e-01 3.883329442688041588e-01 -4.811264470890488920e-01
-7.757455306045438204e-02 2.748540774099244612e-03 -1.010538566988279596e+00 6.052789323882145078e-01 3.332025248175937704e-01 -7.229201141634972183e-01
2.760732728824384641e-02 -3.278298610489044362e-02 -9.213534556795504038e-01 7.893774408844035362e-01 2.493471501547008529e-01 -5.609895315712398745e-01
4.313792832658665949e-02 6.164715451718126571e-02 -8.242381186037146534e-01 -8.251381358413985012e-01 -4.648365079801998201e-01 3.210515186523112408e-01
-5.796273841375085972e-02 1.733858528148115863e-01 -8.688368791028622251e-01 -5.056374263165347438e-01 -3.989078233128692808e-01 7.649858440571171148e-01
-5.518132670427673692e-02 9.876487196362511434e-02 -9.285645864926279636e-01 5.484686197520088902e-01 5.739856980320582336e-01 -6.080481819740742866e-01
-9.389721700015264683e-02 6.727007194255237021e-02 -9.884576071154681509e-01 -5.828568371499954770e-01 -4.600726547300276748e-01 6.697843382441606153e-01
-2.650898693764613609e-02 -1.762168205499157689e-02 -9.753226052316351646e-01 -6.708690839772207815e-01 -2.996437434267835154e-01 6.783423171148537101e-01
1.918039697083065778e-02 7.471520637236227225e-02 -8.591862584851878148e-01 -7.843517140718717640e-01 -4.392170285443331434e-01 4.380419962391766675e-01
2.006963170912122105e-02 -3.805221390771969942e-02 -9.342923764280368637e-01 7.888662742790696347e-01 2.108744208882984694e-01 -5.772538262498431161e-01
-1.681987939642114183e-02 1.493418036351251699e-01 -8.487426513125452265e-01 6.205161481624815734e-01 4.403866812837937683e-01 -6.488599855264951533e-01
-7.496733448309628178e-02 6.596982121351241402e-02 -9.724797761476462465e-01 5.865445167409945038e-01 4.538332884737406037e-01 -6.708210462963902776e-01
-4.759327080177361974e-02 -1.574016292879165946e-01 -1.039422721971434704e+00 -5.804780474770544485e-01 -2.802266727865030949e-01 7.645379312082775103e-01
2.481878078450026892e-02 1.195213080477265377e-01 -7.945498452545115553e-01 8.765355026813613781e-01 3.679928907803829419e-01 -3.102688267844999070e-01
3.257294506879755691e-02 -6.848331676125050949e-02 -9.287345903821023763e-01 -7.861734581572205061e-01 -1.693252484273946035e-01 5.943570088205556434e-01
-5.989682280923686042e-02 3.352553394074136300e-02 -9.803400605721157568e-01 -5.964735946035468750e-01 -4.118419955916275410e-01 6.889161208796245051e-01
-9.622278988154775448e-02 -8.879002683293906253e-03 -1.031191313237361573e+00 -5.990713672169765136e-01 -2.955080014475318650e-01 7.441696836483383537e-01
1.093773653543163998e-02 3.606551805877900724e-02 -9.066378806328350137e-01 7.906688566766957305e-01 3.495420199065932820e-01 -5.026560806368363110e-01
4.243983780621041549e-03 -9.600988622246584003e-02 -9.709164604022195721e-01 6.673904431656013658e-01 1.932375996954492359e-01 -7.192004076995254236e-01
-9.402326148687747964e-02 1.061124784964178613e-01 -9.568967420648257782e-01 5.397581555195194447e-01 5.863908508684805287e-01 -6.039924697940411980e-01
-3.471351486969300598e-02 4.985534579712249531e-02 -9.466659246859844279e-01 6.627265520107182839e-01 4.091588112926025089e-01 -6.272021878163447361e-01
6.686339851243307264e-02 -4.877195499396069778e-02 -8.709318473183617071e-01 -8.410681796028313117e-01 -2.294720204790931806e-01 4.898437598631034673e-01
-8.521339591447170403e-02 -1.462984550229112779e-01 -1.063854738868562189e+00 5.883114643290981993e-01 2.370557667784570499e-01 -7.731068389142796704e-01
-9.626516442546927121e-02 -5.873855825155503696e-02 -1.047584654680766336e+00 -5.968691548185173223e-01 -2.192845639293003468e-01 7.717910935276237616e-01
6.524588832780701952e-02 -5.064564521512280454e-02 -8.737661805530885228e-01 8.400233054884516104e-01 2.300574671576752772e-01 -4.913597541936566282e-01
5.502956338643135575e-02 2.414895176551232897e-02 -8.415361799865843651e-01 -8.400914493362493518e-01 -3.829558116996739647e-01 3.841760052860711538e-01
8.164729576070998973e-03 -2.023988561555343235e-01 -1.008244273489477205e+00 -6.469206493389245693e-01 -3.633081256679038806e-01 6.704482674170905154e-01
2.614408713153673972e-02 -2.370402606747589735e-01 -1.002569856963012151e+00 8.735353409664847746e-01 1.786876529832651384e-01 -4.527766897201084828e-01
9.221273047013041346e-02 -8.625665559431945628e-02 -8.445594990865280538e-01 -8.436081625423006436e-01 -1.936262479703485251e-01 5.008334495507748008e-01
5.070675569600637672e-02 7.611774000850135558e-02 -7.825458118860790790e-01 -8.350664181642023509e-01 -4.653793089268621896e-01 2.934044581753411096e-01
5.362478938977470466e-02 -1.773212744141023367e-01 -9.294294140330966458e-01 8.400926819037716209e-01 1.683749207395703607e-01 -5.156492721585785866e-01
-6.042851455571145863e-02 9.914378081964884959e-02 -9.329399463623069266e-01 5.484686197520088902e-01 5.739856980320582336e-01 -6.080481819740742866e-01
3.673993051231458362e-02 4.101808941958953736e-02 -8.612268980301250876e-01 -7.871125986323034285e-01 -4.027480982961337275e-01 4.671699116950386310e-01
-4.573426047650504256e-02 4.275731404188441720e-02 -9.621817862751493866e-01 5.930515752579286204e-01 4.379772429550152224e-01 -6.756225009112802882e-01
7.654284524497083353e-02 -1.429360231889245658e-01 -8.836455197276316120e-01 8.339940939331479397e-01 1.201758666327154834e-01 -5.385272624145440723e-01
-5.780497836750463775e-02 -6.669277045585261625e-03 -9.988732667304083268e-01 -6.037512336530110879e-01 -3.337861926297421844e-01 7.239276382845232227e-01
3.968584989409796454e-02 -1.053390258701609461e-01 -9.290892824010330564e-01 -7.842985496734506956e-01 -1.482632105888849472e-01 6.024066777236103398e-01
2.466921517808016648e-02 -7.637993837951384535e-02 -9.413891565635302827e-01 -7.855598509748759062e-01 -1.670883761553099423e-01 5.957996266280402020e-01
-4.250752332584000273e-03 -8.054956898445385371e-02 -9.745928653038521405e-01 6.689054294751426433e-01 1.996470983698688251e-01 -7.160353081595675073e-01
7.008037688894663830e-02 -8.626991128636015771e-04 -8.330307734280012477e-01 8.383596929321945890e-01 3.575590458243844694e-01 -4.114663461521395060e-01
3.025242917437250684e-02 -2.164838501818496797e-01 -9.832189636828303492e-01 8.048149137916579265e-01 3.160009292956992843e-01 -5.024105564404285351e-01
-2.406866313907909255e-02 1.025140280972503815e-01 -8.937001586963005950e-01 6.311459144552321598e-01 5.152304016080829774e-01 -5.798210654376417805e-01
-5.308029392063578350e-03 -1.640491763415928284e-01 -1.002653637070938242e+00 6.654029066264746106e-01 3.038595106366056564e-01 -6.818418949057926115e-01
-7.408275962635996192e-02 -6.865925754696965144e-02 -1.033004861137768238e+00 -6.023734792060180254e-01 -2.032911843303922828e-01 7.718930534230654672e-01
8.208626423766554603e-02 -8.333916396750103150e-02 -8.596292876990890841e-01 8.383531632025276181e-01 1.961936736811472071e-01 -5.085980890209983452e-01
-4.108741478646905226e-02 1.594095899533847782e-01 -8.659434931906896393e-01 -6.229361341569412680e-01 -3.866534884164645192e-01 6.800365083265633714e-01
-4.732381351091041050e-02 1.636703807422179024e-01 -8.677767330493668663e-01 -5.004214013790493354e-01 -4.699353980873667846e-01 7.271445129176843380e-01
-6.031468060154643318e-03 1.477149188437871796e-01 -8.356488667523404024e-01 8.248012538801466897e-01 2.830131554978539410e-01 -4.894961137873163892e-01
-5.754838230986737690e-02 1.126084145673536957e-01 -9.183644024881322254e-01 5.401891875011065602e-01 5.523602965043347135e-01 -6.348966408420648744e-01
7.497715065468323059e-02 -7.446342667503197399e-02 -8.679238221161204025e-01 8.383531632025276181e-01 1.961936736811472071e-01 -5.085980890209983452e-01
4.584230766442681793e-02 8.015931666435424652e-02 -7.895618988370119995e-01 8.373177496304560208e-01 4.555286510783633225e-01 -3.023121469615727697e-01
1.296156429468890009e-02 5.685139247180963362e-02 -8.865674964402646685e-01 7.789270361232122353e-01 4.447307768097087943e-01 -4.421393542250461328e-01
-5.985266170019332144e-02 -6.788853423967308384e-03 -1.000096467636545361e+00 6.052789323882145078e-01 3.332025248175937704e-01 -7.229201141634972183e-01
-5.131951016164005425e-02 1.461902810573799116e-01 -8.839622370320876499e-01 -5.009067284061822223e-01 -5.642175196107944712e-01 6.563162652271063990e-01
-8.402271874023860276e-02 1.397720468694371443e-01 -9.156525342523428312e-01 -5.032700302216289723e-01 -5.895396494147490118e-01 6.317929078809410015e-01
-2.762311870779719444e-02 3.891309654851540789e-02 -9.470030245492779830e-01 -6.627561377045416702e-01 -4.091495078236604965e-01 6.271769943027365457e-01
1.843687195634862580e-02 -8.237929255265337425e-02 -9.503769664086914037e-01 7.842678565033841531e-01 1.486367031996745081e-01 -6.023545963280424465e-01
-4.280067435210743038e-02 3.148872479090694676e-02 -9.662532000956967071e-01 5.956430746141759824e-01 4.041729870382053669e-01 -6.941567000417023792e-01
1.756951644676832056e-02 -6.035724724433791377e-02 -9.455300899781577950e-01 7.855695093653269900e-01 1.670702961499469230e-01 -5.957919620974153618e-01
4.063470051383504672e-02 2.321920065469424907e-02 -8.688582982238669539e-01 7.906688566766957305e-01 3.495420199065932820e-01 -5.026560806368363110e-01
-6.373973647422487288e-02 -1.026884347208369963e-01 -1.033882057771186469e+00 -5.975468850487262173e-01 -2.169332665339194499e-01 7.719311355551659037e-01
4.935451205066893055e-02 6.120517573419604479e-02 -8.078171337305461996e-01 8.241443696744272795e-01 4.651203698126625818e-01 -3.231858590954636568e-01
-3.382545899815317392e-02 -8.826762321592165894e-02 -1.004803986382377445e+00 -6.679613545747432601e-01 -1.900892759710641478e-01 7.195093438972635091e-01
-1.168926655481803897e-02 1.392723969906531356e-01 -8.506703467851771672e-01 6.205161481624815734e-01 4.403866812837937683e-01 -6.488599855264951533e-01
4.796990310892445403e-02 -1.804130902587886554e-01 -9.395165603814549238e-01 7.933923968534173365e-01 2.577386484936888267e-01 -5.514519867475649040e-01
5.258770917499452219e-02 -8.399706779651687494e-02 -9.059493430727130203e-01 7.861950356966075359e-01 1.693509917775294082e-01 -5.943211315694379993e-01
-2.097032554001608887e-02 -2.520916276576140244e-02 -9.723741652996660267e-01 6.707436547675553751e-01 2.618935155792402325e-01 -6.939126285683298034e-01
4.695875414384391433e-02 3.016288079365530075e-02 -8.531900800215724834e-01 -8.400914493362493518e-01 -3.829558116996739647e-01 3.841760052860711538e-01
-8.497155814052607947e-02 -3.323585097136788624e-02 -1.030596579860871387e+00 6.063148680259113910e-01 2.486627696229505580e-01 -7.553470115213040126e-01
-6.449137207094429681e-04 1.538851604491961456e-01 -8.230390835576022468e-01 8.258915955543484344e-01 2.409982528888253983e-01 -5.097282751596445838e-01
2.554188454857824961e-02 7.254584879979751599e-02 -8.488505239643892031e-01 7.848504160968833299e-01 4.571325972451177333e-01 -4.183773570456245650e-01
-4.738276208865806194e-02 4.216090619889095725e-02 -9.645715479383712987e-01 -5.940407090410729785e-01 -4.047912972715133062e-01 6.951687864506176373e-01
-3.429686886675766596e-04 1.291190990960341956e-01 -8.394858244822352988e-01 8.038147539915773132e-01 4.201160041492689734e-01 -4.211702557435786365e-01
-4.627696434373660545e-02 -8.419671407424339157e-03 -9.895126455523798326e-01 6.036764011835816790e-01 3.287146618458364200e-01 -7.263067352996368520e-01
-3.348079050571251686e-02 -2.754807694344909436e-03 -9.755811038924644407e-01 -6.700798225039797940e-01 -3.032059067839226185e-01 6.775390834220371694e-01
-5.402295888412835152e-03 9.655477948830820667e-02 -8.786032593420585179e-01 6.414421493868873725e-01 4.947157000048587050e-01 -5.863517247852457759e-01
2.127060437353111427e-02 8.999586860316902137e-02 -8.389685628084434521e-01 -7.871753070623626058e-01 -4.480460638855708333e-01 4.238039176174778211e-01
-2.483148951532640827e-02 -1.868347541365684705e-01 -1.031055268034763772e+00 6.482795260668052784e-01 3.284658067015903127e-01 -6.869089240288496212e-01
1.394563168714443337e-02 -3.219871722102120998e-02 -9.410888585164104425e-01 -7.893695492580782291e-01 -2.493392685035425438e-01 5.610041389207539586e-01
-3.149592281659692461e-02 -1.686004852291538292e-01 -1.030218519328593763e+00 -6.599031589980554058e-01 -2.926578422929966283e-01 6.920109884162206626e-01
9.910750093946369202e-03 4.660858439166556955e-02 -9.001942223734774595e-01 7.859483865413748882e-01 3.883329442688041588e-01 -4.811264470890488920e-01
-9.938100989241438477e-02 -1.082524023683081038e-01 -1.062971497389960440e+00 -5.918346826796838656e-01 -2.362914213725811063e-01 7.706478265480044554e-01
2.024421767475058712e-02 -5.157868276281774023e-02 -9.397450385974241982e-01 -7.888582834656344689e-01 -2.108827235471846528e-01 5.772617131916636390e-01
-3.903159260891918281e-02 8.230490911520164932e-02 -9.272867462739791122e-01 6.465861045606641211e-01 4.898699703450002385e-01 -5.847681776082332972e-01
1.143992848303037463e-02 -1.555024991644689547e-01 -9.809232951711649440e-01 7.931350811366081333e-01 2.162630764876469769e-01 -5.693566762746565812e-01
-6.625309337209751848e-02 1.599432053818288513e-01 -8.835351715221838598e-01 4.955940280794146613e-01 5.525627350796102899e-01 -6.701201258978576325e-01
3.678231413488244200e-02 7.345621242447349097e-02 -8.246527863937650471e-01 -8.407170141381518080e-01 -4.358688430798818292e-01 3.212681960151607119e-01
3.227701927439115964e-02 8.006629974196964594e-02 -8.274819741869454681e-01 -8.433881717874385231e-01 -4.266333224232725652e-01 3.266196563085596027e-01
-3.215607007615347147e-04 1.661716635348274573e-01 -8.174725965537072980e-01 -8.233225961750804123e-01 -2.505172443156362116e-01 5.092946229129314828e-01
7.590164180764398527e-02 -2.261575767520423302e-02 -8.393687023632302457e-01 -8.388818186720718995e-01 -3.084748127418586172e-01 4.484646967212833069e-01
-3.335021933929700061e-02 1.645714197457618377e-01 -8.559210634630790571e-01 -6.229361341569412680e-01 -3.866534884164645192e-01 6.800365083265633714e-01
-9.162125417726496536e-04 8.264096882274310496e-02 -8.854350251058920040e-01 6.414421493868873725e-01 4.947157000048587050e-01 -5.863517247852457759e-01
-8.270133963315487446e-02 1.422174889116968599e-01 -9.120206959123579038e-01 5.259545796784371730e-01 5.770474454681698839e-01 -6.248103918741573226e-01
-4.916802622091225039e-02 1.654110295668377029e-01 -8.673820953915967191e-01 5.037566866790008646e-01 4.679103212053630223e-01 -7.261467702439285965e-01
