3.720633261605089254e-02 3.197984921541770914e-02 -6.115505894314662294e-01 8.470957725460971366e-01 -5.241308017146248475e-04 -5.314400035953574797e-01
-2.229737963118943664e-02 -3.740703007403945596e-02 -7.924439352018062266e-01 9.797833381663726415e-01 1.404175583333881205e-01 -1.425044545382677941e-01
-2.566305119525915529e-02 -6.014264016528850926e-02 -8.917322226808563901e-01 -9.881173772846405523e-01 -1.488208880007124424e-01 3.842384679860810781e-02
4.249224197884756554e-02 -2.066451299636604400e-01 -7.329861431118008808e-01 -8.887547725979492164e-01 -3.117728703554326630e-01 3.360247483366397558e-01
9.859143917946592769e-03 -1.289350130961842977e-01 -7.498002421633696013e-01 9.255704705053942050e-01 2.912215406463903866e-01 -2.418869950864789009e-01
3.208131343767218341e-02 1.008259039495922466e-01 -6.173934973945172100e-01 -8.252167618122583370e-01 -5.139457323379627990e-02 5.624730161227347036e-01
3.757611119125726235e-02 5.471726012828267982e-02 -6.110009528093132136e-01 -8.244546760232296378e-01 -4.307105954300730869e-04 5.659278237300358061e-01
-2.454161858196876600e-02 7.309095066462681367e-02 -7.752238814205912876e-01 -9.805165478751852737e-01 1.181981229433659575e-01 1.568964724765803675e-01
1.573760101377125534e-02 1.641114439218503140e-01 -6.272409953309266983e-01 9.105146872399394464e-01 1.829424906822863794e-01 -3.708032489384590624e-01
-3.274750957696879322e-02 -1.849421248910872520e-02 -8.931162382437798364e-01 9.871907836830138283e-01 1.575128407093007998e-01 -2.537836919511885295e-02
-1.568024815273401373e-02 -7.453117259011865503e-02 -7.999467171750345162e-01 -9.737792952639984234e-01 -2.015671298742732764e-01 1.054731068538252436e-01
-2.942525448023720902e-02 6.179710111906942110e-02 -8.004600179617341604e-01 -9.871711233765865234e-01 6.179004280300254975e-02 1.472248748744973412e-01
-3.662079528950307888e-02 6.188807530690140779e-02 -8.533623600161930334e-01 9.948972445674379994e-01 1.322060820009081546e-02 -1.000234386078548698e-01
-1.240622333768553326e-02 -1.984114894745185043e-01 -8.827643685814043906e-01 -9.831114722335323464e-01 1.621002438918755020e-02 1.822884205651002232e-01
2.785234142873245153e-02 1.302081209213277468e-01 -6.177663721270859609e-01 -8.357170656639089090e-01 -1.633311743417808770e-01 5.243089868066735937e-01
-1.726213102156000379e-02 -7.308985296076737914e-02 -8.118130289297772473e-01 -9.737564694113955976e-01 -2.018351449886572613e-01 1.051708729965732808e-01
1.798218598993114176e-02 -1.093836651660411025e-01 -7.027672286720961781e-01 -8.963395318170723769e-01 -2.970303026148704006e-01 3.291632467795731487e-01
3.476785242513427687e-02 1.017315277474348245e-02 -6.167090217157845666e-01 -8.554898073226953059e-01 -2.549676649146328036e-02 5.171915549053924810e-01
-3.634289186450932740e-02 1.494288605203244330e-02 -8.763273746591844215e-01 -9.923490003951237481e-01 -9.371616528677230440e-02 8.037873959413112390e-02
-2.288061248802951420e-02 3.054458898376514672e-02 -7.596792797290987664e-01 9.799723119215878464e-01 3.321110232604716772e-02 -1.963448256240714895e-01
2.582512600360132096e-02 1.302031596206091046e-01 -6.210279433959334794e-01 -9.075272608397454421e-01 -1.515044190345090913e-01 3.917150518498425660e-01
-2.402241707580361763e-02 -8.531036243073111813e-02 -9.345984159400295699e-01 -9.908516091173512619e-01 -1.267017365831508424e-01 4.647320363790159725e-02
-1.275347305043026888e-02 -1.380308438581848429e-01 -8.614356605491537699e-01 9.824841863786273333e-01 9.450835433188994883e-02 -1.606019753222383273e-01
4.067989992579938707e-02 -2.363688221296439129e-01 -7.675329355458189173e-01 8.546452375866000484e-01 3.911752276943259443e-01 -3.414139117095788545e-01
4.380753540170634168e-03 -6.643467329315531911e-02 -7.083040584267890072e-01 -9.327625169919308012e-01 -1.926631984051608570e-01 3.046883307170982214e-01
8.784389607318305107e-03 1.835396009786683380e-01 -6.488612418849792896e-01 -9.896569153829916088e-01 -4.111957498594846772e-02 1.374349678487875315e-01
3.781927953963010181e-02 -1.580071518398327990e-01 -6.956287023797887992e-01 -8.901252366359696522e-01 -3.419028474585679711e-01 3.012963756892576006e-01
3.198605906571070495e-02 9.734596143009109637e-02 -6.178512183120843382e-01 -8.252167618122583370e-01 -5.139457323379627990e-02 5.624730161227347036e-01
-1.829468813789501130e-02 -1.388141033125474544e-01 -9.328046749071489119e-01 9.943491190141927616e-01 1.060185734160057486e-01 5.467321696598654440e-03
4.109117979814549612e-03 -2.094438453291947444e-01 -8.320878733453587195e-01 9.147653623199782924e-01 2.080803672445784569e-01 -3.462757465762804632e-01
4.492335006111207452e-02 -2.088837047021610827e-01 -7.285292776507147350e-01 -8.927004958818538505e-01 -3.060343864888735999e-01 3.308002100039706961e-01
-1.131483361841928610e-02 -1.199243623803817466e-01 -8.381868190567414167e-01 -9.799589630041469768e-01 -1.469324843796778191e-01 1.345038135587708628e-01
2.348522593926452226e-02 1.099042870192100535e-01 -6.310325526838372889e-01 -9.037494891397813701e-01 -7.366155488867419387e-02 4.216762220127751593e-01
-2.838448862889098381e-02 4.344596124659459019e-02 -7.849673280193518732e-01 9.799723119215878464e-01 3.321110232604716772e-02 -1.963448256240714895e-01
3.882662345126999814e-02 1.796418812058002412e-02 -6.089825060090957587e-01 8.492954225917216382e-01 2.848735602722683377e-02 -5.271487036039518292e-01
-1.788649172862455741e-02 7.752967121169167253e-02 -7.435493293619188648e-01 9.615738061821290650e-01 -9.937814208199319266e-02 -2.559292873837319959e-01
-2.389388570128671632e-02 -4.223617666882394789e-02 -8.119028814991345877e-01 9.762594646762147166e-01 1.824918434316229465e-01 -1.166798384942269451e-01
-3.083671362639758481e-02 8.089984467716762606e-02 -8.170046478608478102e-01 9.853499475857904200e-01 -8.423338490091995812e-02 -1.482909898166901996e-01
-3.454343773705792486e-02 1.935924428233574968e-02 -8.455645958338435797e-01 9.942428261381988097e-01 4.916914503958264709e-02 -9.520292983308843715e-02
2.186980878369145474e-03 -1.641529953441327183e-01 -8.120074191653428031e-01 -9.301316335962435122e-01 -1.939701225663716389e-01 3.118184339245688719e-01
-1.727598129253663656e-02 -1.460550075009159898e-01 -9.287484171609774464e-01 -9.959961646017346792e-01 -8.910191392564922874e-02 7.244931567713385444e-03
-1.026599488161088376e-02 -1.011542890265339917e-01 -8.001507844061930275e-01 -9.748306768567351899e-01 -1.951735805943832780e-01 1.077609618415114046e-01
-1.470817174224266222e-02 -1.865005481040801216e-01 -8.963156023903907643e-01 9.938212182336192413e-01 1.044209071955261997e-01 3.762526184770727949e-02
-1.343454658097034161e-02 7.066212911231364337e-03 -7.216199547291931582e-01 9.300985005987902898e-01 1.270251443001175484e-01 -3.446467639474024014e-01
1.012176876232875368e-02 4.595294817520835517e-02 -6.587674753024834740e-01 9.109972302047200099e-01 2.817531356163655368e-02 -4.114489011591011547e-01
3.448746248383956908e-02 -1.687479703475792125e-01 -7.175632087179087959e-01 -8.910442533270404031e-01 -3.353421822342699810e-01 3.059178965461400446e-01
1.605966005910397162e-02 1.659037435122904802e-01 -6.255659095709286133e-01 9.105146872399394464e-01 1.829424906822863794e-01 -3.708032489384590624e-01
-3.913210617771125353e-03 -1.545077222946322215e-01 -8.228196710689554827e-01 9.301389025858306514e-01 1.939632011620706642e-01 -3.118010559497657597e-01
-1.850316321427273106e-02 -1.354986241850442974e-01 -9.426556743598357713e-01 9.953879466049083691e-01 9.525691584448185700e-02 1.135586797482080260e-02
-3.394250355452540363e-02 -7.499615350338699298e-03 -8.857477778749172082e-01 -9.881718048007055444e-01 -1.434703344160782323e-01 5.415484594618653197e-02
-2.814334965148152651e-02 -3.544150623482049400e-02 -8.491827399068531124e-01 -9.861811206731297963e-01 -1.622135412012862821e-01 3.366844633820577359e-02
4.156307287938663074e-03 -1.797169194971393602e-01 -8.162733478857963076e-01 -9.268986093607874954e-01 -2.181116513945068058e-01 3.054280201471361034e-01
-3.484961890388623557e-02 1.350871407224932437e-02 -8.584892645117040422e-01 -9.932552293976213420e-01 -8.929562400417850876e-02 7.396175233174930030e-02
8.779467744139440172e-03 1.086273945668507213e-01 -6.611293283758924444e-01 -9.033290369042445977e-01 -3.820378340189527905e-02 4.272436330940828642e-01
-2.605805099455040224e-03 -1.815568776653747329e-01 -8.357567296361844145e-01 9.217150521283377085e-01 1.866526784319179622e-01 -3.400031475063826081e-01
-3.409966620734125597e-02 6.759822641153782896e-02 -8.340121715937558466e-01 9.918594916802953021e-01 -2.969773980601166791e-02 -1.238256557185170720e-01
1.912820664111147340e-03 1.133873239503397218e-01 -6.812350072266962764e-01 9.688051662034771194e-01 -1.026084596652171166e-01 -2.255838069157111436e-01
4.206086376569863339e-02 -2.808678919033618174e-02 -6.076389746596474462e-01 -8.813928477875564438e-01 -6.445062443224015836e-02 4.679666279546396690e-01
4.170234130403746575e-02 1.130896329294465152e-01 -6.008330842371847336e-01 -8.372304767149529869e-01 -1.553178186081047296e-01 5.243295758227574099e-01
-2.776898016649907014e-02 -3.990914907397580258e-02 -8.595384433547057501e-01 -9.863734856501700232e-01 -1.609919051972182324e-01 3.389621317056186467e-02
4.536862532055632204e-03 -1.855420175668306693e-01 -8.177451113061878774e-01 9.271703269509530276e-01 2.097321546343892396e-01 -3.104313259548394099e-01
1.089834864006300344e-03 -1.287519642558372368e-01 -7.825453430953526190e-01 9.277443428878523468e-01 2.710403532435810003e-01 -2.565688234240122712e-01
-2.558048142441739919e-02 8.966248754807569499e-02 -7.934064012052060022e-01 -9.756365205769459426e-01 1.309578965059094435e-01 1.760210472053218289e-01
-7.538387054672571717e-03 1.963045490155278586e-02 -7.040432126567270910e-01 -9.258819249937736418e-01 -9.800429807676110106e-02 3.648805537820638545e-01
-2.811527869467102259e-02 -4.689226782287407580e-02 -8.909517704962972573e-01 9.869284756447892493e-01 1.582747623168603568e-01 -3.035265350828888348e-02
7.296068208079843458e-03 6.243074552707165992e-02 -6.642908715944185749e-01 9.071151708741693742e-01 1.030987305734899773e-02 -4.207561922152397438e-01
7.972098268504361485e-03 -3.572936357151663272e-02 -6.809809067082825962e-01 -9.316264317717856125e-01 -1.600905189057125200e-01 3.262563675710717370e-01
-1.750330203602186571e-03 -1.338335500095630126e-01 -7.998719564612054578e-01 -9.277428391570666788e-01 -2.710113354333707480e-01 2.566049112145094013e-01
7.851348154814261418e-03 1.913155715819233882e-01 -6.550315022804956699e-01 -9.961343527883423921e-01 6.784023775322647887e-02 5.580370360949319514e-02
-1.722224000379549147e-02 -5.010775138307436982e-02 -7.731030355710486468e-01 -9.797861795293739684e-01 -1.404599437117222682e-01 1.424431346739225279e-01
5.750827382800254191e-03 -1.405058886770811089e-01 -7.798041766041470257e-01 -9.262926968863254285e-01 -2.778936123975095929e-01 2.544739277091483953e-01
-1.663311343322252181e-02 -4.393177519708921230e-02 -7.594924045587622130e-01 9.798024668261915426e-01 1.436331241256787183e-01 -1.391281842590040285e-01
3.003718678004480957e-03 1.093981023414273418e-02 -6.784397527503316372e-01 9.258949934252695968e-01 9.803689854778756263e-02 -3.648386323748498694e-01
2.753490419688442437e-02 -2.200881512826287356e-01 -7.833772098403818385e-01 -8.625008863339573839e-01 -3.768350207696803955e-01 3.377685423402429499e-01
-2.040955621199097916e-02 -4.544996778809662352e-02 -7.877760142310207270e-01 9.762594646762147166e-01 1.824918434316229465e-01 -1.166798384942269451e-01
-2.625289119549528705e-02 2.037495119163026946e-02 -7.786833637515255813e-01 9.815493921950835254e-01 7.633899179481228037e-02 -1.753087248633509454e-01
-1.544114463709242609e-02 4.405695333112490120e-02 -7.257819852673276229e-01 9.726884252722384216e-01 -3.695960782407305134e-02 -2.291532559901860999e-01
1.473263578900678959e-02 -2.317726584792964006e-01 -8.226233186557324606e-01 8.547652702126418145e-01 2.793036769025502020e-01 -4.374537563069100243e-01
3.480119657186727528e-02 -1.479438188252842068e-01 -6.924055730719752555e-01 8.926983358871302121e-01 3.229670613902053122e-01 -3.142959725502761370e-01
-3.603221175449920072e-02 1.230972743118434291e-02 -8.755618293373211847e-01 -9.923490003951237481e-01 -9.371616528677230440e-02 8.037873959413112390e-02
2.454105526797422526e-02 -1.286903117374271072e-02 -6.374382405720281364e-01 8.834509741134523031e-01 1.122527924246810721e-01 -4.548776614990606149e-01
1.686640118740323838e-02 1.919459698050371421e-01 -6.163596999535424503e-01 -9.173883619669118694e-01 -4.887547918598355440e-02 3.949807347985554440e-01
3.962907983444272086e-02 -2.312639778957753245e-01 -7.643145247511704543e-01 8.546452375866000484e-01 3.911752276943259443e-01 -3.414139117095788545e-01
1.142595758167144412e-02 -1.035324064314263881e-01 -7.168094476650170854e-01 -9.291164518190779820e-01 -2.627191287600406100e-01 2.602331230698586850e-01
-1.261436749597942032e-02 -8.183867068357411623e-02 -7.815014974102872936e-01 9.737774400051897317e-01 2.015651608038304399e-01 -1.054939964503423949e-01
-3.337809923218568869e-02 -1.551847784501834797e-02 -9.038032081273482676e-01 -9.853100962576357702e-01 -1.660821277757512648e-01 3.975853425678496644e-02
2.767485363529382028e-02 -2.182557254532923596e-01 -7.798827263705975232e-01 8.610180559697024893e-01 3.795781392049389913e-01 -3.384794580648434748e-01
-2.201456745033099696e-02 1.059433956856176973e-01 -7.840666571625114489e-01 9.634457841475640993e-01 -1.963104431858501142e-01 -1.823031291680443366e-01
2.835704523702187608e-03 -1.855641651480048615e-01 -8.228409510441853092e-01 9.271703269509530276e-01 2.097321546343892396e-01 -3.104313259548394099e-01
9.074017327379193393e-03 -5.780521970889223454e-02 -6.872684011904747203e-01 9.324331631392709374e-01 1.900630761879222586e-01 -3.073181142530945209e-01
-1.451142433459803004e-02 6.586307267474701688e-02 -7.263383984354828682e-01 9.615738061821290650e-01 -9.937814208199319266e-02 -2.559292873837319959e-01
-2.908677874251635112e-02 5.813807327024955035e-02 -7.966547848982646896e-01 -9.871711233765865234e-01 6.179004280300254975e-02 1.472248748744973412e-01
2.928799443371011765e-02 -2.345042996405380664e-01 -7.931628463728205292e-01 8.574828689414630833e-01 3.733818347666433834e-01 -3.539903034522453029e-01
-1.545693753020195224e-02 -1.676854612283341095e-01 -9.117778139483464495e-01 -9.988897036644767136e-01 -4.710841583397147592e-02 -3.963214699116051677e-04
2.047698934444479313e-02 4.805975402454649298e-02 -6.377102218342829421e-01 8.463721582258156850e-01 3.530281000659800383e-02 -5.314206256684179674e-01
2.192855107499385933e-02 -7.949618267089367252e-02 -6.694368899000363582e-01 8.979974015188962877e-01 2.213524651339724147e-01 -3.802680016046887657e-01
-1.399976406835616409e-02 -7.467926170915246964e-02 -7.847146759787407833e-01 -9.737792952639984234e-01 -2.015671298742732764e-01 1.054731068538252436e-01
-1.620220920436839934e-02 1.206350291212688330e-01 -7.695040342227871255e-01 9.575808735137434358e-01 -2.142628162349028975e-01 -1.926922838614574529e-01
-1.891702255164317073e-02 -9.057175614467474767e-02 -8.536631204198541489e-01 9.769407441541372306e-01 1.806966962536027954e-01 -1.137342796811685181e-01
-2.001423727485354687e-02 -1.025187095547038796e-01 -8.904565620406454940e-01 -9.922578121240797078e-01 -1.111821027647323379e-01 5.534414425706819102e-02
1.090588149860246929e-02 -9.893295152656450542e-02 -7.140228940862678453e-01 -9.291164518190779820e-01 -2.627191287600406100e-01 2.602331230698586850e-01
-2.853816132818976989e-02 7.154600977990774324e-02 -7.989631222429451896e-01 -9.852229152484207608e-01 8.287788025474659981e-02 1.498901739070422068e-01
3.955589582511532393e-02 -8.456269588128836889e-02 -6.317571239056372079e-01 -9.003518687526854691e-01 -1.798975319379001458e-01 3.962365334446072973e-01
-2.394295348635580231e-02 -2.649872069428432439e-02 -7.929740118957910866e-01 9.798024668261915426e-01 1.436331241256787183e-01 -1.391281842590040285e-01
9.073590622730489871e-03 1.649723688973305791e-01 -6.494437365489038605e-01 9.906894734957708559e-01 6.014070262383681975e-02 -1.221370664154968616e-01
-1.751810942511284469e-02 7.061670629882119132e-02 -7.417601776855713425e-01 -9.708823328407519826e-01 5.660819591600986522e-02 2.327724380867162435e-01
6.798994320318525221e-03 1.935138527172639844e-01 -6.806262132686103916e-01 -9.971250248267189420e-01 6.575049285909520536e-02 3.766374321680289461e-02
-1.695847569269173360e-03 -7.884286912075653964e-02 -7.387331414832863929e-01 -9.291164518190779820e-01 -2.627191287600406100e-01 2.602331230698586850e-01
4.480401826384440567e-02 -1.456332717346227046e-01 -6.617947473076517539e-01 8.923103250984849577e-01 3.002046358777125667e-01 -3.371341874093551350e-01
-1.792707861112248849e-02 -1.069886702166651105e-01 -8.722308750447332892e-01 -9.799589630041469768e-01 -1.469324843796778191e-01 1.345038135587708628e-01
8.298130300687607541e-03 -1.427775904608284407e-01 -7.730126884144565835e-01 -9.262926968863254285e-01 -2.778936123975095929e-01 2.544739277091483953e-01
3.029966147002419521e-02 -1.966423043968663076e-01 -7.558907046181628786e-01 -8.893041235871642636e-01 -3.061066781441394991e-01 3.397600290888057595e-01
-1.207245124117224330e-02 -1.449643625425775795e-01 -8.646581713202192709e-01 -9.836455038285268904e-01 -1.120002821245408009e-01 1.410583553071097507e-01
-2.989360669423237957e-02 6.095720099793751172e-03 -8.058019223214383242e-01 9.814725990557102708e-01 1.024826181288120003e-01 -1.618914768735325305e-01
9.090577885145710926e-03 -1.436873965049536572e-01 -7.711216926401633920e-01 -9.262926968863254285e-01 -2.778936123975095929e-01 2.544739277091483953e-01
-1.794446524307728025e-02 6.094147983663266571e-02 -7.393270962280308334e-01 9.708786607732304841e-01 -5.657223935636738338e-02 -2.327964943666128717e-01
-1.376432355659942992e-02 -1.103190526395370352e-01 -8.445903988982722543e-01 -9.769445411452477579e-01 -1.806940663968484850e-01 1.137058393200304635e-01
-3.207483381303585790e-02 1.174566833421564031e-02 -8.233634367717906910e-01 9.945403108984059992e-01 5.417981942352313035e-02 -8.918585742894656609e-02
-1.788258395051804325e-02 -1.016063359562417168e-01 -8.660270161054735016e-01 -9.799589630041469768e-01 -1.469324843796778191e-01 1.345038135587708628e-01
-3.199798471918588461e-02 6.353103256576270175e-02 -8.198020694875701730e-01 -9.923962616706680784e-01 1.565978845997057986e-02 1.220837042666712002e-01
2.133116617087641234e-02 -1.447317801817784855e-01 -7.280297045494580344e-01 8.908484699602188250e-01 3.374753118407322061e-01 -3.041371688359346126e-01
-1.670562472208474841e-02 -1.119643447713957185e-01 -8.687671333831337162e-01 -9.799589630041469768e-01 -1.469324843796778191e-01 1.345038135587708628e-01
4.463136987924180843e-02 -1.481466662761944109e-01 -6.652012200740519132e-01 -8.969931135829003477e-01 -3.200925101298995878e-01 3.048674124002009878e-01
-3.651123496041746436e-02 2.929350713392249103e-02 -8.641234025496026261e-01 -9.931608926405469662e-01 -5.484351162726218420e-02 1.030709976754975166e-01
2.872479474535029678e-02 3.467614462075128273e-02 -6.250725073108437391e-01 8.470957725460971366e-01 -5.241308017146248475e-04 -5.314400035953574797e-01
-7.272963808865417698e-03 -1.716840783142503657e-01 -8.467754893400939453e-01 9.855684627106947593e-01 4.101031182921226204e-02 -1.642344654259542958e-01
-2.263522008771466990e-02 -8.976672449724659719e-02 -9.148823132500091271e-01 -9.915495483818175249e-01 -1.239140723320911741e-01 3.840306995399329210e-02
-8.822328227363441383e-03 -1.268990793048143384e-01 -8.244283960822029744e-01 9.799527352135551928e-01 1.469623978732655101e-01 -1.345165058972759287e-01
2.216494264516617047e-02 1.283775898520882197e-01 -6.302996483217407908e-01 -9.097387273703351207e-01 -1.597779147585130233e-01 3.832055138930344773e-01
-2.447397561976919281e-02 -8.059075977627525034e-02 -9.313588212786405585e-01 -9.908516091173512619e-01 -1.267017365831508424e-01 4.647320363790159725e-02
-3.050981752644268963e-02 -6.197241380466255757e-03 -8.184212645259379970e-01 9.929789843413141526e-01 9.448778210779590347e-02 -7.116737798206403121e-02
-2.678318502544678459e-02 8.579868777245309996e-02 -7.971980299680986315e-01 -9.756365205769459426e-01 1.309578965059094435e-01 1.760210472053218289e-01
-5.677081707302478360e-03 -1.881876422932155235e-01 -8.477227713813255683e-01 9.217150521283377085e-01 1.866526784319179622e-01 -3.400031475063826081e-01
-9.972601192522663818e-03 9.158452705182666687e-02 -7.184092662375521909e-01 9.636830005277171596e-01 -1.003797108898167312e-01 -2.474651250895219534e-01
-1.361920783533565431e-02 -3.382248099855550069e-03 -7.259692496602782041e-01 9.300985005987902898e-01 1.270251443001175484e-01 -3.446467639474024014e-01
-2.497025385595445790e-02 -2.386092686354559025e-02 -7.974734403847268949e-01 9.797833381663726415e-01 1.404175583333881205e-01 -1.425044545382677941e-01
1.194587384354675944e-02 6.760790559104853936e-02 -6.545850715542059772e-01 8.992713449982392415e-01 -4.888605156914109170e-03 -4.373638640819309531e-01
-2.134610263992089974e-02 3.543363425895691005e-02 -7.523096706276573009e-01 9.757738955353820742e-01 -8.055427374708150345e-03 -2.186330599006390263e-01
1.969806756805620937e-02 1.081641575025267948e-01 -6.386279397367294886e-01 -8.925525852864725218e-01 -1.781352095252261916e-02 4.505913458664160265e-01
-3.037967956214947252e-02 -2.534210473248620435e-02 -8.660283837507309901e-01 -9.861811206731297963e-01 -1.622135412012862821e-01 3.366844633820577359e-02
1.173287151988195928e-02 1.245998427095856148e-01 -6.536534317437704411e-01 -9.037494891397813701e-01 -7.366155488867419387e-02 4.216762220127751593e-01
3.945860692836498929e-02 8.431065562040061800e-02 -6.072120226027829526e-01 8.274497742896329555e-01 1.626905770036327081e-02 -5.613040074590398554e-01
3.674670973726403000e-02 1.338985753131079759e-01 -6.012611893780993588e-01 -8.458472075637325505e-01 -2.446786136095765729e-01 4.739988159254531208e-01
-4.284726771366296344e-03 1.275552228685372103e-01 -7.153659702728307757e-01 -9.621494861563201217e-01 1.172625333851307627e-01 2.460037897131475970e-01
2.184562427314016772e-03 1.633834319960600356e-03 -6.829161592532582148e-01 9.260615637482937368e-01 8.886923010532847556e-02 -3.667591036205524735e-01
2.134205144186241895e-02 -1.010742180387887573e-01 -6.865861838495304070e-01 -8.986521100780036075e-01 -2.612418263246724104e-01 3.523877030074996086e-01
2.489645414507391658e-02 -1.905332801820223410e-01 -7.645293942646118612e-01 -8.893041235871642636e-01 -3.061066781441394991e-01 3.397600290888057595e-01
-1.072331141426681282e-02 -2.116704703092217033e-01 -8.741744090476419871e-01 -9.819165101423873443e-01 -6.308786792195550733e-03 1.892093187953641509e-01
-1.101960412130165677e-02 1.482660737716877952e-01 -7.764317772441170495e-01 -9.545970199223550168e-01 2.256943825515544677e-01 1.944391299096757397e-01
1.119757084352974823e-02 -2.265052908217333461e-01 -8.270766575841566048e-01 -8.564409393805132442e-01 -2.752279066021772191e-01 4.367591061219067705e-01
-2.943403629116151873e-02 -4.539573072687770605e-02 -9.285272098600698687e-01 9.891197748136654200e-01 1.452810210744313602e-01 -2.314078624710886115e-02
1.053462324811766694e-02 -1.459928860136751327e-01 -7.666771743977729425e-01 9.262982565154526116e-01 2.779046338245564907e-01 -2.544416523984865952e-01
2.495713575592852299e-02 -6.826735862039950975e-02 -6.560976939919006545e-01 8.963319081748840622e-01 1.908939984526428768e-01 -4.001856965738952998e-01
-2.724515582909767947e-02 8.796532908417902669e-03 -7.889435421279809013e-01 9.811510425127524249e-01 7.255963979198691571e-02 -1.791025696337047723e-01
-8.222749218964766141e-03 -1.250506673005769565e-01 -8.167845162933075054e-01 9.771665317819033802e-01 1.749924250681005322e-01 -1.205123244075553962e-01
-2.647236541269822052e-02 3.239526504805419899e-02 -7.772929622608543143e-01 9.799723119215878464e-01 3.321110232604716772e-02 -1.963448256240714895e-01
3.273160008243887129e-03 1.164540907918139717e-01 -6.765641517603753208e-01 9.735533318675997361e-01 -8.164082001464575966e-02 -2.133745217143597772e-01
7.947809863381257237e-03 -2.876017112669452744e-02 -6.772073460642551446e-01 9.291445265746118842e-01 1.227877087082787644e-01 -3.487314544554468432e-01
-1.304233811655535445e-02 -8.248812886820666712e-02 -7.907985905551577765e-01 -9.737792952639984234e-01 -2.015671298742732764e-01 1.054731068538252436e-01
1.637875278481427813e-03 6.501531157367873570e-02 -6.774519773662348587e-01 -9.071051459089896074e-01 -1.034979286142694022e-02 4.207768245200253499e-01
-3.124072129900352240e-02 4.804986375562365908e-02 -8.084746707553326361e-01 9.925851893970671913e-01 -1.673132225791779809e-02 -1.203939560156159772e-01
3.933810893956680640e-03 1.139887120917101454e-01 -6.726065358138916261e-01 9.735533318675997361e-01 -8.164082001464575966e-02 -2.133745217143597772e-01
4.176088211272166451e-02 1.293605393341454302e-01 -5.943673058342817672e-01 8.311868979088155029e-01 2.425373658911573194e-01 -5.003038745515562269e-01
3.655411888708541990e-03 1.430824266586682436e-01 -6.862478637294739947e-01 9.704834308204492999e-01 -1.058707932673665225e-01 -2.166870684556624072e-01
-1.050133572441410215e-02 -4.431415243801764547e-02 -7.398761397058899458e-01 -9.327625169919308012e-01 -1.926631984051608570e-01 3.046883307170982214e-01
-1.985791388346532654e-02 -6.551143255155210399e-02 -8.171793686927230072e-01 9.737551633416358099e-01 2.018267954974157785e-01 -1.051989851887775856e-01
-7.092854366225048550e-03 4.133921086041753012e-02 -6.987580000199042907e-01 -9.214319862179202181e-01 -6.242408846483507578e-02 3.834922788712090136e-01
3.522945506597073562e-02 -2.104843509801125334e-01 -7.544237506952543582e-01 8.883022877869616307e-01 3.078563393304103446e-01 -3.407983565783871405e-01
9.208043666515673339e-03 -1.709029954237614168e-01 -7.938765060979627863e-01 9.301389025858306514e-01 1.939632011620706642e-01 -3.118010559497657597e-01
3.536448180449065087e-02 1.358154339578656888e-01 -6.020268407256159637e-01 8.434308207932539325e-01 2.441311308551893655e-01 -4.785649814637345512e-01
2.396369533571376248e-02 -8.407395323981364105e-03 -6.377542754644484058e-01 8.763241036065876344e-01 6.738045885818115532e-02 -4.769863092397637616e-01
-2.248547813256448688e-02 1.450072953357273327e-02 -7.630252581803133038e-01 -9.800440243790423667e-01 -4.244472741384256592e-02 1.941961775980558802e-01
1.686549690192771882e-04 -1.636168600473691670e-01 -8.163095441135804764e-01 9.301389025858306514e-01 1.939632011620706642e-01 -3.118010559497657597e-01
2.921646684753531967e-02 -4.289154886031578545e-02 -6.366050162081162700e-01 8.924729456057356458e-01 1.488049405776467882e-01 -4.258510667140620876e-01
5.778657819230810337e-03 -7.707432079078763154e-02 -7.120930955248043759e-01 -9.319069573513837357e-01 -2.256848649829816811e-01 2.839291541171843902e-01
-9.208346098272215952e-03 -1.318703126453475982e-01 -8.323158719565748598e-01 9.814532339378925219e-01 1.334137074846357685e-01 -1.376602057533579115e-01
-2.355344928427179768e-02 -6.317363854072355345e-02 -8.467981786961830126e-01 9.740383050029828294e-01 1.997544896800705072e-01 -1.065247588101997239e-01
4.890123021556229410e-02 -1.631669568613682564e-01 -6.684005966903888707e-01 8.890048323231818372e-01 3.288898723803619362e-01 -3.185935654586584675e-01
3.543266616252618156e-02 -6.172695838750470038e-02 -6.302256577708834628e-01 8.887614683962786755e-01 1.515070746980329564e-01 -4.326068175728804421e-01
-1.537116917739294545e-03 1.425686252270125243e-01 -7.105381155702650275e-01 9.739239777515907859e-01 -1.958674162204114000e-01 -1.144903525353081764e-01
8.329800617764194018e-03 2.026676565389986251e-01 -6.623525222064526874e-01 9.869203815907584554e-01 -1.215239584677865192e-01 -1.059249164223009659e-01
-9.940121995383919065e-03 -1.430062063723865629e-01 -8.498406043049480107e-01 -9.824891975452197945e-01 -9.449290272509180966e-02 1.605804098934139057e-01
8.249873331497602821e-04 -1.726673781779564099e-01 -8.199817164235569944e-01 9.301389025858306514e-01 1.939632011620706642e-01 -3.118010559497657597e-01
-1.570379910751093164e-02 2.921593652921393447e-02 -7.284058587487912684e-01 -9.781091179527334756e-01 -2.076976686519334345e-03 2.080822903218090825e-01
-2.986547016177000177e-02 -3.009886764515324470e-02 -8.738846344174463487e-01 -9.861811206731297963e-01 -1.622135412012862821e-01 3.366844633820577359e-02
-2.350945876340690063e-02 -8.737442263691415356e-02 -9.292890002467323329e-01 -9.908516091173512619e-01 -1.267017365831508424e-01 4.647320363790159725e-02
2.906323152463251291e-02 -2.147107619817895663e-01 -7.740277659997809589e-01 -8.834283120445518556e-01 -3.012220965521114624e-01 3.589145664735058361e-01
6.780392683067151339e-04 1.533864301538186425e-01 -7.136419633542542273e-01 -9.740418498495584387e-01 1.939604300741888943e-01 1.167125799007372317e-01
2.028344736085501906e-02 -1.408422594871391875e-01 -7.281687015665999629e-01 -8.916993130469126339e-01 -3.364587567319261563e-01 3.027669733145789133e-01
4.241517868091739668e-02 -1.196885388446045778e-01 -6.462452942097384190e-01 8.945890219008493238e-01 2.610624260808435682e-01 -3.627077219790974527e-01
9.623919169043910690e-03 1.391286898111474268e-01 -6.539978515891379240e-01 9.032789382012298418e-01 9.558060410221971837e-02 -4.182720501318654138e-01
1.492131478327037367e-02 4.295066635561472362e-02 -6.493986647705684012e-01 -9.109852641475730817e-01 -2.821001691566775785e-02 4.114730166749629436e-01
2.979710541615657529e-02 -1.581044060320009603e-01 -7.181721956742110891e-01 8.892511409628985897e-01 3.429837405469036149e-01 -3.026459350737059628e-01
-2.309443647049941133e-04 -2.211889471529683016e-01 -8.484033997665230142e-01 -9.077608586198389062e-01 -1.027702312545110547e-01 4.067044419792675281e-01
7.853499052353420107e-03 -2.193421946828231772e-01 -8.293888496377727071e-01 -9.147295711371203897e-01 -2.081304002218182236e-01 3.463402202904042881e-01
-1.398598746337516470e-02 -1.946283106614273006e-01 -8.991261363713377586e-01 9.965940705166362878e-01 8.214368574853385396e-02 7.257651323116999682e-03
-2.011924573490504742e-02 -3.258352203393256874e-02 -7.723275894868808500e-01 9.798024668261915426e-01 1.436331241256787183e-01 -1.391281842590040285e-01
4.631425655877616232e-02 -2.286220841929445524e-01 -7.434285447074053810e-01 -8.817221073026786371e-01 -3.488887113139623741e-01 3.175575422051983843e-01
-1.780567263526726309e-03 -4.288063134800847165e-02 -7.109720526581323474e-01 9.324331631392709374e-01 1.900630761879222586e-01 -3.073181142530945209e-01
4.693477104114739118e-02 -2.219984099380897247e-01 -7.349738666054778102e-01 8.747700555704539527e-01 3.394696620847819646e-01 -3.457422427203669657e-01
-2.883558890778808309e-02 2.210272817579783666e-02 -7.922654505674728842e-01 9.811510425127524249e-01 7.255963979198691571e-02 -1.791025696337047723e-01
4.518181061679962113e-02 -2.068379227709689905e-01 -7.259391720264763981e-01 -8.927004958818538505e-01 -3.060343864888735999e-01 3.308002100039706961e-01
-3.569603704568496960e-02 4.717085880710773088e-02 -8.462303059110608539e-01 9.941391425708471230e-01 1.776289920034143655e-02 -1.066388513652492126e-01
6.299835699660815552e-03 1.723281786723319942e-01 -6.688679168333289127e-01 9.912907174530688481e-01 6.581956308765436747e-02 -1.140635726528435867e-01
2.798277824468418939e-02 -7.723817508516586661e-02 -6.537726898556475152e-01 8.970571259473869574e-01 2.270588122642135387e-01 -3.791211001252484669e-01
-1.735877749983043630e-02 6.830177288699089411e-02 -7.405326407925774124e-01 -9.708823328407519826e-01 5.660819591600986522e-02 2.327724380867162435e-01
4.828888583398983567e-03 1.802786188084875563e-01 -7.178804390078129538e-01 -9.957744430772528244e-01 7.620375043473433252e-02 5.124692121355302332e-02
-2.784621202657363258e-04 -1.018000834491532419e-01 -7.580256734359742676e-01 -9.268627969762835983e-01 -2.825642151148727299e-01 2.471493878564472169e-01
1.387447743955877964e-02 5.922365786478480526e-02 -6.515150496167030347e-01 -8.992523365102605970e-01 4.862396837179629172e-03 4.374032377313121778e-01
-3.047061815837266707e-02 -3.012363848437610292e-02 -8.812113516876233232e-01 9.863865768617162688e-01 1.612891682938285831e-01 -3.205191379793849438e-02
-3.133082821365540827e-03 -1.390002465339084947e-01 -8.097698060009062004e-01 -9.290861757560680001e-01 -2.288290255774293180e-01 2.905789997096301924e-01
-2.204074268144531543e-02 -7.514968523138529366e-02 -8.554237313841831503e-01 9.740383050029828294e-01 1.997544896800705072e-01 -1.065247588101997239e-01
4.885728935291595854e-02 -1.648845711997481978e-01 -6.703845403515008572e-01 -8.965629488371246181e-01 -3.210523601295624530e-01 3.051233534617064369e-01
1.426161831895416190e-02 8.139043193524046066e-03 -6.537567254639873315e-01 -8.763573443998713408e-01 -9.025542722216331470e-02 4.731297525767641510e-01
1.549634591291514270e-02 -7.243355334789731981e-02 -6.815213317708803675e-01 -8.979096732315493545e-01 -2.262641971676323804e-01 3.775748029163214503e-01
2.285935770362020752e-02 -1.010310662328958026e-01 -6.826847891112622913e-01 -8.986521100780036075e-01 -2.612418263246724104e-01 3.523877030074996086e-01
-1.480717353758190247e-02 -1.272891489885461525e-01 -8.676781014986383322e-01 9.824841863786273333e-01 9.450835433188994883e-02 -1.606019753222383273e-01
-1.436827278693483638e-02 -7.574406287242341218e-02 -7.901518446727305856e-01 -9.737792952639984234e-01 -2.015671298742732764e-01 1.054731068538252436e-01
-1.570408099940596644e-02 -1.713489603622253832e-01 -9.013720467401399317e-01 9.988771761600802046e-01 4.718996520706515707e-02 4.182598500970145620e-03
-3.503025249130304469e-02 1.645949483285936293e-02 -8.525780586865234767e-01 9.934675196473592429e-01 8.818476721167417542e-02 -7.242744119149149840e-02
5.009423470101045592e-03 -3.720666597776171175e-02 -6.888013783084878661e-01 9.319895358883071301e-01 1.555855055786256325e-01 -3.273967859471763608e-01
-2.975436399183229580e-02 -2.494348107566383629e-02 -8.408130167416706380e-01 9.890997581274435513e-01 1.406931323846713489e-01 -4.344089055282312345e-02
7.093589993012593131e-03 1.961247240796807900e-01 -6.681679206029694784e-01 9.959957370983070213e-01 -7.257749450874287356e-02 -5.220152270608392764e-02
1.248497850849516339e-02 -1.767969055486872873e-02 -6.626323261778137574e-01 8.882021831262619793e-01 1.242910210255532694e-01 -4.423218556460530859e-01
3.207146979243351986e-02 -9.008849389582987421e-02 -6.516502751377362124e-01 8.979974015188962877e-01 2.213524651339724147e-01 -3.802680016046887657e-01
-1.657618219222274647e-02 -3.409604296411752888e-02 -7.536516610249955894e-01 -9.811440767248131856e-01 -1.077472450409705657e-01 1.604581936016214183e-01
1.300490193850738913e-02 1.994329207478996724e-01 -6.286487964935959516e-01 -9.762333121330939445e-01 6.615072855445669475e-02 2.063797504440874064e-01
1.426033220082417036e-02 9.456070950307912670e-02 -6.506855030214551139e-01 -8.997396242828650248e-01 -2.190481701359774103e-02 4.358770325297374737e-01
3.703201942718361422e-02 -2.099621121095678333e-01 -7.502695854846529455e-01 -8.893041235871642636e-01 -3.061066781441394991e-01 3.397600290888057595e-01
-1.535182391693477519e-02 -1.699836688524207773e-01 -9.035319462150821490e-01 -9.988897036644767136e-01 -4.710841583397147592e-02 -3.963214699116051677e-04
-1.503639872571990894e-02 1.380545357344224455e-01 -7.842991925504199102e-01 -9.545970199223550168e-01 2.256943825515544677e-01 1.944391299096757397e-01
-3.107314294252492767e-02 1.546175185691639649e-02 -8.099357620425455817e-01 9.945403108984059992e-01 5.417981942352313035e-02 -8.918585742894656609e-02
-2.284550806311740415e-02 -4.055047895956333942e-02 -8.042125201824700254e-01 -9.762691724148964134e-01 -1.824441167194755242e-01 1.166732500052341664e-01
-3.406692990358981682e-02 2.951711507662928627e-02 -8.388227672750931951e-01 -9.943368832888807018e-01 -5.521085635473690911e-02 9.080706950415118328e-02
3.622461511730404315e-02 1.158712059539180744e-01 -6.080607831332733859e-01 8.352067182989554306e-01 1.547235760749291755e-01 -5.277218516556569927e-01
2.871753614633175758e-02 -1.263045136276306213e-01 -6.876665496642364594e-01 8.956645149266542205e-01 2.972017966915549425e-01 -3.308416067312467401e-01
-2.748734794891580929e-02 -3.054871730084329773e-02 -8.274134048085984849e-01 -9.762691724148964134e-01 -1.824441167194755242e-01 1.166732500052341664e-01
-1.760468974300073708e-02 -1.323041001189317056e-01 -9.007900560742337914e-01 -9.957583845597614003e-01 -7.895466682457041863e-02 4.723769856328582234e-02
4.377331989811716027e-03 -2.188368551322043831e-01 -8.364795158651791018e-01 9.077593019126999341e-01 1.024714999960606859e-01 -4.067832856442420986e-01
-6.904040115388184427e-03 -1.327286012743250920e-01 -8.198587451774245194e-01 -9.814582810172333138e-01 -1.333972626418212515e-01 1.376401574482047363e-01
2.509690980842047003e-02 -2.294524892380037095e-01 -7.982268620249550750e-01 8.641805526118283565e-01 3.581805749390598037e-01 -3.534100284709526529e-01
-7.418515665515528629e-03 -1.572774144449176903e-01 -8.401249042765061015e-01 9.824841863786273333e-01 9.450835433188994883e-02 -1.606019753222383273e-01
-2.241380176301316710e-02 1.124244518688821692e-01 -7.948967928589175669e-01 -9.634679064244791036e-01 1.878710940720886569e-01 1.908770423654647663e-01
1.059945180871562503e-02 -2.335968582335054278e-01 -8.330361894066690143e-01 -8.511361858091646138e-01 -3.060479016944953612e-01 4.264995604624041148e-01
-1.496461287064803670e-02 -1.437118647317394415e-01 -8.837114249810305022e-01 -9.839881236879001181e-01 -8.498639386938910967e-02 1.566674353471171899e-01
7.948610120015247790e-03 -1.701180006319585603e-01 -7.985314974277073485e-01 -9.301316335962435122e-01 -1.939701225663716389e-01 3.118184339245688719e-01
6.034869418473151094e-03 1.874021476299055633e-01 -7.010815795627022284e-01 -9.996458487436774565e-01 1.827700894434843709e-02 1.934238955200052665e-02
-2.262223119282130018e-02 -5.368168663883553238e-02 -8.200815589384210513e-01 9.737774400051897317e-01 2.015651608038304399e-01 -1.054939964503423949e-01
2.738292788513297868e-03 4.523655196282463237e-02 -6.751304918117637666e-01 9.101237263630433949e-01 1.094292532942027669e-02 -4.141920509815258389e-01
1.118019408608231929e-02 1.055497033795810141e-01 -6.553207445321845848e-01 9.033419607576489430e-01 3.815334043073878578e-02 -4.272208147416306501e-01
-2.517402486217705515e-02 -4.759152329232807684e-03 -7.867393813088116028e-01 -9.814763647187606521e-01 -1.024432485243250979e-01 1.618935648203163602e-01
2.764267445692742894e-02 -2.360446289789585872e-01 -7.995474696526991831e-01 -8.531797258587646704e-01 -3.926022561785159071e-01 3.434353269934566910e-01
2.501257481815317985e-02 -1.919770000291093695e-02 -6.380842304004089582e-01 8.834509741134523031e-01 1.122527924246810721e-01 -4.548776614990606149e-01
-2.305035154212554602e-02 -3.758147126585457964e-02 -8.012838659067823555e-01 -9.762691724148964134e-01 -1.824441167194755242e-01 1.166732500052341664e-01
2.217155997407083134e-02 -1.879973924223561979e-02 -6.443663499551892659e-01 -8.891056389784258718e-01 -1.235245080064486106e-01 4.407185708119524259e-01
-1.172744809953082772e-02 -1.216168832372797048e-01 -8.430419345818762622e-01 -9.799589630041469768e-01 -1.469324843796778191e-01 1.345038135587708628e-01
2.928391947651554084e-02 -1.720273167789894697e-01 -7.360652134161052018e-01 -8.901095361978160758e-01 -3.291224811016985607e-01 3.152513378293114732e-01
1.201745548308494858e-02 1.328177081231764756e-01 -6.502710343237066981e-01 9.032789382012298418e-01 9.558060410221971837e-02 -4.182720501318654138e-01
3.283167989920835004e-03 1.787008266374185139e-01 -7.312063122661671688e-01 -9.814179406980476639e-01 1.576923465983044725e-01 1.093249719886697918e-01
2.776488347727141051e-02 -8.783494016463387274e-03 -6.308238226940453552e-01 8.763241036065876344e-01 6.738045885818115532e-02 -4.769863092397637616e-01
2.057031349091464206e-02 6.483260601294107972e-02 -6.368347580929630825e-01 8.987859245073153147e-01 -6.763279975039816760e-03 -4.383356247802698835e-01
7.043551594207371133e-03 1.246760451094675315e-01 -6.625070367203736987e-01 9.735533318675997361e-01 -8.164082001464575966e-02 -2.133745217143597772e-01
-2.463093206844371372e-02 1.081391297750545766e-01 -8.002212465900945260e-01 9.611416101084293562e-01 -2.002764664328737232e-01 -1.899898479165084975e-01
-1.277772847822192942e-02 -7.928368857843427764e-02 -7.822316558534840869e-01 -9.737792952639984234e-01 -2.015671298742732764e-01 1.054731068538252436e-01
-1.498699809321881252e-02 1.314099941582756725e-01 -7.754675138133707568e-01 9.573328169508158458e-01 -2.212651379429829146e-01 -1.858914100223263421e-01
-2.621184044099627523e-03 1.588018766988275043e-01 -7.444989253483642599e-01 -9.662986576205907507e-01 2.098939148115647191e-01 1.490350589818374705e-01
-2.486326512138626113e-02 -1.269822252530282414e-02 -7.899556103363979398e-01 -9.811440767248131856e-01 -1.077472450409705657e-01 1.604581936016214183e-01
-3.931936673480256397e-03 -1.918358094045764795e-01 -8.460303205926016368e-01 -9.205471206764713754e-01 -1.532296405234715442e-01 3.593239149838288182e-01
-8.350687572164642355e-04 2.072877976834850214e-02 -6.859476482536424058e-01 9.214293209760990866e-01 6.234113860289872133e-02 -3.835121756648920410e-01
2.008742585556686985e-02 -1.316511065486949961e-01 -7.187825961491806082e-01 -8.935247585789073410e-01 -3.221396840033716180e-01 3.127931102129858365e-01
9.697877746627442744e-03 -2.036163183058034842e-01 -8.157813459051309612e-01 -9.216886369824477399e-01 -1.866284606325061268e-01 3.400880388066874760e-01
-3.254980836928927923e-02 1.169721343797629730e-02 -8.286894675357149298e-01 9.945403108984059992e-01 5.417981942352313035e-02 -8.918585742894656609e-02
-2.893091992660389369e-02 -2.186344983169675321e-02 -8.259112512995976374e-01 -9.762691724148964134e-01 -1.824441167194755242e-01 1.166732500052341664e-01
-2.910885931009433644e-02 -3.327069411704792340e-02 -8.551400640707790268e-01 9.863865768617162688e-01 1.612891682938285831e-01 -3.205191379793849438e-02
-2.501160554811849342e-03 1.081311215008343846e-01 -6.991313559258447441e-01 -9.621494861563201217e-01 1.172625333851307627e-01 2.460037897131475970e-01
2.898978347368474928e-02 -2.231493362208012698e-01 -7.820256314085670679e-01 8.610180559697024893e-01 3.795781392049389913e-01 -3.384794580648434748e-01
9.571401242810992013e-03 -2.290438845753584030e-02 -6.708197112473472945e-01 9.291445265746118842e-01 1.227877087082787644e-01 -3.487314544554468432e-01
1.637647091726348106e-02 1.516025346801352647e-01 -6.324209182405772234e-01 9.097237863206515396e-01 2.142703901282147494e-01 -3.556554969583913817e-01
-3.024911436723687688e-02 -3.004677640742094147e-02 -8.848680117872615991e-01 -9.863734856501700232e-01 -1.609919051972182324e-01 3.389621317056186467e-02
2.075909768271909026e-02 3.007831094255265444e-02 -6.390552333090626647e-01 -8.681387819771662073e-01 -4.746161892715525243e-02 4.940470118885607609e-01
1.572816700882197216e-02 -1.614556599390801206e-01 -7.646586605255978331e-01 9.262982565154526116e-01 2.779046338245564907e-01 -2.544416523984865952e-01
-3.096068666010545756e-02 9.645572293244643325e-02 -8.278648949747214880e-01 -9.846687995249487901e-01 7.720290465666079793e-02 1.564195216546542810e-01
2.347958868185939796e-02 -3.709905665310309769e-02 -6.474129377733210955e-01 -8.923669207325153341e-01 -1.576447440086481688e-01 4.228822690404701046e-01
-6.478375858742309659e-03 -1.688510978511088279e-01 -8.412997675763438377e-01 9.855684627106947593e-01 4.101031182921226204e-02 -1.642344654259542958e-01
-1.719529440146557939e-02 -4.641843127717017875e-02 -7.691299039763477285e-01 -9.798047833097982551e-01 -1.436303954556370222e-01 1.391146868756012733e-01
-1.104228365715555042e-02 -2.006684524855591456e-01 -8.728788428533663657e-01 9.831083174177236428e-01 -1.608539173865997443e-02 -1.823164731907297720e-01
-2.138572228179353059e-03 -2.178485310201214997e-01 -8.507711493102428912e-01 9.077593019126999341e-01 1.024714999960606859e-01 -4.067832856442420986e-01
5.209063190010161139e-03 -5.272043744650508484e-02 -6.958503295924826082e-01 9.324331631392709374e-01 1.900630761879222586e-01 -3.073181142530945209e-01
-3.314349309139279220e-02 2.093124191283185845e-02 -8.297002263642540010e-01 9.945403108984059992e-01 5.417981942352313035e-02 -8.918585742894656609e-02
-1.870700576169109786e-02 -4.351508240983424647e-02 -7.767795123654545053e-01 -9.798047833097982551e-01 -1.436303954556370222e-01 1.391146868756012733e-01
-9.377214812563497426e-03 -1.037137824129501090e-01 -7.928999516950577808e-01 9.255555383087373800e-01 2.891764879938177879e-01 -2.443847464503146605e-01
-3.773486672962401284e-02 1.620122535181101400e-02 -8.924848302392435206e-01 9.903124003967396227e-01 1.332909225431784528e-01 -3.892145408430080361e-02
1.277055935616141884e-02 -1.666420109639601688e-01 -7.805093380175348594e-01 -9.299573381404255823e-01 -2.373676130561159225e-01 2.807774305581135499e-01
-5.301203010479238996e-03 1.261319532917115349e-01 -7.186630979139531084e-01 -9.621494861563201217e-01 1.172625333851307627e-01 2.460037897131475970e-01
3.666248615468289604e-03 -2.843532802510306476e-02 -6.885546925447517674e-01 9.300985005987902898e-01 1.270251443001175484e-01 -3.446467639474024014e-01
-3.170838368323414952e-02 -2.246272474968505350e-02 -8.910746388475433433e-01 -9.861811206731297963e-01 -1.622135412012862821e-01 3.366844633820577359e-02
2.399129327156545796e-02 -1.152569179466811367e-01 -6.905354611530267750e-01 8.955392502722989700e-01 2.977198687198093219e-01 -3.307148786964210219e-01
-3.049659877737043515e-02 -1.042488602947679553e-02 -8.238498026757371528e-01 9.929789843413141526e-01 9.448778210779590347e-02 -7.116737798206403121e-02
4.150121829051438282e-02 -1.866054257129940719e-01 -7.167093562387417682e-01 -8.910442533270404031e-01 -3.353421822342699810e-01 3.059178965461400446e-01
-2.539334778402367945e-02 -5.977073265560745724e-02 -8.702250285517471040e-01 9.873588002004668462e-01 1.544110776809612950e-01 -3.577455458980711295e-02
1.257297861425086573e-02 -1.867439385540323182e-01 -7.957489499805021627e-01 -9.268986093607874954e-01 -2.181116513945068058e-01 3.054280201471361034e-01
8.518470706164283507e-03 5.214293140364600898e-02 -6.619075583792353168e-01 9.071151708741693742e-01 1.030987305734899773e-02 -4.207561922152397438e-01
-1.954796421004880574e-02 5.304615956582958008e-02 -7.446640796180440391e-01 9.726884252722384216e-01 -3.695960782407305134e-02 -2.291532559901860999e-01
1.203715631676146973e-02 1.468785939784932612e-03 -6.592865528829422450e-01 -9.180873695671392110e-01 -5.290886970361686342e-02 3.928310493685260307e-01
-3.147487163587249677e-03 9.610713314016060271e-02 -6.940936155348833569e-01 9.596109687169430691e-01 -1.264132758950334556e-01 -2.513294101286519533e-01
-1.503886913608920572e-02 -1.232976924868306595e-01 -8.655766144329671841e-01 9.814532339378925219e-01 1.334137074846357685e-01 -1.376602057533579115e-01
-5.915576178624071778e-03 -1.999027184641982979e-01 -8.545522226496895524e-01 -9.205471206764713754e-01 -1.532296405234715442e-01 3.593239149838288182e-01
-2.351809787255371847e-03 -1.643128963684267196e-01 -8.242613701515409952e-01 9.301389025858306514e-01 1.939632011620706642e-01 -3.118010559497657597e-01
1.633914483022646733e-02 8.579040265389230313e-02 -6.458339314655656693e-01 8.987859245073153147e-01 -6.763279975039816760e-03 -4.383356247802698835e-01
-1.778064395886502086e-02 -6.637018858171037095e-02 -7.996342485667465860e-01 9.737774400051897317e-01 2.015651608038304399e-01 -1.054939964503423949e-01
4.246822511158981212e-02 7.013868615556738406e-02 -6.037835763247807463e-01 -8.290472765761844887e-01 -1.600953184925861875e-02 5.589492893738920998e-01
1.168088796299803639e-02 -1.566614734637157558e-01 -7.756809283675096811e-01 -9.299573381404255823e-01 -2.373676130561159225e-01 2.807774305581135499e-01
