-6.293695009268927831e-03 -2.125733954292564343e-01 -6.482592252980610148e-01 -9.869444973193476356e-01 1.444500949470315376e-01 -7.123713414261902133e-02
-9.083529026257386799e-03 1.286286011903146898e-01 -6.998463216798092024e-01 -9.605491276850250948e-01 -2.718514365839747593e-01 5.867000707998961534e-02
-2.444730122610123957e-02 1.595562903723009851e-01 -7.201089245655013515e-01 9.181146419542970394e-01 3.639312033793132284e-01 -1.569062887076786983e-01
4.474418600962209655e-03 -2.221925250524216799e-01 -8.125928758534434193e-01 9.677840137745566951e-01 2.165885532950842796e-01 -1.283880884815678247e-01
-1.888125954191017392e-02 -9.501349625461431858e-02 -8.818425953650272930e-01 -9.616875726230849075e-01 -8.993001245919828371e-03 2.740002529030025613e-01
-8.602972699242941723e-03 3.743929479147597300e-02 -8.356563999118218344e-01 9.743658822100302874e-01 9.190663170479387856e-02 -2.053394716895619587e-01
1.746543235124555817e-03 -2.372497280460880709e-01 -7.516462154468913637e-01 -9.787184060440715649e-01 1.292267193354598442e-01 -1.594074549083141501e-01
-2.223419551626113356e-04 1.003963307865411436e-01 -6.513812215602194922e-01 9.778308021829139607e-01 1.465321726241561595e-01 1.495835709172747552e-01
-3.725969465410751587e-03 -2.301759264297665031e-01 -7.020262814025582943e-01 -9.802405638104226826e-01 1.634777108341312624e-01 -1.113708899176831385e-01
7.526745758337262393e-03 -1.053589885572932400e-01 -6.082214877694134270e-01 9.935157684964376346e-01 -8.634382350203660683e-02 7.396730285728952969e-02
1.675992241898227597e-02 -2.605706673878584873e-02 -7.094042694624648204e-01 9.994700954453112907e-01 -2.805866167294639169e-02 1.649969138085359555e-02
4.743534751962127319e-04 6.124086127309012056e-02 -7.674086248663986032e-01 9.652659262283145303e-01 2.002182691580069729e-01 -1.678521264624476261e-01
-2.727763328315394378e-02 1.766172275584459717e-01 -7.035930640148774229e-01 -9.103466912553199730e-01 -3.529318863443002829e-01 2.161203028915719693e-01
-9.219098409593113122e-03 1.138156734757510141e-01 -7.333554508256542315e-01 9.325076241128570365e-01 3.275578717568432552e-01 -1.521031611161372255e-01
1.725527374058695440e-02 -1.896653607217694756e-02 -7.152757443209695198e-01 -9.889565744787509605e-01 -4.556269788201439130e-02 1.410281332109555863e-01
-1.515069046277852348e-02 1.190012241485911282e-01 -5.834098936143101710e-01 9.557560614255545817e-01 7.824384676180323739e-02 2.835634875865133409e-01
6.636931539451108343e-03 6.427058354996650902e-02 -6.575371327124814869e-01 9.807809642395712846e-01 1.474633820407833806e-01 1.277624793998230757e-01
-4.837770827809803262e-03 1.122212439687980817e-01 -6.989211963517883985e-01 9.610246761314973352e-01 2.699587131228154968e-01 -5.961430260787890789e-02
3.265451926370808566e-03 -2.146564305281968218e-02 -5.713504641369573367e-01 9.826799136965481685e-01 7.410500102777796416e-02 1.698488623453730251e-01
-2.139295798444730730e-03 -1.907548428631801740e-01 -6.660015553386663401e-01 9.878338556187925557e-01 -1.377172837154724827e-01 7.223727195390665379e-02
5.596529693791451633e-03 -1.240613187747432039e-01 -6.124273338459915728e-01 9.896264719887331029e-01 -1.357447032360443728e-01 4.704063650176794342e-02
2.704644488506358600e-03 9.138938590618489455e-02 -6.758440625863890716e-01 -9.670882014150449235e-01 -2.469469671187050630e-01 6.129931577665732184e-02
-1.306853667812014549e-02 -2.275616437818375054e-02 -8.670800207097241197e-01 9.674914792867160829e-01 -2.362292178901743284e-02 -2.517979250783287659e-01
-1.003130706197843773e-02 1.771854613159603853e-01 -6.118240778164401039e-01 9.957725923006784940e-01 -3.961903967079951835e-03 9.176735661302469482e-02
-6.951821197784612862e-03 1.287426902973536624e-01 -6.324963829761862666e-01 9.774149287708401301e-01 1.409517008472401245e-01 1.574568990046595340e-01
-2.673498309766122755e-03 -7.393501263481606911e-02 -8.251454012747825306e-01 -9.631841048328672050e-01 3.355341156288549342e-02 2.667406020271377298e-01
7.828797765188109459e-04 8.833507247160876652e-02 -6.442893854543761956e-01 9.713284836841914460e-01 1.819509152002700691e-01 1.530190878340126071e-01
3.875211642550809802e-03 -2.239680927360279961e-01 -8.224107578097268334e-01 9.567615440400503157e-01 2.569063862573656709e-01 -1.364054857631466222e-01
4.297581420713535703e-04 -1.143651647950018890e-01 -7.998998464261302122e-01 -9.819420431457565046e-01 4.344684777547268978e-02 1.841254879725019167e-01
-3.206562349553383241e-03 1.049781697734059188e-01 -7.126883605546404654e-01 -9.610328882411794948e-01 -2.699397657637795378e-01 5.956769743923567839e-02
-1.459498489682086071e-02 -1.733109661075955821e-01 -8.681367389897082232e-01 -9.488252921164769260e-01 2.639994760538757514e-03 3.157904296645897557e-01
-6.756703107658743220e-03 -1.185674579592347483e-01 -8.379147339771558789e-01 -9.680040464208263806e-01 -2.453462455021043417e-02 2.497322932884066538e-01
-1.013676612783653321e-02 1.827968301354080394e-01 -6.241257714045388427e-01 9.789232927378042071e-01 1.071561591359970617e-01 -1.738584035777272496e-01
-9.376736144829497452e-03 -6.850586641203003369e-02 -8.485295811782889164e-01 9.623974458740760518e-01 -3.832768801333157060e-02 -2.689277681954903576e-01
8.083879262261093462e-03 -8.477250755751242206e-02 -5.958467279055978949e-01 -9.926170054001874909e-01 5.157886874733492305e-02 -1.097775062984640004e-01
-1.147355713376419818e-02 1.997165072528559460e-01 -6.046544982054150585e-01 -9.896043914823211551e-01 -7.728897392146157064e-02 -1.212829867255603572e-01
-1.401181660462413707e-02 1.236844065965191086e-01 -7.416137553715786979e-01 9.294610982496401830e-01 3.477656299082817482e-01 -1.231305546770117276e-01
-4.781732872047121490e-03 1.335265680185014625e-02 -8.300424187267269049e-01 -9.725968252946992632e-01 -9.415538455522259875e-02 2.125798179177177116e-01
-1.356508287952261187e-02 -1.272714672511518486e-01 -8.623342320426768959e-01 9.652335907448753582e-01 1.354900654424056987e-02 -2.610374297288007850e-01
-2.532238191669118621e-02 1.638522794148858097e-01 -7.152651412263512087e-01 9.181146419542970394e-01 3.639312033793132284e-01 -1.569062887076786983e-01
3.853127384577014359e-03 -1.388459603703645906e-01 -6.180607989959731041e-01 -9.846083873668052266e-01 1.671113234943862047e-01 -5.118719651332448439e-02
1.229432632690970542e-02 -8.445456672512385854e-02 -7.449065124424992801e-01 -9.915724613613567939e-01 1.257518740871033935e-01 3.115317051860630113e-02
1.599581089219484498e-02 -2.509658123848683420e-02 -6.831447712051732513e-01 9.993642466418658499e-01 7.213002876629102250e-03 3.491525631349998160e-02
-4.782021442683726496e-03 -2.577628537276634851e-02 -8.362477402788255354e-01 -9.687862909177221704e-01 -1.075212428488954083e-02 2.476641159983510587e-01
-6.943488775385763673e-03 -2.271762481014437673e-01 -6.661209951535369544e-01 -9.835142499863441801e-01 1.554427638667873479e-01 -9.239733348561871007e-02
-1.666802944502157255e-02 1.357897110343081193e-01 -7.337409919282554815e-01 -9.299930526481954285e-01 -3.351725437601664748e-01 1.509048969895603609e-01
1.355378738901490653e-02 -8.001955778769177796e-02 -7.198977759986067149e-01 -9.938789960506423382e-01 1.080431067359722830e-01 2.304839031702891547e-02
1.425393938913659293e-02 2.292228277464555819e-02 -7.051370374709180489e-01 -9.834443394085914392e-01 -1.561665298688094394e-01 9.191978151591322088e-02
-1.367969145066792735e-02 1.986201516336959516e-01 -5.908924099101663385e-01 -9.619895102856248492e-01 -1.100363697614395453e-01 -2.499363507578426791e-01
1.271717896454361424e-02 -6.177961817333173927e-02 -6.285359003095881691e-01 -9.931904244826974537e-01 5.677282961002547840e-02 -1.017331142448205661e-01
-1.615934252212427452e-03 -2.066194293915987468e-01 -7.008341951081071830e-01 9.889118532948087958e-01 -1.052212349459653445e-01 1.047942657280083734e-01
-8.429671814958818871e-03 1.393707783562742053e-01 -6.580858184244667841e-01 -9.594280092944510452e-01 -2.683503238622472198e-01 8.652166586649651103e-02
-5.486462046854432770e-03 -2.086019298334869654e-01 -6.513898333805749896e-01 -9.869444973193476356e-01 1.444500949470315376e-01 -7.123713414261902133e-02
1.055782239366066973e-02 -5.217242577343716298e-02 -7.594684655740036039e-01 9.842090476494453899e-01 -3.032321192989594072e-02 -1.743933867531285709e-01
1.195686910198033928e-02 -2.793142173392405489e-02 -6.223726719521157635e-01 9.900842631126747229e-01 1.017746847954647919e-02 1.401055711668152404e-01
-1.856540445451762555e-02 2.020392999906052700e-01 -6.524048915353772848e-01 9.490271627964579348e-01 1.698879351521765946e-01 -2.654911180514993307e-01
-1.617636804308839570e-03 1.126499713803097852e-01 -6.513909562977009404e-01 -9.778406957579948156e-01 -1.465233690329644511e-01 -1.495275093310606263e-01
1.439337097542375821e-02 -6.914610797708992118e-02 -7.346648292215381959e-01 -9.938789960506423382e-01 1.080431067359722830e-01 2.304839031702891547e-02
1.191076535345830453e-02 2.803688777806559104e-02 -7.167622089187689616e-01 9.865452490921640116e-01 1.217803947199957437e-01 -1.090779856594439046e-01
4.144526727424886758e-03 -1.538477857810171268e-01 -7.349385871367511980e-01 9.974403338780688522e-01 -7.149016375897368492e-02 -1.391703603969526946e-03
8.125114237725288360e-03 -1.161904468987720179e-01 -6.327286782249973429e-01 -9.886158479382578523e-01 1.397887843284120746e-01 -5.565789235412805375e-02
8.363047909677776004e-03 7.310451931730283133e-03 -6.112280114016049870e-01 -9.716119911500294970e-01 -1.212891180502700672e-01 -2.031233332142382553e-01
-3.033627272825194232e-02 1.797396002284323835e-01 -7.114381019054305533e-01 9.277373006561362434e-01 3.222374852530336953e-01 -1.883255268652302972e-01
8.781035186504120710e-03 4.621429305396468346e-02 -6.481694437002654130e-01 -9.769649146373075022e-01 -1.700991036928719280e-01 -1.288636895739063981e-01
1.287217397250210900e-02 -5.846668232226249345e-02 -7.453220697426236052e-01 9.842318928295823444e-01 -2.990916990321245902e-02 -1.743359477927544088e-01
4.838179832545710067e-03 7.860353949291754017e-02 -6.911121462739778787e-01 -9.709635999459027556e-01 -2.287646839834360235e-01 6.997433059380729625e-02
-7.240383955752642368e-03 8.822753031501298637e-02 -5.963692158337339233e-01 -9.556153416794510580e-01 -1.425979352704669911e-01 -2.578083544097536373e-01
2.562587639106297683e-03 -2.111039024070577880e-03 -8.012836116321471192e-01 9.719335709017682401e-01 5.231516814450845598e-02 -2.293648990934510634e-01
-1.581337614288837179e-02 -6.821500682406256288e-02 -8.716548876518228628e-01 9.634934625345651371e-01 -3.090260309109515297e-02 -2.659424313180365207e-01
3.161205107797878094e-03 -1.784452663481882195e-01 -7.432604269612967940e-01 -9.994128685155310166e-01 2.050086514113636307e-02 -2.745237283046583071e-02
1.010608126312977952e-02 -1.130092919351814024e-01 -6.991594133494466456e-01 -9.915214710676745202e-01 1.261395452138829032e-01 3.120877352651390060e-02
-1.621441415501261160e-03 -1.878375461991732276e-01 -8.225432215016038606e-01 9.834023065417368814e-01 1.138407682578601171e-01 -1.412805116456331556e-01
2.744652053108625773e-03 -1.959655158915741546e-01 -7.631915926633132674e-01 9.991215573563476671e-01 -1.840623870995834743e-02 3.764736381711334540e-02
-9.929593864986293109e-03 -1.757639289912963643e-01 -8.529056018321375943e-01 9.499383290203914365e-01 -7.821158187099402307e-04 -3.124364885105329059e-01
3.023891751590983366e-03 -2.268198420783912872e-01 -7.622504070373148366e-01 9.970756717225880417e-01 -3.541154291911492724e-03 7.633849019485697274e-02
-4.408469087928700708e-03 9.210222664691430916e-02 -7.533973608876620709e-01 -9.464877895052055123e-01 -2.902604468595584852e-01 1.411018685434000108e-01
1.191028793580138807e-02 -9.616625553339590293e-02 -6.564307718232696987e-01 9.883915427176497293e-01 -1.421301600357736672e-01 5.367658607279068156e-02
4.525071316771007296e-03 -2.022695399145077177e-01 -7.888738667899951595e-01 9.961388219498348295e-01 3.538634728184794631e-02 8.034459428265020020e-02
-6.315056999877611578e-03 -8.025404553345183781e-03 -8.400881321803831403e-01 9.691038487682036573e-01 9.416872903048760513e-03 -2.464732293929348672e-01
-1.126796518752979682e-02 9.874669550997203227e-02 -7.824559308591036988e-01 9.567715950568156380e-01 2.569607606317916293e-01 -1.362324571751099278e-01
-1.685750898937197345e-02 1.339834018863929888e-01 -7.389206773286762786e-01 -9.299930526481954285e-01 -3.351725437601664748e-01 1.509048969895603609e-01
6.282661220896441912e-03 6.486432187919576042e-02 -7.151973202171386657e-01 -9.769011814283321549e-01 -1.987656062702468918e-01 7.846219145518278093e-02
8.650994038201762241e-04 -2.025775459510374965e-01 -7.201886092991920396e-01 9.889118532948087958e-01 -1.052212349459653445e-01 1.047942657280083734e-01
-2.161239930775600560e-02 1.664213797840350118e-01 -6.951575682945257961e-01 -9.274287245041400451e-01 -3.082930341650714223e-01 2.117341872488189836e-01
-5.330468096309533797e-03 6.088763612217373833e-02 -5.881067973859012143e-01 -9.530222250235607095e-01 -1.525694628948529308e-01 -2.616700166299478769e-01
-6.821656340799466499e-03 2.690370066789237249e-02 -8.318551473539228525e-01 9.747972289649353694e-01 8.940179696089886607e-02 -2.043958930664842299e-01
-3.081829601744548192e-03 1.170154703523634682e-01 -6.560640034869420489e-01 9.640215982757009971e-01 2.533556271382702563e-01 -8.045672287221661279e-02
-3.181284776206610206e-03 -2.058439465404148239e-01 -8.375152765812206024e-01 9.485896526493540204e-01 1.134441289844359407e-01 -2.954794417307913812e-01
6.513882646622550128e-03 -3.826083542090172318e-02 -5.828913055207108895e-01 9.898300301713240934e-01 2.771109599618974684e-02 1.395299485047038768e-01
-2.793254993695476127e-02 1.636966780208731764e-01 -7.318112677934759391e-01 -8.995527667604925615e-01 -3.999888710153010618e-01 1.755383800695661523e-01
1.630557366240211609e-02 -3.728335887293667689e-02 -7.009730049581942568e-01 9.994700954453112907e-01 -2.805866167294639169e-02 1.649969138085359555e-02
-5.353748472098373602e-03 3.906328118935251809e-02 -5.741855425704487370e-01 9.493496024464941341e-01 1.851279102568078871e-01 2.538956265449063832e-01
1.155934859913061502e-03 -1.601433760298299758e-01 -6.421459712108978923e-01 9.856083313185333150e-01 -1.626473861702011636e-01 4.606565974234392430e-02
9.534355477779371188e-03 -2.413794479322058095e-02 -6.061657132785596147e-01 9.849728965167715566e-01 5.755394176934675726e-02 1.628371484464507524e-01
1.519647667302062403e-02 -2.289189165756805658e-02 -6.598635141233014645e-01 9.994198984495772375e-01 1.949050490029955547e-03 3.400099682691342523e-02
-8.445582965953468343e-03 -1.302382616314922206e-02 -8.500248356790339743e-01 -9.687862909177221704e-01 -1.075212428488954083e-02 2.476641159983510587e-01
-8.871532866958692018e-04 3.538252849653860527e-02 -8.004126693041494489e-01 -9.707702808194655919e-01 -1.351247551258253077e-01 1.983591753105496125e-01
7.483986953334042548e-03 -2.577785849535118873e-03 -6.029798108514667909e-01 9.719860983483353811e-01 1.217093327074145748e-01 2.010717855630070605e-01
-3.173655641060684623e-03 -2.004463534637021260e-01 -6.656861817822270488e-01 -9.875413543032252051e-01 1.389270833638189540e-01 -7.390087312727811053e-02
1.524934302383379632e-02 -3.279269036742709503e-02 -6.601890366404261634e-01 9.993642466418658499e-01 7.213002876629102250e-03 3.491525631349998160e-02
1.609420295333508638e-02 -3.004957252786769062e-02 -6.849377858998578761e-01 9.993642466418658499e-01 7.213002876629102250e-03 3.491525631349998160e-02
1.269558520247469208e-02 -7.976297902540109563e-02 -6.386581203444087196e-01 -9.924951247580103830e-01 8.976443107325302040e-02 -8.304079868158935340e-02
7.882834232485976672e-03 -1.222707803182158798e-01 -7.355183459884416797e-01 -9.923680122733231634e-01 1.203227967531836917e-01 2.698430651666469671e-02
-1.156649173206915175e-02 -1.670421355128933957e-02 -8.622075798825260540e-01 -9.670405427043925473e-01 -1.448980867481945017e-02 2.542098231983984102e-01
1.032005100985582298e-02 7.840902686230701024e-03 -7.488917274573698712e-01 9.886672623967577289e-01 8.536884846704410890e-02 -1.234876673045182116e-01
-1.558732957560455407e-02 9.710807670640586586e-02 -5.733027351507147262e-01 -9.486079736227603920e-01 -1.456957872598676207e-01 -2.809192943783811458e-01
3.774838090941639180e-03 -1.774817349286589852e-01 -7.805821227148808106e-01 9.994119824591413126e-01 -2.051008104555687023e-02 2.747773448801090965e-02
-9.805789243787227036e-03 -1.223055264339601017e-01 -8.482498572785157620e-01 9.645747167284951518e-01 7.320634457723177412e-03 -2.637082178455562587e-01
-2.607286125938318693e-03 -2.467862629103756700e-01 -7.350795466801083311e-01 9.746250854026234922e-01 -1.823661408492589786e-01 1.298019012791294391e-01
-5.312373161779702056e-03 1.238172072277012314e-01 -6.394618512600469540e-01 9.823304795972160885e-01 1.240685583094937872e-01 1.401207396972594388e-01
-7.262416517372381752e-03 7.142445141246528406e-02 -8.015615974366646634e-01 -9.612882586831669185e-01 -2.187544652264895861e-01 1.675451212699350656e-01
-2.328731020636455335e-03 9.768493749339605958e-02 -6.349240743455564218e-01 9.737355154536958546e-01 1.721912855321556246e-01 1.489607570164330208e-01
5.706850924515453199e-03 6.752201071124662446e-02 -7.101222623009123547e-01 9.768995673275389091e-01 1.987551604272803640e-01 -7.850873555722027997e-02
-6.499531936679058333e-03 -2.366091401742341851e-02 -8.414329205444361914e-01 9.692061194522105794e-01 9.847993249045521383e-03 -2.460538864666718673e-01
1.602280077574959024e-03 -2.677926038562856645e-02 -8.113419828819786739e-01 -9.686941752775343195e-01 -1.036496862121668791e-02 2.480406462837465020e-01
3.240297712021978759e-03 -6.188625927808784344e-03 -8.011319196633194251e-01 -9.714995694752156519e-01 -5.327002489418105474e-02 2.309781179186545241e-01
2.421028722913416611e-03 1.904027916273529899e-03 -8.021590897102537365e-01 -9.725968252946992632e-01 -9.415538455522259875e-02 2.125798179177177116e-01
-1.292804087530661020e-02 -2.409692279758283984e-03 -8.665612332517799166e-01 -9.670028053203212348e-01 -1.480086007502433298e-02 2.543354262458698001e-01
5.128343318195625715e-03 -1.247304493922546248e-01 -7.721293299444632607e-01 -9.830403444572738403e-01 3.793119985049934334e-02 1.794238146044880577e-01
-1.304699041177640600e-02 6.139378842588100182e-02 -5.615555382019370434e-01 -9.407991860017277386e-01 -1.843746143745888799e-01 -2.844343389830205626e-01
1.115882456255324218e-03 8.519657330032386761e-03 -8.052002249897082242e-01 -9.725968252946992632e-01 -9.415538455522259875e-02 2.125798179177177116e-01
4.604785917794704080e-03 -2.166669219382538480e-01 -7.781929469973376534e-01 -9.961440600434278148e-01 -3.540392018321784212e-02 -8.027187599561942666e-02
-1.097950890834270554e-02 1.789350180196107587e-01 -6.008235741389466034e-01 9.963375485936927234e-01 -9.532708931650535344e-03 8.497421210423437843e-02
-1.485769902188912965e-02 -1.241476127467166651e-01 -8.683227156737473029e-01 -9.646399816381826531e-01 -1.349266806424971252e-02 2.632254807832906662e-01
1.664670167404623188e-02 -1.029670456528419820e-02 -6.904761006106603372e-01 -9.994201123083262805e-01 -1.960081547848200201e-03 -3.399407586533536446e-02
1.620501571327540372e-02 -2.148213059678592482e-02 -6.768456615446518665e-01 -9.994201123083262805e-01 -1.960081547848200201e-03 -3.399407586533536446e-02
-2.304545018047575878e-03 -1.507104244662584858e-01 -8.149510119556030441e-01 9.860511326133808430e-01 3.221296069418358443e-02 -1.632957104004379156e-01
-1.403736809255737121e-02 1.056483817162826438e-01 -7.892265901769801584e-01 -9.469194776183820217e-01 -2.814521618209464560e-01 1.553324934237709232e-01
9.969826674930241245e-03 2.013624952521094608e-02 -7.428388234676918112e-01 9.871432466615234214e-01 1.158568705873205679e-01 -1.101153763479896103e-01
-2.194122315173076959e-02 -7.641004135046268464e-02 -8.932445989781435669e-01 -9.590385247204606944e-01 3.147829857894641342e-02 2.815212688600581270e-01
-1.665119746754854194e-03 1.835496264321667334e-02 -5.741074297452044561e-01 9.569868930567870802e-01 1.675666658439669277e-01 2.368491060051809705e-01
1.384307145175871050e-02 -3.349815682672342698e-02 -6.322476369766626414e-01 -9.894878811227610926e-01 -2.229075791418220348e-02 -1.428875614698496277e-01
-1.207541981294335168e-04 3.508218030462256776e-02 -7.949450975273889552e-01 9.712376153433275316e-01 1.341572984221014730e-01 -1.967214117026661602e-01
1.084108362273683568e-02 -2.882951416469009889e-02 -6.117053522489878103e-01 -9.898307132528403329e-01 -9.395904721110197658e-03 -1.419396916857470770e-01
2.437537502936267322e-03 7.169726724736118217e-02 -6.351566388481408865e-01 9.772908305083188862e-01 1.635256924622564834e-01 1.347663923576629952e-01
-8.085770385695648533e-04 -7.903572862218821715e-02 -8.158432002411408757e-01 -9.802164993829882711e-01 6.121515735049631174e-02 1.882241186668539568e-01
3.349597017797272935e-03 -1.782532780736010569e-01 -7.499755249453597949e-01 -9.994128685155310166e-01 2.050086514113636307e-02 -2.745237283046583071e-02
1.336430171621189565e-02 -6.664539187175316792e-02 -7.436244033926733277e-01 -9.842368939894086122e-01 2.990375331599966560e-02 1.743086401980618039e-01
1.099679887924306064e-02 -1.108248653157054980e-01 -6.720309309617829019e-01 -9.856100811098160719e-01 1.628704087286171054e-01 -4.523270913039175584e-02
9.206942244466760281e-03 5.839619162908738642e-02 -6.950198005912006094e-01 -9.793588301107110095e-01 -1.854410817523562127e-01 8.042317503490631347e-02
-1.205903327529838157e-02 1.214382343671420034e-01 -7.343510323127306894e-01 9.325076241128570365e-01 3.275578717568432552e-01 -1.521031611161372255e-01
8.932170238439634050e-03 2.814480664990806277e-02 -7.435813368958245073e-01 9.865452490921640116e-01 1.217803947199957437e-01 -1.090779856594439046e-01
8.229194795573322938e-03 3.756382682528942862e-02 -7.394234409766486937e-01 9.865452490921640116e-01 1.217803947199957437e-01 -1.090779856594439046e-01
3.062087690376749487e-03 -1.735222857694405096e-01 -7.517027435097028976e-01 9.994119824591413126e-01 -2.051008104555687023e-02 2.747773448801090965e-02
1.032018148685429765e-02 4.330502876849625510e-02 -6.574390317347332813e-01 -9.860935447081644600e-01 -1.258559717360309971e-01 -1.085347661501446792e-01
-1.119968041320152687e-02 1.136830414636034875e-01 -7.515534703949399153e-01 -9.286908691868174248e-01 -3.492047485040029597e-01 1.248571708444865952e-01
-4.584957792241451877e-03 -1.975743778077760637e-01 -6.415186295174439834e-01 -9.869444973193476356e-01 1.444500949470315376e-01 -7.123713414261902133e-02
-1.745504983881689468e-02 -1.433297878934749747e-01 -8.781913639986159703e-01 -9.451169521587500233e-01 2.672450251489425638e-02 3.256374482572392814e-01
-1.356603859496390355e-02 1.004019939259127303e-01 -7.958594335762841920e-01 -9.469194776183820217e-01 -2.814521618209464560e-01 1.553324934237709232e-01
1.279992254954962633e-02 3.558187976370884992e-02 -6.733157990819660377e-01 -9.892208658944192656e-01 -1.114910737637710841e-01 -9.493060070439056364e-02
2.592232304887848345e-03 -2.319401726025676833e-02 -8.073260205636278997e-01 -9.686941752775343195e-01 -1.036496862121668791e-02 2.480406462837465020e-01
-1.252050588442209234e-02 2.114060394299575318e-01 -6.068217316028637898e-01 -9.747639428453294119e-01 -2.107485544410782063e-01 7.362270390051751934e-02
3.888250159413604058e-03 -1.640486170729745508e-01 -7.746802913321299000e-01 9.994119824591413126e-01 -2.051008104555687023e-02 2.747773448801090965e-02
3.194845032781456345e-03 -1.904203594342362971e-01 -7.609592189582933264e-01 -9.991237666271742812e-01 1.838711955938722789e-02 -3.759804243623038333e-02
2.100325737440588304e-03 -2.131819947957983574e-01 -8.165783803973184485e-01 9.747383943926020144e-01 1.825497546767929080e-01 -1.286881873536761534e-01
-1.144861346737930004e-02 1.676224394922876670e-01 -5.965923261036462089e-01 9.963375485936927234e-01 -9.532708931650535344e-03 8.497421210423437843e-02
9.837025269785306184e-03 4.244530128838089333e-02 -7.149903848539091999e-01 9.838683274230594078e-01 1.494290132346300926e-01 -9.835692297686071672e-02
-1.374952765131550250e-02 -3.990008224638335460e-02 -8.680882241450814663e-01 9.674914792867160829e-01 -2.362292178901743284e-02 -2.517979250783287659e-01
4.552327362010414810e-03 4.358842580539699918e-02 -7.635312284546549311e-01 9.686038825631443361e-01 1.658542697711305747e-01 -1.851995677162540654e-01
-6.782097981679731380e-03 6.841551983783500379e-02 -8.023685154327578894e-01 -9.681156360990530452e-01 -1.668317891615858639e-01 1.868669828130961053e-01
4.394143944839168370e-03 6.832915790325906624e-02 -7.299331376055504528e-01 -9.769011814283321549e-01 -1.987656062702468918e-01 7.846219145518278093e-02
-1.119427497905078200e-02 -1.131103646412248698e-01 -8.530160858415909431e-01 9.684909539769619435e-01 2.401031330398999825e-02 -2.478886381418850260e-01
1.303075458150872341e-02 3.017416537867418334e-03 -7.341474717538968298e-01 -9.885724644297957386e-01 -8.189631247963687077e-02 1.265601697748449661e-01
8.742485150472942626e-03 -4.328168226797578233e-02 -5.978113423718224295e-01 9.897375274065453032e-01 2.293999126528030105e-02 1.410439067947516778e-01
-1.358062773840408924e-02 -1.304117755566245596e-01 -8.639637389267287304e-01 -9.646399816381826531e-01 -1.349266806424971252e-02 2.632254807832906662e-01
2.577285100477790924e-03 3.996420782869022220e-02 -7.793532913079925795e-01 -9.683489379601587510e-01 -1.733178754394890109e-01 1.796141653783855652e-01
3.911735102675573290e-03 6.991993073725594199e-02 -7.319095652094378401e-01 -9.769011814283321549e-01 -1.987656062702468918e-01 7.846219145518278093e-02
1.268067285419026934e-02 -4.623407195990774515e-02 -7.478538391249696105e-01 9.875967400768386195e-01 9.880176321144079274e-03 -1.567005459641554743e-01
1.439087800872704617e-02 3.197169351970885476e-02 -6.897415088006348949e-01 -9.838764389182069747e-01 -1.493749375197089280e-01 9.835792282582339618e-02
6.086531269591165423e-03 -1.395887002653641296e-01 -7.085993833759297589e-01 9.949775542655113769e-01 -9.863063180933814844e-02 -1.707820179971335922e-02
6.152739465222979882e-03 -1.261652283238723915e-01 -6.288827504564582505e-01 9.888234243763524001e-01 -1.389754746007927089e-01 5.398196795327434711e-02
-1.061038418764120340e-02 -1.641025284595662992e-01 -8.554451556858275740e-01 9.461383691023903530e-01 -2.588085637538450196e-02 -3.227264596923303808e-01
2.541581429817597534e-03 -1.776581630769901443e-01 -7.357380293453658071e-01 9.980831725618639627e-01 -6.134196987681327790e-02 8.194106447705745352e-03
8.382530125776714580e-03 6.542222812104388219e-02 -6.688918268275029222e-01 -9.807805525715415085e-01 -1.475026716325552600e-01 -1.277202785728261680e-01
-3.914327282995298633e-03 4.373603727754279968e-02 -8.077727952462911976e-01 9.712376153433275316e-01 1.341572984221014730e-01 -1.967214117026661602e-01
4.010920522773950281e-03 -1.773782195997414823e-01 -7.733977540303692555e-01 -9.994128685155310166e-01 2.050086514113636307e-02 -2.745237283046583071e-02
6.720853748968470300e-03 -1.327395623968561922e-01 -7.154866730602297276e-01 9.923640949553630408e-01 -1.203539424341820707e-01 -2.698947172459650531e-02
1.399547311250358417e-02 -5.713986263052302922e-02 -6.384262635804961450e-01 -9.931904244826974537e-01 5.677282961002547840e-02 -1.017331142448205661e-01
1.522729691338959440e-02 -5.166017113910989500e-02 -6.629767848630848670e-01 9.995126814039598795e-01 -2.388866258509394006e-02 2.009307125757170409e-02
6.187330287505236198e-03 5.738423801120400708e-02 -7.332080639086376861e-01 -9.838764389182069747e-01 -1.493749375197089280e-01 9.835792282582339618e-02
-1.353496668968989097e-02 1.776163693359539275e-01 -5.868048973870230167e-01 9.633238063711370147e-01 7.759592413141322420e-02 2.568776296932377412e-01
-1.365129484245691284e-02 9.749882820871015598e-02 -8.016395060439390763e-01 -9.469194776183820217e-01 -2.814521618209464560e-01 1.553324934237709232e-01
-1.553818244475010241e-02 1.250743849492949866e-01 -5.837796155888114180e-01 9.557560614255545817e-01 7.824384676180323739e-02 2.835634875865133409e-01
-8.868157548074574216e-04 -1.685075564867603015e-01 -6.255741092300267647e-01 9.864381199670561040e-01 -1.601460995333191528e-01 3.595917518691903181e-02
5.326588915125147691e-03 -6.196290866487084298e-02 -7.887920832465009635e-01 -9.815854016453807729e-01 5.209680788660766421e-02 1.837825396622383978e-01
1.248663253639563375e-02 4.411247096758888313e-03 -6.362686141399752637e-01 -9.932466365372810690e-01 -8.608530483319537518e-02 -7.778456980117627595e-02
4.733237285790566073e-03 -1.408751428075790124e-01 -7.694147221036572448e-01 9.864550312458838510e-01 1.377513951712153357e-02 -1.634524911433479222e-01
1.458898944809009640e-02 2.732545529930313979e-02 -6.864456662076734439e-01 -9.945662165809648902e-01 -7.142043963923372374e-02 -7.574405347988527604e-02
3.321775694809403490e-03 -1.657571510368697487e-01 -6.982628473651781853e-01 9.877833721365859576e-01 -1.435513027428470811e-01 6.063854559029533547e-02
1.542967127685199614e-04 -1.001433929507187376e-01 -8.021584468703814030e-01 9.830427702875128571e-01 -3.788506768017765175e-02 -1.794202704053263209e-01
9.607943211358164343e-03 -5.639829293246481634e-02 -7.641054811492690169e-01 9.842318928295823444e-01 -2.990916990321245902e-02 -1.743359477927544088e-01
-6.887956815407237157e-03 -2.344818664021161847e-01 -6.807600047151819433e-01 9.868742152493567010e-01 -1.422819049656961210e-01 7.638810637330181730e-02
-4.755147456186373765e-03 3.418162338492731350e-02 -8.201607136743049864e-01 -9.707702808194655919e-01 -1.351247551258253077e-01 1.983591753105496125e-01
3.766322303150296973e-04 -1.649434061713496158e-01 -6.424200406972940813e-01 9.856083313185333150e-01 -1.626473861702011636e-01 4.606565974234392430e-02
1.254631320155269458e-02 -6.821043923324830727e-02 -7.479746965502559464e-01 -9.842368939894086122e-01 2.990375331599966560e-02 1.743086401980618039e-01
-9.573464371272039433e-03 6.298704202564631149e-02 -5.750805481118222984e-01 9.561306767417956376e-01 1.432474197351017720e-01 2.555275048453906073e-01
-2.642966977094558974e-03 -3.085142408583969528e-02 -8.281007460667266784e-01 -9.687862909177221704e-01 -1.075212428488954083e-02 2.476641159983510587e-01
8.943537503774256353e-03 -1.112110900483014309e-01 -6.347598002364716052e-01 -9.886158479382578523e-01 1.397887843284120746e-01 -5.565789235412805375e-02
5.586415675490403153e-03 -1.408847361933489306e-01 -7.302512500408340212e-01 9.949775542655113769e-01 -9.863063180933814844e-02 -1.707820179971335922e-02
-9.317746548823073807e-03 -1.133164297860210362e-01 -8.473258853281745440e-01 -9.680040464208263806e-01 -2.453462455021043417e-02 2.497322932884066538e-01
-9.658350695527949045e-03 2.663362781192405576e-02 -8.455007652021238052e-01 9.743658822100302874e-01 9.190663170479387856e-02 -2.053394716895619587e-01
-1.290915817175991923e-02 7.504984448326532109e-02 -5.701300360497154607e-01 -9.412019969154720167e-01 -1.718514917306184220e-01 -2.908708747748545709e-01
9.036938971488132563e-03 1.238802341449547068e-02 -6.190291570777202157e-01 9.744089154603121639e-01 9.835548891856867038e-02 2.021223967576263048e-01
3.585257349731685566e-03 -1.790305297647361293e-01 -7.748428083304778058e-01 9.994119824591413126e-01 -2.051008104555687023e-02 2.747773448801090965e-02
-1.227865523506993690e-02 2.067443358974168921e-01 -6.169639832265289003e-01 -9.747639428453294119e-01 -2.107485544410782063e-01 7.362270390051751934e-02
3.647348824622316087e-03 -1.540587157989287970e-01 -6.739680331609513297e-01 9.856083313185333150e-01 -1.626473861702011636e-01 4.606565974234392430e-02
2.090997196652778951e-03 -1.190442188638155541e-01 -7.899363664024184883e-01 -9.819420431457565046e-01 4.344684777547268978e-02 1.841254879725019167e-01
-7.734277868167025371e-04 9.570811853720069540e-02 -7.062591422880984959e-01 9.670865895661809875e-01 2.469419222565383543e-01 -6.134505125516369339e-02
6.937169678655747893e-03 -2.794345285649537866e-02 -7.856647036065554923e-01 -9.875955866604755329e-01 -9.834965257429080857e-03 1.567106590731338900e-01
-2.849939574597366333e-03 1.082764192651506224e-01 -6.847332106112653527e-01 9.605413738807656587e-01 2.718685852817138704e-01 -5.871747099603536607e-02
-1.002015268791719548e-03 -1.719095260011592186e-01 -6.323552572040532782e-01 -9.844821653016465612e-01 1.666853292991234137e-01 -5.487136957853486208e-02
8.175599701468458380e-03 -1.163961164926432673e-01 -6.407864408373260545e-01 9.888234243763524001e-01 -1.389754746007927089e-01 5.398196795327434711e-02
-5.680978474112841591e-03 -9.472998350240600940e-02 -8.337560064709376162e-01 -9.632226751100106954e-01 1.913950966507213178e-02 2.680219344077924837e-01
1.173448491171271910e-02 2.157185451981958463e-02 -6.457593959712114584e-01 -9.892208658944192656e-01 -1.114910737637710841e-01 -9.493060070439056364e-02
-5.932029644856745380e-03 4.358895283780264002e-02 -5.753231641090950088e-01 9.493496024464941341e-01 1.851279102568078871e-01 2.538956265449063832e-01
7.244775818072984527e-03 3.440165809983012496e-02 -6.242954016981266951e-01 9.769589066299558811e-01 1.701009010092763007e-01 1.289068587478307826e-01
1.356682403192151394e-02 -1.411484255781680387e-02 -6.369394954390803498e-01 9.973914840406140625e-01 4.391156656272663522e-02 5.728875880370035839e-02
-3.039022609507465583e-02 1.756508097265156443e-01 -7.187000814295353424e-01 9.277373006561362434e-01 3.222374852530336953e-01 -1.883255268652302972e-01
-1.027641295096954612e-03 -2.076264411894641060e-01 -7.037034063906888459e-01 -9.885794946813826201e-01 1.064914690119207336e-01 -1.066309041656547246e-01
1.413551976779348421e-02 -1.243068215759975635e-02 -6.481313316539700775e-01 9.973914840406140625e-01 4.391156656272663522e-02 5.728875880370035839e-02
-1.492447081892349890e-02 1.223327651950448375e-01 -7.550667186624975269e-01 -9.286908691868174248e-01 -3.492047485040029597e-01 1.248571708444865952e-01
7.502026788515695627e-03 3.327017303116862335e-02 -7.547703613948226753e-01 -9.865502747379721882e-01 -1.217797875284828135e-01 1.090332002829826896e-01
-7.932282781793511791e-04 -7.958570530014047462e-02 -8.132749942542926158e-01 9.802135299990103467e-01 -6.120558993485083338e-02 -1.882426927336242894e-01
1.069210335875839420e-02 -6.762493127807094051e-02 -6.120902960335263820e-01 -9.929015942101679926e-01 2.771002453599414120e-02 -1.156658063349806226e-01
1.387722232538811384e-02 7.484998406251398492e-03 -7.211213763314293645e-01 9.871432466615234214e-01 1.158568705873205679e-01 -1.101153763479896103e-01
-9.484921682479168989e-03 7.864804429501413841e-02 -5.846083383772613384e-01 9.419362520943139749e-01 1.721946784993001744e-01 2.882795339371831966e-01
2.544862151364297564e-03 -1.897877944654628168e-01 -7.331860625605413073e-01 -9.986282906367445200e-01 4.646716397274318344e-02 -2.413171797165570426e-02
-1.412960421081225224e-03 -2.172132126643164796e-01 -7.125452776002123567e-01 9.898254508466862722e-01 -8.252295717309932055e-02 1.159117698750256470e-01
-1.366150715307815240e-02 1.118215682499823366e-01 -5.872916620600947546e-01 9.523905107576361440e-01 1.096170154713430739e-01 2.844932774916905660e-01
-1.500491015293118399e-03 -5.273512315851522185e-03 -8.192222233539029341e-01 9.719335709017682401e-01 5.231516814450845598e-02 -2.293648990934510634e-01
-1.450423962408106844e-02 1.140028920623835235e-01 -5.832639616719029751e-01 -9.626259909340324494e-01 -5.511847391074811697e-02 -2.651662787988360304e-01
-1.363034249201718236e-03 -1.027110350129813859e-01 -8.098524281151480153e-01 9.819416708738215593e-01 -4.341371339698330695e-02 -1.841352885533128203e-01
-1.140444728429858452e-02 -2.619671287320277445e-02 -8.603636388346932451e-01 9.657833668765339885e-01 -2.039619537238238425e-02 -2.585468690178971962e-01
1.087443665121037850e-02 5.547739126712162780e-03 -7.495514460635792631e-01 -9.886697686479459790e-01 -8.536500094506389857e-02 1.234702602867011334e-01
1.501046730197389337e-02 -1.191710116430059682e-02 -6.561985608739876463e-01 -9.973937696377290774e-01 -4.391565304306058876e-02 -5.724581823715985812e-02
1.283466821215240375e-02 1.477567233553202936e-02 -7.227966699403604034e-01 9.871432466615234214e-01 1.158568705873205679e-01 -1.101153763479896103e-01
-1.012696921384725370e-02 -1.666574594971691470e-01 -8.550081776535344291e-01 -9.451169521587500233e-01 2.672450251489425638e-02 3.256374482572392814e-01
-4.582461240385198205e-03 -1.629860707771260131e-01 -8.314646727615502275e-01 9.863925530797348351e-01 4.108437442509262766e-02 -1.591910971346730819e-01
2.787165660125398223e-03 8.640727363071470934e-02 -6.523421495072707632e-01 -9.772885499712790081e-01 -1.635716022107348011e-01 -1.347272097434202842e-01
2.570827559580682060e-03 6.319353913993042138e-02 -6.229123052803574589e-01 -9.713212608923278424e-01 -1.820134024062578237e-01 -1.529906189380115800e-01
1.322123379325140270e-02 -7.726739581672067980e-02 -7.422883016239191223e-01 -9.815854016453807729e-01 5.209680788660766421e-02 1.837825396622383978e-01
-1.649600418943831040e-02 1.475012982684858476e-01 -7.040569857385765573e-01 -9.170364753807164204e-01 -3.658580750720768493e-01 1.587197899629002595e-01
-1.245398742209716768e-02 -1.649757837155398643e-01 -8.619000333576781747e-01 -9.451169521587500233e-01 2.672450251489425638e-02 3.256374482572392814e-01
-1.950730814157411756e-03 -2.179914368873114572e-01 -7.052626906611713098e-01 -9.894980552545115104e-01 8.394494360958409951e-02 -1.176726182674747573e-01
-1.598178902449510705e-02 1.755559271835882285e-01 -5.762776946509717835e-01 9.740910926888602939e-01 4.872189655996962687e-02 2.208454661971159250e-01
5.693412071047562924e-03 3.692509982430480786e-02 -6.149898718390557351e-01 -9.637964565416153873e-01 -1.439228474390814028e-01 -2.244606966550111993e-01
-8.313556186572942583e-03 -1.407790479854321430e-01 -8.448117155855235927e-01 9.637942331185507250e-01 4.641724453755007723e-02 -2.625759235287307147e-01
1.510731194081742917e-02 -3.756922191245727367e-03 -6.641458981986199106e-01 -9.973937696377290774e-01 -4.391565304306058876e-02 -5.724581823715985812e-02
9.315890247103669405e-03 -6.817067313196743805e-02 -7.633665384840162549e-01 9.815795561086553267e-01 -5.210579452864513850e-02 -1.838112107736462608e-01
-1.537825854297098990e-02 1.514910474194434420e-01 -6.910798432735610897e-01 -9.176892439393475875e-01 -3.486108978973097572e-01 1.905699174194598333e-01
1.739578228371529891e-03 4.319892416542171765e-02 -6.024685684027881738e-01 -9.544277179356731589e-01 -1.654154530936319534e-01 -2.484058355070015434e-01
-6.779601551403543168e-03 1.343071516761787099e-01 -6.495000206351720928e-01 9.675764086912890249e-01 2.366471021929353880e-01 -8.828387376952820387e-02
-9.244913751580418129e-03 1.288418273217394605e-01 -6.941264776993958385e-01 9.605413738807656587e-01 2.718685852817138704e-01 -5.871747099603536607e-02
4.985117395001599852e-03 -1.487147276441337373e-01 -7.416063416142755216e-01 -9.940497338937139826e-01 1.074175477768474496e-01 1.807199422988614232e-02
-6.113957706837179658e-03 1.150812497878445639e-01 -6.230353568577805534e-01 -9.823289153737814194e-01 -1.241178921751935754e-01 -1.400880111307078735e-01
-6.044608662710984973e-03 9.539273510986921722e-02 -7.576034120103847247e-01 -9.464877895052055123e-01 -2.902604468595584852e-01 1.411018685434000108e-01
-1.454589662487112620e-02 1.957617444755833658e-01 -6.420537310621887706e-01 9.490271627964579348e-01 1.698879351521765946e-01 -2.654911180514993307e-01
-1.616172894572628568e-02 -1.032247502163126801e-01 -8.709685097294264100e-01 9.645747167284951518e-01 7.320634457723177412e-03 -2.637082178455562587e-01
3.932684451241684302e-03 -2.075112117371344898e-03 -5.844316755934064744e-01 -9.716119911500294970e-01 -1.212891180502700672e-01 -2.031233332142382553e-01
-1.122397200962402123e-03 -9.778847800085900543e-02 -8.096506930418028158e-01 9.830427702875128571e-01 -3.788506768017765175e-02 -1.794202704053263209e-01
-1.779617312535995005e-02 -1.364676159723038629e-01 -8.787279253553482716e-01 9.461383691023903530e-01 -2.588085637538450196e-02 -3.227264596923303808e-01
-8.251951794200827056e-03 7.786139758061269567e-02 -7.988229487561159248e-01 -9.589747470737334245e-01 -2.235266627400746831e-01 1.743653220085737143e-01
1.478459614142769302e-02 -6.691062875894461526e-02 -6.921755190622891352e-01 9.981188871601348600e-01 -6.130601969921464084e-02 -5.089625261565551301e-04
5.765528885828995025e-03 -1.362610956271700091e-01 -7.465187101399890501e-01 9.949775542655113769e-01 -9.863063180933814844e-02 -1.707820179971335922e-02
1.189542598237987390e-03 -1.816732338760873589e-01 -8.039590799419304989e-01 -9.843388710717353440e-01 -7.887401551937027466e-02 1.576574659604535744e-01
1.273310804243008888e-02 -9.477684353536137973e-02 -6.860813659483111504e-01 -9.941406956754160751e-01 1.059786972647969450e-01 2.127893155344264681e-02
-8.615283281756751232e-03 9.675408127968737615e-02 -7.689315897340949224e-01 9.555662728015281715e-01 2.469012819639978817e-01 -1.610368133338758723e-01
-1.544380252683650451e-02 1.834168133682756718e-01 -5.795899353714345503e-01 -9.597328761092949190e-01 -6.771295761249611356e-02 -2.726311828943067117e-01
-1.040239848415418569e-02 -1.726766386529611230e-01 -8.543508550759206788e-01 9.499383290203914365e-01 -7.821158187099402307e-04 -3.124364885105329059e-01
2.071515283560016081e-03 -1.076872908331711065e-01 -7.924803226237367992e-01 -9.830403444572738403e-01 3.793119985049934334e-02 1.794238146044880577e-01
1.435704290609125279e-02 -7.992941263426274479e-02 -6.841588845322950085e-01 -9.941406956754160751e-01 1.059786972647969450e-01 2.127893155344264681e-02
-8.288889282220514992e-03 8.172558937611548724e-02 -7.920173345460570502e-01 9.618423571319878462e-01 2.175748446580412221e-01 -1.658929383633028776e-01
3.818784893496376693e-03 -1.835065723734365939e-01 -7.738091427171496228e-01 -9.986282906367445200e-01 4.646716397274318344e-02 -2.413171797165570426e-02
1.663543556029588658e-02 -4.470110769807828649e-02 -7.165387545290072824e-01 -9.978305720719750083e-01 6.582198080308636345e-02 1.271330670283624380e-03
2.459116666903733532e-03 -2.102046838178954768e-01 -7.584306274716291485e-01 9.974905539263468901e-01 1.272320443918455689e-02 6.964707385460057465e-02
7.848180288144660649e-03 -1.322652054025357515e-01 -6.939315079673437081e-01 -9.918349044639545031e-01 1.239026110819846094e-01 3.019379495930320928e-02
-8.385822786113300564e-03 1.947375213318883191e-02 -8.425647356632598450e-01 9.747972289649353694e-01 8.940179696089886607e-02 -2.043958930664842299e-01
1.559915835105876031e-02 -6.063246250392433090e-02 -7.050513814790868583e-01 -9.978305720719750083e-01 6.582198080308636345e-02 1.271330670283624380e-03
1.530970710214089349e-02 -5.784419480937652569e-02 -6.756131786970088760e-01 9.994700954453112907e-01 -2.805866167294639169e-02 1.649969138085359555e-02
9.662018607341026077e-03 -3.948796573205098914e-02 -7.692124635046785341e-01 -9.842169071800137559e-01 3.026625463440324806e-02 1.743589213416208705e-01
-5.515223571745202918e-03 6.395697128043514867e-02 -7.998305035760427950e-01 -9.683489379601587510e-01 -1.733178754394890109e-01 1.796141653783855652e-01
9.553812279105866091e-04 7.460963050156882437e-02 -6.290638264228745058e-01 9.713284836841914460e-01 1.819509152002700691e-01 1.530190878340126071e-01
3.940968643676461512e-03 5.953485855315254760e-02 -7.485517117762068295e-01 9.834384712781458759e-01 1.561820948151562971e-01 -9.195611164709359409e-02
-4.870401661428239848e-05 6.248887851338707361e-02 -6.099006896531941058e-01 9.535509542701370300e-01 1.531822890751095012e-01 2.593757196119565456e-01
-1.352643260467355094e-03 -2.119509403894197785e-01 -7.050091441121993929e-01 -9.885794946813826201e-01 1.064914690119207336e-01 -1.066309041656547246e-01
-1.981957977981613130e-03 -1.407705702934688718e-01 -8.099329032977689025e-01 9.864550312458838510e-01 1.377513951712153357e-02 -1.634524911433479222e-01
1.358062352351546709e-02 6.793975872507912114e-03 -6.584380700363154926e-01 9.932487477127275310e-01 8.604025216404054266e-02 7.780745577800672608e-02
2.881309355691104909e-03 7.150179833417771857e-02 -7.352056749251424383e-01 9.768995673275389091e-01 1.987551604272803640e-01 -7.850873555722027997e-02
4.948119585621042933e-03 -1.336823723416325216e-01 -6.296349271158957484e-01 9.857130656071980690e-01 -1.629504413419327613e-01 4.262517985567829820e-02
-2.865934269839843715e-02 1.741620292285950278e-01 -7.135664495997051660e-01 -9.149599804027230832e-01 -3.482941210439008395e-01 2.038122653514874982e-01
-1.455657748568198878e-02 1.933557361075842751e-01 -6.452147392639043799e-01 -9.471676153734004400e-01 -1.740888634035793192e-01 2.693818405659814119e-01
4.631406377401927656e-03 -1.555626426878636281e-01 -7.203591071598496320e-01 -9.940497338937139826e-01 1.074175477768474496e-01 1.807199422988614232e-02
8.323640577362987486e-03 4.794158231424971994e-02 -7.217785945265774439e-01 9.838683274230594078e-01 1.494290132346300926e-01 -9.835692297686071672e-02
1.591352331156556388e-02 -4.920921379026982345e-02 -7.092270515309817558e-01 9.978299476937801948e-01 -6.583163902197711193e-02 -1.261264883928649681e-03
9.972119366129964663e-03 5.050183790401094330e-02 -6.666006156119573811e-01 9.860887162233441527e-01 1.258565900587524378e-01 1.085779097044143882e-01
4.358200307520238015e-03 7.336116440319360998e-02 -7.176332461157131082e-01 -9.769011814283321549e-01 -1.987656062702468918e-01 7.846219145518278093e-02
-2.223785714822809276e-03 -9.987817623109745621e-04 -8.229170637029618041e-01 -9.714995694752156519e-01 -5.327002489418105474e-02 2.309781179186545241e-01
-2.181022526236114228e-02 1.568612658720202613e-01 -7.109293400084094605e-01 9.181146419542970394e-01 3.639312033793132284e-01 -1.569062887076786983e-01
7.393291479529373426e-03 -5.941544480338642464e-02 -7.760909057533149635e-01 9.842318928295823444e-01 -2.990916990321245902e-02 -1.743359477927544088e-01
-1.829267375377410451e-02 1.670896845361379834e-01 -6.777009340117495784e-01 9.285619667955086198e-01 3.062646067598914779e-01 -2.097013697310194658e-01
-1.002301393020261187e-02 -1.985923064542250704e-01 -8.566658298105329639e-01 9.529247962183561294e-01 1.206375436892829778e-01 -2.781742543889004771e-01
3.072718227945236144e-04 -9.928647048234921779e-03 -8.125571135859477323e-01 9.720655212206237294e-01 4.857092260137786666e-02 -2.296290224072906894e-01
1.008623387293270529e-02 -1.106988289215309063e-01 -6.952226928308133935e-01 9.915182134783724344e-01 -1.261673405411458670e-01 -3.119991220228869253e-02
-3.165692160047538489e-04 8.400802896221538918e-02 -7.392305883750099893e-01 9.555662728015281715e-01 2.469012819639978817e-01 -1.610368133338758723e-01
-1.269140686969779351e-02 1.697643052193828495e-01 -5.901056531206383404e-01 9.754881862520680125e-01 -1.430966294191178025e-02 2.195860469819051752e-01
7.534917339480652274e-03 -8.042642136600047786e-02 -5.891130111383479084e-01 -9.922531684713891131e-01 5.006767965680846560e-02 -1.136964252396357039e-01
-8.356357658296297702e-03 1.524262852137368285e-01 -6.307696707504403255e-01 -9.951394409498707239e-01 1.039618267553710706e-03 -9.847036234236321295e-02
2.568440101030698090e-03 2.142211965180006866e-02 -5.932749488878855670e-01 9.641824650100186966e-01 1.445497320958882559e-01 2.223905328880046717e-01
3.280507819878551983e-03 2.959131642256464245e-02 -6.016719718583095622e-01 9.641824650100186966e-01 1.445497320958882559e-01 2.223905328880046717e-01
6.944711465135493603e-03 5.261015841485113670e-02 -7.329000093504429714e-01 -9.834443394085914392e-01 -1.561665298688094394e-01 9.191978151591322088e-02
-4.048443204868383094e-04 1.064581647331980102e-01 -6.561263767911891254e-01 9.778308021829139607e-01 1.465321726241561595e-01 1.495835709172747552e-01
1.509452730378840410e-02 -6.923082668480717849e-02 -6.570030775236036513e-01 -9.981234577559536802e-01 6.123156356399876016e-02 5.086263920581616301e-04
