-1.365312113592026359e-02 1.245579692340019751e-01 -8.920185097911302874e-01 8.962534163742655879e-01 3.613249802636853136e-01 -2.572432161883088653e-01
2.512902486231352941e-02 -2.021252856172134071e-01 -9.022973581734671233e-01 -9.908712954622346247e-01 3.041458850389327020e-02 1.313355573907223628e-01
2.673354248541851344e-02 -9.785765611883114057e-02 -9.142704920188635676e-01 9.745638922473026655e-01 5.958852028488068400e-03 -2.240306050750447697e-01
1.966422379145898666e-02 -2.042437518379496830e-01 -9.457637748357213825e-01 -9.952038411290303754e-01 -9.260718212397167377e-04 9.781849003642224816e-02
-1.994467673280309397e-02 1.271696533691704933e-01 -9.103951554500905319e-01 8.953825882997201724e-01 3.786671351263351526e-01 -2.343100965492257715e-01
1.100022759840886544e-02 8.979652687758974197e-03 -9.463779151304105852e-01 -9.268714614444237831e-01 -2.282914348343670352e-01 2.979803932159699187e-01
-1.695503955790705203e-02 1.087123246613842242e-01 -9.305697811387816376e-01 -8.958865483730381607e-01 -3.768316659796014378e-01 2.353405786499264962e-01
-7.038999426860273467e-03 1.597218783918072926e-01 -7.963341258060022687e-01 9.970732341202481752e-01 7.113760140288860612e-02 2.800727526255441732e-02
-5.096761358329793355e-04 7.325868743889926704e-02 -9.207373822036271083e-01 -9.068504118539877368e-01 -3.488356761496291258e-01 2.365079312950922885e-01
2.631362146124776105e-02 -1.082909439825293779e-01 -9.176328295284096326e-01 -9.720567722268542710e-01 1.407710243837184162e-02 2.343234234020342976e-01
-1.025347041181785650e-02 -5.144875227977423757e-04 -1.013337963071323289e+00 -9.292282093392835174e-01 -1.631645158709691401e-01 3.315302033430758133e-01
-3.541828470984152710e-02 1.325897469181245847e-01 -9.494299376587466144e-01 -8.403828603512119022e-01 -4.409515733441901619e-01 3.151481524508732424e-01
-3.200338375301842869e-02 6.001523198130334635e-02 -1.025494145845569971e+00 8.894303134332700589e-01 2.842873065116078291e-01 -3.579028428252145622e-01
1.740085265264875239e-02 3.017241890845775293e-02 -8.836632066600956792e-01 9.710532264717410822e-01 2.178127042482100040e-01 -9.804721937364324624e-02
1.350338166014579400e-02 2.067293915515381469e-02 -9.296217710336599493e-01 -9.259038918484081560e-01 -2.340000238777714958e-01 2.965568611331960702e-01
1.715211853741884646e-02 -2.368432510847648387e-01 -9.645996217828329833e-01 9.955266234825814742e-01 -3.698247027544278309e-02 -8.694273304708521888e-02
-2.519838130318782180e-03 1.138308199676616728e-01 -8.491140767579760107e-01 -9.722152003869627412e-01 -2.282863376474483230e-01 5.179722174068204094e-02
-1.400762270706143106e-02 1.166865675858918573e-02 -1.014722762765137842e+00 8.940121157006020169e-01 2.032597603000055875e-01 -3.992841179202070712e-01
1.635268123474907173e-02 -1.309418630210852988e-02 -9.445280473418229406e-01 -9.284085340181876811e-01 -1.951397521527927226e-01 3.161930914677711368e-01
1.706837000752235364e-02 -3.871489657958123581e-02 -9.507541996638830817e-01 9.780898943958267200e-01 4.562065883964636082e-02 -2.031229036022206003e-01
2.691570327881633376e-02 -3.019769995568776129e-03 -7.965867687215432147e-01 9.733809022796234833e-01 2.287140351796670690e-01 1.481584250524406454e-02
-4.497465460668532977e-02 -1.145645644647523137e-01 -1.112839431570210369e+00 8.894915158315876980e-01 1.290010652576872308e-01 -4.383646523455176913e-01
-5.004053259819533916e-02 1.571160856843272502e-01 -9.497637255668228695e-01 8.313010984568116601e-01 4.607018770816032061e-01 -3.109537974651312431e-01
-4.385568377228166170e-02 1.070011786567396928e-01 -1.009996124970284903e+00 8.717052723832887651e-01 3.774989310491757011e-01 -3.124491561132882733e-01
-1.147982873838347510e-02 -5.358374822420642822e-03 -1.017553324201427412e+00 8.948013140955061173e-01 1.633313108343360798e-01 -4.155159337427302702e-01
2.215410885267478369e-02 -7.448008779541613611e-02 -9.335698515574479828e-01 9.745638922473026655e-01 5.958852028488068400e-03 -2.240306050750447697e-01
-1.077790925554793916e-02 6.816165602322307726e-02 -9.625479125156136684e-01 9.148016165815620049e-01 3.084616656645730037e-01 -2.607477768173653287e-01
2.298188053115145235e-02 -3.522175055110164654e-02 -9.201738347573706900e-01 -9.797554197950948396e-01 -8.679977388926456150e-02 1.804026514076509657e-01
-2.236913478894687890e-02 -6.173948595354495500e-02 -1.056045505309874066e+00 8.879143969045988349e-01 8.127798821816191455e-02 -4.527713687952799049e-01
1.570019860431301484e-02 -2.467586097728007022e-01 -9.820125410231027585e-01 9.985845690038941402e-01 -2.652733164963151646e-03 -5.312082034440443468e-02
-1.324995013842251816e-02 1.268608242696908639e-01 -8.892817856492515327e-01 -8.998538885443013724e-01 -3.453685197777352500e-01 2.664274100355223385e-01
1.959114570485251047e-02 -2.226957079684010188e-01 -9.488652405129849310e-01 -9.960259470492328626e-01 -2.308903786705020222e-02 8.601865573846408097e-02
2.234372882155508111e-02 1.930061193924276913e-02 -8.286229377471868718e-01 9.691830385873847487e-01 2.440639282617933781e-01 3.342209801831983601e-02
2.253944182375552940e-03 8.813440221330462454e-02 -8.821410870675009397e-01 9.621763533391760603e-01 2.670326841491919012e-01 -5.394636846909028199e-02
6.314047512962025653e-04 -3.566971799730089127e-02 -9.962216162360230109e-01 9.287322428578219657e-01 1.244107793859057787e-01 -3.492540322585713231e-01
3.410612180728600420e-03 8.454221212308625499e-02 -8.872774166129576701e-01 -9.621614450357375281e-01 -2.670792242544346440e-01 5.398186416187111814e-02
-9.129005571043404335e-03 -4.248717373702438210e-02 -1.023764692846227842e+00 -9.259772878538854446e-01 -8.469250311372401863e-02 3.679582072669319581e-01
1.580314627405466840e-02 1.939501582103828406e-03 -9.368320452695300116e-01 -9.268714614444237831e-01 -2.282914348343670352e-01 2.979803932159699187e-01
7.737271220649473945e-03 1.004320094449301544e-02 -9.541751314795924310e-01 9.284017968919302533e-01 1.951390656919554101e-01 -3.162132960024070516e-01
1.180082918060821467e-02 -1.560731702051117442e-01 -9.785924518010288287e-01 9.782656953428711111e-01 3.996049589471420416e-02 -2.034683957846460667e-01
1.903709962140608244e-03 9.389392816808998787e-02 -8.507699800633186094e-01 9.607103613945338072e-01 2.748139509812493331e-01 -3.889593623066529837e-02
8.984825040309823291e-03 -2.353798924447775970e-02 -9.706219282056522957e-01 -9.295753566748455876e-01 -1.595305758428247900e-01 3.323246178574353893e-01
-2.856164972631430529e-02 -6.227104473470622403e-02 -1.068284855180942072e+00 8.879143969045988349e-01 8.127798821816191455e-02 -4.527713687952799049e-01
2.740279644494018202e-02 -2.647539357671810714e-02 -8.858984136603262893e-01 9.798412534335733115e-01 1.120551688921114925e-01 -1.653927362198369111e-01
-3.321146816935531543e-02 1.204560214683500913e-01 -9.592908662638736095e-01 8.442186087529258698e-01 4.525579184711421288e-01 -2.872042323231701055e-01
3.157223032306931410e-02 -4.395516738126366285e-02 -8.720489091943461890e-01 -9.931509366833746189e-01 -7.938846307829522386e-02 8.572449413675049812e-02
4.694113754540623316e-03 6.325416925120422307e-02 -9.137147288750554486e-01 9.068384468999487469e-01 3.488453012453384128e-01 -2.365396098397434255e-01
-7.308277070122448822e-03 1.623389198628246155e-01 -8.187760120540237274e-01 9.883863602886016064e-01 9.875892098103568328e-02 -1.154949276899738392e-01
2.018518171113319395e-02 -1.576085467643226767e-01 -9.420865620573994903e-01 -9.752654483391873796e-01 -4.402228280778394676e-03 2.209930443745415918e-01
1.843866929605595881e-02 -2.279692774308747505e-01 -9.587750006305886252e-01 -9.939063612187899466e-01 5.675157904727424346e-02 9.449552055238108483e-02
-1.672743624852744389e-03 9.653407092646919263e-02 -7.832561389320916723e-01 -9.778191078533116087e-01 -1.839086343163711113e-01 -1.002367524456034831e-01
-3.397137580028934331e-03 8.119160179518959686e-02 -9.187748140623575033e-01 9.076601438464739768e-01 3.373536009561542981e-01 -2.496910314659182561e-01
1.211613229226350327e-02 -2.324769901360763946e-01 -1.039736295891642515e+00 -7.361244463275644634e-01 -6.683326295182915322e-01 -1.070154000137495537e-01
3.562361868610339904e-02 -8.363853151015718246e-02 -8.564180432851815628e-01 -9.932636664636610435e-01 -5.873381229234807266e-02 9.988807825147362485e-02
-9.526990504798877116e-03 1.006569856559535181e-01 -9.133559991761752705e-01 8.958671267832628571e-01 3.768509892439542708e-01 -2.353835658132370223e-01
-3.155480643640132948e-02 3.260709814754648821e-03 -1.058195804933399264e+00 -8.934928323242579129e-01 -1.679771131120063044e-01 4.164783884617926923e-01
2.457684766251901423e-02 -9.647003520398371446e-02 -9.235738465264948793e-01 9.741536422955806573e-01 3.893132629954154916e-03 -2.258528829140316607e-01
1.675267203574745851e-03 8.228686589392157635e-02 -7.825372122402871611e-01 -9.590690703779144455e-01 -2.494453020833757306e-01 -1.340282041697810900e-01
1.281830354461431856e-02 -2.225127936001492501e-01 -1.013921820586714206e+00 -9.867204769252414520e-01 -1.050787003610298281e-01 1.238594653099282655e-01
3.456545392757526952e-02 -6.821082404260174481e-02 -8.582201370817522657e-01 -9.935864078898315466e-01 -5.097475936386750006e-02 1.009337602805770728e-01
-3.769784040494916864e-03 -5.811069764875591986e-02 -1.013583417298780986e+00 -9.237427603462592396e-01 -6.300108012119093326e-02 3.777964751178031211e-01
4.121867944637057357e-03 7.975951769055220075e-02 -8.028097876998524507e-01 9.580795721936845588e-01 2.670491055532779878e-01 1.037704609624569008e-01
1.342340885972587682e-02 -1.075812680334646970e-01 -9.694002817408474693e-01 9.731405223362689094e-01 -8.364520302942048471e-03 -2.300599021715768744e-01
-4.610408029407086876e-03 1.214731880051154178e-01 -8.431325029414120653e-01 9.692321755506002612e-01 2.439338256986077480e-01 -3.294356625339452810e-02
7.835837666765647913e-03 1.960347957086120557e-02 -9.480815642613753536e-01 -9.268714614444237831e-01 -2.282914348343670352e-01 2.979803932159699187e-01
-3.135864404117727055e-03 -1.052872661528433534e-01 -1.018358941515367988e+00 9.245879575204487555e-01 7.714764101256292583e-02 -3.730755289406713637e-01
-2.210254706464469102e-04 9.395313317744764803e-02 -7.912893056861127761e-01 -9.658030368705662339e-01 -2.416924720776962854e-01 -9.385756715664343719e-02
2.819300063100740883e-02 -1.013257331597996191e-01 -9.099521635128393626e-01 -9.745539330848665971e-01 -5.939007238721710422e-03 2.240744512474276418e-01
-4.790115260710536144e-02 1.626912655699444543e-01 -9.363607268056586275e-01 -7.990708089708792317e-01 -5.026984524748463468e-01 3.298182956265760524e-01
1.742511319006318990e-02 -8.109349481012738392e-03 -9.325663367518108871e-01 9.798412534335733115e-01 1.120551688921114925e-01 -1.653927362198369111e-01
3.638514536752713441e-02 -5.478259862099953137e-02 -8.164027395318299574e-01 9.891744455699814642e-01 1.315104736546977016e-01 -6.510692398230001621e-02
-1.872746051230863060e-05 4.256641755897815765e-02 -9.520382300555898514e-01 9.228102715732449113e-01 2.673081581749407465e-01 -2.774302637637698354e-01
1.378625344854330671e-02 4.976710796772180340e-02 -8.180663865164261583e-01 -9.569613478571403764e-01 -2.812358906245375767e-01 -7.163345958466928176e-02
2.627202054294556013e-02 -1.335081451553324638e-01 -9.102380765514962446e-01 9.861603506086161763e-01 -4.680311347572107400e-02 -1.590510341257476423e-01
1.338961087649380606e-02 3.497764249834258571e-02 -9.158783516332899000e-01 -9.764626491706096534e-01 -1.792556222302787716e-01 1.199504759204845089e-01
2.136170816855333457e-02 -1.903915334480655863e-01 -9.304545661121532696e-01 9.906934208784045071e-01 -2.912979531706566538e-02 -1.329586433934649703e-01
-1.910132895788313034e-03 -1.658134920089383846e-01 -1.035632297373418886e+00 9.235902970713495419e-01 1.466230698864903759e-01 -3.542352869671760995e-01
3.903917311700095226e-03 4.630197497366028703e-02 -9.372950475094614653e-01 -9.226345969092976107e-01 -2.607895467726518701e-01 2.841376653668655772e-01
-3.559851072697190876e-03 -1.752927404191045591e-01 -1.045548917537778344e+00 -9.182729770048433382e-01 -1.926113009895018546e-01 3.459416517764147825e-01
1.953775258883183250e-02 -5.183194136058821670e-03 -9.202519222270244548e-01 -9.783234280318748866e-01 -1.461647313600514253e-01 1.466940403370405044e-01
1.616104524423509284e-02 -6.271117677384412115e-02 -9.612076449577213744e-01 -9.741514957255444918e-01 -3.913002961960507405e-03 2.258617979727958192e-01
-3.487735237077112943e-02 -8.136218244362973528e-02 -1.084820844924601069e+00 -8.863355230349375669e-01 -8.496349263154635845e-02 4.551818818079568785e-01
1.790708827395022865e-02 -1.337614843735952241e-01 -9.513696681911418818e-01 -9.731421852604537071e-01 8.333303519167454057e-03 2.300540008758077681e-01
1.086343593448703404e-02 -1.037032748432304419e-01 -9.822535449594272938e-01 -9.731421852604537071e-01 8.333303519167454057e-03 2.300540008758077681e-01
-4.968738471680082119e-02 -9.022733265785612411e-02 -1.115507152237625865e+00 8.920382548982730420e-01 1.140906329687534776e-01 -4.373226260632221973e-01
1.204882849285003783e-02 -7.214808943305792144e-02 -9.772465034680629659e-01 -9.237427603462592396e-01 -6.300108012119093326e-02 3.777964751178031211e-01
-4.047023654268048359e-02 -2.012372002553219907e-02 -1.083358998237925697e+00 8.932607389607937209e-01 9.178350039609102506e-02 -4.400693596312491018e-01
-6.726454689303150783e-03 -6.744285413023862197e-02 -1.022322419741716892e+00 -9.233351926046340363e-01 -6.149773596300787265e-02 3.790384552643538685e-01
-4.914181089646264128e-02 1.378977287336908553e-01 -9.783443816081903721e-01 8.371609455934969635e-01 4.664784067854655936e-01 -2.855861466806394744e-01
1.538589798860246979e-02 3.664557745154205237e-02 -8.892390104810742324e-01 9.710532264717410822e-01 2.178127042482100040e-01 -9.804721937364324624e-02
-3.202558077037725992e-02 -1.250080710007723528e-01 -1.090085013972016403e+00 8.853620402622743857e-01 1.287370876047822521e-01 -4.467223074099409552e-01
-2.220783181254007074e-02 -5.070799664777006499e-02 -1.053494812079254217e+00 8.897228129077687786e-01 9.739167423623072695e-02 -4.459912308341403842e-01
-3.832317028052417696e-02 -1.141450413688555043e-01 -1.099435726552902226e+00 8.853620402622743857e-01 1.287370876047822521e-01 -4.467223074099409552e-01
1.526596086558333794e-02 -2.450337925066514710e-01 -9.915687139502982195e-01 -9.924199514570620773e-01 1.009919341208155436e-01 7.002334748139008025e-02
-2.158922549125526225e-02 -1.538817292068188902e-01 -1.080317747727592037e+00 -8.782299683416154856e-01 -1.472946397234913829e-01 4.549905623366398699e-01
2.175393750899250536e-02 -6.742578623591535987e-03 -9.040759139698854030e-01 9.783308077380316048e-01 1.460805828245719251e-01 -1.467286405317113629e-01
1.716191861365059385e-02 2.959348288813569081e-02 -7.867216110299560805e-01 -9.530413793574015191e-01 -2.845580465313845009e-01 -1.036284101334393193e-01
3.196328320848054738e-02 -7.090345524429024493e-02 -8.812046425796998816e-01 9.930433807016427750e-01 5.945936968201718381e-02 -1.016337906489256371e-01
-1.705219343330220336e-02 1.286371355725663690e-01 -8.982018724797043996e-01 8.998405768691600803e-01 3.453609606968033874e-01 -2.664821627170542162e-01
3.623675530351482682e-02 -6.506672176339481362e-02 -8.369975480841457260e-01 -9.932041327387018947e-01 -8.512058670445604713e-02 7.937276881810538531e-02
-3.897500114452185499e-02 -5.477412759434321932e-03 -1.076850097986292054e+00 -8.884132218207335674e-01 -1.296651998396852190e-01 4.403508637945867665e-01
-1.734601037661403361e-02 1.105695421705767817e-01 -9.290843047589957271e-01 -8.958865483730381607e-01 -3.768316659796014378e-01 2.353405786499264962e-01
3.369241428712106690e-02 -1.127783999890369232e-01 -8.700088791334970040e-01 9.880738485803357563e-01 -2.971506039374124247e-02 -1.510863492756376047e-01
-4.356251692687471838e-02 8.374995371982518755e-02 -1.034773799061458721e+00 8.867290201115214376e-01 3.243172460418374259e-01 -3.294388696130122196e-01
-4.421977800372510134e-03 -1.288350882815393617e-01 -1.026902968200036126e+00 9.267577818206035323e-01 1.155201653088892000e-01 -3.574564382438248367e-01
2.347059562804399216e-02 -1.364834310893939327e-04 -8.878350617152327429e-01 -9.740852150263568099e-01 -1.936139645790810881e-01 1.169257310733040900e-01
-4.493032386817567836e-02 1.085034913974772253e-01 -1.011216085878316351e+00 -8.614859814150147566e-01 -3.896063792553015603e-01 3.256513059531358500e-01
-7.851884347754176097e-03 -1.381956940000224621e-01 -1.039110054459560395e+00 9.258470776236227273e-01 1.283578751645230165e-01 -3.554313502479019005e-01
3.103466640022874146e-02 -1.545338696229687225e-01 -8.764016315411345959e-01 -9.859898449909030305e-01 5.424111036260519797e-02 1.577400631464526970e-01
3.187853810886669137e-02 -8.375666191982043818e-02 -8.878462924496965947e-01 -9.919942331665907442e-01 -1.427226530161871017e-02 1.254740762364402740e-01
-1.305747031254927797e-02 -3.606064401305211775e-02 -1.030991566220460065e+00 9.259684812703123935e-01 8.463609834364274609e-02 -3.679933457973344479e-01
-3.189579182559464619e-03 1.150440796274608546e-01 -8.563376654831355017e-01 -9.722152003869627412e-01 -2.282863376474483230e-01 5.179722174068204094e-02
-3.919395179712722999e-02 1.146590395273383717e-01 -9.865665537309783462e-01 -8.450800168146932467e-01 -4.349003875900870897e-01 3.109685161788411367e-01
-2.911164327615235747e-02 4.558199306798725939e-03 -1.051569405524583223e+00 8.943416429701759318e-01 1.670278921411001705e-01 -4.150357923074917132e-01
-1.983131302021542974e-02 -1.460405275485089083e-01 -1.073406519416046256e+00 8.802688524240793733e-01 1.612728080593040236e-01 -4.462262081418585935e-01
5.268382956728856134e-03 5.145956886189429619e-02 -9.255443326118376612e-01 9.181779994181280546e-01 2.955070713712005803e-01 -2.638649884962770975e-01
2.011893223827842386e-03 -3.816907675570225394e-02 -9.934409554718346413e-01 9.287322428578219657e-01 1.244107793859057787e-01 -3.492540322585713231e-01
3.800072388128452380e-03 8.805211923856856582e-02 -8.173377844921085877e-01 -9.579268952640279666e-01 -2.665478375456335480e-01 -1.064345509201161111e-01
1.861397991786756939e-02 -2.002216814410249790e-01 -9.564108622184338548e-01 -9.952038411290303754e-01 -9.260718212397167377e-04 9.781849003642224816e-02
1.729657254547267362e-02 -2.311877154063161355e-01 -9.653512414633207417e-01 9.955266234825814742e-01 -3.698247027544278309e-02 -8.694273304708521888e-02
5.826399900521191805e-03 2.020782415313255101e-02 -9.524170723238098990e-01 9.268700599704385867e-01 2.282154190437017671e-01 -2.980429741515531195e-01
1.511886180499505059e-02 -2.392253377633950517e-01 -9.979249482967029738e-01 -9.979991156735193991e-01 1.944697351213289099e-02 6.016294819979953190e-02
-4.047631051473222705e-03 -1.524256327619532281e-01 -1.035315600622186860e+00 9.268756290099304795e-01 1.648878076502029444e-01 -3.372144410249297009e-01
-1.085048531904886371e-02 1.697334701474130514e-01 -8.435430518853288540e-01 -9.073957987822909299e-01 -1.962440341282627176e-01 3.716465302156251038e-01
-8.571903268366199563e-03 -1.608887532264246523e-01 -1.051007557935043524e+00 9.238454875565261792e-01 1.553486281154917714e-01 -3.498232680427060814e-01
-1.930308760807695860e-03 1.070543353898705113e-01 -8.714176387364225285e-01 -9.674614368069455184e-01 -2.497565383431389896e-01 4.049740542668090609e-02
2.648531166314158428e-02 -7.044603318792663771e-02 -9.148216103785787867e-01 -9.780558578516266310e-01 -5.019984352130700545e-02 2.022046355367627113e-01
-2.045864735763901210e-02 1.065722753761956521e-01 -9.442158056644839315e-01 8.433703773001214321e-01 4.337037334882365425e-01 -3.172183447580163018e-01
1.813168889248432947e-02 -1.793196516406946606e-01 -9.548518116511176546e-01 -9.782592439808137641e-01 -3.995530863261467780e-02 2.035004296756134923e-01
-9.241480214573671165e-03 1.736133857315993456e-01 -8.256793241886056789e-01 9.883863602886016064e-01 9.875892098103568328e-02 -1.154949276899738392e-01
-1.100663104961056675e-02 -1.739977407589831937e-01 -1.063347488019653397e+00 9.182460106358367735e-01 1.926959568405796352e-01 -3.459660852867871284e-01
2.073946375634697428e-02 -1.054879159946684047e-01 -9.390734570499742473e-01 9.720582597355723609e-01 -1.410534387284227351e-02 -2.343155542299300842e-01
-1.299472326912051202e-02 1.718812084971302889e-01 -8.476442382157913791e-01 -9.073957987822909299e-01 -1.962440341282627176e-01 3.716465302156251038e-01
2.997587775092876161e-02 -1.277487034688112866e-01 -8.917679729751168960e-01 -9.856221464135850319e-01 5.354229149171000485e-02 1.602566925931469821e-01
1.007243087899876120e-02 6.726025275682637194e-02 -8.350847142103127174e-01 9.654652117219363339e-01 2.503331504795613949e-01 7.218198338708874118e-02
-2.230085132727797556e-02 -1.477436043191436843e-01 -1.079704236631816805e+00 -8.782299683416154856e-01 -1.472946397234913829e-01 4.549905623366398699e-01
-3.792826299681571062e-02 1.687762053301030893e-02 -1.065674722634402105e+00 8.977543763144274491e-01 1.632871514550759684e-01 -4.091141478584924829e-01
-4.425086607443090569e-03 -1.438349353311336176e-01 -1.033438273491585679e+00 -9.258557936617966000e-01 -1.283601298704985239e-01 3.554078310933986851e-01
1.382340340623869172e-02 -9.239144702242473722e-03 -9.482056255567447023e-01 9.284017968919302533e-01 1.951390656919554101e-01 -3.162132960024070516e-01
2.526341346587413980e-02 -5.455832377000505856e-02 -9.145094585539196297e-01 9.794157820102994405e-01 8.278471060022989103e-02 -1.840962184293586656e-01
3.051280860779497298e-02 -6.382084564043698227e-02 -8.906296513791337466e-01 9.797593350434226078e-01 8.682249618199412711e-02 -1.803704508837253861e-01
-1.819032380006195548e-02 1.523223812829867588e-02 -1.022273908986993218e+00 8.940121157006020169e-01 2.032597603000055875e-01 -3.992841179202070712e-01
1.689205626976598637e-02 1.776061454692568625e-02 -9.094961955156792843e-01 9.764589837296869801e-01 1.793004363163825388e-01 -1.199133296608100169e-01
-6.982168397544444814e-03 -8.737155653251839349e-02 -1.024732226109370981e+00 9.224107278700368617e-01 5.711762267181201558e-02 -3.819633834421688467e-01
-1.513526742963382937e-02 2.055062858328260411e-01 -8.256971047654040330e-01 -9.124829030817557252e-01 -3.199891642046351348e-01 2.549154494633671386e-01
7.702564763126877947e-03 -6.363009640829157820e-02 -9.862874163998811561e-01 -9.259697093563185044e-01 -8.505328289448760293e-02 3.678940559773228869e-01
-8.324610078395733997e-03 -9.452503489107080825e-02 -1.030181145869962567e+00 -9.224184098084110550e-01 -5.712894836256330461e-02 3.819431377908363290e-01
-4.944955652057252821e-02 -7.342786969136577691e-02 -1.111461633010132566e+00 -8.797930708986304582e-01 -8.394320267945928893e-02 4.678864083542852992e-01
6.906515822880226856e-03 -1.773271899672407836e-01 -1.015782487943084567e+00 -9.820405702761924038e-01 -6.417352227806356890e-02 1.774206227303852523e-01
1.360806113125366187e-02 -2.376634538646429928e-01 -1.023006985147988379e+00 -9.690475895154284647e-01 -2.458417950150335318e-01 -2.255174224143337985e-02
-2.150827093465761466e-02 1.570227705296109721e-01 -8.787677171381882424e-01 -8.996179556821801704e-01 -3.072484565059121486e-01 3.102997257313478974e-01
-4.364549056215987822e-04 1.001331148586544484e-01 -8.784149779704382155e-01 -9.674614368069455184e-01 -2.497565383431389896e-01 4.049740542668090609e-02
1.760973062444722015e-03 -2.100282331228206512e-01 -1.052410417319693980e+00 9.041585709980781704e-01 2.936480927836269683e-01 -3.102709720474217114e-01
4.248415105511898875e-03 8.379447676096281328e-02 -8.649151336594956829e-01 9.581886862410156080e-01 2.841175353771415724e-01 -3.393622917966929858e-02
1.089145191456597321e-02 5.293273078651301172e-02 -8.964231908494585399e-01 9.599856256537512289e-01 2.737051088267852816e-01 -5.927151035947576113e-02
-4.158893595123034498e-03 -2.588261964221758374e-02 -1.006714679200705120e+00 -9.287337108120943263e-01 -1.243660486849081093e-01 3.492660595243980981e-01
-3.275406474846934146e-02 -4.262877371115132707e-02 -1.073586823816871538e+00 -8.888813548803511377e-01 -9.822078931694341875e-02 4.474847634188544032e-01
3.315066261657700908e-02 -1.610245314945022432e-01 -8.604343897547352960e-01 -9.863318695842115957e-01 5.842242458445756625e-02 1.540657760444787139e-01
1.993386880690387053e-02 -1.314263472633857462e-02 -9.211137381479713726e-01 9.798412534335733115e-01 1.120551688921114925e-01 -1.653927362198369111e-01
-2.550591709071893184e-02 -1.295950159161647908e-01 -1.078657137442135427e+00 8.802688524240793733e-01 1.612728080593040236e-01 -4.462262081418585935e-01
-3.317762978861828541e-03 1.084760909231245601e-01 -7.883145697641565919e-01 -9.781236950584223377e-01 -1.759374225148736537e-01 -1.109957680458196622e-01
1.988787969614964207e-02 -1.685533238405244050e-01 -9.442956578316902272e-01 -9.782592439808137641e-01 -3.995530863261467780e-02 2.035004296756134923e-01
2.538035415909485962e-02 -1.576193073042290310e-02 -8.887908868460703271e-01 9.782883572264723382e-01 1.528049500089264934e-01 -1.400090617349453170e-01
1.832713079497555117e-02 2.686643019847235678e-02 -8.862492175868419420e-01 -9.710405284545728932e-01 -2.178818077540697062e-01 9.801943658521183877e-02
-3.126209276036382573e-02 -9.336805261822403446e-02 -1.080266300801651314e+00 -8.853439895239856305e-01 -9.625503810939362026e-02 4.548637025003338108e-01
-6.205783868641984169e-03 1.347343906695892546e-01 -8.359549356111122265e-01 -9.833735732524190309e-01 -1.681776904287081709e-01 6.850313767145937982e-02
-4.010513253740302653e-02 -8.127783880777172953e-02 -1.094225059978104708e+00 8.872397816506937263e-01 8.453733551173955862e-02 -4.534964264037864567e-01
1.465454416055687707e-02 -2.220471241903111959e-01 -9.988984378517745677e-01 -9.867204769252414520e-01 -1.050787003610298281e-01 1.238594653099282655e-01
-9.227860343920242167e-03 6.345955677474904300e-02 -9.641880480995419500e-01 -9.226345969092976107e-01 -2.607895467726518701e-01 2.841376653668655772e-01
2.615088576862329220e-02 -1.656829647528704486e-01 -9.036025910843074049e-01 -9.873716735563614622e-01 4.333456198592866571e-02 1.523787845994240553e-01
1.619982344395579782e-02 -2.410304160088534986e-01 -9.753403211375318849e-01 9.986558147245265804e-01 -2.110751606136240105e-02 -4.733958684453520860e-02
-3.277812323563848631e-03 -1.378280583532709158e-01 -1.027062495503655803e+00 9.258470776236227273e-01 1.283578751645230165e-01 -3.554313502479019005e-01
-3.277027303944719805e-02 9.533963099845556288e-02 -9.940977628060408966e-01 -8.723304350139199359e-01 -3.718521823667158555e-01 3.174359252156820910e-01
5.465495603529510124e-03 -1.797515838797468513e-01 -1.024074462863503010e+00 -9.182729770048433382e-01 -1.926113009895018546e-01 3.459416517764147825e-01
-1.017089480840105593e-02 1.872831156593888491e-01 -8.092032278222754949e-01 -9.865778189252838448e-01 -1.585621912485588036e-01 -3.901587767929099587e-02
-3.765884225728555190e-02 8.243557270497108014e-02 -1.020285343820406254e+00 8.844692776784665034e-01 3.234302366000636475e-01 -3.363138101472471497e-01
1.027258400032339362e-02 -1.356333976169204758e-01 -9.833520164587709056e-01 9.754676729809327318e-01 1.320355637551654839e-02 -2.197464108198415589e-01
1.392154364022683832e-02 -1.850181551315652762e-01 -9.797354631073269537e-01 -9.820405702761924038e-01 -6.417352227806356890e-02 1.774206227303852523e-01
2.045583853914262340e-02 -1.346054889957958578e-01 -9.405577295159978091e-01 -9.731421852604537071e-01 8.333303519167454057e-03 2.300540008758077681e-01
-7.021789495972641064e-03 1.423235665169971798e-01 -8.304956617079396475e-01 9.890985397464042705e-01 1.058768289733289791e-01 -1.023434206878154895e-01
2.633258719860405439e-02 -1.777513411774986340e-01 -8.989931262359249775e-01 -9.873716735563614622e-01 4.333456198592866571e-02 1.523787845994240553e-01
-1.678802073179294641e-02 1.183101717586198115e-01 -9.144958107120946256e-01 -8.954015533776875646e-01 -3.786495214753743954e-01 2.342660839628604719e-01
-3.781017806761699518e-02 -4.600327961705977242e-02 -1.084266647922761173e+00 -8.870487450656777684e-01 -8.189404046815963734e-02 4.543543661209891726e-01
1.422397662116358166e-02 -2.394685645965689003e-01 -1.006810108356771760e+00 9.983175667193905367e-01 -2.948683450232357593e-03 -5.790804128431239345e-02
2.078658895098290521e-02 1.836648167674249932e-02 -7.915110248100192258e-01 -9.604838648896896203e-01 -2.715242437535854703e-01 -6.119910408337763535e-02
2.450119669144465787e-02 -1.608387310622005082e-03 -8.779802076977650804e-01 9.740965561883101476e-01 1.935687519904027432e-01 -1.169061053792836286e-01
-3.267771494092103907e-02 -3.557889081208261139e-02 -1.071912483330146770e+00 -8.890567335272677729e-01 -9.578772749582557811e-02 4.476637530904309381e-01
-1.027901416510072427e-02 2.696431141177588545e-02 -9.980913618563017620e-01 -9.287750727585897259e-01 -1.985022812768585387e-01 3.130075215552482470e-01
8.846910893363087863e-03 -6.808290625440953370e-02 -9.832509899604023884e-01 9.237321617777433103e-01 6.299237412897623622e-02 -3.778238400352899040e-01
-4.904341101972734679e-02 -1.161255368290366602e-01 -1.121231219693809233e+00 -8.706419061413708249e-01 -1.159972743845782694e-01 4.780452945128417785e-01
1.968216794756865243e-02 -9.821109510175203561e-02 -9.438964165247072380e-01 9.720798842939523121e-01 -1.370676362564688180e-02 -2.342494891818696079e-01
-1.924695468214948288e-02 -6.140926228053278368e-02 -1.049863425842688214e+00 8.879143969045988349e-01 8.127798821816191455e-02 -4.527713687952799049e-01
-4.899073465724756299e-02 1.594602823275180215e-01 -9.434799605235489883e-01 8.166660885364753764e-01 4.831420340779656319e-01 -3.156426377116055004e-01
1.470826101941063134e-02 -7.669250463576347820e-02 -9.676443019887709385e-01 -9.720778764070325817e-01 1.368803423229246648e-02 2.342589164126930856e-01
-4.160320980696944476e-02 1.512120782991275810e-03 -1.079678093863810417e+00 8.959331149177054421e-01 1.215447649789019174e-01 -4.272361451236083574e-01
7.077316919250506606e-03 -1.557100517487406688e-01 -1.002267401622452203e+00 9.797977935689240470e-01 4.982135942461001638e-02 -1.936856108815319666e-01
6.000285707203178998e-03 6.629447088595055715e-02 -7.845030890481139441e-01 9.586277296186522801e-01 2.691911631528277615e-01 9.256885916233326128e-02
1.829396091512010269e-02 -2.144522012961409471e-02 -9.365373974992572403e-01 9.794318625449706106e-01 1.172500622070094395e-01 -1.642122088766314880e-01
-4.086630435147420998e-02 1.945107564627496233e-02 -1.071094792658140005e+00 8.977543763144274491e-01 1.632871514550759684e-01 -4.091141478584924829e-01
-4.897439272300616910e-03 4.685704923970528124e-02 -9.641320963644171016e-01 9.228102715732449113e-01 2.673081581749407465e-01 -2.774302637637698354e-01
2.415269401009147165e-02 7.849136342567078484e-03 -8.014164242070691557e-01 9.603976710959952756e-01 2.756265941051073698e-01 4.082026427409419372e-02
-1.411905515433136554e-02 2.036109410542464859e-01 -8.241817627890326570e-01 -9.733254793538834715e-01 -2.219228938816118213e-01 5.820429891119874993e-02
6.396633819568066717e-03 -1.518577867174664420e-01 -1.006950811442777427e+00 -9.797925229101729361e-01 -4.982956959838160532e-02 1.937101598857388640e-01
1.282104431396075168e-02 -2.012689889852626035e-01 -9.909158203901181627e-01 9.823848012564342369e-01 9.169167596010588395e-02 -1.628273282344928630e-01
-1.580820383305983016e-03 1.019178916319916223e-01 -8.834290273177254349e-01 -8.962788653232146574e-01 -3.612797179660974800e-01 2.572181194264271387e-01
1.962068925006330011e-02 5.315293952521496154e-03 -9.091179620657270366e-01 -9.782814300970994470e-01 -1.528105676971800164e-01 1.400513260459871068e-01
-2.142476020048214580e-02 5.267481773816400092e-02 -1.005145702992633172e+00 8.884094189150958387e-01 2.780981319788273787e-01 -3.652261400459019813e-01
-2.598592482029354195e-02 -1.128871163013274032e-01 -1.075513492913480418e+00 -8.892293424201106466e-01 -1.396141949138345606e-01 4.356363772203366569e-01
3.293073661880564079e-02 -1.167192607915712305e-01 -8.742150226494811438e-01 9.880738485803357563e-01 -2.971506039374124247e-02 -1.510863492756376047e-01
-2.377700981154771270e-02 -6.506372013845443392e-02 -1.060304805327542121e+00 -8.870487450656777684e-01 -8.189404046815963734e-02 4.543543661209891726e-01
1.769288269531547886e-02 3.300942708406192500e-02 -8.730211278967199284e-01 9.692893716274790794e-01 2.313886694204105587e-01 -8.329104221858871226e-02
3.353665985789289899e-02 -1.014188372756098522e-01 -8.759440263327664677e-01 -9.881342270844396536e-01 3.379770431406226711e-02 1.498281163444851183e-01
-1.329611640252695293e-02 4.803443576738643944e-02 -9.889062242011580350e-01 8.884094189150958387e-01 2.780981319788273787e-01 -3.652261400459019813e-01
-3.446857394925087470e-02 -1.247467988668393563e-01 -1.095657566812622941e+00 -8.843448714030615054e-01 -1.286815648031563453e-01 4.487484855717219223e-01
3.343695151830847201e-02 -1.587793572223637206e-01 -8.588496404482205415e-01 9.842624535929171969e-01 -5.046238574615373451e-02 -1.693545690911733292e-01
-1.969232544363330034e-02 -1.238001094877147490e-01 -1.066080352879022364e+00 -9.267658739757297370e-01 -1.155142328180548544e-01 3.574373747252210798e-01
-2.769644445659467154e-03 -1.858464280906854948e-01 -1.049497802293416937e+00 -9.171223088146571722e-01 -2.267161964520412742e-01 3.278512420912754188e-01
7.071188425898766727e-03 -1.018296335138231395e-01 -9.929565202771153398e-01 9.224107278700368617e-01 5.711762267181201558e-02 -3.819633834421688467e-01
-2.321254948080891944e-02 5.681558158535594816e-02 -1.007377581304297776e+00 -8.874944391146392109e-01 -2.790654776765965073e-01 3.667098031273844927e-01
-1.344722901292959467e-02 1.578742292537959821e-02 -1.012421347317283171e+00 -8.931443373342837777e-01 -2.041429697712270064e-01 4.007728041929582430e-01
-4.610860747799224585e-02 1.528240051655221921e-01 -9.456111983090693673e-01 8.313010984568116601e-01 4.607018770816032061e-01 -3.109537974651312431e-01
-5.416821104516779395e-03 -1.375912097367071873e-01 -1.033766791018490894e+00 -9.258557936617966000e-01 -1.283601298704985239e-01 3.554078310933986851e-01
1.978493125643272441e-02 -2.077405016313386421e-01 -9.445688035035968433e-01 -9.952038411290303754e-01 -9.260718212397167377e-04 9.781849003642224816e-02
2.688741587968479854e-02 -9.516907245501554646e-02 -9.135296096461504867e-01 9.745638922473026655e-01 5.958852028488068400e-03 -2.240306050750447697e-01
1.586750315040140469e-02 3.147234698460089908e-02 -8.959615985938642613e-01 9.710532264717410822e-01 2.178127042482100040e-01 -9.804721937364324624e-02
1.264806094126632273e-02 -1.457214119253988360e-01 -9.731501172383559828e-01 9.752694754465867089e-01 4.379558780507239978e-03 -2.209757220307868864e-01
7.738218080134587167e-03 -1.909996460070001179e-01 -1.018324862274587739e+00 9.841041763010893728e-01 1.214602047261437723e-01 -1.295622971957420821e-01
5.564307187047414123e-03 -2.511344319995297003e-02 -9.806380950653927897e-01 -9.284652590092039581e-01 -1.229693188025714756e-01 3.504722663010629846e-01
2.306144617825310258e-02 1.248870417194155105e-02 -8.668855775811952213e-01 9.710532264717410822e-01 2.178127042482100040e-01 -9.804721937364324624e-02
1.676382935122339157e-02 -1.511047842121190088e-01 -9.570557919946471870e-01 -9.752654483391873796e-01 -4.402228280778394676e-03 2.209930443745415918e-01
-3.287367260829827248e-02 1.720619026912187099e-01 -8.911969522556105749e-01 8.309561161186707068e-01 3.607232101412785052e-01 -4.235453916056052259e-01
1.498715613979700271e-03 9.671869727255452687e-02 -8.425878351225325469e-01 9.674622993483875666e-01 2.497624801100857828e-01 -4.044011459912185552e-02
3.645098639752036157e-02 -1.149727277593989572e-01 -8.537260995353924686e-01 -9.882961611165939075e-01 3.059693673950484097e-02 1.494474000588910945e-01
-2.100048650423312624e-02 1.504356462713690445e-01 -8.827547932895689620e-01 9.001545744961765294e-01 3.217905008415236634e-01 -2.935517255642843271e-01
-2.747228584457149514e-02 -3.086420330916616467e-02 -1.059716104365131084e+00 8.898933756057617606e-01 9.500373072579866573e-02 -4.461659682238917624e-01
1.879757021981310477e-02 -2.317213740770474595e-01 -9.527466585753469053e-01 -9.939063612187899466e-01 5.675157904727424346e-02 9.449552055238108483e-02
2.155599141565190183e-02 1.709591917609273870e-02 -7.972577132219663687e-01 -9.627857074299042139e-01 -2.606752595910961090e-01 -7.135888596253103788e-02
-2.265868485064729404e-02 1.271326045039665176e-01 -9.226745099147087847e-01 -8.954015533776875646e-01 -3.786495214753743954e-01 2.342660839628604719e-01
3.069215127610445612e-02 -1.468797184771719055e-01 -8.810930616376722035e-01 -9.863946406726229466e-01 4.759295736778766661e-02 1.573547687911471538e-01
-1.514742339277200776e-02 -1.300472364287848757e-02 -1.029462624104028334e+00 -8.939730074917134894e-01 -1.641388697803325136e-01 4.169780489467712625e-01
-7.889910438929025049e-03 1.103289488107614819e-01 -8.919252254930263302e-01 8.962534163742655879e-01 3.613249802636853136e-01 -2.572432161883088653e-01
2.170376106022335605e-02 -1.955570579163862233e-01 -9.267741719132647216e-01 9.906934208784045071e-01 -2.912979531706566538e-02 -1.329586433934649703e-01
1.351256374689685340e-02 -2.288825667743103198e-01 -1.012961449154836879e+00 9.817369584659811910e-01 1.672042183693622508e-01 -9.074851922458716802e-02
-1.381176714802774021e-02 1.220352237423532049e-01 -8.977917597149990270e-01 -8.962788653232146574e-01 -3.612797179660974800e-01 2.572181194264271387e-01
5.907915804373722705e-03 -2.920079489825719299e-02 -9.799257555120904906e-01 9.284566698716003597e-01 1.229764281584818236e-01 -3.504925252959329440e-01
1.414145186434016301e-02 5.325723739952407942e-02 -8.412463074611181701e-01 9.581886862410156080e-01 2.841175353771415724e-01 -3.393622917966929858e-02
8.789734729989256978e-03 -1.771752788293790293e-01 -1.005247502546935401e+00 -9.808104931578640606e-01 -8.995307407721675474e-02 1.729717346143195000e-01
-2.520819264734848117e-02 8.998864008800624981e-02 -9.800499932166885086e-01 -8.712601371549782980e-01 -3.574547348990705364e-01 3.363508375237437842e-01
-3.853754988629234240e-02 2.111868444084103618e-04 -1.074291562942663480e+00 -8.883189584593608190e-01 -1.299737951396141566e-01 4.404500432724262615e-01
2.984926798863605374e-02 -1.726635955196938535e-02 -8.395570371838401158e-01 9.862586628330723970e-01 1.617693190468309228e-01 -3.353412294729880838e-02
-4.926214214428472314e-03 1.217131538721745732e-01 -8.595410118230930596e-01 -9.722152003869627412e-01 -2.282863376474483230e-01 5.179722174068204094e-02
3.592484488797407366e-02 -1.274698337984805918e-01 -8.527463929512018037e-01 9.871120411821148188e-01 -2.620568648986489751e-02 -1.578704536918608403e-01
2.543030816768323404e-02 -8.050751116002455299e-02 -9.194782544240457378e-01 9.745638922473026655e-01 5.958852028488068400e-03 -2.240306050750447697e-01
3.576872557893354815e-02 -5.665128010470823344e-02 -8.338292287926496460e-01 -9.932041327387018947e-01 -8.512058670445604713e-02 7.937276881810538531e-02
-5.137180285906186444e-02 -4.388418579272447551e-02 -1.109871767810860055e+00 -8.826601932467372791e-01 -7.763765515030905673e-02 4.635551507214587530e-01
1.482456687000142373e-03 9.997903570022019515e-02 -8.218973192767337066e-01 -9.738290331701925373e-01 -2.052982209513348200e-01 -9.751745807302981961e-02
2.572359454295487097e-02 -1.952775667770230983e-01 -8.993973706411353408e-01 -9.908712954622346247e-01 3.041458850389327020e-02 1.313355573907223628e-01
1.649284872755981193e-02 -2.344039584216153771e-01 -9.731860980761044555e-01 9.955266234825814742e-01 -3.698247027544278309e-02 -8.694273304708521888e-02
4.117083132429421276e-03 6.070649618577416556e-02 -9.191100269371302867e-01 9.148016165815620049e-01 3.084616656645730037e-01 -2.607477768173653287e-01
2.450484479477141667e-02 -2.127868283261538998e-02 -8.995460158995028932e-01 9.798412534335733115e-01 1.120551688921114925e-01 -1.653927362198369111e-01
-1.134961613555630563e-02 -9.155817792190809601e-02 -1.035905314140174172e+00 9.224107278700368617e-01 5.711762267181201558e-02 -3.819633834421688467e-01
1.096045255825916012e-02 -2.264891102748380902e-01 -1.033773907752816523e+00 9.814522635742137791e-01 1.501813417902706782e-01 -1.191512438169498034e-01
1.497226983486656116e-02 -5.443957464001608626e-02 -9.642760248535454659e-01 9.741536422955806573e-01 3.893132629954154916e-03 -2.258528829140316607e-01
1.190509998736338088e-02 4.753482939546054692e-02 -7.889857617069808704e-01 9.540122956082018879e-01 2.887820649301793829e-01 8.040807672759485436e-02
2.697541109818254318e-02 -6.569587844115779875e-03 -8.655788850078274255e-01 9.740965561883101476e-01 1.935687519904027432e-01 -1.169061053792836286e-01
-4.770833114784379242e-02 -6.512506909892228080e-02 -1.106641872300218488e+00 -8.826342510071057967e-01 -8.660928339109610907e-02 4.620125658243577349e-01
5.742350823542755056e-03 -1.861298723872600869e-01 -1.025650518203096606e+00 9.182460106358367735e-01 1.926959568405796352e-01 -3.459660852867871284e-01
1.620154821963442487e-02 4.678962065073039023e-02 -8.461088836933736701e-01 -9.599828813638243696e-01 -2.737053028883257855e-01 5.931504580812187871e-02
2.147160336970720118e-02 -1.516783133518943838e-01 -9.343257481313106405e-01 9.752694754465867089e-01 4.379558780507239978e-03 -2.209757220307868864e-01
3.011618998712584441e-02 -1.607946978215087780e-02 -7.996103263962204277e-01 -9.739302029599412602e-01 -2.241374405303583617e-01 -3.496237284435550763e-02
2.115377783076128823e-02 -1.037401324394446739e-01 -9.374598879835075449e-01 9.720582597355723609e-01 -1.410534387284227351e-02 -2.343155542299300842e-01
2.406587294934258575e-02 1.008805085956132608e-02 -8.112876714964958325e-01 9.691830385873847487e-01 2.440639282617933781e-01 3.342209801831983601e-02
-3.626235718586289652e-02 -8.471143020176387373e-02 -1.088166932386007479e+00 -8.853439895239856305e-01 -9.625503810939362026e-02 4.548637025003338108e-01
-2.251534825788222699e-02 -1.190384141966516762e-01 -1.070400673765335098e+00 -8.892293424201106466e-01 -1.396141949138345606e-01 4.356363772203366569e-01
1.040466922854797922e-02 -2.071012217055472893e-01 -1.017583332954217656e+00 -9.826222380072582308e-01 -1.435172183323872863e-01 1.177129789604408061e-01
-3.314668225758095332e-02 1.621263063126874293e-01 -9.020039894791553881e-01 8.300041223873261265e-01 4.138630981850536239e-01 -3.739124132476925877e-01
3.496591725614494120e-03 7.540223596929863936e-02 -7.840020792112718517e-01 9.666693318404530055e-01 2.433747050880863128e-01 7.949311795633237643e-02
-3.124838246454198984e-02 -1.318180567367357725e-01 -1.091623007832971837e+00 -8.791894757386053971e-01 -1.616016920161243153e-01 4.482306982882833801e-01
-9.483925486573747260e-03 1.641434751984673091e-01 -8.394942862664590555e-01 -9.894566617383276919e-01 -7.569244755182870377e-02 1.234753737603503099e-01
-3.693043427401095872e-03 1.214142726116548138e-01 -8.342351884527735573e-01 -9.811499984469541635e-01 -1.814194770638739296e-01 6.657066838640299244e-02
-1.249884368689330866e-02 2.007411628958126470e-02 -1.006550608730297114e+00 8.932819950778962959e-01 2.402968896492814477e-01 -3.798745609994630956e-01
-2.412409793617861819e-04 3.479579259078664083e-02 -9.613912317594935919e-01 -9.259038918484081560e-01 -2.340000238777714958e-01 2.965568611331960702e-01
-2.684631003701214158e-02 6.664255588799387897e-02 -1.008376541808286175e+00 -8.842355072709381369e-01 -3.122810465033143967e-01 3.472867916810277733e-01
1.725432959993886822e-02 -1.236678727290111274e-01 -9.526108242765899403e-01 9.731405223362689094e-01 -8.364520302942048471e-03 -2.300599021715768744e-01
2.276716104295167797e-02 -2.336028169172819635e-01 -9.126477515043076583e-01 -9.916014732461417847e-01 5.498973003123668740e-02 1.170583096032603160e-01
3.253793910093769753e-02 -1.580933253989192100e-01 -8.642789771066584636e-01 9.842624535929171969e-01 -5.046238574615373451e-02 -1.693545690911733292e-01
3.425559898347472348e-02 -6.283033132792316400e-02 -8.584411316948205029e-01 -9.931509366833746189e-01 -7.938846307829522386e-02 8.572449413675049812e-02
5.696571979235908606e-03 -3.148271418638091956e-02 -9.812862577569876343e-01 9.284566698716003597e-01 1.229764281584818236e-01 -3.504925252959329440e-01
9.529925747470018027e-03 1.407825579741319062e-02 -9.455931395711730802e-01 9.268700599704385867e-01 2.282154190437017671e-01 -2.980429741515531195e-01
1.906561715188114653e-02 -2.432842811018752494e-01 -9.429208919519487253e-01 -9.950358583138904089e-01 5.601039038557609206e-02 8.225859735246429660e-02
-6.209771170394144321e-03 1.245604762890141493e-01 -8.627979538723501429e-01 9.722284507050462654e-01 2.282365126242442421e-01 -5.176807843438777784e-02
1.428034101205198116e-02 -1.869412818209206517e-01 -9.760046801835919883e-01 9.820487110324095381e-01 6.410498762954004726e-02 -1.774003374309065517e-01
-2.799964609465740301e-02 1.886955020722300702e-01 -8.709695305473489357e-01 8.412588712959577775e-01 2.713700370240459403e-01 -4.675915038486256337e-01
2.493980675993830512e-02 6.726255340580066314e-03 -8.187047043677394553e-01 9.797673932222279447e-01 1.999306761756589057e-01 9.142204464130426061e-03
2.670310432861540406e-02 -5.056452261280117849e-02 -9.073461960281784533e-01 -9.797554197950948396e-01 -8.679977388926456150e-02 1.804026514076509657e-01
1.019383503154556309e-02 5.928980491593121432e-02 -8.090631882797379992e-01 9.682157786654456144e-01 2.408683189632791488e-01 6.738441112800944155e-02
-1.044839789994517383e-02 -7.613332654210382133e-02 -1.032640571574371835e+00 -9.224439776367320265e-01 -5.392619482166786937e-02 3.823467975984365941e-01
3.026789398045628271e-02 -2.865386357228677863e-02 -8.702339540696881759e-01 -9.916895180547815603e-01 -1.151074025906995285e-01 5.746464695008431794e-02
2.854033701544415880e-02 -9.145696270567214500e-03 -8.188063845391921891e-01 9.747939069457717265e-01 2.228912493273835504e-01 9.814782456905063457e-03
5.672168030097172152e-03 3.877492962687784789e-02 -9.369405951120515219e-01 9.226213432102173817e-01 2.608423294079408317e-01 -2.841322513232419356e-01
4.400452173923259484e-05 -1.690368146219231038e-01 -1.033107120362980025e+00 -9.238587382475041965e-01 -1.553177111239843200e-01 3.498020016737126148e-01
-6.389874350734655109e-03 1.276830455042896606e-01 -8.504659913489458489e-01 9.811590119900470697e-01 1.814014101823505365e-01 -6.648700304999211053e-02
3.538506327316507521e-02 -6.134951241369852176e-02 -8.436685135991308648e-01 -9.932041327387018947e-01 -8.512058670445604713e-02 7.937276881810538531e-02
-4.582334881791259168e-02 1.552896857258847796e-01 -9.411954956834559516e-01 8.313010984568116601e-01 4.607018770816032061e-01 -3.109537974651312431e-01
2.291867339077858709e-02 -5.932901217238783359e-02 -9.293458679699705405e-01 -9.780874624861141120e-01 -4.563062783261426225e-02 2.031323744041703683e-01
1.662317967859892193e-02 -2.103751124416261276e-01 -9.757659702470153906e-01 -9.823749568443255198e-01 -9.171241139977256984e-02 1.628750372535605895e-01
1.634442487006433284e-02 4.138650550026409108e-02 -8.687288127848865615e-01 -9.599828813638243696e-01 -2.737053028883257855e-01 5.931504580812187871e-02
-3.485353717392836170e-02 1.875321924890173755e-02 -1.058890356107726971e+00 -8.940997723650966345e-01 -2.081530567515664787e-01 3.965575645750077927e-01
2.110073321087095957e-02 2.742927398129081998e-02 -8.540710224249994376e-01 -9.692853628566105995e-01 -2.313899026536742065e-01 8.333425647266662351e-02
3.686249025932022277e-02 -1.050715274537472044e-01 -8.478984135332000571e-01 9.922708007173313138e-01 1.940118879544571254e-02 -1.225652965447794202e-01
2.916086187127575266e-02 -1.379568376472271873e-02 -8.430608603863519734e-01 9.862586628330723970e-01 1.617693190468309228e-01 -3.353412294729880838e-02
2.821212079597466491e-02 -5.877130822473370514e-02 -9.030714284705304573e-01 -9.794130256623048147e-01 -8.277897582652718467e-02 1.841134604642495343e-01
