-6.980590561722242737e-02 -2.184617371733366120e-01 -1.024269556586314689e+00 3.088204138057702372e-02 -5.162639206062324959e-01 8.558725745112119032e-01
4.945667038782596697e-02 -6.633275751439388079e-02 -9.586479595046777380e-01 -3.493030943976182523e-01 5.501593085663405436e-01 -7.584932982182865935e-01
-6.455072335219240454e-02 -1.294063056354239072e-01 -9.681285238393944059e-01 -1.811608318051237398e-01 5.718034114034735715e-01 -8.001384953412914447e-01
1.104143158737019154e-01 -6.615733564431926228e-02 -9.918563144846729296e-01 4.231007930331702749e-01 -5.583108106870305898e-01 7.136348909664471662e-01
-1.368015981515660062e-01 -5.938667424395757677e-02 -9.085380285618961382e-01 -9.499372628562993692e-02 5.243150692098090815e-01 -8.462091350049845140e-01
9.002209339863372073e-02 9.173241727349175367e-02 -9.039724176200603090e-01 4.595160133847986939e-01 -1.968747135974579510e-01 8.660746968875491225e-01
3.076816183307481273e-02 1.473828726567658898e-01 -8.573598082526635578e-01 4.004435619442992533e-01 -3.260457601694590202e-01 8.563522149051066013e-01
5.832400193250460163e-02 1.345832211248058075e-01 -8.758099918701470754e-01 5.137386658429827779e-01 -2.119109240449298104e-01 8.313641461407245137e-01
-7.995209933042304873e-02 -1.955719636352248186e-02 -8.930652880070294453e-01 9.865170572258162573e-02 -4.586353959236667555e-01 8.831315952699045901e-01
-6.384404547966633647e-02 -1.207919452397324678e-01 -9.621586331081037891e-01 -1.843717184747332150e-01 5.647359079837550588e-01 -8.044130926709469609e-01
3.203570822887360364e-02 8.638320098478448339e-02 -8.772979763626929106e-01 3.766110357518762108e-01 -2.572191816741123405e-01 8.899451782715600556e-01
5.132642012359334843e-02 8.205520174943124745e-02 -8.867124207725581853e-01 3.766110357518762108e-01 -2.572191816741123405e-01 8.899451782715600556e-01
-8.038674600539537363e-02 -6.025729625786033911e-02 -9.162148695668055343e-01 1.042464388154855232e-01 -5.314760010563515102e-01 8.406342488237307231e-01
6.653047231027758857e-02 6.478118545963199026e-02 -8.986645992164284946e-01 4.515767396848942572e-01 -2.584300052937014702e-01 8.539861711640643893e-01
7.879781909105601501e-02 1.559047690118267604e-01 -8.825958217528233618e-01 -5.269820046656573664e-01 2.135705633025892780e-01 -8.226041461414960176e-01
1.143512737171579335e-02 -1.018594612397245580e-01 -9.684653284072795021e-01 3.481190906033271304e-01 -5.752977964147207857e-01 7.401658896476376315e-01
5.738363078809647494e-02 -1.306938033966175139e-01 -1.011595360672792543e+00 3.551715776287798221e-01 -5.226994407481482252e-01 7.750086742006546681e-01
2.423694930270696435e-02 -5.101860527112476312e-02 -9.365413530258037689e-01 -3.526874961026301158e-01 5.148950694769569569e-01 -7.813415370509726454e-01
1.921660830579004393e-03 4.969490490248799908e-02 -8.779287156971364858e-01 1.716671407647717140e-01 -2.908866747234069017e-01 9.412307555801641135e-01
-9.319014724466936558e-03 1.737814803355510473e-01 -8.290100275564666887e-01 1.313648807039026756e-01 -4.545273310898190200e-01 8.809927204069368800e-01
1.141420319512532616e-01 -8.866846038723909251e-02 -1.011963482408935411e+00 4.235239321431865100e-01 -5.745674932543844982e-01 7.003568194837159755e-01
-6.104848553578000325e-02 1.378843241273432496e-01 -8.425389573446544489e-01 8.588869837717905955e-04 3.380860060320611815e-01 -9.411148255332278945e-01
1.227961737939061229e-02 -6.398663199207507701e-02 -9.403959333334880322e-01 3.494436340630271975e-01 -5.498652592414815521e-01 7.586417753407224129e-01
7.229395518619322059e-02 5.986351218576774907e-02 -9.032030869143691243e-01 4.536998372283688186e-01 -3.039027602042012610e-01 8.377347850240070004e-01
1.067784004946337184e-01 -1.154640265752461120e-01 -1.029257960582788956e+00 4.296403688011445898e-01 -5.589872647393392402e-01 7.091843140930629286e-01
-2.732299881943802550e-02 -6.793663663053703394e-02 -9.321520636030297124e-01 1.845813894200560024e-01 -5.715899243024923360e-01 7.995090175324057746e-01
-4.165613883742657481e-03 6.936236323586790486e-02 -8.698769248253538366e-01 -1.635608677999300375e-01 3.117088145700864787e-01 -9.359943682757099204e-01
1.032038622145041856e-01 -1.301524909667579888e-01 -1.037573437940691345e+00 -4.413422859441864521e-01 5.364999391808089602e-01 -7.192946558237092169e-01
3.484504411764371978e-02 -1.995560088307013202e-01 -1.045004081451027522e+00 -5.067334408602027773e-01 5.227081935997219819e-01 -6.855635377247646378e-01
-1.268366950693982087e-01 -1.532943456989952768e-01 -9.767585283875932500e-01 -7.724242661456119652e-02 5.686904340794513013e-01 -8.189168442016682148e-01
-1.273062009917303450e-01 -8.354173766890255620e-03 -8.824169737059752716e-01 1.024123583667946868e-01 -4.112903489221980124e-01 9.057328291153013966e-01
-2.063121372974883409e-03 -7.627531858674624354e-02 -9.439942725458396744e-01 1.851694259645796092e-01 -5.737359246018962633e-01 7.978341760724185772e-01
-2.154103582972093783e-02 9.426395180284351250e-02 -8.598527961794584229e-01 1.544159192655463753e-01 -2.816230248352328269e-01 9.470185825843282501e-01
-9.783203027679622521e-02 -1.477394624423351011e-01 -9.760317470399401119e-01 -9.452840127527263603e-02 5.506239724892347809e-01 -8.293838811265356048e-01
2.513000031236322512e-02 -1.477804373304503205e-01 -1.008195052335309594e+00 3.596822900096370290e-01 -5.116681871552412053e-01 7.802719503523707356e-01
1.131290435397345057e-01 4.598477820343400968e-03 -9.480281043208499403e-01 -4.402328185249585468e-01 4.145123960441113864e-01 -7.964763267162060512e-01
-1.062290279178287611e-01 -1.463649766890570691e-01 -9.741621910919600058e-01 -9.452840127527263603e-02 5.506239724892347809e-01 -8.293838811265356048e-01
-2.709561698983182707e-02 1.286626141313174931e-01 -8.479392901436033636e-01 1.340299401108763222e-01 -3.066083983760335419e-01 9.423519858307503050e-01
-2.462736390940890169e-02 -2.046811356098633128e-01 -1.021061269804929506e+00 -1.588136497928850921e-01 4.256857626254244575e-01 -8.908253791498498275e-01
-1.124202558422248421e-01 -8.876573998931958087e-02 -9.319285815479831925e-01 1.019898917153478357e-01 -5.954464066073057449e-01 7.968949986330311486e-01
4.899433451022106728e-02 8.991299053408867425e-02 -8.829681879597515159e-01 -3.765638141640919034e-01 2.572248274633862075e-01 -8.899635284654211498e-01
1.235319251998128476e-01 3.837680063242228379e-02 -9.384627751687812935e-01 4.331866019671165025e-01 -3.329951525658494393e-01 8.375342358637224427e-01
-1.252438597691270528e-01 7.074755883334973156e-03 -8.759143679279328687e-01 -8.391990232176546605e-02 3.529657123204732461e-01 -9.318651489997930026e-01
2.803435469212683245e-02 4.197733074731719444e-03 -9.073476561238253968e-01 3.583168799284988659e-01 -4.119065564644552868e-01 8.378197910648208513e-01
3.825509219255084775e-02 1.748767962369670581e-01 -8.479312600042082648e-01 5.344908397530920841e-01 -3.913890950115543332e-01 7.490888588986426289e-01
4.900360694574059511e-02 1.180251250158443482e-02 -9.121183655002543800e-01 -3.598566714804305455e-01 4.064152193854034811e-01 -8.398391783210281680e-01
5.652813508220302235e-02 1.159613516677383133e-01 -8.788021885836655445e-01 -4.782934022055036483e-01 2.158096310262642148e-01 -8.512705942078534482e-01
-6.293088912660023404e-02 -1.893275111374185804e-01 -1.006799504668617340e+00 1.728969151364831425e-01 -4.842129566140843111e-01 8.576971897956379154e-01
-1.020985337118370390e-01 -1.072183381113692296e-01 -9.469638655579584174e-01 1.019589686719221261e-01 -5.891997063151388492e-01 8.015285863807427580e-01
7.051000212254768251e-02 -1.467595298692654926e-01 -1.030403389287002813e+00 4.401133429243406225e-01 -5.308052247562453640e-01 7.242555203458469482e-01
-3.715477799173360750e-03 -9.124497232913902911e-02 -9.541556900760240767e-01 -1.839549587644158657e-01 5.896356581822079779e-01 -7.864415831745013019e-01
-8.466438943753878607e-03 -3.250813592986498413e-02 -9.140871170772961740e-01 1.871539556722182085e-01 -4.986557349086389590e-01 8.463544499315678316e-01
7.673581958254166446e-02 1.289877369855373657e-01 -8.876262001118294664e-01 -4.958558578391094596e-01 1.866179223766940565e-01 -8.481159822184977104e-01
8.385053017399099473e-02 1.041406287937770569e-01 -8.971502288578415696e-01 -4.782934022055036483e-01 2.158096310262642148e-01 -8.512705942078534482e-01
-1.000587369199453652e-01 6.678932893180404562e-02 -8.595383278015543693e-01 7.217429653738426099e-02 -2.511292915486743049e-01 9.652590066120048107e-01
-7.331127919623488254e-02 6.156544402138606348e-02 -8.622297005942158865e-01 -6.060368634585966419e-02 2.482202100148595825e-01 -9.668060408072922662e-01
3.059501606450061237e-02 -3.578601554885011554e-02 -9.297274273241346032e-01 -3.546767527113271479e-01 4.799652855757019498e-01 -8.023949935838227132e-01
-2.619045018131894303e-02 -1.794348629147326790e-01 -1.008117814119132261e+00 -1.729488107104000250e-01 4.842129902517854911e-01 -8.576867079215362288e-01
1.285841354791830982e-01 3.365680652814433821e-02 -9.429524841253709155e-01 4.331866019671165025e-01 -3.329951525658494393e-01 8.375342358637224427e-01
3.740376887414695317e-02 1.826709593731578318e-01 -8.425926564905884542e-01 -5.142682158863695063e-01 3.922602488909310292e-01 -7.626664403715920360e-01
-2.949622611451365589e-02 -8.097156289131399176e-02 -9.404611731386588458e-01 -1.851869339438622641e-01 5.737236808293278978e-01 -7.978389170453636936e-01
5.201884092436179219e-02 -6.198994276773951706e-02 -9.566779145946241458e-01 -3.493030943976182523e-01 5.501593085663405436e-01 -7.584932982182865935e-01
-3.418912549697533665e-02 -1.200995474329627499e-02 -8.973437133902838481e-01 1.854479849169613781e-01 -4.341404928168433597e-01 8.815503827842097184e-01
4.014309648172689066e-02 1.259037191938023881e-01 -8.688555802693991303e-01 3.990943303064879988e-01 -2.657983422511402405e-01 8.775391482855687819e-01
-2.895746889946213681e-02 1.390528776329181537e-01 -8.433285613502802258e-01 -1.326990865417646825e-01 3.742508250031155170e-01 -9.177838920004363077e-01
3.968077787044375221e-02 -1.441094252378493368e-01 -1.011939906053390903e+00 -3.596627410478406284e-01 5.116606341474851938e-01 -7.802859143709741652e-01
-2.035343456225883335e-02 3.867115287924244998e-02 -8.777777769915591222e-01 1.780732926582730968e-01 -3.553209161302250396e-01 9.176257129147038505e-01
-8.928471048018747636e-02 -3.013164565522829380e-02 -8.971424290147763658e-01 -9.945095075002180485e-02 4.655865265917013551e-01 -8.793967788496791504e-01
1.106501850770581497e-01 6.751820065484304134e-02 -9.211698636846638033e-01 4.445267089389740023e-01 -2.780540314254144052e-01 8.515174458858486561e-01
-2.149146782396389385e-02 -1.034953408172445133e-01 -9.597221736190441055e-01 1.839710762970213631e-01 -5.879444929004969955e-01 7.877029366163952329e-01
4.607296899797201639e-02 1.790680187158670278e-01 -8.512245438615528847e-01 5.286835114959036463e-01 -4.066886765887627320e-01 7.450490353036111069e-01
8.773998025082697938e-03 -1.878144276597074336e-01 -1.024775100888418500e+00 3.829282555525223009e-01 -4.551837642038437659e-01 8.038492967619750296e-01
7.570234463617972476e-02 -4.269688406568072914e-02 -9.550750663173578348e-01 4.296277980676280750e-01 -4.958336436931716773e-01 7.546979216279280367e-01
1.096678234483024345e-01 -3.729614298462118754e-02 -9.708790980599172338e-01 4.310193181405458374e-01 -4.926044570143042756e-01 7.560179867696938949e-01
2.166748990403594144e-02 8.490253620903122659e-04 -9.057548073570483860e-01 -3.582993421853665761e-01 4.118227768980274317e-01 -8.378684752498634092e-01
3.557691879468909829e-02 1.889525687800988341e-01 -8.381300022812349093e-01 -5.142682158863695063e-01 3.922602488909310292e-01 -7.626664403715920360e-01
-8.230723662645529626e-02 7.199955539901747859e-02 -8.590717102529792371e-01 -6.114256110459841131e-02 2.272843955892620837e-01 -9.719070895631918283e-01
8.782945026540277256e-03 -2.029532131343387280e-01 -1.032368823928988544e+00 -3.986829858585506092e-01 4.656225011524253166e-01 -7.900933889151777745e-01
-3.540627558164496924e-02 1.300493840323585677e-02 -8.853801315191274224e-01 1.826568860802949001e-01 -3.832842441221689933e-01 9.053892257891892337e-01
9.584924885686406382e-02 1.030361826904890171e-01 -9.044945962128773109e-01 4.595160133847986939e-01 -1.968747135974579510e-01 8.660746968875491225e-01
-9.224301486900343683e-02 9.591099589432723616e-02 -8.532090483224136213e-01 5.691089979785515784e-02 -2.235143000689054638e-01 9.730377727246284358e-01
-1.089444431021533849e-01 -1.907272449881416421e-01 -1.004223256472234649e+00 4.323377214228035781e-02 -5.715913783753616695e-01 8.193986435876637886e-01
6.284299128589182493e-02 -5.014533100049367934e-03 -9.264870279545668330e-01 -3.568489025688619809e-01 4.417682207718700016e-01 -8.231036993304396976e-01
2.819258771910786165e-02 1.013875356813483536e-01 -8.713508395609309565e-01 3.765674064741931226e-01 -2.551443920853720404e-01 8.905606815757619588e-01
4.623960061729552769e-03 1.134791360915847064e-01 -8.574258423226522874e-01 -1.434890581710452639e-01 3.045884131951083762e-01 -9.416139276436348293e-01
7.806950121753790384e-02 -1.548733500277538755e-01 -1.040731930638447045e+00 4.556309193032694882e-01 -5.034754736152716736e-01 7.341068810757295227e-01
1.465539226151610537e-02 2.120026342707505285e-01 -8.171134964480574192e-01 2.255115168986780161e-01 -5.069570890182157896e-01 8.319489561506967501e-01
6.281216746795570752e-03 -5.223595096538849458e-02 -9.297923678503621225e-01 3.527087679529652964e-01 -5.148941969413617370e-01 7.813325098606940244e-01
4.683748028150982318e-02 -1.363589758612852587e-01 -1.010583100474388596e+00 3.551715776287798221e-01 -5.226994407481482252e-01 7.750086742006546681e-01
-8.752066550941257905e-02 -9.763270454484775096e-02 -9.412250480770699701e-01 -9.972993250423110856e-02 5.945519634475177062e-01 -7.978482959331322233e-01
8.415421610672782493e-02 -1.101775873958431712e-01 -1.011380285762518927e+00 4.244280367731806392e-01 -5.680811000383700904e-01 7.050848923215267128e-01
-6.565322052625716109e-02 -8.321379222235483764e-03 -8.886646014862307208e-01 -9.224059195975681247e-02 4.256703321705889165e-01 -9.001646746594170745e-01
-1.242992064767904359e-01 1.206641109425641428e-02 -8.742410479385114286e-01 1.022591809905844112e-01 -3.563548884512679482e-01 9.287379896289476022e-01
-4.026316463107786764e-02 -1.460539312545544310e-01 -9.855991972750052232e-01 1.831774620264332298e-01 -5.388308507108734435e-01 8.222574607309749428e-01
-1.349542098360705447e-02 -2.295336498056824992e-01 -1.033813722595648743e+00 -4.989176276261633042e-02 6.029836463033015903e-01 -7.961918953991012904e-01
1.674965890765501078e-02 -3.897235592428697441e-03 -9.059846319188725738e-01 -3.582993421853665761e-01 4.118227768980274317e-01 -8.378684752498634092e-01
2.990436191333775348e-02 -1.270001264760020898e-01 -9.962052352003690769e-01 3.515451514912144582e-01 -5.628252275984058084e-01 7.480934230708232713e-01
-9.460314044488299379e-02 3.151201692953400912e-02 -8.697681426347348976e-01 -8.431208620185941249e-02 3.063871347174479953e-01 -9.481658060697624180e-01
-9.193543392673352022e-02 -2.071519331662807495e-01 -1.015881498072925826e+00 -3.032163401986884624e-02 5.674350068601358155e-01 -8.228597155651762307e-01
-9.706772786445902468e-02 -9.853136476823164125e-02 -9.407013549312336353e-01 -9.972993250423110856e-02 5.945519634475177062e-01 -7.978482959331322233e-01
-2.888575628956785782e-02 1.897132168079897763e-01 -8.197719818885020882e-01 -2.932014429339113715e-02 3.487046323164253447e-01 -9.367739367316327836e-01
-2.443460797693097070e-02 1.741217712087811120e-01 -8.263714261306616127e-01 -5.602114029672917821e-03 4.129260603822863529e-01 -9.107473222445197081e-01
4.306994669366874529e-02 1.711846655869771472e-01 -8.532958509357350119e-01 5.344908397530920841e-01 -3.913890950115543332e-01 7.490888588986426289e-01
-1.060541076061899263e-01 -1.580610083573140423e-01 -9.822178609151236417e-01 -8.570233113209413389e-02 5.671766862800310394e-01 -8.191249703060748955e-01
-1.186028955410282221e-01 -1.812391587792099301e-01 -9.969911623627242259e-01 8.191283128046668305e-02 -5.688787707741591593e-01 8.183319816762016918e-01
6.992879076324587384e-02 -9.500946873040502783e-02 -9.905911982410652294e-01 3.469155114049704558e-01 -5.778896096223931078e-01 7.387105163980716149e-01
-1.466907650706463255e-03 -1.669418318204302643e-01 -1.007196388331998760e+00 -3.615783651073829486e-01 4.766976163275882805e-01 -8.012617977127498570e-01
2.027301890807282122e-03 -1.108969820854492248e-03 -8.991036281466625590e-01 -1.854589600729865118e-01 4.340583000819389081e-01 -8.815885470323578943e-01
-2.267517397547063815e-02 -1.928697131455451297e-01 -1.016210512658271226e+00 1.583693416163329259e-01 -4.482055976891967108e-01 8.797902555928197588e-01
6.556610460448233924e-02 6.785725966099917517e-02 -8.972237844373011084e-01 4.515767396848942572e-01 -2.584300052937014702e-01 8.539861711640643893e-01
5.315722137675933656e-02 -7.498833108827251959e-02 -9.666985564573207235e-01 -3.473349133860798577e-01 5.697071603540528884e-01 -7.448437483018877092e-01
6.408661491289881218e-02 -1.000019215241753669e-02 -9.297020438238899898e-01 -3.568489025688619809e-01 4.417682207718700016e-01 -8.231036993304396976e-01
1.897078299780150662e-02 1.583872234463278850e-01 -8.464634158567628797e-01 4.114630273060742582e-01 -3.999063648169137175e-01 8.190073727012733285e-01
9.333996859764485954e-02 4.179732054463247519e-03 -9.377942978591887746e-01 4.384787293753781845e-01 -4.150453887778189910e-01 7.971660612065863960e-01
-8.022644416393878708e-02 -2.768398045345606823e-02 -8.973300586493551112e-01 1.013698957739826295e-01 -4.656104159373439799e-01 8.791649929344464987e-01
-5.158071512151986282e-02 -1.272945223446594887e-01 -9.695559424630874057e-01 -1.811608318051237398e-01 5.718034114034735715e-01 -8.001384953412914447e-01
-4.451790081930417226e-02 1.467534107963318624e-01 -8.398680262014074360e-01 -8.176548683700353773e-03 -3.102225492597589507e-01 9.506287992599420367e-01
-3.924330310208391792e-02 1.024188333765422704e-01 -8.540847794203975107e-01 -1.544661463658842104e-01 2.816175753444353780e-01 -9.470120120061805702e-01
1.165458066118935931e-01 4.699139038839434540e-02 -9.313304632815454509e-01 4.387856790075576052e-01 -3.355171402240438860e-01 8.336038486677924686e-01
-2.754217812904554211e-03 -8.955511731383375418e-02 -9.531135653326479051e-01 -1.839549587644158657e-01 5.896356581822079779e-01 -7.864415831745013019e-01
-7.482125116064132497e-02 -2.031803424014516635e-01 -1.014054925982502020e+00 -4.107749210188310629e-02 5.576752716614495897e-01 -8.290421768643305711e-01
-4.283254414714744718e-02 -1.042706381806177696e-01 -9.553165673885225528e-01 1.839710762970213631e-01 -5.879444929004969955e-01 7.877029366163952329e-01
1.253495961683488355e-02 -8.449623441467560281e-02 -9.556096527506198202e-01 3.473546969616281288e-01 -5.697203242132895529e-01 7.448244535976243919e-01
2.219779382266794891e-03 -7.033502707782547658e-02 -9.407165283160326963e-01 1.851694259645796092e-01 -5.737359246018962633e-01 7.978341760724185772e-01
-4.415108296473518878e-02 1.045170735480681623e-01 -8.531170610099571006e-01 1.544159192655463753e-01 -2.816230248352328269e-01 9.470185825843282501e-01
3.063491004513879679e-02 5.028869352524378833e-02 -8.881114785384945920e-01 -3.650666243245389020e-01 3.291751038875147528e-01 -8.708444814000544376e-01
4.167108333192718478e-02 6.347252143130488640e-03 -9.121317705995080072e-01 3.598949064109599472e-01 -4.064256818363707890e-01 8.398177311079396690e-01
-1.238838748376235310e-01 -1.021339724431719193e-01 -9.404496970581374127e-01 1.016028603888329274e-01 -5.945117487264787171e-01 7.976419242912144991e-01
1.333711262018281996e-01 -1.126373193354950238e-02 -9.681221724500540526e-01 4.280422164024300091e-01 -4.539562367214401983e-01 7.814752690386324030e-01
7.494668549957606007e-02 -4.538648926399947714e-02 -9.558426854924977345e-01 -4.313096798508402330e-01 4.954453835569523901e-01 -7.539932572504014496e-01
-3.818973429442556328e-02 -9.537170645890669096e-02 -9.491888356559146089e-01 -1.838216803408211364e-01 5.899473635646134140e-01 -7.862389573531946008e-01
7.372860132709295466e-02 1.684553216840594114e-01 -8.754107500996280988e-01 5.203662894105636205e-01 -3.218021275056419106e-01 7.909881892784013102e-01
-6.045048863531238964e-02 -1.738977516830590153e-01 -9.984316685922679513e-01 1.721568234859058855e-01 -5.111946866089980279e-01 8.420463291945227136e-01
1.164780658167994219e-02 2.198480032480521623e-02 -8.921704593521478932e-01 3.621598221010912111e-01 -3.791418743727145713e-01 8.515231660693974858e-01
3.064648169373605444e-02 6.862114015587761871e-03 -9.066434115146707606e-01 -3.598566714804305455e-01 4.064152193854034811e-01 -8.398391783210281680e-01
1.017181619728162040e-01 -1.040133928942831715e-01 -1.016478422858700048e+00 -4.261197766233589257e-01 5.680402126269898933e-01 -7.040967638110139371e-01
-1.239241876875663007e-02 4.304279088549486931e-02 -8.776529938301632638e-01 1.718457955853186780e-01 -3.378245569794691150e-01 9.253883461775787023e-01
1.239759886118677878e-01 2.803820954172020832e-02 -9.427876531072972854e-01 -4.508477818514112223e-01 3.695014859150909103e-01 -8.125299560669759780e-01
-4.865387116595021322e-02 6.278975025562043288e-02 -8.646575035982586588e-01 1.716671407647717140e-01 -2.908866747234069017e-01 9.412307555801641135e-01
-2.194939889126343649e-03 -1.886179251755287778e-01 -1.019470992645465701e+00 -3.828652350294132201e-01 4.552505359038680477e-01 -8.038415026391168006e-01
-6.601670752595570346e-02 -8.023732232693832345e-02 -9.314698310950360050e-01 -1.846101113589843634e-01 5.716189312492916397e-01 -7.994816472073894564e-01
3.986404047771004155e-02 -1.867022923071871288e-01 -1.039522117766682907e+00 5.042196833198528960e-01 -5.214220367500634890e-01 6.883905654090871629e-01
-1.603787073785705244e-02 -5.427757581930296032e-02 -9.256808182197194812e-01 1.856407345079732485e-01 -5.343141375341289301e-01 8.246489678175192850e-01
-9.193466903630327647e-02 3.581352574774115949e-02 -8.689938719843913750e-01 8.636582663635511414e-02 -3.068334010457866023e-01 9.478365935076016324e-01
-6.630615353500653175e-02 -1.755575724537663806e-01 -9.982421290096026301e-01 1.721568234859058855e-01 -5.111946866089980279e-01 8.420463291945227136e-01
8.833147408900776654e-02 -1.150681390273733951e-01 -1.017233243691285871e+00 -4.313667174593177611e-01 5.588743439777092981e-01 -7.082246978973961715e-01
3.620418923232241338e-03 -7.999084803562933610e-02 -9.480072471509474186e-01 3.494436340630271975e-01 -5.498652592414815521e-01 7.586417753407224129e-01
4.234345476436646855e-02 4.896480930162958739e-02 -8.935202383387199632e-01 -3.650666243245389020e-01 3.291751038875147528e-01 -8.708444814000544376e-01
3.725300577001797002e-03 7.752827847669485628e-02 -8.691411490587609423e-01 1.637323958925369083e-01 -2.947165681473415400e-01 9.414530508712277701e-01
-2.201116812371677403e-02 -1.837238155802947415e-01 -1.011670698435875426e+00 1.583693416163329259e-01 -4.482055976891967108e-01 8.797902555928197588e-01
1.220877783933850685e-01 -8.841696872875112745e-02 -1.016536604238861718e+00 4.165674720837589939e-01 -5.752216014400015620e-01 7.039827060649620494e-01
-8.591107047339655023e-02 -9.013915890508193696e-02 -9.363464623457754543e-01 1.016028603888329274e-01 -5.945117487264787171e-01 7.976419242912144991e-01
1.082640727383225865e-01 -5.661142606236371777e-02 -9.835021887024588683e-01 4.262702348261943608e-01 -5.312899719035424351e-01 7.321370449963271465e-01
7.332765231070456635e-02 1.157912166247752478e-01 -8.887878586710250550e-01 4.923339565813106833e-01 -1.711053794404477912e-01 8.534226528066456430e-01
6.815826458291381063e-02 -1.677239182441228327e-01 -1.043580211899813870e+00 4.546106508826330272e-01 -5.162243237690954389e-01 7.258385520576934313e-01
2.860683716263462406e-02 -1.381751961494592784e-01 -1.002894320954963225e+00 -3.551519304847208791e-01 5.226996937972452351e-01 -7.750175071424140194e-01
-6.403883494804703258e-02 -7.163891450390104387e-02 -9.257787968739487061e-01 -1.846101113589843634e-01 5.716189312492916397e-01 -7.994816472073894564e-01
1.120254059451128437e-01 -1.020778306929595591e-01 -1.021154830284382475e+00 -4.261197766233589257e-01 5.680402126269898933e-01 -7.040967638110139371e-01
1.336159781967731150e-02 -2.200397922083859037e-01 -1.042668387861825030e+00 -5.242454002881441477e-01 4.005942084657056479e-01 -7.514592739599785798e-01
2.130849287091304139e-02 1.254709537246366247e-01 -8.600930176690713136e-01 -3.882826599672699053e-01 2.963734174188097370e-01 -8.725820152949734787e-01
8.003866560690979515e-02 -1.359367303558184914e-01 -1.028210796085538448e+00 4.395559453563671615e-01 -5.364211876789318767e-01 7.204463063344792584e-01
6.442593187544215505e-02 -7.235423505332196602e-03 -9.288927012961836205e-01 3.568652367806064429e-01 -4.417690440626656501e-01 8.230961757203590912e-01
8.313053204418431597e-02 -1.258704130198062821e-02 -9.405103117397172197e-01 -4.378464201880672979e-01 4.210205252346304605e-01 -7.943753707534306763e-01
-8.428294983413917030e-02 -4.706546133715878467e-03 -8.854804683357545558e-01 9.423822243815206667e-02 -4.256957871961379869e-01 8.999456951367442725e-01
8.486836562377016169e-02 -1.019725570344177656e-01 -1.005175518504787036e+00 4.235239321431865100e-01 -5.745674932543844982e-01 7.003568194837159755e-01
-2.239280891807777368e-02 -2.282377431270332935e-01 -1.032274750760498350e+00 -4.989176276261633042e-02 6.029836463033015903e-01 -7.961918953991012904e-01
8.592498751839848514e-02 2.593782178748133254e-03 -9.340350367430638734e-01 -4.402328185249585468e-01 4.145123960441113864e-01 -7.964763267162060512e-01
1.248614995146662549e-01 5.406671224666351888e-02 -9.330120623657675027e-01 4.367669119409097744e-01 -2.887789717491351382e-01 8.519632445763809514e-01
1.218234054608595060e-02 -1.619254833204230581e-01 -1.010371369945475273e+00 -3.615783651073829486e-01 4.766976163275882805e-01 -8.012617977127498570e-01
-5.790825397797146057e-02 -9.688250057684472116e-02 -9.462644685459625782e-01 1.838010091893511333e-01 -5.899660656424037253e-01 7.862297567577805069e-01
-7.968910433265063986e-02 -1.200990843417436282e-01 -9.587745180046277627e-01 -9.718736995035924531e-02 5.941768481499479782e-01 -7.984412866609076342e-01
-8.213342913780558030e-02 -1.795056475408992880e-01 -9.989469382003889342e-01 7.442318078025221550e-02 -5.092235508156074397e-01 8.574103833388619922e-01
1.200538046717206098e-01 -2.416120195122356540e-02 -9.679026127583992833e-01 -4.349665685608185561e-01 4.534148424266247757e-01 -7.779582668123433686e-01
-6.060730236870237597e-02 -9.929710151052988099e-02 -9.468930214457028649e-01 -1.838216803408211364e-01 5.899473635646134140e-01 -7.862389573531946008e-01
4.191231410456235096e-02 5.821601798824547341e-02 -8.905377979687907342e-01 3.637966788377374194e-01 -2.842992657856811545e-01 8.870320760493132228e-01
9.457562882735047471e-02 2.472569439570610275e-02 -9.287367253144162005e-01 4.418388151558412247e-01 -3.842055534368761238e-01 8.106568658377883985e-01
-4.448682013447815588e-03 9.895501680732998739e-02 -8.607414831470932004e-01 -1.434890581710452639e-01 3.045884131951083762e-01 -9.416139276436348293e-01
3.165494682966810830e-02 -1.572833816053318540e-02 -9.187123042237514969e-01 -3.579932102701434693e-01 4.455041840945795917e-01 -8.205893512316009275e-01
-6.360849713916980064e-02 -8.737099486118531100e-02 -9.372426985125181798e-01 -1.838216803408211364e-01 5.899473635646134140e-01 -7.862389573531946008e-01
8.813080685764908273e-02 -1.535025124743668312e-01 -1.045569445463958580e+00 -4.575561011475663409e-01 5.035594932057323447e-01 -7.328507700105281186e-01
7.265899360157740405e-02 -9.970536741301641581e-02 -9.953747817735878467e-01 -4.238894971169523407e-01 5.703562263861891024e-01 -7.035705147719334418e-01
6.119010439504909971e-02 1.195943486163037195e-01 -8.805411289731140956e-01 -4.945451496184729567e-01 1.698251159353269257e-01 -8.523992755665592558e-01
-5.874163393186772331e-02 9.569224696072370362e-02 -8.546850686849131185e-01 4.499060638840461646e-02 -2.651872629874426068e-01 9.631466974900719791e-01
2.122940014899832653e-02 -4.541727628232762604e-02 -9.314925728545023764e-01 -3.526874961026301158e-01 5.148950694769569569e-01 -7.813415370509726454e-01
-4.187083068120347334e-03 1.902282954521485603e-01 -8.217737518583850820e-01 1.396915520803967414e-01 -3.758876927493234876e-01 9.160757134194529305e-01
3.985975623442904875e-02 1.668914564366683409e-02 -9.064258965166750448e-01 3.594636893151387791e-01 -3.714556832085899596e-01 8.560411973006842867e-01
2.719865397777192911e-02 5.765067136238727352e-02 -8.846845112644899922e-01 3.637966788377374194e-01 -2.842992657856811545e-01 8.870320760493132228e-01
-9.341090805395422039e-03 -2.740822619751773909e-02 -9.109795013560572086e-01 1.866205511666436945e-01 -4.640246137437260554e-01 8.659410648088262663e-01
3.327900624139321084e-02 -8.292837669463727635e-02 -9.640845377922714343e-01 3.473546969616281288e-01 -5.697203242132895529e-01 7.448244535976243919e-01
-1.130173078256412472e-01 -8.601667824336155233e-02 -9.293577818823731684e-01 -1.001269907080548777e-01 5.955112942751414895e-01 -7.970827335493441135e-01
-7.025455441951707763e-03 3.828871842018915367e-02 -8.800412826231761576e-01 -1.780829506757492242e-01 3.552504246143471933e-01 -9.176511311440446184e-01
-6.011715380742782729e-03 -5.900015001291928490e-02 -9.309977484204483567e-01 1.856407345079732485e-01 -5.343141375341289301e-01 8.246489678175192850e-01
6.750940428942463212e-02 -8.245865910111382924e-02 -9.797223530103521538e-01 3.477093791475460716e-01 -5.711863897286711955e-01 7.435349997421468737e-01
-1.164382332490967592e-01 -1.433201926797738612e-01 -9.713965130830191086e-01 9.650436494828067147e-02 -5.503902858266729314e-01 8.293114257102468523e-01
-8.937294355814859315e-02 5.288176033568926793e-02 -8.634523550554946691e-01 -6.060368634585966419e-02 2.482202100148595825e-01 -9.668060408072922662e-01
2.688309631152948839e-02 6.827410184648098623e-02 -8.804921287806387609e-01 -3.696163645053149316e-01 2.990532259161503559e-01 -8.797447988814812714e-01
1.264411082970926525e-01 3.167802325106204575e-02 -9.427005605634695140e-01 4.343315352641628491e-01 -3.756418104258852919e-01 8.186875763898208147e-01
-3.840117017050254100e-02 7.507770163675926700e-02 -8.626159186298296699e-01 1.546636900542399939e-01 -2.712074914801803627e-01 9.500134944009130944e-01
5.291201122390142703e-02 -8.334418319079874016e-02 -9.735762386058309792e-01 3.477093791475460716e-01 -5.711863897286711955e-01 7.435349997421468737e-01
-7.287202208595672422e-03 9.213119053213385257e-02 -8.628111895557821764e-01 1.544159192655463753e-01 -2.816230248352328269e-01 9.470185825843282501e-01
-1.240368323606648726e-01 -8.334667809743794009e-02 -9.264772159498810833e-01 1.033202610643005337e-01 -5.737833291268431557e-01 8.124639160416426975e-01
-6.030266601520221925e-02 -2.621784418060367147e-02 -8.993587984947117864e-01 1.866205511666436945e-01 -4.640246137437260554e-01 8.659410648088262663e-01
-8.034008164850302280e-02 -1.102106402654439155e-01 -9.519312902391420250e-01 1.019589686719221261e-01 -5.891997063151388492e-01 8.015285863807427580e-01
-1.704813300198686904e-02 -7.464451489690257513e-02 -9.393436612088835735e-01 1.851694259645796092e-01 -5.737359246018962633e-01 7.978341760724185772e-01
-4.814004381444122321e-02 2.331381428584619608e-02 -8.779295060049923105e-01 -1.782950068617189521e-01 3.965869272767948428e-01 -9.005163516790407607e-01
8.447973585264703655e-02 -1.523601994657084735e-01 -1.042504984777437471e+00 -4.575561011475663409e-01 5.035594932057323447e-01 -7.328507700105281186e-01
-3.574932081374945086e-02 1.596160592313139170e-01 -8.335963511152153504e-01 1.626871285219289032e-02 4.417121896650103019e-01 -8.970092923060913881e-01
1.927893423082466251e-02 4.554508991093112608e-02 -8.851680541205328989e-01 -3.614302841734380323e-01 3.419274141786159404e-01 -8.674409450305150537e-01
-9.355710989191964866e-02 -1.031817242509038696e-01 -9.450830880497821385e-01 1.019589686719221261e-01 -5.891997063151388492e-01 8.015285863807427580e-01
-1.973528012699330564e-02 -1.959855419813758270e-01 -1.017778178872521977e+00 -1.588136497928850921e-01 4.256857626254244575e-01 -8.908253791498498275e-01
5.972744187733208115e-02 9.005920709590022055e-02 -8.874673490939298803e-01 -3.765638141640919034e-01 2.572248274633862075e-01 -8.899635284654211498e-01
-8.597068104267063804e-02 -9.297606799207450146e-02 -9.379486952007317635e-01 -9.972993250423110856e-02 5.945519634475177062e-01 -7.978482959331322233e-01
7.294920258663001311e-02 -8.703301789093352558e-02 -9.853076837569371138e-01 -4.258360986997513642e-01 5.559478552044029298e-01 -7.138526453952523942e-01
2.066189550132343372e-02 -1.548982555811514727e-01 -1.010556377188338129e+00 3.615969727683569501e-01 -4.766921210137790577e-01 8.012566698930780884e-01
5.413108015625183594e-02 -8.032242218540798506e-02 -9.718250001864722210e-01 3.477093791475460716e-01 -5.711863897286711955e-01 7.435349997421468737e-01
-1.234260285723916550e-01 -2.996200984219341348e-02 -8.935816269672708367e-01 1.066327243795667512e-01 -4.589551453786065993e-01 8.820372081844924939e-01
-1.171557422315199770e-01 -1.301202761342574177e-01 -9.619419937753426186e-01 9.972958947286884868e-02 -5.841773521096098598e-01 8.054755305195671067e-01
-7.766744190313178142e-02 -4.160489516908426333e-02 -9.053562087083182330e-01 1.007697173220246517e-01 -4.938634604738438849e-01 8.636806970632372460e-01
-6.364453981056315997e-04 -2.007749828119574087e-01 -1.027133199673625485e+00 3.837968917198285035e-01 -4.210804626805532136e-01 8.218218723390912084e-01
-1.137925197821187395e-01 -1.566785448101969680e-01 -9.808761933329150917e-01 8.774835805283436041e-02 -5.668168767290044929e-01 8.191574048461065516e-01
1.179435450498327216e-02 -8.034645704888975296e-03 -9.064161083316431000e-01 3.583168799284988659e-01 -4.119065564644552868e-01 8.378197910648208513e-01
-1.121838116428218873e-01 -1.582045214928924637e-01 -9.816759013405689238e-01 -8.570233113209413389e-02 5.671766862800310394e-01 -8.191249703060748955e-01
6.988304974919357093e-02 4.079557605513112889e-02 -9.088146134991501590e-01 4.536998372283688186e-01 -3.039027602042012610e-01 8.377347850240070004e-01
5.171120391188953336e-02 -7.136323422199902788e-02 -9.639053876925699482e-01 3.494436340630271975e-01 -5.498652592414815521e-01 7.586417753407224129e-01
4.916326469444253638e-02 -4.037558890090076069e-02 -9.407791452743538008e-01 -3.526874961026301158e-01 5.148950694769569569e-01 -7.813415370509726454e-01
-4.739963660911266502e-02 6.041298884493630228e-02 -8.651598971542882044e-01 -1.717052684868750068e-01 2.909039406562163865e-01 -9.412184645896694013e-01
-1.252490622954918233e-02 1.126413136210714788e-01 -8.550836046058386541e-01 -1.434890581710452639e-01 3.045884131951083762e-01 -9.416139276436348293e-01
-8.840367950360439320e-02 1.138572001510248979e-03 -8.822840839088131881e-01 9.423822243815206667e-02 -4.256957871961379869e-01 8.999456951367442725e-01
4.519486463665219056e-02 -5.199562899388512210e-02 -9.466299716236655781e-01 -3.523126454227740734e-01 5.134508316087790236e-01 -7.824602503612946292e-01
7.909077507345362371e-03 1.897749256240416627e-01 -8.240323016091618546e-01 3.616646623390850079e-01 -3.583509138806215688e-01 8.606876869899320326e-01
8.765184293431858842e-02 -2.560802836051702738e-03 -9.376884563804248618e-01 -4.378464201880672979e-01 4.210205252346304605e-01 -7.943753707534306763e-01
3.344706969457517803e-02 -1.671462979434008567e-01 -1.023466572252679452e+00 -3.675520931520589452e-01 4.962089616633964528e-01 -7.865634908794546520e-01
-9.707844911885481209e-02 -1.972638916021554056e-01 -1.008972279649543058e+00 -4.107749210188310629e-02 5.576752716614495897e-01 -8.290421768643305711e-01
-1.144629085455863282e-01 -1.706632480488676495e-01 -9.898621870691612923e-01 -8.613184687113015214e-02 5.559036522017839488e-01 -8.267722990178651976e-01
6.979036200341412477e-02 -4.634763035382818974e-02 -9.539981863559131581e-01 -3.523126454227740734e-01 5.134508316087790236e-01 -7.824602503612946292e-01
1.566889542970605065e-02 1.782513769074534626e-01 -8.332025482101595992e-01 -4.081734725933925390e-01 4.341134728390982911e-01 -8.030815082982725173e-01
-6.963317357135033470e-02 2.650904834089228695e-02 -8.740380025565839262e-01 8.636582663635511414e-02 -3.068334010457866023e-01 9.478365935076016324e-01
7.043170475118193385e-02 1.480562509967156548e-01 -8.797529412573937835e-01 5.165054519712415360e-01 -2.565186485887280265e-01 8.169579554727379733e-01
-8.706671365867621470e-02 -7.815916463117644764e-02 -9.270165320828395172e-01 -1.002288991062544599e-01 5.763588438032750672e-01 -8.110269113621940695e-01
-7.253461702634596449e-03 -1.728084847403695556e-01 -1.008685040268332722e+00 1.808976112998482155e-01 -4.891250397475068179e-01 8.532483517229958458e-01
-1.404419797661801694e-01 -1.253686622264499340e-01 -9.554897325752621517e-01 1.075081287229361221e-01 -5.836487709076610964e-01 8.048578225230025307e-01
1.443343582457452985e-02 1.001259649454146333e-01 -8.652987429876577430e-01 -3.880613859337498361e-01 2.786101200228051078e-01 -8.785128125235596164e-01
9.652979020149735079e-02 1.329272535888708084e-01 -8.985433676757706989e-01 4.844005220679245549e-01 -1.945941735165962472e-01 8.529297989012430969e-01
-5.724041622964359810e-02 3.236782412226290456e-02 -8.732216932810983323e-01 1.718457955853186780e-01 -3.378245569794691150e-01 9.253883461775787023e-01
-1.376189943932232956e-02 1.042914187129602849e-01 -8.575960847001947718e-01 -1.434890581710452639e-01 3.045884131951083762e-01 -9.416139276436348293e-01
-6.544375063731201758e-02 7.654031570927406422e-03 -8.818618183376010222e-01 9.420530410439066638e-02 -3.773896162243173258e-01 9.212504753022717763e-01
5.503285392725537975e-03 1.020219577394605899e-02 -8.943248043455598317e-01 -1.782950068617189521e-01 3.965869272767948428e-01 -9.005163516790407607e-01
-7.454677661614972362e-02 5.076042037682874930e-02 -8.655831225698878972e-01 7.617582060044776615e-02 -2.778832838575208131e-01 9.575897477043123773e-01
-1.351451710193175282e-01 -8.399304781515715135e-02 -9.252287554354128307e-01 -9.378947098114075176e-02 5.740153837373145329e-01 -8.134555146816456750e-01
-6.835534760039570223e-02 5.610733934286489533e-02 -8.645240237049836018e-01 7.617582060044776615e-02 -2.778832838575208131e-01 9.575897477043123773e-01
1.310035617693699195e-01 -1.087860520755195085e-02 -9.666016531791096211e-01 4.280422164024300091e-01 -4.539562367214401983e-01 7.814752690386324030e-01
-7.316100284037999578e-03 2.064760210927272521e-01 -8.149597417107253827e-01 6.539213984695556314e-02 -3.077996654473952876e-01 9.492013664111043081e-01
1.177263696096380735e-01 -9.982214479953984212e-03 -9.583374212436313044e-01 -4.349665685608185561e-01 4.534148424266247757e-01 -7.779582668123433686e-01
-4.379655174227186504e-02 -3.908401454798089009e-02 -9.096661246198013417e-01 -1.858851452699509521e-01 4.941940239643994870e-01 -8.492461241865305599e-01
-5.487505042869831456e-02 9.702238616387517944e-02 -8.540725658980473645e-01 -4.260570565988811703e-02 2.647936232809365853e-01 -9.633634261871144577e-01
7.333238969200019108e-02 6.595856536141198045e-02 -9.014216457369178537e-01 -4.534855847200381374e-01 2.578369909337380750e-01 -8.531535093741104969e-01
-1.438207593118750460e-01 -8.340867237038171456e-02 -9.238367087659259402e-01 1.099798505238395174e-01 -5.728153976983302309e-01 8.122727082935000675e-01
-3.737659993769491124e-02 -3.689215437220478427e-02 -9.103063563442560513e-01 1.858680767923056587e-01 -4.941648856144381652e-01 8.492668154680240722e-01
-2.083494564812383293e-02 1.048842894707262829e-01 -8.563264706183061348e-01 -1.434890581710452639e-01 3.045884131951083762e-01 -9.416139276436348293e-01
-2.579349829597652605e-02 1.333738157021352733e-01 -8.465701100474359864e-01 1.326171254698917945e-01 -3.742328674588135673e-01 9.178030610897182084e-01
1.311698010958179117e-01 -4.784682931234083419e-02 -9.903992631287963366e-01 4.194473164179143843e-01 -5.330488254264681425e-01 7.347944600099216572e-01
2.069508478365296444e-02 -2.002177537575135224e-01 -1.037312570583038163e+00 3.987637489171593774e-01 -4.656164065273986075e-01 7.900562223804359352e-01
-4.883317473118045648e-02 -1.056095112413854425e-01 -9.543634351720831077e-01 -1.839896974400415663e-01 5.879506375378680261e-01 -7.876940009005632959e-01
-1.202020917281107215e-01 -1.361503192780283700e-01 -9.655156067144707865e-01 -9.781152647204359452e-02 5.842965301683534785e-01 -8.056242735434621105e-01
-1.048870892690624973e-01 -8.381247350208474722e-02 -9.287907428540970178e-01 -1.014563917720229108e-01 5.738534045747718526e-01 -8.126492912853273687e-01
8.345600003325516492e-02 1.472069901680109483e-01 -8.876786078966346638e-01 -5.218169234247558297e-01 1.550993296936789556e-01 -8.388392553738135415e-01
4.365890028594134054e-02 -1.816365754978548908e-01 -1.038130487776722788e+00 4.546106508826330272e-01 -5.162243237690954389e-01 7.258385520576934313e-01
-1.147081374414578858e-01 -9.023585136393165451e-02 -9.322975865801056417e-01 -1.001269907080548777e-01 5.955112942751414895e-01 -7.970827335493441135e-01
-1.033279642811993221e-01 -1.523704326332679937e-01 -9.785628324972749370e-01 -8.570233113209413389e-02 5.671766862800310394e-01 -8.191249703060748955e-01
-8.318465532229314674e-02 -1.419738333140114772e-01 -9.743725872421604706e-01 9.650436494828067147e-02 -5.503902858266729314e-01 8.293114257102468523e-01
-5.446395236027809506e-02 1.544890278153744079e-01 -8.366066263731589681e-01 -1.048240655971488869e-02 -4.012346289923494624e-01 9.159153299569171569e-01
-1.034847038598288305e-01 4.586836158310519246e-02 -8.647081083182760475e-01 6.288128166403379737e-02 -2.487661385083619059e-01 9.665202288353446081e-01
-2.911576957944630659e-02 -2.105482579492228834e-01 -1.023279420779965365e+00 -1.453606788538029659e-01 4.594259990841674801e-01 -8.762408484022392585e-01
3.128497139291436940e-02 3.058455073645734851e-02 -8.966932565910914477e-01 3.621598221010912111e-01 -3.791418743727145713e-01 8.515231660693974858e-01
5.681863624011907615e-02 -1.448941793809737366e-01 -1.020353907684106165e+00 -3.551519304847208791e-01 5.226996937972452351e-01 -7.750175071424140194e-01
-5.543071192338668018e-02 4.762466508068827903e-02 -8.681082624083912291e-01 1.716671407647717140e-01 -2.908866747234069017e-01 9.412307555801641135e-01
1.160417520906987521e-01 -6.596172269366500085e-02 -9.945588772423598067e-01 -4.248024237602348041e-01 5.579516443099400425e-01 -7.129045261318405213e-01
-5.165023125022157741e-02 -8.606836174920239058e-02 -9.396137723617840054e-01 1.839375625793167879e-01 -5.896467499786376409e-01 7.864373359092318161e-01
6.980175953801126543e-02 4.412540675211825553e-02 -9.075626348131049514e-01 4.536998372283688186e-01 -3.039027602042012610e-01 8.377347850240070004e-01
-1.175741746191750758e-01 -8.007648283783233567e-02 -9.249895682967766986e-01 1.033202610643005337e-01 -5.737833291268431557e-01 8.124639160416426975e-01
1.262852697335643537e-01 -5.228850128047231316e-02 -9.904382541066076850e-01 -4.349624936661320995e-01 5.288585815412284452e-01 -7.287772155013765296e-01
8.575512554425412937e-02 -9.158198208665346840e-02 -9.972495805642543898e-01 4.221950490304586801e-01 -5.705659100623522439e-01 7.044188263021428087e-01
5.791863879465921489e-02 3.012143520666995047e-02 -9.081804992835329493e-01 3.594636893151387791e-01 -3.714556832085899596e-01 8.560411973006842867e-01
2.126666437325575379e-02 -1.863959083433204544e-01 -1.029922966273815632e+00 3.829282555525223009e-01 -4.551837642038437659e-01 8.038492967619750296e-01
7.168464227503180963e-02 -1.237478186107432848e-01 -1.013943272345303237e+00 -4.313667174593177611e-01 5.588743439777092981e-01 -7.082246978973961715e-01
2.709918881391774545e-02 -2.030415962785381834e-01 -1.041936329629001623e+00 -5.067334408602027773e-01 5.227081935997219819e-01 -6.855635377247646378e-01
6.115546922014642589e-02 2.095532825402623978e-02 -9.130105138645381313e-01 -3.594264141969379378e-01 3.714604831796750606e-01 -8.560547658961157325e-01
6.775805428315710699e-02 1.136521395483863495e-01 -8.861660994946483072e-01 4.761628279409069187e-01 -2.166873326869691863e-01 8.522414922663205106e-01
1.387578754307766671e-02 5.254052714574327515e-02 -8.803716069985255688e-01 -3.637641652891693833e-01 2.842987806709471599e-01 -8.870455655491924496e-01
8.711366650695744063e-02 8.752738038185077507e-02 -9.033851665450624013e-01 4.595160133847986939e-01 -1.968747135974579510e-01 8.660746968875491225e-01
-1.001314312724230077e-01 -1.592855202539439630e-01 -9.836854047109580002e-01 -8.570233113209413389e-02 5.671766862800310394e-01 -8.191249703060748955e-01
1.630960671353180388e-02 9.947487319773107295e-02 -8.668237085314463020e-01 3.881057387598472186e-01 -2.785741778389385637e-01 8.785046175080883923e-01
8.759274086302641649e-02 5.366345746548425305e-02 -9.137377698140760618e-01 4.536998372283688186e-01 -3.039027602042012610e-01 8.377347850240070004e-01
-4.365933047447163179e-02 -1.676273756797723169e-01 -9.980579712867979625e-01 1.721568234859058855e-01 -5.111946866089980279e-01 8.420463291945227136e-01
-6.334002923580137057e-02 -9.908898058818482735e-02 -9.466503386488459570e-01 1.838010091893511333e-01 -5.899660656424037253e-01 7.862297567577805069e-01
-2.043274932602031149e-02 -2.135440111286321385e-01 -1.026036832156886236e+00 -1.469381468211095054e-01 3.957943951970996910e-01 -9.065075718047477249e-01
-1.541544389910016327e-02 7.932710706977101622e-02 -8.647904739338888591e-01 -1.637862979148794473e-01 2.946893278364017821e-01 -9.414522020127563673e-01
2.044202913900789245e-02 -1.570599437106929563e-01 -1.011743208729523724e+00 3.615969727683569501e-01 -4.766921210137790577e-01 8.012566698930780884e-01
-2.776034127666654125e-02 9.588434543757731743e-02 -8.579009459163976503e-01 -1.544661463658842104e-01 2.816175753444353780e-01 -9.470120120061805702e-01
1.269449360083258482e-01 -2.211991060244963836e-02 -9.705995550685836415e-01 -4.420093127569969527e-01 4.513240558838193528e-01 -7.751995639941151595e-01
1.600922382233195898e-02 -6.561596601893407432e-02 -9.427240243903161065e-01 -3.494232852073093643e-01 5.498550400598251064e-01 -7.586585547370697791e-01
-2.382820720474770199e-02 -1.908030080607825973e-01 -1.014950082806842069e+00 1.583693416163329259e-01 -4.482055976891967108e-01 8.797902555928197588e-01
7.436319034830142505e-02 -1.840182145422737114e-01 -1.061350803253703790e+00 4.850143012544098631e-01 -5.776868419701214341e-01 6.565356351282728431e-01
1.141187299810482274e-02 -4.950553311123881417e-02 -9.303091147305535547e-01 3.527087679529652964e-01 -5.148941969413617370e-01 7.813325098606940244e-01
1.271646422353474026e-01 -5.773992291423232087e-02 -9.952928590286225230e-01 4.192825692734530318e-01 -5.332095492467672226e-01 7.347718718728361020e-01
-1.034530349375315655e-01 -7.778176278385690035e-02 -9.251647486631148221e-01 1.033202610643005337e-01 -5.737833291268431557e-01 8.124639160416426975e-01
-5.846981629164713784e-02 9.073807766412540776e-02 -8.556341432738077124e-01 -4.307848200489061002e-02 2.541726948576519818e-01 -9.661989886027375629e-01
6.763827697847851761e-02 -1.934086362623375910e-02 -9.363415179535170552e-01 -3.557618333936182764e-01 4.767034021224038631e-01 -8.038578134877691905e-01
-1.016995529891809025e-01 2.959290335976961714e-02 -8.697572567345523975e-01 -8.431208620185941249e-02 3.063871347174479953e-01 -9.481658060697624180e-01
-5.773084627253949677e-03 5.504502568462518730e-02 -8.743640469154825290e-01 -1.635608677999300375e-01 3.117088145700864787e-01 -9.359943682757099204e-01
1.143094080026003101e-01 -1.309838916194440428e-01 -1.045123102690383776e+00 -4.486474027585714563e-01 5.367291508940880140e-01 -7.145889213936214013e-01
9.649381843078372323e-02 4.962033020975621656e-02 -9.197863858037553797e-01 4.442818953484030664e-01 -2.855490891280451082e-01 8.491615365546031358e-01
