1.069567089028259921e-01 3.901960386185390067e-02 -6.561205350201437803e-01 -1.516946099870711273e-01 -6.011725814551235336e-01 7.845892381414959482e-01
8.733428314956491467e-02 8.128654086027090053e-02 -6.251683776376347756e-01 1.676244685342292984e-01 6.632227438396196550e-01 -7.294090961884581725e-01
1.243110816564691051e-01 -7.515221105212653574e-02 -7.107000393170533892e-01 -1.389128947277601389e-01 -3.138063243772561961e-01 9.392703542959237595e-01
1.233507559267031373e-01 -4.529293559971778876e-02 -6.997236107984136089e-01 -1.402845964989999361e-01 -3.920252332478458279e-01 9.091954951945621088e-01
-5.062915483518191928e-02 -7.730468280740523945e-02 -7.165253866924464754e-01 -1.150554639401871887e-01 3.120223955381632441e-01 -9.430823213803418703e-01
1.248683687483571753e-01 -1.897768232533980359e-01 -7.515048249169796746e-01 1.578881358272079261e-01 3.444779240438344825e-01 -9.254222260198095018e-01
1.795526722832864464e-02 -7.258158559700342294e-02 -7.204998710011430996e-01 -5.461143883139422256e-02 -3.172884898745199078e-01 9.467553036249183318e-01
-7.852956195996620148e-02 9.055648245779803103e-04 -6.789442738201932892e-01 2.133158639398834155e-01 -4.902134556668326093e-01 8.450959176772560033e-01
-8.521918207185361083e-02 -1.792463801688820579e-01 -7.450919111142777496e-01 -2.302188978010060727e-01 3.527538552988959686e-01 -9.069531281532996481e-01
-1.783097387440105153e-02 1.701714172776310485e-01 -5.777357917034637858e-01 -1.780690866485146739e-01 4.435929729422685153e-01 -8.783602192360508987e-01
1.015610248968814716e-01 -4.726779727687945021e-02 -7.038941709689312543e-01 -1.383063031224107953e-01 -3.864991244000755555e-01 9.118606216711997448e-01
6.005444784929898916e-02 -6.533471248172663393e-02 -7.150884449618789551e-01 5.460018400904347036e-02 3.383420741304422052e-01 -9.394378429567807887e-01
-1.069177559048893056e-01 6.128277108139094931e-02 -6.303818904658818889e-01 -2.427374892063408618e-01 6.137084997525324992e-01 -7.512924787759407419e-01
-1.347559006913304491e-01 -7.028250705639892647e-03 -6.690704238771859602e-01 -2.029864674714649819e-01 4.531732737437201286e-01 -8.680037315518034369e-01
5.498683986381434907e-02 2.444997092988229065e-02 -6.738151396181025765e-01 -5.630963835417983343e-02 -5.324667830268930979e-01 8.445758400531080401e-01
-2.631678693641772981e-02 1.167751022446787551e-01 -6.084893501408231709e-01 1.603692364580338314e-01 -5.772960091545097372e-01 8.006316417755068304e-01
-1.104859350795713707e-02 -1.869958966936586531e-01 -7.628238864000514985e-01 -1.507876761370328944e-01 4.295478714751541083e-01 -8.903660499122580951e-01
-8.704860809722306247e-02 -1.360664932582271967e-03 -6.776311437618680600e-01 -2.114067152415850803e-01 4.902171135386564349e-01 -8.455734044685838668e-01
1.244625686065471970e-01 -1.379624830092469889e-02 -6.844851317664841783e-01 1.421518333360081432e-01 4.622527769418720567e-01 -8.752800845950624575e-01
1.330079005852738139e-01 -1.938760162884684696e-02 -6.859958498975146091e-01 1.321817241157641210e-01 4.350142799660887682e-01 -8.906686073031705453e-01
-3.552859268811264792e-02 6.161254375395738142e-02 -6.484236351588176239e-01 1.349720401816460746e-01 -5.934252139010947058e-01 7.934916911194749289e-01
-6.696092308367191867e-03 -1.521259741694487577e-01 -7.479650742591796853e-01 -1.264770707554374596e-01 3.754807938539026502e-01 -9.181599664655213378e-01
-9.597306578636982666e-02 -2.036768489453048558e-01 -7.503681817189086223e-01 2.353796971006344441e-01 -2.604108466058980831e-01 9.363666958851178945e-01
-2.360796934219247176e-02 -2.291664914442351764e-01 -7.813752033915958295e-01 3.257364320395913504e-01 -3.696070796690564819e-01 8.702220311510323603e-01
-3.881453036614712637e-02 1.494342896224161721e-01 -5.835878407585441963e-01 -1.818449338261821369e-01 4.766434908669352488e-01 -8.600833695961882519e-01
1.365445852782656289e-01 -3.590653204137447124e-02 -6.935689872127142053e-01 -1.479821372642918242e-01 -3.922735462751155144e-01 9.078671444343809904e-01
-6.328378846708311578e-02 3.238353801952800759e-02 -6.635356989595975197e-01 1.269526243559969958e-01 -5.176485065571677646e-01 8.461223639806826347e-01
7.572629645867037795e-02 -8.573172674885937150e-02 -7.209836041980425270e-01 1.374786711436107867e-01 3.149890324111036533e-01 -9.390854723832670059e-01
-2.492250935381597546e-02 2.020700004088898383e-01 -5.589141956700995895e-01 8.252694904349887339e-02 2.171404306137563189e-01 -9.726455346499279786e-01
-4.446535329472597886e-02 1.667894748766085566e-02 -6.757425533543292007e-01 1.266322004781137711e-01 -4.844144551280016864e-01 8.656251622181000416e-01
-5.000485886072284641e-02 5.842772674803781846e-02 -6.483430540169207168e-01 1.349720401816460746e-01 -5.934252139010947058e-01 7.934916911194749289e-01
-7.224558481873830096e-02 -8.370333929650097121e-03 -6.847525827069952387e-01 -1.230523235050824116e-01 4.501666859847865410e-01 -8.844252826041751891e-01
2.632429014771186029e-02 -7.690784603643123496e-02 -7.210092960401395246e-01 5.462875109912165156e-02 3.172768471739352281e-01 -9.467582066191544410e-01
-9.561842546163225320e-02 7.012885517580133565e-02 -6.266385661468114598e-01 -2.426040460195264536e-01 6.367356017550587222e-01 -7.319228445079294376e-01
-1.056215940429875433e-01 -1.360131984952543949e-01 -7.258024003301744020e-01 2.002135190907324558e-01 -2.881650070597385760e-01 9.364162938990147067e-01
5.874469058188582643e-02 -3.974786094255051278e-02 -7.058291450211433560e-01 -5.302343304014259934e-02 -3.844499362705053880e-01 9.216218107500721013e-01
9.066274527484000090e-02 1.051135944476625228e-01 -6.029910821383603903e-01 -2.167748503155129125e-01 -6.653127277363383163e-01 7.144001949766809467e-01
5.955931578779562197e-02 -1.548840133770349736e-01 -7.478482627313323139e-01 -6.081044386542944907e-02 -3.877867441817886007e-01 9.197410129779891585e-01
3.907812873880205269e-03 1.043643749113111752e-01 -6.196608414265006859e-01 9.270572011661611100e-02 6.030814555666498267e-01 -7.922741996362563377e-01
8.086603077963640251e-02 -1.947290871833084469e-01 -7.623813389126533613e-01 1.959853706683391539e-01 3.397539386099359127e-01 -9.198679229558065495e-01
8.856342473273859373e-02 -8.194356621729863288e-02 -7.178336668985482172e-01 1.374786711436107867e-01 3.149890324111036533e-01 -9.390854723832670059e-01
-7.821838891203473920e-02 -3.848959531509767856e-02 -6.983348019975130772e-01 2.049195210857618354e-01 -3.741635283209292506e-01 9.044388558395837219e-01
1.134353612401045458e-01 -5.261808564757546741e-02 -7.042615793957810455e-01 -1.394632316775966385e-01 -3.361535757226769561e-01 9.314240605325264655e-01
-3.494601480397093590e-02 -5.568787047671202445e-02 -7.112549715640650305e-01 1.164034385669837218e-01 -3.345739075311087163e-01 9.351526826615788046e-01
4.184599748851351025e-02 -2.215350213571550264e-01 -7.823247000678587026e-01 2.050907519865256545e-01 3.979016666730659235e-01 -8.942102924415472609e-01
7.397809254760975839e-02 -4.093609881668193451e-02 -7.049207182321342025e-01 1.364444893086024235e-01 3.864271574094322315e-01 -9.121715591673422718e-01
-9.547627677532555257e-02 2.751165901844227629e-02 -6.588409839940342350e-01 2.232224160983293515e-01 -5.286642696970444977e-01 8.189541152573293070e-01
1.207247163555582176e-01 -1.481546733044408204e-01 -7.363131030880947225e-01 1.521512444236478023e-01 3.469421776357318743e-01 -9.254626541345208901e-01
-3.969406961583422933e-02 -1.974416250211367407e-01 -7.635484293910724807e-01 1.349569198153388327e-01 -3.992115552171617843e-01 9.068719666937836710e-01
-6.320082715385503744e-03 -2.066054765873076293e-01 -7.740659171306460973e-01 1.677208603781858154e-01 -4.140222062058896424e-01 8.946816896317979495e-01
-1.204668217808217284e-01 3.838865230826247338e-02 -6.443967094816372976e-01 2.311791683513772788e-01 -5.707478108138236417e-01 7.879106095056681580e-01
-5.856136575117942833e-02 1.473708118615651638e-02 -6.747671415874286760e-01 1.266322004781137711e-01 -4.844144551280016864e-01 8.656251622181000416e-01
6.840977158063236974e-02 -2.245123737876910525e-02 -6.976306263732555690e-01 -5.458095185638592306e-02 -4.233797359233626989e-01 9.043066509231892924e-01
2.056058970874776251e-02 -1.620262007293337969e-01 -7.537767726094762866e-01 -5.963363334242258867e-02 -4.290227615466492006e-01 9.013230829448829473e-01
1.068335003878793793e-01 -8.300589887564729930e-02 -7.159101991296198397e-01 -1.393449208270111650e-01 -3.149382297649828688e-01 9.388274093102590978e-01
-4.249324736593768082e-02 -2.152953130380144131e-01 -7.692147160904944103e-01 2.876833785276691202e-01 -3.076356272556448057e-01 9.069722126735371148e-01
1.044296248576717101e-01 -1.510856058240176159e-01 -7.400908703968313018e-01 1.521512444236478023e-01 3.469421776357318743e-01 -9.254626541345208901e-01
-2.574818136163348897e-02 1.809227853194195490e-01 -5.709022811351777138e-01 -1.663854453686431922e-01 4.880814403477599650e-01 -8.567919182377563558e-01
-1.032664172236069516e-01 -5.794173767771944317e-02 -7.006809054017218985e-01 2.034075569044667964e-01 -3.709715950366623272e-01 9.060935059198420571e-01
-5.915477225003702016e-02 -7.226872917726734347e-02 -7.137094116055845427e-01 -1.165435930113378482e-01 3.348782746014318246e-01 -9.350262734960850253e-01
8.630852035491347329e-02 8.489295996394183308e-03 -6.790903229268910879e-01 -1.430645124068194163e-01 -5.050346994697060277e-01 8.511595018686820557e-01
7.208758733611780878e-02 -1.886804243749394816e-01 -7.620736248650422651e-01 -1.684794706469030789e-01 -4.091458598054537044e-01 8.967799804715730350e-01
-8.182214992947738075e-02 -4.359995907816133220e-02 -6.991622680184286232e-01 -2.015820414372538893e-01 3.711442969208897380e-01 -9.064306876055596707e-01
-1.151532514178383731e-01 8.518981846172338224e-02 -6.067645495541281742e-01 -2.495761365672939103e-01 6.507162573997069543e-01 -7.171332542922981279e-01
5.865775401000550976e-02 -9.097754222287197934e-02 -7.238533139186015264e-01 5.465938645588507699e-02 3.192868886247394733e-01 -9.460804586421808215e-01
6.970356199678570674e-02 -1.104210618159996576e-01 -7.302361511907596858e-01 -5.590291779977622083e-02 -3.236760239697517583e-01 9.445150582646123505e-01
3.955022398682594281e-02 -1.799601713824016125e-01 -7.603212242520611674e-01 6.777697780810401640e-02 4.346283003102579534e-01 -8.980559681047811660e-01
-3.256559585973127502e-02 6.203204527284067460e-03 -6.827895257025543563e-01 -1.249111781039321245e-01 4.794542823237619156e-01 -8.686315609889465605e-01
7.069318653705880529e-02 -1.148849179241384216e-01 -7.313082630796351458e-01 5.810399096139751834e-02 3.383620618536572477e-01 -9.392204434170390304e-01
1.196947511362126404e-01 -2.382637937107055098e-02 -6.905353100934177313e-01 -1.392380362257623072e-01 -4.331475604842347504e-01 8.905032061225548468e-01
1.183919621502024372e-01 -1.749414369770400657e-01 -7.473708722992945530e-01 -1.540219147381446940e-01 -3.592334061983243898e-01 9.204502211698062375e-01
1.050310088571123068e-01 -7.628126089273869204e-02 -7.135304002596818407e-01 1.370573573739104212e-01 3.138854040529074907e-01 -9.395164894307196368e-01
-8.593564964719210830e-02 -1.178800704193692095e-01 -7.240426753825430772e-01 -1.977035008862856325e-01 2.811031520189795074e-01 -9.390922977334554833e-01
-3.329975091045060676e-02 -1.740108914571726340e-01 -7.542438345771805830e-01 1.346280739879991417e-01 -3.903045384713417221e-01 9.107895744588617726e-01
5.446155402628523323e-02 -2.518041639239650478e-02 -6.997502459502392691e-01 -5.458095185638592306e-02 -4.233797359233626989e-01 9.043066509231892924e-01
-3.180050095065770771e-02 -1.320432553025338573e-01 -7.373841196050902047e-01 1.192314842871398384e-01 -3.190574325175518644e-01 9.402054072967211962e-01
9.664066409074477393e-02 -5.717358667923544240e-03 -6.847284123399602906e-01 1.395076630339779078e-01 4.553025089978224860e-01 -8.793390911673868438e-01
2.285185629792459497e-02 -1.457409221428166909e-02 -6.962131745014634721e-01 5.459840344107135673e-02 4.234115174377874324e-01 -9.042907172158278772e-01
-1.111137824205839369e-01 -1.399397323003149542e-02 -6.787933984416691935e-01 2.127522065583174193e-01 -4.529573681057317835e-01 8.657748675511985903e-01
-3.247388805510784127e-02 -1.940916371850997246e-01 -7.631482181116755470e-01 1.349569198153388327e-01 -3.992115552171617843e-01 9.068719666937836710e-01
-7.218593170750293997e-02 1.028572173407288903e-01 -6.071694451679519045e-01 -2.801380923463930306e-01 6.447332939485007630e-01 -7.112254416785440680e-01
8.963524137393570970e-03 -2.217834001575863245e-01 -7.860455410801133747e-01 1.869902217291711521e-01 -5.454620543133938959e-01 8.170102840735161687e-01
-1.062558616278464450e-02 -1.956334611027258363e-01 -7.675454201211964200e-01 1.507202476086646759e-01 -4.294965374237245670e-01 8.904022300633652742e-01
-3.736360169068891901e-02 -6.052249588581672113e-02 -7.126837479689213106e-01 1.164034385669837218e-01 -3.345739075311087163e-01 9.351526826615788046e-01
1.098602301089365331e-02 -2.864307444479261694e-02 -7.034341404649439022e-01 5.327203553705196076e-02 4.185975962828507591e-01 -9.066080424394871162e-01
4.778492771804903477e-02 9.296111244200548629e-02 -6.241497590039795096e-01 7.962904308420458432e-02 6.302544988614511290e-01 -7.722942976368495360e-01
-6.693219029565209907e-03 -5.517122160765748629e-02 -7.141248802222266434e-01 -1.165435930113378482e-01 3.348782746014318246e-01 -9.350262734960850253e-01
-1.082174020854620028e-01 -9.200770888990462970e-02 -7.112649064023445211e-01 -1.964411547384166956e-01 3.011879716351853475e-01 -9.331112894330023666e-01
-1.024881418741930977e-01 -1.621634321056494299e-01 -7.353555793274585417e-01 2.155420472949420296e-01 -3.202370397595507567e-01 9.224911187723948691e-01
-1.048455933378701771e-01 -2.435505076603738939e-02 -6.855563772953052748e-01 2.088230550572691413e-01 -4.097735055989220609e-01 8.879631781699729443e-01
-3.463614831474264022e-02 1.546780256042641355e-01 -5.816888355228134744e-01 -1.799448548504038181e-01 4.123301962894967421e-01 -8.930865906734533066e-01
8.826346566741374855e-03 7.736990382806171324e-03 -6.862337038873641548e-01 -5.465066417860307141e-02 -4.841924829624306703e-01 8.732530814990084878e-01
-8.266344398507932678e-02 3.972696913034461791e-02 -6.536134319545318094e-01 -2.208945376821308260e-01 5.703685308957416877e-01 -7.911291564504692175e-01
-3.959654211713131006e-02 9.078508207030658306e-02 -6.251761162754790879e-01 -1.500302124898664491e-01 6.127087461201108365e-01 -7.759374509380038143e-01
-1.000547965882019608e-01 8.484038437551973122e-02 -6.129940052069184908e-01 2.826489520033179104e-01 -6.448709577281369620e-01 7.101063426066699380e-01
-1.120805281545151910e-01 -1.144429515444274764e-01 -7.175096445233166698e-01 -1.977035008862856325e-01 2.811031520189795074e-01 -9.390922977334554833e-01
-2.953276658878755279e-03 -1.721004945622028326e-01 -7.573986285898296478e-01 -1.280835261720703611e-01 4.128384052154980832e-01 -9.017533263051781267e-01
-5.357017147586371625e-02 1.126186944327630668e-01 -6.059495162745890395e-01 1.733518194740412133e-01 -6.000549812387553361e-01 7.809501688171891498e-01
3.790608933770915623e-02 1.734905417944558256e-02 -6.785404390314198064e-01 5.715115180499494296e-02 4.920480191631605438e-01 -8.686901016386526786e-01
-9.212306338888212598e-02 -1.798836665982738933e-02 -6.854677969702774876e-01 2.101064378355693707e-01 -4.472573556054592059e-01 8.693768703139391762e-01
1.929473411917274894e-02 1.195507485780312323e-01 -6.064810325087424125e-01 9.451066723220316601e-02 5.831255973746464205e-01 -8.068657084458265016e-01
-1.302074463723500442e-01 1.313858027414915690e-02 -6.586280895912827171e-01 2.249485731293263957e-01 -5.333647671170181903e-01 8.154263698491047707e-01
1.170628749612787067e-01 -1.362429516465340495e-01 -7.323438532712346349e-01 1.438303557403065591e-01 3.655472527632222524e-01 -9.196129809680145817e-01
-7.474859049200072159e-02 2.731277478060751412e-02 -6.644391097370589971e-01 2.169752862342267108e-01 -5.151782964675696297e-01 8.291640657990119179e-01
9.769788653646777066e-02 -6.897215863592642826e-02 -7.125448871978601328e-01 -1.383143086563846380e-01 -3.390397650551499886e-01 9.305488647740401964e-01
1.351840793138654045e-02 -1.876489447957968570e-01 -7.665530913023096415e-01 8.224466191242656155e-02 4.717668011715141496e-01 -8.778792063258520351e-01
-8.215997152961289351e-02 -1.987243693085248009e-01 -7.528720284920944472e-01 2.539780228090344760e-01 -2.605050292457827266e-01 9.314678167643084539e-01
1.487537188223082008e-01 -6.111004227178558346e-02 -7.019232943877458109e-01 -1.470473071809574039e-01 -3.397624439504348670e-01 9.289448698021086637e-01
7.672200088137819118e-02 -1.508563703001522538e-01 -7.444621438377350131e-01 1.438303557403065591e-01 3.655472527632222524e-01 -9.196129809680145817e-01
-4.524675417397486937e-02 8.475374176864663989e-02 -6.288461961700765324e-01 -1.500302124898664491e-01 6.127087461201108365e-01 -7.759374509380038143e-01
-1.353355880548563761e-01 -7.854017219095361935e-02 -7.012199419700785308e-01 2.082722109438517877e-01 -3.316625795692756951e-01 9.201209808834996950e-01
5.586160587996705229e-02 6.033988875568704890e-02 -6.493101032169843467e-01 6.360718665938072669e-02 6.135699517045739571e-01 -7.870743549185968968e-01
1.102403962133294557e-01 -4.217033396287471481e-02 -7.004000801502467954e-01 -1.402845964989999361e-01 -3.920252332478458279e-01 9.091954951945621088e-01
-4.119199888528105730e-03 8.057236499442070599e-02 -6.395433064970049708e-01 -7.175299008989539928e-02 -6.107391576420634349e-01 7.885741498019207540e-01
-1.667998339385622086e-02 6.933795812536411307e-02 -6.460228191920994734e-01 1.404376882984232078e-01 -5.796175443349846912e-01 8.026959312245682820e-01
4.757633508549485163e-02 -9.887173996479772797e-02 -7.271577024260749145e-01 5.465938645588507699e-02 3.192868886247394733e-01 -9.460804586421808215e-01
-3.438083703004531089e-02 1.725371198049157340e-01 -5.733837035276794225e-01 -1.610681395359057355e-01 4.165874213259213033e-01 -8.947133478491652303e-01
6.610065949148704982e-03 2.647454604026343739e-03 -6.885551180416038530e-01 5.535170960964894832e-02 4.497734872610390511e-01 -8.914258232743390575e-01
-1.482444240311641681e-01 -9.115231530761429279e-02 -7.027147003581480922e-01 -1.896898795478197952e-01 3.012387051460386767e-01 -9.344907662032150286e-01
2.860443525215549884e-02 -1.403394148077307946e-01 -7.433227790248937428e-01 5.684433199005133053e-02 3.755076048751763707e-01 -9.250744621929161138e-01
-1.060152882957451498e-01 -1.251409644698388106e-02 -6.792720387879594979e-01 2.127522065583174193e-01 -4.529573681057317835e-01 8.657748675511985903e-01
6.180576931479899588e-02 -2.130376121850429683e-01 -7.747896521698167671e-01 -2.264612974798745626e-01 -3.223806536632746744e-01 9.191224047358282911e-01
-4.741206096377748730e-02 -1.095680451738890657e-02 -6.900147862588030812e-01 1.230349936107185682e-01 -4.501715602896754209e-01 8.844252125836131739e-01
-2.265275295742353798e-02 2.163461952641174135e-02 -6.756613008548109089e-01 -1.266725601145367586e-01 4.843950194852701396e-01 -8.656301332624077860e-01
-3.814195750689913268e-03 1.301933850469517429e-01 -6.014963698499405931e-01 9.451066723220316601e-02 5.831255973746464205e-01 -8.068657084458265016e-01
-1.142348647383489152e-01 -3.270749904873351127e-02 -6.868363732979646530e-01 -2.050377122562590804e-01 4.150794892678486558e-01 -8.863794639666813246e-01
1.152835310492065224e-01 7.443472760525600418e-03 -6.748406861133504631e-01 -1.430645124068194163e-01 -5.050346994697060277e-01 8.511595018686820557e-01
1.353174103492501557e-01 -5.612419627916259701e-02 -7.022266167580623053e-01 -1.470473071809574039e-01 -3.397624439504348670e-01 9.289448698021086637e-01
-7.641139208194815124e-02 -2.135625892834949469e-01 -7.585878111616354280e-01 -2.445036159252871044e-01 3.024441620481925774e-01 -9.212738521430129390e-01
9.476203434759344901e-02 -1.056036187878570537e-01 -7.253912650714974264e-01 -1.418929808273138304e-01 -3.153703965108022311e-01 9.383005355410167780e-01
2.845099215528011649e-02 -1.915934492270878475e-01 -7.677630573903034827e-01 -8.217431861121599068e-02 -4.717695690250373608e-01 8.778843062173472545e-01
-7.088162577566861633e-02 -3.813527626443852236e-02 -6.995475576872384194e-01 1.186557980230778103e-01 -3.754613872374090722e-01 9.192113730199745758e-01
-1.027450210935701436e-01 8.487096458099599450e-02 -6.118954240836670389e-01 2.826489520033179104e-01 -6.448709577281369620e-01 7.101063426066699380e-01
1.310004163905107988e-01 -2.823850591985383168e-03 -6.776936299196125724e-01 1.342123188031754399e-01 4.620121063080631640e-01 -8.766594932505220594e-01
-3.068167253389623636e-02 1.696929813756478111e-01 -5.753738938402028769e-01 -1.610681395359057355e-01 4.165874213259213033e-01 -8.947133478491652303e-01
1.644095207566504888e-02 1.232963736502291907e-01 -6.041083241476604693e-01 9.451066723220316601e-02 5.831255973746464205e-01 -8.068657084458265016e-01
-1.145282665847000975e-01 3.110289222328378039e-02 -6.509185464147485556e-01 -2.212020646778329880e-01 5.286058891757455802e-01 -8.195397858011428394e-01
-6.044572298091398233e-02 -1.768313880517906611e-01 -7.504410526699083483e-01 -2.302188978010060727e-01 3.527538552988959686e-01 -9.069531281532996481e-01
1.203008740036100449e-01 6.421891803035116586e-02 -6.330396159941079626e-01 1.473218823622907958e-01 6.497234326899060664e-01 -7.457584890504944664e-01
-1.291534935179421140e-01 1.598660792580508527e-02 -6.570559643058803134e-01 2.249485731293263957e-01 -5.333647671170181903e-01 8.154263698491047707e-01
-7.859559874265710511e-02 -1.942085431731107870e-01 -7.521974474205265215e-01 -2.517349670164230613e-01 2.627846341824116028e-01 -9.314363866732158215e-01
2.668387336361919410e-02 -6.382840532931188804e-02 -7.164660389888887204e-01 5.393305993546097798e-02 3.358093512362124722e-01 -9.403846578226974229e-01
-6.578796253400495675e-02 -5.855093183996038647e-02 -7.084402406769289007e-01 1.164034385669837218e-01 -3.345739075311087163e-01 9.351526826615788046e-01
-3.486418802347068802e-02 -1.155903205453154003e-01 -7.308914120415216376e-01 -1.161112516434481823e-01 3.051124666195751400e-01 -9.452113837418116837e-01
2.389461093883445131e-02 -3.391020808515440854e-02 -7.049832138225676781e-01 5.441890696620815815e-02 3.803043831571450983e-01 -9.232589878880499423e-01
1.053997070913234579e-01 -5.450785750160681148e-02 -7.061467914454476746e-01 -1.394632316775966385e-01 -3.361535757226769561e-01 9.314240605325264655e-01
-3.160115221202790953e-02 1.085197893155365537e-02 -6.808605085339243246e-01 1.248938739729151953e-01 -4.795401809669623816e-01 8.685866307296068456e-01
-7.385424066986333302e-02 1.299935931891551266e-01 -5.839515043961970298e-01 -3.125366026180197987e-01 5.911148616877361928e-01 -7.435752095893694014e-01
1.380091662766721496e-02 -1.042175792229659698e-01 -7.309599732040814590e-01 5.591225425912632607e-02 3.236470887198107937e-01 -9.445244209584280348e-01
-2.498558059436841589e-02 -1.679507702037459915e-01 -7.528486025747274102e-01 1.280637439003998734e-01 -4.128374613391840309e-01 9.017565680455178478e-01
-4.487028244377879588e-02 1.577100957642015855e-01 -5.775091788102978407e-01 -3.168650539091961704e-01 4.376615966410312142e-01 -8.414563948516554648e-01
-1.191509622159510201e-01 -8.591512551093678784e-02 -7.069965902299134575e-01 -1.964411547384166956e-01 3.011879716351853475e-01 -9.331112894330023666e-01
-6.826376752050310193e-02 -1.820693365532229935e-01 -7.504938061467846255e-01 -2.302188978010060727e-01 3.527538552988959686e-01 -9.069531281532996481e-01
-4.832442589040839703e-02 -2.133070198294089725e-01 -7.666907104648235105e-01 2.876833785276691202e-01 -3.076356272556448057e-01 9.069722126735371148e-01
-5.315467232168944595e-02 -1.729902805267724275e-01 -7.508716188721955564e-01 1.346280739879991417e-01 -3.903045384713417221e-01 9.107895744588617726e-01
-1.201560986941929143e-01 -7.942891723376737517e-03 -6.730152939978772952e-01 -2.108426496636855441e-01 4.530270964260076916e-01 -8.662054184699015114e-01
-3.433734858585669319e-02 -1.931818650583644326e-01 -7.619932520716427016e-01 -1.349928286299509894e-01 3.992246325145732411e-01 -9.068608652996822395e-01
4.247437063684814801e-02 7.229065577165086354e-03 -6.839132876109321746e-01 5.466304909481264906e-02 4.841130600929916539e-01 -8.732963392291630544e-01
9.496749872385273905e-02 -7.790729116040807922e-02 -7.155422823332457938e-01 1.374786711436107867e-01 3.149890324111036533e-01 -9.390854723832670059e-01
-1.049087698471324326e-01 5.373408267776363240e-03 -6.692617745048994315e-01 -2.114067152415850803e-01 4.902171135386564349e-01 -8.455734044685838668e-01
-6.976470914823654224e-02 9.381310991785590803e-02 -6.162338952751137411e-01 2.616900789517336290e-01 -6.157817973578073589e-01 7.431898012089669381e-01
-7.735237948236096950e-02 4.737159804289691606e-02 -6.498721190429529448e-01 -2.302579548526096087e-01 5.515136772014220812e-01 -8.017567823765877622e-01
1.168279935432230549e-01 -1.141818430712513710e-01 -7.249530260397684112e-01 -1.416197166943945485e-01 -3.269498314982774434e-01 9.343701961892016961e-01
-2.952940998062576067e-02 -2.240875303820211994e-01 -7.766780313887254872e-01 -2.970951723424594126e-01 3.569023829108703416e-01 -8.856382713294106424e-01
-8.646226074114320148e-02 1.327172094335464236e-01 -5.767215458080187096e-01 3.283906614354026310e-01 -5.957632750872096095e-01 7.329568156033345883e-01
-8.625043748404727373e-02 6.279547643093215392e-02 -6.363385699888612912e-01 2.449535660707381490e-01 -6.137856137503697740e-01 7.505098072792323327e-01
1.617223960369058508e-02 8.497935730327618731e-02 -6.342838210975887403e-01 -7.175299008989539928e-02 -6.107391576420634349e-01 7.885741498019207540e-01
1.277943973892283758e-01 7.255617214255733610e-03 -6.727994836424023850e-01 -1.509752841366714671e-01 -5.054600770003134791e-01 8.495390362653669758e-01
2.403008663879979787e-04 -1.291932190977233275e-01 -7.404402358903617865e-01 1.174958528265162006e-01 -3.258577193125450910e-01 9.380892661857912485e-01
9.329128143674535190e-02 -1.138758947433329977e-01 -7.284133598125743791e-01 -1.416197166943945485e-01 -3.269498314982774434e-01 9.343701961892016961e-01
1.001130485299793066e-01 4.834597514561964592e-03 -6.785022539088420013e-01 1.411333594059773766e-01 5.049379619724909674e-01 -8.515392119109079783e-01
7.241667612843433188e-02 -7.361990237626264699e-02 -7.177047650370645959e-01 -5.473534365587542222e-02 -3.169308031700409090e-01 9.468679465252088923e-01
-3.452149310842785035e-02 1.697571628508247887e-01 -5.751326621913305237e-01 1.608607153155432457e-01 -4.165154145400432606e-01 8.947841861134491204e-01
-9.742091455261332744e-02 2.822059730088460894e-02 -6.578532887527986928e-01 2.232224160983293515e-01 -5.286642696970444977e-01 8.189541152573293070e-01
7.176817750919292638e-02 6.473529779040189391e-02 -6.434492411834479286e-01 -1.603209708892967544e-01 -6.245274537872959053e-01 7.643707515068001168e-01
1.330052807863291164e-01 -9.323783301092397613e-02 -7.154316754580427595e-01 -1.470564767737888856e-01 -3.132654069831820043e-01 9.382106253003861251e-01
7.983055939158871517e-02 -8.171800184928733335e-02 -7.190364673395821526e-01 1.374786711436107867e-01 3.149890324111036533e-01 -9.390854723832670059e-01
-1.575488246836544495e-02 2.299204969691572703e-02 -6.759022166691485145e-01 -1.269922080940428244e-01 5.176441490156232783e-01 -8.461190897700457958e-01
1.233465416058421582e-01 4.166752511604601000e-02 -6.508180866571658951e-01 -1.599899392407674870e-01 -6.024226705818858107e-01 7.819783534796368452e-01
2.935225482263614100e-02 -7.575106324159576465e-02 -7.204469197936478331e-01 5.462875109912165156e-02 3.172768471739352281e-01 -9.467582066191544410e-01
7.958430860919754601e-02 -9.497826821034377476e-02 -7.235564643763773285e-01 1.373169800423206799e-01 3.212368415240735020e-01 -9.369903620847409575e-01
-6.771389348919969187e-02 -3.944535934108371611e-02 -7.004915793096830878e-01 1.186557980230778103e-01 -3.754613872374090722e-01 9.192113730199745758e-01
-2.199784472951950287e-02 6.504482885448943132e-03 -6.846415859750855093e-01 1.248938739729151953e-01 -4.795401809669623816e-01 8.685866307296068456e-01
5.704057809624840658e-02 -5.841413530430796669e-02 -7.132332166314904187e-01 -5.457001083635656946e-02 -3.383061656475933043e-01 9.394525279130090389e-01
2.603124329152249963e-02 -2.244096084620817999e-01 -7.867803178251971952e-01 -5.659478884279369598e-02 8.123981758263860709e-01 -5.803500958816150135e-01
-4.759181232704883663e-02 1.623165819979126012e-01 -5.741371814202008705e-01 -3.102664331269540665e-01 4.249703594311242671e-01 -8.503734086150969151e-01
-1.050813992768698385e-01 -1.190367249268492189e-01 -7.207489284962386167e-01 1.995681559526491511e-01 -2.806442415870935014e-01 9.388351084155642789e-01
6.991955805385910439e-02 -7.187674982085491548e-02 -7.168072830688149155e-01 5.475570012810078435e-02 3.169104203240645234e-01 -9.468735917711011973e-01
1.405647182453985920e-02 -6.770897990452150184e-02 -7.190365652063325230e-01 -5.391560631629475214e-02 -3.358220693204488350e-01 9.403811169695390770e-01
-6.250080351998331396e-02 -1.298726067799180484e-01 -7.322921936600624848e-01 -1.192551805942908272e-01 3.190801816789271550e-01 -9.401946817341426677e-01
-7.544754351459898034e-02 -2.177059608269693580e-01 -7.600129935608610499e-01 2.909071935665673014e-01 -2.067462874739868783e-01 9.341461220531546150e-01
-5.555920359673401782e-02 -9.819685698787751493e-02 -7.232477391332087224e-01 1.149196310890136380e-01 -3.023153586336825294e-01 9.462551993646074466e-01
1.373754175053411852e-01 -1.414353792997516124e-01 -7.311728665777897929e-01 1.363321503088678055e-01 3.452924444343214438e-01 -9.285400759303451546e-01
9.487721610759358715e-02 3.502081193672247628e-02 -6.606655836082411248e-01 1.519045680962345657e-01 5.556507583594836319e-01 -8.174210891125988088e-01
1.146697325647378640e-01 -4.534105590269586067e-02 -7.010838003715769151e-01 -1.402845964989999361e-01 -3.920252332478458279e-01 9.091954951945621088e-01
-1.126285942246046251e-01 -1.493948309787153372e-01 -7.281610590450448006e-01 -2.068887152145614527e-01 3.424959890829012421e-01 -9.164570677227567019e-01
4.464664233618797357e-02 7.132241327564970042e-03 -6.843272828926735274e-01 -5.465066417860307141e-02 -4.841924829624306703e-01 8.732530814990084878e-01
-3.473550927759093410e-02 7.141701357214019774e-02 -6.413626070454975237e-01 1.404376882984232078e-01 -5.796175443349846912e-01 8.026959312245682820e-01
8.220339631385537027e-02 -1.130389948080568058e-01 -7.298010740850462419e-01 -1.416197166943945485e-01 -3.269498314982774434e-01 9.343701961892016961e-01
4.380238500881273450e-02 -4.263794679174905816e-02 -7.074239390275979256e-01 5.305659309501405824e-02 3.843876077843631500e-01 -9.216458999588531542e-01
-1.121439924253159193e-01 -1.635645618675464485e-01 -7.332297900539955782e-01 -2.135769944945498100e-01 3.210302624417892825e-01 -9.226724435135312818e-01
1.185031895433033035e-02 -1.341068786395482881e-01 -7.423343516571859757e-01 -5.807764065053298147e-02 -3.383734517523923624e-01 9.392179698055393988e-01
-6.157290902482859957e-02 1.961525542003396145e-03 -6.814592292496021164e-01 1.248938739729151953e-01 -4.795401809669623816e-01 8.685866307296068456e-01
9.519889397148516286e-02 9.042994369210670402e-02 -6.154616725750788886e-01 -1.788046578014300669e-01 -6.650650265389864702e-01 7.250637246637089417e-01
4.140091285598374721e-02 -4.213145484717319839e-02 -7.078212844651364799e-01 -5.302343304014259934e-02 -3.844499362705053880e-01 9.216218107500721013e-01
4.449616723260380047e-02 -7.012011433666086313e-02 -7.176860641511070282e-01 5.462875109912165156e-02 3.172768471739352281e-01 -9.467582066191544410e-01
-4.055112675766690822e-02 1.030476319977495780e-01 -6.152698459040440992e-01 -1.501039388784229656e-01 6.143981489347964953e-01 -7.745861618430051054e-01
-1.119838150885514999e-01 -6.240359607787947932e-02 -7.005439277850186164e-01 2.008652609180109627e-01 -3.314901835864932367e-01 9.218282948261745657e-01
2.812960933397631175e-02 -2.234211868045001270e-01 -7.861769495992566581e-01 5.467664787683782640e-02 -8.035113285121849858e-01 5.927731514918130884e-01
-8.236689578577618964e-02 -7.315912596279190890e-03 -6.818591200029486821e-01 -2.082132510386934532e-01 4.473610294897877870e-01 -8.697789094854712078e-01
-1.268103796254299309e-01 5.703307937120289522e-02 -6.277008268802803936e-01 -2.210287499944655343e-01 6.200881857031921296e-01 -7.527529034332632873e-01
-1.143278509251690195e-01 -2.252564408527742493e-02 -6.820310565257544644e-01 -2.082132510386934532e-01 4.473610294897877870e-01 -8.697789094854712078e-01
6.070082958965119201e-03 -1.662674483955995652e-01 -7.564883501056743897e-01 1.280637439003998734e-01 -4.128374613391840309e-01 9.017565680455178478e-01
1.670518203450551201e-02 -6.801797109336148173e-02 -7.189950493190141456e-01 -5.391560631629475214e-02 -3.358220693204488350e-01 9.403811169695390770e-01
-4.005587316571386503e-02 1.398084501712908712e-01 -5.887299509900933980e-01 -1.795954241354870418e-01 5.301042023052869867e-01 -8.286947678897640390e-01
-6.855091677791734853e-03 -1.095402163129908929e-01 -7.328380669808962633e-01 1.160975603557521385e-01 -3.051321606953697474e-01 9.452067080743860039e-01
1.994640331791177820e-02 -2.508267315900949979e-02 -7.012637283065900062e-01 5.327203553705196076e-02 4.185975962828507591e-01 -9.066080424394871162e-01
1.259265780613942898e-01 -8.220666110374716395e-02 -7.124617709510431274e-01 1.370573573739104212e-01 3.138854040529074907e-01 -9.395164894307196368e-01
7.224204015495040709e-02 -2.153406335068685784e-01 -7.726385084056723862e-01 2.233014927184138743e-01 3.278951020563166674e-01 -9.179440317346183598e-01
6.404484224875110765e-02 9.667340266265739279e-02 -6.177211870055394627e-01 -1.904578398126916539e-01 -6.331072790682006346e-01 7.502672753390902116e-01
-5.486606952774832763e-02 1.427984554514495075e-01 -5.828417532528670231e-01 3.167490768813993052e-01 -5.151752440803532007e-01 7.964072389057812451e-01
-1.378379382745064108e-01 -1.431136864613683501e-01 -7.208845509572929799e-01 -1.947935230717096622e-01 2.864412386217090600e-01 -9.380868297690636570e-01
6.443710340365503206e-03 1.129750039627011315e-01 -6.128096743622175602e-01 9.270572011661611100e-02 6.030814555666498267e-01 -7.922741996362563377e-01
8.389230531934992185e-02 6.440973113540555961e-02 -6.406816080323362028e-01 1.582013484485938482e-01 6.243822337811181233e-01 -7.649308200664604040e-01
-1.230743285233658890e-01 3.305460464469633236e-02 -6.474955315524264510e-01 2.311791683513772788e-01 -5.707478108138236417e-01 7.879106095056681580e-01
-4.515798096896880831e-02 -1.757613354402891570e-01 -7.527652843184536868e-01 -1.346627872080842225e-01 3.902765230615545811e-01 -9.107964477798176084e-01
1.330471565851698290e-01 -1.243355047370415800e-01 -7.257273326161102212e-01 1.319688330542009291e-01 3.277108572232111383e-01 -9.355158048693461570e-01
1.012083740356167771e-01 -1.484163174992761403e-01 -7.400304653800446886e-01 -1.541734562754288052e-01 -3.464956616222867880e-01 9.252952511804122260e-01
1.153768501768610150e-01 -1.885586003134161193e-01 -7.530592487967360249e-01 -2.087486110502226044e-01 -3.322773575321326667e-01 9.197911583919829992e-01
-6.264667265040717477e-03 -2.234155816592099109e-01 -7.836499411101484069e-01 1.869902217291711521e-01 -5.454620543133938959e-01 8.170102840735161687e-01
5.956538546451647237e-02 -6.055472190627506773e-02 -7.138574045097270115e-01 -5.457001083635656946e-02 -3.383061656475933043e-01 9.394525279130090389e-01
-4.984750828051977972e-02 -1.454028131516124644e-02 -6.914999701698578694e-01 1.230349936107185682e-01 -4.501715602896754209e-01 8.844252125836131739e-01
-4.978351627464613904e-03 9.675157305617227907e-03 -6.853383093874959586e-01 1.248938739729151953e-01 -4.795401809669623816e-01 8.685866307296068456e-01
1.056678414830096863e-01 3.427204538690525187e-02 -6.591693014567389097e-01 1.519045680962345657e-01 5.556507583594836319e-01 -8.174210891125988088e-01
1.117120868221692653e-01 -1.131316375872538360e-01 -7.253609465363697328e-01 -1.416197166943945485e-01 -3.269498314982774434e-01 9.343701961892016961e-01
-3.363757371176019639e-02 8.007274502082700751e-02 -6.351543582207643812e-01 1.409985123157962705e-01 -5.960708805853290881e-01 7.904548847612763440e-01
-5.933801008464652943e-02 1.665724680430249738e-01 -5.680579517643358223e-01 3.323528948037883790e-01 -4.329815423491433224e-01 8.378953021114864397e-01
-9.659287747740948060e-02 5.668763913625159134e-02 -6.379365750889565145e-01 2.322622928416641086e-01 -5.905227973252102913e-01 7.728758329532251503e-01
-1.106986811560828760e-01 -4.558461274299509952e-02 -6.939108996505257698e-01 2.049195210857618354e-01 -3.741635283209292506e-01 9.044388558395837219e-01
3.643364138698215737e-02 -9.926050217080367721e-02 -7.279326676729517276e-01 5.465938645588507699e-02 3.192868886247394733e-01 -9.460804586421808215e-01
-5.657389331941443250e-02 1.247980346002263430e-01 -5.954073352455759860e-01 3.034567648866459688e-01 -6.055842076088863157e-01 7.356505687751814238e-01
-4.639573143042309555e-02 4.994325581251832236e-02 -6.548220226595609095e-01 1.343272987142790365e-01 -5.545799804593213311e-01 8.212169153724633297e-01
-9.857169970894570643e-02 -1.480277071300233060e-01 -7.312223909297024260e-01 2.087826162440157285e-01 -3.419778490260271253e-01 9.162210267887523907e-01
6.041659324314024859e-02 9.108005597198401415e-02 -6.234679102089240033e-01 -1.893388782049647001e-01 -6.415722627689864899e-01 7.433275326836534802e-01
-4.220624424072884524e-03 -1.407032330226126171e-01 -7.441056149344297266e-01 1.264560704261972202e-01 -3.754944314024482588e-01 9.181572818630351351e-01
-2.721872811243148359e-03 5.783288820955819615e-02 -6.562927748733932143e-01 -6.004473186334099988e-02 -5.580513878037846043e-01 8.276311248048426883e-01
3.478331242189722922e-02 3.752005223214691793e-02 -6.669979016823088802e-01 -6.113695891827448936e-02 -5.203740772739338105e-01 8.517470821526348379e-01
1.146502586994542910e-01 -7.260255493680059513e-02 -7.112769921251095306e-01 -1.389128947277601389e-01 -3.138063243772561961e-01 9.392703542959237595e-01
-1.373348672421514883e-03 7.406010377015449786e-02 -6.436760698042069961e-01 7.289436759665066101e-02 5.964738580838073734e-01 -7.993155495768252683e-01
-4.155811861368794574e-02 -2.007538838819888927e-02 -6.952597547802781275e-01 1.218747645356920289e-01 -4.143336245485028657e-01 9.019280399997938735e-01
1.414403750811047506e-03 2.060247222871021133e-01 -5.563334305748949271e-01 -1.826559756925554834e-01 -6.097297820637235244e-01 7.712758179849311668e-01
-1.278699407932984422e-01 3.222275708655967380e-02 -6.466910361237393490e-01 2.311791683513772788e-01 -5.707478108138236417e-01 7.879106095056681580e-01
-1.843173350683533981e-02 2.009538719472595547e-01 -5.600413416508818187e-01 -4.648957288722312879e-04 4.447537393528062655e-01 -8.956527760263222060e-01
-1.254247214372599395e-01 -6.683700188039123913e-02 -6.992102242575206628e-01 2.007015501779296496e-01 -3.319924692948846845e-01 9.216831820575120959e-01
1.020377622457987465e-01 4.105742164990018594e-02 -6.550624116071933623e-01 1.496844920940751389e-01 6.008624400539833710e-01 -7.852126342328630271e-01
-1.095106714406307163e-01 7.160636969796836671e-02 -6.211662629547456405e-01 2.539416706699940685e-01 -6.374218401946507573e-01 7.274661679694782723e-01
8.101897897828827522e-02 5.534838022784824979e-02 -6.488801620931700098e-01 -1.633414524602866402e-01 -5.835748875537489777e-01 7.954620798786028457e-01
-1.327937784753762673e-01 -8.871523414530203822e-02 -7.050535005606731742e-01 -1.889205829199939179e-01 3.019951717070535890e-01 -9.344024452101978850e-01
-3.589176246133575499e-02 -1.250148258256670031e-01 -7.340006223161342769e-01 -1.175134327623044289e-01 3.258974821466625316e-01 -9.380732510048909178e-01
2.472764281504630929e-02 1.165970092437186995e-01 -6.079793403129988283e-01 9.451066723220316601e-02 5.831255973746464205e-01 -8.068657084458265016e-01
-7.736819311752998751e-02 1.299591254520597039e-01 -5.829567790443622721e-01 3.155701239954488702e-01 -5.920706436135755313e-01 7.415307477188680663e-01
7.514185639690529328e-02 -1.725756154131888320e-01 -7.542664451182198304e-01 -1.687728032332925510e-01 -3.861406923574554617e-01 9.068688475157150597e-01
-6.171510894875544169e-03 7.822690097005645382e-02 -6.409002043680563920e-01 -1.410370821617117354e-01 5.960479831204588130e-01 -7.904652701247181223e-01
-9.618785875221418091e-02 -1.336565588308374353e-01 -7.266917134797916678e-01 -1.983602915909962461e-01 2.887665841306041314e-01 -9.366253544558131860e-01
-4.664841205279039033e-02 -1.136727633874709126e-01 -7.288248355808443213e-01 -1.161112516434481823e-01 3.051124666195751400e-01 -9.452113837418116837e-01
5.613689600024152765e-02 -1.023875648902121266e-01 -7.283084284234345729e-01 -5.464016847199167082e-02 -3.192780428573325224e-01 9.460845540111855190e-01
3.368218111131540682e-02 -1.485636828839729251e-01 -7.464238196064391095e-01 6.083638346833507987e-02 3.877904988328714220e-01 -9.197377144933475135e-01
1.376941190143205207e-01 -3.140163765969294224e-02 -6.913174891664132238e-01 -1.469200944975779244e-01 -4.335471685880947779e-01 8.890733031882517290e-01
2.538229633442993377e-02 5.471884176478945122e-02 -6.562825106448243462e-01 -6.562243898977826451e-02 -5.736958403671258422e-01 8.164354097211180550e-01
9.504976511104815118e-02 1.513913172723832176e-02 -6.737176683218353279e-01 -1.480430926985784601e-01 -4.943812293616343112e-01 8.565456454615359982e-01
-7.795030181285435289e-02 6.804556535808647943e-02 -6.347539388337014588e-01 2.449535660707381490e-01 -6.137856137503697740e-01 7.505098072792323327e-01
1.453916623050488244e-01 -5.516285499702805462e-02 -7.002193165376157102e-01 1.298377504513447134e-01 3.402195313240241603e-01 -9.313392663596845589e-01
1.821391673996031538e-02 -1.806799948568866554e-01 -7.628564758083424824e-01 -8.217431861121599068e-02 -4.717695690250373608e-01 8.778843062173472545e-01
-4.329440638464206181e-02 -8.546894524422070372e-02 -7.205771636740548880e-01 1.154757752653116504e-01 -3.101833743845682223e-01 9.436374407484465765e-01
5.615222273576980783e-02 1.526022444697856251e-01 -5.754095071785813031e-01 2.364697603318441643e-01 4.454351237582450107e-01 -8.635216285485136645e-01
-2.672907736281353308e-02 -1.137172424685507950e-02 -6.926130974044729660e-01 -1.230523235050824116e-01 4.501666859847865410e-01 -8.844252826041751891e-01
-5.107607039924328546e-02 -1.753751527564142154e-01 -7.522008662222539055e-01 1.346280739879991417e-01 -3.903045384713417221e-01 9.107895744588617726e-01
-5.541549274782246737e-02 1.085911880979854860e-01 -6.085768026324941404e-01 1.610105716617176996e-01 -5.923117948578991987e-01 7.894569864694217509e-01
1.180719682211448830e-02 1.815020870276659939e-02 -6.802733384554895402e-01 -5.465066417860307141e-02 -4.841924829624306703e-01 8.732530814990084878e-01
1.344838010453041632e-01 -1.268864302339498540e-01 -7.266869675342095825e-01 -1.493740216699726286e-01 -3.263100052484141922e-01 9.333858698978244606e-01
-2.002524392523442193e-02 -8.365213709759174165e-02 -7.223591245715199616e-01 -1.150554639401871887e-01 3.120223955381632441e-01 -9.430823213803418703e-01
-7.935475502542024828e-02 8.488701979024466937e-02 -6.202286988474837726e-01 2.616338823702987759e-01 -6.100868356755352329e-01 7.478915459685696598e-01
3.886632549887655830e-02 1.454323230564270319e-01 -5.854831465671170854e-01 -2.511980156199991043e-01 -5.121163750329574826e-01 8.213625115451019809e-01
-5.598933673173879522e-02 -1.755507739234868081e-01 -7.510736244786718752e-01 -1.346627872080842225e-01 3.902765230615545811e-01 -9.107964477798176084e-01
5.467503572071748946e-02 1.123291244467117256e-01 -6.067398326590333069e-01 -2.063884987466680365e-01 -6.635898154526841397e-01 7.190635190388742215e-01
-6.466815025167277353e-02 7.951281479961859466e-02 -6.291762887778086233e-01 -2.592598828739832717e-01 6.102435006713504695e-01 -7.485901301917785577e-01
-5.551340787989862691e-03 1.285278645743791193e-01 -6.029035263881084017e-01 9.451066723220316601e-02 5.831255973746464205e-01 -8.068657084458265016e-01
-8.998941198604490811e-04 8.576826428096928634e-02 -6.352262312172354264e-01 -7.175299008989539928e-02 -6.107391576420634349e-01 7.885741498019207540e-01
-3.445454139022380291e-02 3.040452779495836019e-02 -6.690732275249734462e-01 1.296223748047028723e-01 -5.097942956263191716e-01 8.504750531890129528e-01
9.471591299484785620e-02 8.858655654968887461e-02 -6.168436800351163596e-01 1.586572801079826345e-01 6.616496465354788636e-01 -7.328353244134817590e-01
-8.350422323597685159e-02 9.071879602141855181e-02 -6.139598162297709161e-01 2.616900789517336290e-01 -6.157817973578073589e-01 7.431898012089669381e-01
2.733185954118733108e-02 6.926841623708329676e-02 -6.446554231960394121e-01 6.360718665938072669e-02 6.135699517045739571e-01 -7.870743549185968968e-01
7.312243472141133349e-02 1.159774337595136234e-01 -5.977438664765463150e-01 2.070690323853790760e-01 6.410887487496255144e-01 -7.390044871674475990e-01
-4.888765710474338860e-02 -1.518613611398330066e-01 -7.421177610302156502e-01 -1.218947810546286148e-01 3.643905684857937088e-01 -9.232340851323915798e-01
-1.193522847326413056e-03 1.621588603219925318e-01 -5.831881046759127551e-01 -1.103498941352574064e-01 -4.376842996260265628e-01 8.923314152965879931e-01
-3.110864124286039437e-02 -3.451586770245862468e-02 -7.027547715538807749e-01 -1.191053599036971944e-01 3.737569538742369635e-01 -9.198476247036040387e-01
-5.548621220224172340e-02 1.612833367675375329e-01 -5.721855952024957892e-01 3.144878900084307483e-01 -4.267533912288306031e-01 8.479262409624659380e-01
4.477102173371873967e-02 -1.149113557423905689e-02 -6.933847569704308933e-01 5.379198317099670446e-02 4.543680120862972349e-01 -8.891884682896408210e-01
1.213389494903742948e-02 1.808827263532977181e-01 -5.719383604404875143e-01 -1.057572504182809070e-01 -4.592785971553879354e-01 8.819742480248183858e-01
-3.081108050654875891e-02 -4.161614130349996360e-02 -7.056783184970574219e-01 -1.191053599036971944e-01 3.737569538742369635e-01 -9.198476247036040387e-01
-3.204217280034631077e-02 3.529055494800044379e-02 -6.665121038127558295e-01 1.296223748047028723e-01 -5.097942956263191716e-01 8.504750531890129528e-01
4.886608031757278675e-02 6.243393345134237715e-02 -6.487937942352891563e-01 -6.356963921730597600e-02 -6.135540113608551893e-01 7.870898145147002811e-01
-2.256529438236361956e-02 -8.498159997341657099e-03 -6.917320965306849034e-01 -1.242483244379687657e-01 4.460900232369084395e-01 -8.863216374673764664e-01
7.316697268304740709e-02 -1.850929668363638370e-01 -7.597635871652662631e-01 1.662757107787314614e-01 4.097406120749418901e-01 -8.969197393420882403e-01
-5.083147756599280288e-03 8.370178140058992522e-02 -6.372073295968582185e-01 -7.175299008989539928e-02 -6.107391576420634349e-01 7.885741498019207540e-01
-6.530802526736911515e-03 -1.032228210150592032e-02 -6.948979691659591396e-01 -1.242483244379687657e-01 4.460900232369084395e-01 -8.863216374673764664e-01
-5.385580477910192204e-02 -1.657455581848424897e-01 -7.471875331839211709e-01 -1.346627872080842225e-01 3.902765230615545811e-01 -9.107964477798176084e-01
-4.971151168307151591e-02 -6.384445642693704903e-02 -7.118714968945683008e-01 -1.164087040634049913e-01 3.345107790140776638e-01 -9.351746106164738892e-01
-2.460958351336223898e-02 -6.459027915743718873e-02 -7.152651693031021329e-01 -1.165435930113378482e-01 3.348782746014318246e-01 -9.350262734960850253e-01
-1.333347185579764060e-01 -2.983664068210558490e-02 -6.811204884962920314e-01 -1.993959666563775157e-01 4.168089977339101693e-01 -8.868548403708591543e-01
3.479529054362383300e-02 -6.544218306941877727e-02 -7.170380282775256076e-01 -5.391560631629475214e-02 -3.358220693204488350e-01 9.403811169695390770e-01
-3.817717481328063850e-02 1.516517231639714913e-01 -5.824937312582995075e-01 -1.818449338261821369e-01 4.766434908669352488e-01 -8.600833695961882519e-01
