1.234523804959464371e-01 -4.796070114046740301e-02 -8.601801050461883591e-01 -2.027420668580905971e-01 -4.176581047377092015e-01 8.856959759833020751e-01
-5.010121338247000566e-02 -7.424676851566322511e-02 -8.878252437694436061e-01 -5.235666523979999598e-02 3.463972115618735859e-01 -9.366257264388619941e-01
1.239364855884472344e-01 -1.906290668012814715e-01 -9.167901232207322781e-01 2.199245944782857176e-01 3.701762680297664421e-01 -9.025534351666475441e-01
1.870243615035144594e-02 -7.142142175684337846e-02 -8.877767749976547274e-01 -1.173237117561589937e-01 -3.467705802836181794e-01 9.305833177687637958e-01
-7.793310643191533882e-02 3.463360408848235178e-03 -8.491711729757751570e-01 1.510971250990790493e-01 -5.240629994482646214e-01 8.381692140588804518e-01
-8.580366828623710307e-02 -1.741189664335810183e-01 -9.218179600422634623e-01 -1.682273185395301851e-01 3.892901159551592771e-01 -9.056228657209457467e-01
-1.846494894486282526e-02 1.674126291486554841e-01 -7.388870862751555357e-01 -1.153083519800744555e-01 4.775513639659514364e-01 -8.710044079899357250e-01
1.018901839551867722e-01 -4.915192400434516967e-02 -8.656334249119242985e-01 -2.007674418108471304e-01 -4.122842690862034143e-01 8.886586047368151275e-01
6.060782726898084755e-02 -6.560418501155104720e-02 -8.797618100864185164e-01 1.174756461218397913e-01 3.675609771521683999e-01 -9.225499447960523458e-01
-1.073710620161520551e-01 6.300815275004288674e-02 -8.002076544752844134e-01 -1.824080452950400666e-01 6.451930498303082295e-01 -7.419253557213878469e-01
-1.348290551718809016e-01 -3.130111272357545462e-03 -8.427511529705873361e-01 -1.405025857446482174e-01 4.875143284014159528e-01 -8.617359241684101612e-01
5.567134675322154419e-02 2.287234293448179787e-02 -8.357391917777536872e-01 -1.191219211597835531e-01 -5.582967547262615016e-01 8.210448840114205060e-01
-2.665109361269013544e-02 1.153397502242250044e-01 -7.719076731109595357e-01 9.839297518679164523e-02 -6.080213493802638647e-01 7.878000134118394726e-01
-1.098368129752326332e-02 -1.834624693920984539e-01 -9.356173318138605310e-01 -8.778388059975053559e-02 4.631129214235887304e-01 -8.819412748688869597e-01
-8.657253181136190245e-02 1.407327843391617062e-03 -8.484179703776761894e-01 -1.491644518761710836e-01 5.240261266002000928e-01 -8.385383622332805986e-01
1.245609913995465307e-01 -1.703343331146495512e-02 -8.438166161780668029e-01 2.046069099947051551e-01 4.866361278884819286e-01 -8.493063589872169583e-01
1.330210786732849981e-01 -2.282145290648115304e-02 -8.450388896434477548e-01 1.947839244969584993e-01 4.602293660084784133e-01 -8.661686633797121004e-01
-3.508623721525341854e-02 6.182836520275231812e-02 -8.141911494325141385e-01 7.300951425017442042e-02 -6.231479350051268851e-01 7.786888094276170902e-01
-6.526130416837374291e-03 -1.492483799410552758e-01 -9.193334015463645592e-01 -6.342716561425390531e-02 4.093034521103384726e-01 -9.101910122346308363e-01
-9.690882688390810296e-02 -1.980327920442657708e-01 -9.285363860675117653e-01 1.742465215767219078e-01 -2.981663450516064406e-01 9.384748160696583241e-01
-2.362220261853855904e-02 -2.246052275466690895e-01 -9.563004064241895641e-01 2.651849945680002096e-01 -4.077283348809734309e-01 8.737474026234116620e-01
-3.964437387325600581e-02 1.475096303973081335e-01 -7.466257673630712910e-01 -1.192081872294919881e-01 5.100744420320133532e-01 -8.518294850985076438e-01
1.365272246853728444e-01 -3.917727554237777909e-02 -8.529717085265089427e-01 -2.103551050750622764e-01 -4.176348381188327297e-01 8.839297889302724087e-01
-6.272922229880004141e-02 3.394898785662164159e-02 -8.318452094679281705e-01 6.409199840664236980e-02 -5.489551790453341962e-01 8.333909209605944168e-01
7.602185314091568225e-02 -8.624821837274450342e-02 -8.854740447865732111e-01 1.995226415432068690e-01 3.417723172837079382e-01 -9.183585349144121057e-01
-2.573669630040532896e-02 1.988647325303843083e-01 -7.193948098113102096e-01 1.438976124418425429e-01 2.467560060172871439e-01 -9.583344669936136873e-01
-4.368500581863032223e-02 1.810922966270373663e-02 -8.435154639355328943e-01 6.357568507657779255e-02 -5.163914385739488688e-01 8.539894697445462590e-01
-4.962585327065371227e-02 5.907142563074749969e-02 -8.150341702743346683e-01 7.300951425017442042e-02 -6.231479350051268851e-01 7.786888094276170902e-01
-7.158608811004173178e-02 -5.796235846474584279e-03 -8.549367912552729987e-01 -5.987458530819101538e-02 4.826954353713620027e-01 -8.737391777331626752e-01
2.696430342550426573e-02 -7.597360785666279481e-02 -8.879658218850814411e-01 1.173408336295446441e-01 3.467585342323479813e-01 -9.305856476972750313e-01
-9.606411381766601087e-02 7.138771868803620024e-02 -7.955304388124551096e-01 -1.827454935274178682e-01 6.675509282379382681e-01 -7.217893340886156750e-01
-1.060733990013911499e-01 -1.309659690709526758e-01 -9.022116224569076692e-01 1.383823527070557891e-01 -3.248564952685156770e-01 9.355846204064689475e-01
5.947809208976580220e-02 -4.031107364605093085e-02 -8.697060014636803782e-01 -1.161571531296503729e-01 -4.130788763914405859e-01 9.032570828152967080e-01
8.945708861446512172e-02 1.000535545832998002e-01 -7.602605741492213243e-01 -2.754965029626124662e-01 -6.819555080875474573e-01 6.775236983636999666e-01
5.951309047234820682e-02 -1.539637491606302144e-01 -9.155935987888467187e-01 -1.239131697389540682e-01 -4.161200891869384910e-01 9.008271741795423893e-01
3.808100844819272291e-03 1.024194941019763438e-01 -7.817899430383065118e-01 1.544068032872444873e-01 6.260321264352343151e-01 -7.643574528776395649e-01
8.050718665546766073e-02 -1.939164699248686341e-01 -9.302852407206295693e-01 2.574975650130299498e-01 3.641478733807129164e-01 -8.950370552802071611e-01
8.875779986457207893e-02 -8.294730407978732900e-02 -8.814785781791242281e-01 1.995226415432068690e-01 3.417723172837079382e-01 -9.183585349144121057e-01
-7.760247166280609399e-02 -3.525886155566346908e-02 -8.698725801953925973e-01 1.425315939757657857e-01 -4.098482998206124939e-01 9.009490084643417829e-01
1.136139357060126226e-01 -5.483533256093280073e-02 -8.655196257132075077e-01 -2.016497933478506310e-01 -3.626032275536086313e-01 9.098660671826788171e-01
-3.415404037235908463e-02 -5.328916434468591867e-02 -8.809338554766046325e-01 5.353237851344760240e-02 -3.687032163692273157e-01 9.280044303179159071e-01
4.196481447320582481e-02 -2.188823017902151169e-01 -9.533080890451776090e-01 2.667241699908404207e-01 4.211182365379284587e-01 -8.669011754507444101e-01
7.459615285150210384e-02 -4.197803798227092015e-02 -8.679857826892064532e-01 1.989251469326538957e-01 4.122776577241454854e-01 -8.890758791347981305e-01
-9.525944603457169035e-02 2.987664963026128578e-02 -8.291373575229000759e-01 1.614154217244398171e-01 -5.619011426540239107e-01 8.113027594638289042e-01
1.200823267550185092e-01 -1.494296085140065788e-01 -9.004160055292700360e-01 2.142695713064169949e-01 3.728088119834283565e-01 -9.028300728928279062e-01
-3.981838863092993647e-02 -1.930281049122994919e-01 -9.383117286620848985e-01 7.187963227387185461e-02 -4.328867000744885951e-01 8.985780007115645729e-01
-6.163888142667924529e-03 -2.028193693764254735e-01 -9.472516650482866174e-01 1.048650003960143462e-01 -4.482456885190596041e-01 8.877382127722214245e-01
-1.207243486431537199e-01 4.100157978309505041e-02 -8.157490023917420841e-01 1.699675057431967173e-01 -6.031482531547582848e-01 7.793094582435144968e-01
-5.786193109918589400e-02 1.655310262631601650e-02 -8.434010163205103439e-01 6.357568507657779255e-02 -5.163914385739488688e-01 8.539894697445462590e-01
6.913288077334989179e-02 -2.358885058864901643e-02 -8.603810351402512158e-01 -1.177971212320972350e-01 -4.513498722384219342e-01 8.845378064615389002e-01
2.073432924331076316e-02 -1.597507899865623360e-01 -9.239468341715887378e-01 -1.228249860381496195e-01 -4.567391747701006754e-01 8.810807846248013275e-01
1.068519297676472912e-01 -8.461181733861340704e-02 -8.785706919981500773e-01 -2.013689946092342142e-01 -3.416579032129007376e-01 9.179980420361637528e-01
-4.278107824818332128e-02 -2.105935609482907922e-01 -9.447439601038322143e-01 2.268201877818799284e-01 -3.459136602758592360e-01 9.104374454344185130e-01
1.039548900453587804e-01 -1.517512174099706901e-01 -9.052022165053833502e-01 2.142695713064169949e-01 3.728088119834283565e-01 -9.028300728928279062e-01
-2.645973449709661945e-02 1.781604498746877652e-01 -7.321388487669152623e-01 -1.036521217571854669e-01 5.209354788720994556e-01 -8.472794488877501973e-01
-1.030029332202471865e-01 -5.387444586623803960e-02 -8.742964178304236667e-01 1.410162744853332151e-01 -4.066697663892198666e-01 9.026262301945442434e-01
-5.863149212823450668e-02 -6.905748312714274362e-02 -8.853187803974286174e-01 -5.367106956430547915e-02 3.690072277025502334e-01 -9.278755747378532037e-01
8.679072497812224951e-02 6.177647291009091476e-03 -8.397999562781507388e-01 -2.053210157393988711e-01 -5.285487228124087222e-01 8.236986876941793101e-01
7.189577722424808637e-02 -1.876248011911728075e-01 -9.302605192960425873e-01 -2.306436663769150242e-01 -4.335175224755057344e-01 8.711291849472804216e-01
-8.129275975155061951e-02 -4.023033299637889665e-02 -8.710783400444771507e-01 -1.391704131084461338e-01 4.067995855677191130e-01 -9.028541927117336163e-01
-1.162788846094469086e-01 8.635128664244234864e-02 -7.762723690318400482e-01 -1.901622847965399321e-01 6.812330124306749113e-01 -7.069369761270009045e-01
5.900678055743365652e-02 -9.088971417030848599e-02 -8.894781398066204936e-01 1.173881770171063127e-01 3.487432045764416455e-01 -9.298377240994013526e-01
6.985824409567858995e-02 -1.104284326069303462e-01 -8.959034927793809722e-01 -1.186609423340152930e-01 -3.530393642867730719e-01 9.280532247820673097e-01
3.956451473986011963e-02 -1.780106271068689905e-01 -9.300350049319899837e-01 1.309200641573113333e-01 4.619903699581874856e-01 -8.771686467646585550e-01
-3.169589211614100982e-02 7.526259546672327619e-03 -8.502435493253159837e-01 -6.182333508277176176e-02 5.114850804675808993e-01 -8.570652762178125883e-01
7.078390636928187651e-02 -1.148815370625315135e-01 -8.970730234758057531e-01 1.209605351934070067e-01 3.674702840658292113e-01 -9.221356403774355615e-01
1.198714638575387736e-01 -2.671219227591935252e-02 -8.504702036948260657e-01 -2.017650659039974259e-01 -4.581506652043221828e-01 8.656724704838386630e-01
1.176464729056433678e-01 -1.757542417101349841e-01 -9.125125758397437670e-01 -2.161894486710126406e-01 -3.848664012762263442e-01 8.972959241253748441e-01
1.051027533565889599e-01 -7.791954277792900729e-02 -8.760632994344624835e-01 1.990963317586380843e-01 3.406965154475357638e-01 -9.188506598148369342e-01
-8.602714167591979377e-02 -1.134903309657049053e-01 -8.987197730160639830e-01 -1.359194655668823082e-01 3.178162730393525037e-01 -9.383595875097077155e-01
-3.332165079183464773e-02 -1.701179480189631277e-01 -9.278532784769487618e-01 7.157354553106048956e-02 -4.241087239697098887e-01 9.027784987652824888e-01
5.525847015834924048e-02 -2.583320309185759348e-02 -8.633739584788371335e-01 -1.177971212320972350e-01 -4.513498722384219342e-01 8.845378064615389002e-01
-3.162998688661051300e-02 -1.287952835512614913e-01 -9.094860277759938549e-01 5.649441352638967517e-02 -3.534531655600460232e-01 9.337447408129759818e-01
9.703195903873929051e-02 -8.133008256869462063e-03 -8.453400416443209719e-01 2.020080438836174830e-01 4.799054384406821194e-01 -8.537467542318218916e-01
2.380314164893454487e-02 -1.442141212672657866e-02 -8.612499733526419732e-01 1.178145048750136870e-01 4.513805785608834831e-01 -8.845198221289886087e-01
-1.108715364413603854e-01 -1.046444118858469961e-02 -8.513681235492227550e-01 1.503819030113298649e-01 -4.875130270259947496e-01 8.600676320654337959e-01
-3.254314551188668830e-02 -1.899078729385159370e-01 -9.373905341504868982e-01 7.187963227387185461e-02 -4.328867000744885951e-01 8.985780007115645729e-01
-7.288736695986915148e-02 1.027460864701361942e-01 -7.736497326913629458e-01 -2.211651982707221187e-01 6.759623017226679131e-01 -7.029658040926777263e-01
9.354175841593899768e-03 -2.180361533143691799e-01 -9.588752862169449553e-01 1.249035955358754335e-01 -5.775481229292772634e-01 8.067448528023458687e-01
-1.053027703379021303e-02 -1.919473697809700452e-01 -9.406053399112191959e-01 8.771593844323323508e-02 -4.630608474407850172e-01 8.819753770431717488e-01
-3.661859414203130075e-02 -5.800024321841030367e-02 -8.826634339738717028e-01 5.353237851344760240e-02 -3.687032163692273157e-01 9.280044303179159071e-01
1.198528416669225258e-02 -2.788663069374920297e-02 -8.696107594111117667e-01 1.164902861134828604e-01 4.466874421030809228e-01 -8.870740342883483009e-01
4.753850941077664150e-02 8.988093477366337902e-02 -7.842028001899979950e-01 1.409654024127158234e-01 6.529016366640989499e-01 -7.442097877372761960e-01
-5.779980974797363155e-03 -5.351197671440362930e-02 -8.821935692464382139e-01 -5.367106956430547915e-02 3.690072277025502334e-01 -9.278755747378532037e-01
-1.082796937287429789e-01 -8.740951901707451344e-02 -8.863204932716770568e-01 -1.344469108003756574e-01 3.376455935318657953e-01 -9.316219626783976970e-01
-1.031224067322430299e-01 -1.568660017597274248e-01 -9.124778983481126593e-01 1.535901050714164051e-01 -3.568875055684808117e-01 9.214344187153303833e-01
-1.045157056480874036e-01 -2.077600937906565193e-02 -8.581249705534732541e-01 1.463853644504490292e-01 -4.449918338184414290e-01 8.834894413118981049e-01
-3.543813248551067746e-02 1.525618298374490089e-01 -7.443139112461778506e-01 -1.172021693027245071e-01 4.468633430432906728e-01 -8.868916529965256146e-01
9.851724799341354463e-03 7.950701047274577604e-03 -8.513033315258828893e-01 -1.177716573799594962e-01 -5.110703971136505430e-01 8.514322556211227910e-01
-8.243381719557545118e-02 4.152819416475465181e-02 -8.227769691376295436e-01 -1.595302505443225161e-01 6.025724676151780201e-01 -7.819568533067671190e-01
-3.966846791754421314e-02 9.032101768525548080e-02 -7.902077331848361696e-01 -8.850763602145582387e-02 6.422746896463940036e-01 -7.613472410178692140e-01
-1.008647320423542437e-01 8.576307384184064797e-02 -7.816528398748844308e-01 2.237311108270906845e-01 -6.761368374274737691e-01 7.019853040638740493e-01
-1.123975985963269197e-01 -1.095014072586102671e-01 -8.935490438606449315e-01 -1.359194655668823082e-01 3.178162730393525037e-01 -9.383595875097077155e-01
-2.803394799026046134e-03 -1.690007520693634357e-01 -9.292312354528636797e-01 -6.493630861947805033e-02 4.461273654980353887e-01 -8.926105811476012786e-01
-5.410935518141783002e-02 1.119078370781061427e-01 -7.710478506858226000e-01 1.118452494045460016e-01 -6.304882652336774029e-01 7.680984231127302442e-01
3.869885916212810473e-02 1.643949358418349618e-02 -8.416600553958182296e-01 1.202233337793131435e-01 5.186929851506896227e-01 -8.464655558086545684e-01
-9.164814143435708049e-02 -1.479417499064359688e-02 -8.571008954389593981e-01 1.476930740353428195e-01 -4.818600146941418583e-01 8.637115734554864366e-01
1.883050748707653863e-02 1.166993646167586995e-01 -7.672467917147998140e-01 1.564906386824556073e-01 6.065267224225613374e-01 -7.795101121807865852e-01
-1.303295148608338283e-01 1.653611872079344125e-02 -8.313746250009679262e-01 1.632098347506352465e-01 -5.665309380962927355e-01 8.077160676997856559e-01
1.165299302878813198e-01 -1.375531991463610493e-01 -8.962465308341412973e-01 2.061448481891773321e-01 3.914471476358859503e-01 -8.968129304223874110e-01
-7.425929401164942101e-02 2.925169271419920253e-02 -8.335666451972253421e-01 1.549700053142022693e-01 -5.485827328580324957e-01 8.216089597021982716e-01
9.792983420282183604e-02 -7.043383612048137454e-02 -8.752372719426327885e-01 -2.005328578321605715e-01 -3.654914574689964724e-01 9.089568567577094305e-01
1.372879457097144276e-02 -1.847164963063211429e-01 -9.379820630237278856e-01 1.452313520973290140e-01 4.979957342326588043e-01 -8.549316364798161816e-01
-8.284387967604793512e-02 -1.934099647625617535e-01 -9.300870646692871446e-01 1.930845585202801973e-01 -2.986470314775132584e-01 9.346273609576692953e-01
1.484932898816598845e-01 -6.443924752179204518e-02 -8.614993326760004289e-01 -2.091766195942188211e-01 -3.659023728751636395e-01 9.068409978267744087e-01
7.655900668069071102e-02 -1.505591347370139887e-01 -9.111113213785907439e-01 2.061448481891773321e-01 3.914471476358859503e-01 -8.968129304223874110e-01
-4.526417283823658266e-02 8.458419978153244867e-02 -7.943968208342555570e-01 -8.850763602145582387e-02 6.422746896463940036e-01 -7.613472410178692140e-01
-1.355452311564170342e-01 -7.348784111051720469e-02 -8.773511444380146518e-01 1.461549322222382985e-01 -3.680085061259984469e-01 9.182638374704863438e-01
5.613545467380621351e-02 5.788809834004143146e-02 -8.099898286135464032e-01 1.253593764171602454e-01 6.371969034627529282e-01 -7.604374615718111352e-01
1.104932259994827193e-01 -4.443165873966107432e-02 -8.614823945879309663e-01 -2.027420668580905971e-01 -4.176581047377092015e-01 8.856959759833020751e-01
-3.723951612253920823e-03 7.954753086776938931e-02 -8.029073901058403351e-01 -1.334963020274141654e-01 -6.341781532035850599e-01 7.615752145023466646e-01
-1.619947275852145346e-02 6.891001247547468012e-02 -8.104687285664400331e-01 7.831960368702059472e-02 -6.098206001019433886e-01 7.886601773702114349e-01
4.791850942079838721e-02 -9.833932786020556371e-02 -8.936720265300799326e-01 1.173881770171063127e-01 3.487432045764416455e-01 -9.298377240994013526e-01
-3.516473287289317851e-02 1.701202531561964992e-01 -7.353912059283987945e-01 -9.815307125812705591e-02 4.506130029522517622e-01 -8.873071036416596558e-01
7.632012147958938154e-03 3.008632003479737565e-03 -8.539211678856575283e-01 1.185591691151471200e-01 4.772675205742510363e-01 -8.707235136503623796e-01
-1.486907876469759360e-01 -8.565682379118455536e-02 -8.800060847326722779e-01 -1.276290518293117515e-01 3.375427096628485502e-01 -9.326176838783472034e-01
2.876350517867644341e-02 -1.386696920533434796e-01 -9.123095767485048802e-01 1.199207354940263759e-01 4.041470940068686568e-01 -9.067988440687244633e-01
-1.057151325319710816e-01 -9.120677992566297160e-03 -8.515080285576266395e-01 1.503819030113298649e-01 -4.875130270259947496e-01 8.600676320654337959e-01
6.168861301033518735e-02 -2.112325504132929743e-01 -9.443734107656048815e-01 -2.873900872356353609e-01 -3.458672022504585830e-01 8.931868875919163342e-01
-4.657344144594897928e-02 -8.938791292355611692e-03 -8.588834829715865649e-01 5.985715978309855134e-02 -4.826997908832096340e-01 8.737379654702008835e-01
-2.178419614719594513e-02 2.241330489364171813e-02 -8.420375285711625413e-01 -6.361621596164170056e-02 5.163733786241587742e-01 -8.539973717260451735e-01
-4.222833143422823586e-03 1.278484266220035748e-01 -7.631999269111211515e-01 1.564906386824556073e-01 6.065267224225613374e-01 -7.795101121807865852e-01
-1.140434886162202816e-01 -2.880053866455266343e-02 -8.602198407099037603e-01 -1.425516479473394604e-01 4.501282833443177589e-01 -8.815120851134117252e-01
1.154358532076825844e-01 4.136398395052684474e-03 -8.339694901150654927e-01 -2.053210157393988711e-01 -5.285487228124087222e-01 8.236986876941793101e-01
1.352389559110339368e-01 -5.905155419000911871e-02 -8.623827587699299801e-01 -2.091766195942188211e-01 -3.659023728751636395e-01 9.068409978267744087e-01
-7.718997451751678784e-02 -2.082136564351415586e-01 -9.359839433808312403e-01 -1.830539255296648737e-01 3.399268845889686919e-01 -9.224646190948558866e-01
9.472254228468998671e-02 -1.065163117053791741e-01 -8.894949281184149070e-01 -2.038937634957781742e-01 -3.419969342579031735e-01 9.173142483171855543e-01
2.859154899187262705e-02 -1.890578510628742603e-01 -9.384883975455424743e-01 -1.451615180499192248e-01 -4.980007454085689234e-01 8.549405776134110235e-01
-7.020144600573449689e-02 -3.508127658016665928e-02 -8.706585156072467191e-01 5.556213405520953053e-02 -4.090880225262980563e-01 9.108017561932749695e-01
-1.036114319128700195e-01 8.583660798662084979e-02 -7.807066073064982126e-01 2.237311108270906845e-01 -6.761368374274737691e-01 7.019853040638740493e-01
1.310006560148206933e-01 -6.490189643170170275e-03 -8.362911796419433275e-01 1.967555118460928287e-01 4.866758673686549241e-01 -8.511368096135600858e-01
-3.143785688075520501e-02 1.672357260113010169e-01 -7.372683573192185813e-01 -9.815307125812705591e-02 4.506130029522517622e-01 -8.873071036416596558e-01
1.595034699993002139e-02 1.204468396806534225e-01 -7.649091368399646429e-01 1.564906386824556073e-01 6.065267224225613374e-01 -7.795101121807865852e-01
-1.146263857731659314e-01 3.376402771197932473e-02 -8.221767378926385650e-01 -1.593673038497199490e-01 5.618025982555947540e-01 -8.117757714153174264e-01
-6.070796976555905416e-02 -1.722603361256364596e-01 -9.256807552446877363e-01 -1.682273185395301851e-01 3.892901159551592771e-01 -9.056228657209457467e-01
1.196228867367274684e-01 5.932099105425250180e-02 -7.900026405316833422e-01 2.075438927346311968e-01 6.694724518511185885e-01 -7.132546311108028947e-01
-1.292888620458897964e-01 1.929806535790101751e-02 -8.296476772514884690e-01 1.632098347506352465e-01 -5.665309380962927355e-01 8.077160676997856559e-01
-7.920057794619878022e-02 -1.890262096710719486e-01 -9.290567528354656268e-01 -1.907849009756344139e-01 3.008571189936947166e-01 -9.343907723808763111e-01
2.742468220219124175e-02 -6.306840518921844052e-02 -8.829572243340583215e-01 1.167940359146678320e-01 3.650818592093578729e-01 -9.236202624731667532e-01
-6.517364426311411663e-02 -5.533217492359429612e-02 -8.799561784573403100e-01 5.353237851344760240e-02 -3.687032163692273157e-01 9.280044303179159071e-01
-3.460420966581143759e-02 -1.124835145960335347e-01 -9.026070246125720287e-01 -5.347944545999716581e-02 3.395959010281127122e-01 -9.390498245131592148e-01
2.481098050996226670e-02 -3.347830223279209955e-02 -8.706150950401702060e-01 1.175289009770893595e-01 4.089505236712441261e-01 -9.049565882538964656e-01
1.056499639573897087e-01 -5.642344936094491337e-02 -8.679175495543616226e-01 -2.016497933478506310e-01 -3.626032275536086313e-01 9.098660671826788171e-01
-3.071525182254486799e-02 1.207797959104551892e-02 -8.481028598334738877e-01 6.180626095035575418e-02 -5.115688929534771834e-01 8.570164840128164929e-01
-7.512929384043520731e-02 1.291347177280724456e-01 -7.496319720368695982e-01 -2.531308703452929687e-01 6.244264941155400761e-01 -7.389291684084542400e-01
1.428069336633275982e-02 -1.025565453718399744e-01 -8.995479570938561542e-01 1.186699961050997620e-01 3.530104925239213043e-01 -9.280630496859758605e-01
-2.493664890013740087e-02 -1.643555648688070914e-01 -9.257835312221475155e-01 6.491640710331172959e-02 -4.461259460268319210e-01 8.926127381851893805e-01
-4.580666617672451979e-02 1.557544137816878616e-01 -7.406123713080553506e-01 -2.560959994692072472e-01 4.744995173409004008e-01 -8.421787500876045662e-01
-1.192668437767594874e-01 -8.114173212094620558e-02 -8.824632645318141178e-01 -1.344469108003756574e-01 3.376455935318657953e-01 -9.316219626783976970e-01
-6.865181830335258251e-02 -1.772605408548512673e-01 -9.263544992097902941e-01 -1.682273185395301851e-01 3.892901159551592771e-01 -9.056228657209457467e-01
-4.868977955464628971e-02 -2.085187961256101674e-01 -9.424836156460951742e-01 2.268201877818799284e-01 -3.459136602758592360e-01 9.104374454344185130e-01
-5.330100365440549465e-02 -1.686240013077548172e-01 -9.255674586906089685e-01 7.157354553106048956e-02 -4.241087239697098887e-01 9.027784987652824888e-01
-1.200586142441794346e-01 -4.344039253710570841e-03 -8.458996828614160357e-01 -1.484496793261460557e-01 4.875405903462286528e-01 -8.603876251276602050e-01
-3.444370191512612089e-02 -1.889822948034086680e-01 -9.363110400561124314e-01 -7.191574183935947606e-02 4.329004563936084682e-01 -8.985684842736806344e-01
4.328547324689423909e-02 6.372849894808005344e-03 -8.471168421119451564e-01 1.177842957256047679e-01 5.109921219658939417e-01 -8.514774870595323009e-01
9.512952097018893827e-02 -7.918010407472396428e-02 -8.786922728263792948e-01 1.995226415432068690e-01 3.417723172837079382e-01 -9.183585349144121057e-01
-1.046888292556347466e-01 8.384430312491761642e-03 -8.408351431076854787e-01 -1.491644518761710836e-01 5.240261266002000928e-01 -8.385383622332805986e-01
-7.020298280194288421e-02 9.394011855270213707e-02 -7.828731520265654886e-01 2.017279701091108379e-01 -6.475550758816648322e-01 7.348321235326807921e-01
-7.713612109831743946e-02 4.888435919887854780e-02 -8.184797105095222847e-01 -1.687882697500555917e-01 5.843652280469947558e-01 -7.937429056340383760e-01
1.164823044006011304e-01 -1.157521033031713165e-01 -8.881174497158811354e-01 -2.037161732106894385e-01 -3.534426286173541487e-01 9.130049447009842556e-01
-2.965978909497476654e-02 -2.195122714289665933e-01 -9.517691729217936381e-01 -2.360716635349867643e-01 3.947019617750076592e-01 -8.879642622576565669e-01
-8.804963795410090943e-02 1.319880502740620465e-01 -7.430307783480176731e-01 2.694310976840671445e-01 -6.291861559448219676e-01 7.290621816883224859e-01
-8.636344398273525236e-02 6.410677373170693694e-02 -8.049385503337020964e-01 1.846622275169328420e-01 -6.453095526929770731e-01 7.412661080419596926e-01
1.634790786127497328e-02 8.317659771611737862e-02 -7.963670066592458685e-01 -1.334963020274141654e-01 -6.341781532035850599e-01 7.615752145023466646e-01
1.277997800284656205e-01 3.511633137620521431e-03 -8.312369902056443438e-01 -2.131350606572268991e-01 -5.286863598365054706e-01 8.216228933284812630e-01
5.994824460201878284e-04 -1.267926734945797884e-01 -9.106377194425976374e-01 5.469544639086259402e-02 -3.601252985564534215e-01 9.312991879539729290e-01
9.319903188127244553e-02 -1.146367481171716718e-01 -8.928808030075785496e-01 -2.037161732106894385e-01 -3.534426286173541487e-01 9.130049447009842556e-01
1.004330136242406052e-01 2.099470421066386167e-03 -8.385654206517968445e-01 2.034127650069063042e-01 5.285216940560595322e-01 -8.241893386500204199e-01
7.286591780466716850e-02 -7.415939938046664515e-02 -8.819667395344089611e-01 -1.174439282426003317e-01 -3.464133250074018511e-01 9.307012044562222863e-01
-3.528195084228612222e-02 1.674052114204923336e-01 -7.372409652444126271e-01 9.794400661262661623e-02 -4.505372930323203740e-01 8.873686489592556015e-01
-9.723700666660310687e-02 3.060953781860268480e-02 -8.282363135102374097e-01 1.614154217244398171e-01 -5.619011426540239107e-01 8.113027594638289042e-01
7.179661280454545380e-02 6.161510560091922051e-02 -8.030959263633228318e-01 -2.208843237969443651e-01 -6.445349763702787893e-01 7.319732097120295045e-01
1.326613065595340646e-01 -9.562224708870406542e-02 -8.769800768308912975e-01 -2.089836349694120243e-01 -3.397385877795596754e-01 9.170079237872058586e-01
8.011743002913057632e-02 -8.242422485303534108e-02 -8.831611186633497868e-01 1.995226415432068690e-01 3.417723172837079382e-01 -9.183585349144121057e-01
-1.484899362779920455e-02 2.357372986333970341e-02 -8.418434814483682915e-01 -6.413180968399150028e-02 5.489518858856983208e-01 -8.333900275196430840e-01
1.230553081418030575e-01 3.729170485437231092e-02 -8.083559635402729482e-01 -2.209494125746297444e-01 -6.230458871689057432e-01 7.503300470891706153e-01
2.998598136642773374e-02 -7.492602249628294020e-02 -8.871944523992391085e-01 1.173408336295446441e-01 3.467585342323479813e-01 -9.305856476972750313e-01
7.976383675923844063e-02 -9.551419251147420797e-02 -8.881464366198238425e-01 1.994140598647453078e-01 3.479492333637597135e-01 -9.160596944139782760e-01
-6.702233797006931781e-02 -3.645227688800600080e-02 -8.714682393771624458e-01 5.556213405520953053e-02 -4.090880225262980563e-01 9.108017561932749695e-01
-2.103533931944909577e-02 7.576670159746366935e-03 -8.514878694976640849e-01 6.180626095035575418e-02 -5.115688929534771834e-01 8.570164840128164929e-01
5.768507546602033575e-02 -5.866299687690101211e-02 -8.778390254670391801e-01 -1.174453812966997496e-01 -3.675264821090677980e-01 9.225675408123817922e-01
2.635701248161421983e-02 -2.211393158047839647e-01 -9.587417467141768901e-01 -9.185474969695909403e-04 8.325200618643361361e-01 -5.539941361277189724e-01
-4.858814829773903943e-02 1.603248457087820544e-01 -7.372402331234615414e-01 -2.493517014109958851e-01 4.619217901043304875e-01 -8.511474542229756635e-01
-1.053543579929729773e-01 -1.141898366377503554e-01 -8.965481956327708835e-01 1.378077184915069697e-01 -3.174043369275479920e-01 9.382235978825885780e-01
7.037068336462166951e-02 -7.237401269208870724e-02 -8.811507414613094502e-01 1.174640035793824977e-01 3.463925485253094294e-01 -9.307064038617353097e-01
1.486240148738020815e-02 -6.648705578004680816e-02 -8.863659873175447901e-01 -1.167767662272701928e-01 -3.650949625964464706e-01 9.236172665970469042e-01
-6.249935197671493969e-02 -1.258892758398988954e-01 -9.060530377087403497e-01 -5.651804678567711598e-02 3.534762360971651640e-01 -9.337345773302566654e-01
-7.626102900762435355e-02 -2.123341187774702987e-01 -9.374960700303617278e-01 2.312700677391194282e-01 -2.461205029421595913e-01 9.412432490060373969e-01
-5.521403221718042265e-02 -9.474976571003120018e-02 -8.955365688648773137e-01 5.230781065001537805e-02 -3.368009977067167315e-01 9.401217904552378046e-01
1.365914032586727500e-01 -1.433790733514500315e-01 -8.941185291040768535e-01 1.986125381753622299e-01 3.717298515102021028e-01 -9.068461706241821574e-01
9.502222029115467428e-02 3.181877906948107210e-02 -8.200113294944484377e-01 2.136135060563355004e-01 5.777346105445941848e-01 -7.877766116160126453e-01
1.148651829829899357e-01 -4.770734598848522245e-02 -8.620263032722531582e-01 -2.027420668580905971e-01 -4.176581047377092015e-01 8.856959759833020751e-01
-1.133009048981111211e-01 -1.440492734181435530e-01 -9.054240539771876151e-01 -1.446844726922308366e-01 3.786688339568337058e-01 -9.141533337200837828e-01
4.547434081320509552e-02 6.225719155510595071e-03 -8.474113632267634699e-01 -1.177716573799594962e-01 -5.110703971136505430e-01 8.514322556211227910e-01
-3.442739461741538970e-02 7.136550490215402831e-02 -8.067598897469583363e-01 7.831960368702059472e-02 -6.098206001019433886e-01 7.886601773702114349e-01
8.223581535600388293e-02 -1.134272707321885704e-01 -8.948587809592727371e-01 -2.037161732106894385e-01 -3.534426286173541487e-01 9.130049447009842556e-01
4.457718341460127631e-02 -4.270423449368601632e-02 -8.722366460040305025e-01 1.161899019150861023e-01 4.130164294868576835e-01 -9.032814266145904325e-01
-1.129188804622847653e-01 -1.580511829719294659e-01 -9.109475250402866431e-01 -1.515967625077884184e-01 3.576279431595009162e-01 -9.214774418664091193e-01
1.215868281891724703e-02 -1.319814333047193422e-01 -9.120469401511266394e-01 -1.209344110178323939e-01 -3.674823586551269616e-01 9.221342550350435374e-01
-6.083783207576923951e-02 4.101068712345869172e-03 -8.506920462180649345e-01 6.180626095035575418e-02 -5.115688929534771834e-01 8.570164840128164929e-01
9.429101183395362240e-02 8.566415934023681455e-02 -7.729601946631023957e-01 -2.382048786133128537e-01 -6.831828629548014620e-01 6.903039993870077051e-01
4.221721557079211734e-02 -4.211415785047000621e-02 -8.727503067079817045e-01 -1.161571531296503729e-01 -4.130788763914405859e-01 9.032570828152967080e-01
4.509714420574795213e-02 -6.983933786177473624e-02 -8.833936117550769129e-01 1.173408336295446441e-01 3.467585342323479813e-01 -9.305856476972750313e-01
-4.084841735511114680e-02 1.022710242371698969e-01 -7.799500230132170309e-01 -8.861175669925090703e-02 6.439197750015068777e-01 -7.599442610722719760e-01
-1.118337405142034585e-01 -5.807906708685578456e-02 -8.748043269900537267e-01 1.386701549611597251e-01 -3.676742298703916667e-01 9.195576375694251015e-01
2.844397611046592389e-02 -2.202338391489747638e-01 -9.579875150024272923e-01 -1.459905490477263028e-03 -8.239974701409192859e-01 5.665915970761690179e-01
-8.182315545434952486e-02 -4.540012665074646785e-03 -8.525811125916858968e-01 -1.457778788537031356e-01 4.819210275670021137e-01 -8.640028548712554990e-01
-1.274940226171044633e-01 5.926103780166298851e-02 -7.987969644721863993e-01 -1.604835480941519954e-01 6.509739438874493356e-01 -7.419420160435261646e-01
-1.141297012096772062e-01 -1.878539451698938573e-02 -8.550759762772677242e-01 -1.457778788537031356e-01 4.819210275670021137e-01 -8.640028548712554990e-01
6.310795539381287150e-03 -1.634700708551516113e-01 -9.276134737042049938e-01 6.491640710331172959e-02 -4.461259460268319210e-01 8.926127381851893805e-01
1.749488034242120682e-02 -6.687532193345642473e-02 -8.861866290951643244e-01 -1.167767662272701928e-01 -3.650949625964464706e-01 9.236172665970469042e-01
-4.085522570245065516e-02 1.381005216974452166e-01 -7.521612462077765793e-01 -1.172802773785355523e-01 5.623747124516488283e-01 -8.185230719612850425e-01
-6.373369623610324226e-03 -1.072017635887857895e-01 -9.027666541386597521e-01 5.346550522898761010e-02 -3.396150163317705473e-01 9.390437052835081122e-01
2.090193973507187275e-02 -2.466629621281660537e-02 -8.668182227855443234e-01 1.164902861134828604e-01 4.466874421030809228e-01 -8.870740342883483009e-01
1.257316956930424334e-01 -8.449148453627634836e-02 -8.740302061668016043e-01 1.990963317586380843e-01 3.406965154475357638e-01 -9.188506598148369342e-01
7.191746841818667801e-02 -2.139127898455917554e-01 -9.417212589255676836e-01 2.843215404198005669e-01 3.514304114739400520e-01 -8.919965961507749785e-01
6.350102642201078951e-02 9.289623168871009862e-02 -7.767463605337421306e-01 -2.503919047860344027e-01 -6.517486860089470868e-01 7.159102906811942724e-01
-5.588933741362643592e-02 1.413295105896258397e-01 -7.470132333639568634e-01 2.564136139845593076e-01 -5.504388121851675475e-01 7.945244946529712582e-01
-1.387016784248561729e-01 -1.372714154140925458e-01 -8.993600026131929326e-01 -1.329254441092510286e-01 3.230298214329148099e-01 -9.370072362438708335e-01
6.185285102996539684e-03 1.107194765780421253e-01 -7.745117918538669821e-01 1.544068032872444873e-01 6.260321264352343151e-01 -7.643574528776395649e-01
8.372929544873254637e-02 6.084008496718368991e-02 -7.996650824447800732e-01 2.187969446679488839e-01 6.444710606412488163e-01 -7.326560919011826378e-01
-1.232968529219634762e-01 3.585258056351869199e-02 -8.191730180003989892e-01 1.699675057431967173e-01 -6.031482531547582848e-01 7.793094582435144968e-01
-4.528874873077579077e-02 -1.715656026537967782e-01 -9.271045140918517946e-01 -7.160856952192487523e-02 4.240819891142843523e-01 -9.027882804289693031e-01
1.324328072480860097e-01 -1.263489278230622015e-01 -8.883328903939629040e-01 1.941711451508747743e-01 3.545258479302001442e-01 -9.146633203207452656e-01
1.008103427887558634e-01 -1.489914597538201380e-01 -9.052298934913548534e-01 -2.162658288388504269e-01 -3.722974777511811606e-01 9.025650554595795461e-01
1.145864654238574476e-01 -1.890802445864938064e-01 -9.188315683439858272e-01 -2.700243843188044890e-01 -3.562992902881524926e-01 8.945041350454502327e-01
-6.025203764376175879e-03 -2.192965868629571102e-01 -9.573965302314697556e-01 1.249035955358754335e-01 -5.775481229292772634e-01 8.067448528023458687e-01
6.018136821063675007e-02 -6.085530924204189673e-02 -8.783945997478918022e-01 -1.174453812966997496e-01 -3.675264821090677980e-01 9.225675408123817922e-01
-4.901806911038683601e-02 -1.239755735243492155e-02 -8.606268170664649331e-01 5.985715978309855134e-02 -4.826997908832096340e-01 8.737379654702008835e-01
-3.922821636804070360e-03 1.026483270680301520e-02 -8.511173753347293092e-01 6.180626095035575418e-02 -5.115688929534771834e-01 8.570164840128164929e-01
1.056850079866641506e-01 3.070252303079487252e-02 -8.179386407498001610e-01 2.136135060563355004e-01 5.777346105445941848e-01 -7.877766116160126453e-01
1.114289766550474459e-01 -1.145383556612954851e-01 -8.887751180415194296e-01 -2.037161732106894385e-01 -3.534426286173541487e-01 9.130049447009842556e-01
-3.344731763879146141e-02 7.977432885037746835e-02 -8.002024030476153627e-01 7.912425782096177418e-02 -6.258681791686256934e-01 7.759048744069281245e-01
-6.054040370204206295e-02 1.647216653224053973e-01 -7.316855658036403032e-01 2.718851782932109606e-01 -4.701632202312013842e-01 8.396576660558133787e-01
-9.676236905530628818e-02 5.836333258561375581e-02 -8.073261438650504163e-01 1.713612769290470128e-01 -6.224369473870698943e-01 7.636802729524393429e-01
-1.104658092133538466e-01 -4.153466362890857744e-02 -8.675284552173176955e-01 1.425315939757657857e-01 -4.098482998206124939e-01 9.009490084643417829e-01
3.683177688861825200e-02 -9.837301241633776561e-02 -8.950843144455342681e-01 1.173881770171063127e-01 3.487432045764416455e-01 -9.298377240994013526e-01
-5.737292696972627615e-02 1.238141206752933626e-01 -7.602735403708835715e-01 2.441225340034045010e-01 -6.383505936651276969e-01 7.300087040297089658e-01
-4.588815827156380450e-02 5.070369907478713967e-02 -8.215915989559589017e-01 7.185484234318112451e-02 -5.852417425876476065e-01 8.076688581125373023e-01
-9.905976149716383405e-02 -1.429969688523512195e-01 -9.076420606689075132e-01 1.466023396167651094e-01 -3.781992917094187390e-01 9.140421487925950439e-01
6.005389064608857713e-02 8.760616751871605490e-02 -7.828788169457197021e-01 -2.491125109694741213e-01 -6.600081373246686756e-01 7.087539880266668924e-01
-3.960799793286113972e-03 -1.380380291589983210e-01 -9.149459766788252679e-01 6.340598450434896394e-02 -4.093163671155666261e-01 9.101866801598170742e-01
-2.000505175524229344e-03 5.734487727750923330e-02 -8.203330299572912931e-01 -1.225879319719524463e-01 -5.831837186686839036e-01 8.030373274105040426e-01
3.547990014615252236e-02 3.629987994371097065e-02 -8.296162012341559144e-01 -1.240153092077837388e-01 -5.463113517153584953e-01 8.283502339403517878e-01
1.146754772768188574e-01 -7.460322661602188099e-02 -8.731468466023495356e-01 -2.009318948306232089e-01 -3.405545642198906098e-01 9.185036540094847490e-01
-9.273484367246483465e-04 7.309772362868009743e-02 -8.071035758696787354e-01 1.348550872329409012e-01 6.202495623616542941e-01 -7.727254271975084743e-01
-4.068342074580576923e-02 -1.804721935739637614e-02 -8.641056570374612278e-01 5.868880532238002906e-02 -4.474435932926902892e-01 8.923843650306504394e-01
5.089546245323067764e-04 2.019523473687167281e-01 -7.152036754030932642e-01 -2.431602935186827352e-01 -6.293215355936363498e-01 7.381242961005791692e-01
-1.281517087819513678e-01 3.513645486476061480e-02 -8.186684202788391262e-01 1.699675057431967173e-01 -6.031482531547582848e-01 7.793094582435144968e-01
-1.922542504814630029e-02 1.975954583102658701e-01 -7.201939728323822898e-01 6.295779581447856488e-02 4.740409221026115616e-01 -8.782491219000950755e-01
-1.254461012069727210e-01 -6.215550326043862983e-02 -8.743822842476557389e-01 1.385011985453838967e-01 -3.681663725546944210e-01 9.193861757288989134e-01
1.020149721095521961e-01 3.745214080988017169e-02 -8.138084050383530554e-01 2.108063528708683798e-01 6.218987554973447462e-01 -7.541900420319381793e-01
-1.102001150835015403e-01 7.309240358196043841e-02 -7.907985081964346019e-01 1.942958560718281158e-01 -6.684233853429835115e-01 7.179549416501990189e-01
8.107986686713400393e-02 5.214448583704104495e-02 -8.083223023899711590e-01 -2.245440196646810160e-01 -6.045650536783778728e-01 7.642519735687223204e-01
-1.330704316841872792e-01 -8.360073686738941912e-02 -8.813876726694996888e-01 -1.268454707426820705e-01 3.382727866410887851e-01 -9.324600518896987156e-01
-3.571225842278338142e-02 -1.217652383362115426e-01 -9.060950369261501214e-01 -5.471280811853664050e-02 3.601650099192341692e-01 -9.312828111039427315e-01
2.425652257364034614e-02 1.136378386564541459e-01 -7.685396251548928248e-01 1.564906386824556073e-01 6.065267224225613374e-01 -7.795101121807865852e-01
-7.869392753014604891e-02 1.291710337836197153e-01 -7.488378711885931294e-01 2.562486577767155160e-01 -6.254030744404960318e-01 7.370262002588557904e-01
7.494252035655733779e-02 -1.718850519480007166e-01 -9.217385983367073488e-01 -2.308776464778008186e-01 -4.108610777669642333e-01 8.819799811407512680e-01
-5.759373488690685931e-03 7.730998840924349635e-02 -8.044581368034160462e-01 -7.916278886734709475e-02 6.258467875827488092e-01 -7.759181988657678497e-01
-9.654283357828258305e-02 -1.288606814247928722e-01 -9.024874422624756809e-01 -1.365043154631401523e-01 3.254096980452673704e-01 -9.356682640113573868e-01
-4.642980061777257639e-02 -1.102884790240754587e-01 -9.011397423734108791e-01 -5.347944545999716581e-02 3.395959010281127122e-01 -9.390498245131592148e-01
5.643051784813973848e-02 -1.020662587135361399e-01 -8.944620248526193862e-01 -1.173689874717153692e-01 -3.487350708020137691e-01 9.298431970889385889e-01
3.378114190946297085e-02 -1.469328919632705566e-01 -9.154049587887296280e-01 1.239389723717684855e-01 4.161229648493455779e-01 -9.008222961563618902e-01
1.376701959057329006e-01 -3.478545624388857532e-02 -8.505038583098675220e-01 -2.093610289946163661e-01 -4.582756326358765064e-01 8.638005580401661998e-01
2.596055054256222669e-02 5.340379337117646258e-02 -8.188535250548056865e-01 -1.279468208553153075e-01 -5.982766510041116481e-01 7.910086345270335162e-01
9.539108068225815584e-02 1.238460742189370981e-02 -8.337169783614528651e-01 -2.103031388540662905e-01 -5.179374510088455841e-01 8.291642699915299231e-01
-7.802561972840506288e-02 6.905405500049213718e-02 -8.027087887875783423e-01 1.846622275169328420e-01 -6.453095526929770731e-01 7.412661080419596926e-01
1.452048259767067806e-01 -5.845519125216454975e-02 -8.597808808356012245e-01 1.921510627008228833e-01 3.669465489187033747e-01 -9.101803114436159969e-01
1.839607937666075041e-02 -1.780156866959426987e-01 -9.337874670430985624e-01 -1.451615180499192248e-01 -4.980007454085689234e-01 8.549405776134110235e-01
-4.277516929947222657e-02 -8.248511989592759164e-02 -8.917405033148445570e-01 5.279518303818717812e-02 -3.445908298196070918e-01 9.372672130466309648e-01
5.475156695399397561e-02 1.475992809835755815e-01 -7.330241648511882646e-01 2.975993183836214695e-01 4.666602781510169606e-01 -8.328642329297251123e-01
-2.579517249013036154e-02 -9.877766115835415542e-03 -8.603295311415622981e-01 -5.987458530819101538e-02 4.826954353713620027e-01 -8.737391777331626752e-01
-5.121649646712488763e-02 -1.710237946390028019e-01 -9.268601000851275362e-01 7.157354553106048956e-02 -4.241087239697098887e-01 9.027784987652824888e-01
-5.591207814475142313e-02 1.080259441522166269e-01 -7.739131165913275545e-01 9.925675448131898726e-02 -6.226705495522960598e-01 7.761633097551549065e-01
1.277358440646099262e-02 1.806790855317307737e-02 -8.448263423469141165e-01 -1.177716573799594962e-01 -5.110703971136505430e-01 8.514322556211227910e-01
1.338509595568251886e-01 -1.289079184113189891e-01 -8.892985396936975429e-01 -2.113809963248054202e-01 -3.525418356197878578e-01 9.116097457413249172e-01
-1.940095576107341360e-02 -8.129800648125937168e-02 -8.921491611743165295e-01 -5.235666523979999598e-02 3.463972115618735859e-01 -9.366257264388619941e-01
-7.979193491340473565e-02 8.543850180786639881e-02 -7.877081319233767420e-01 2.015605578290543543e-01 -6.420200485918191591e-01 7.397185942869074493e-01
3.787786503437853142e-02 1.412809769750260069e-01 -7.442956086305778651e-01 -3.117306470463855894e-01 -5.314423135064328951e-01 7.876503482554754187e-01
-5.618908972407983538e-02 -1.710915744036667074e-01 -9.260172329537129654e-01 -7.160856952192487523e-02 4.240819891142843523e-01 -9.027882804289693031e-01
5.395504959530913330e-02 1.084488552689338858e-01 -7.657702378835544721e-01 -2.653498193501122593e-01 -6.806956507108358201e-01 6.828198184544842508e-01
-6.477225491443869276e-02 7.993280626833544622e-02 -7.959987491487363620e-01 -1.991471209885874449e-01 6.421296419491332452e-01 -7.402769394842950712e-01
-5.922088361340540653e-03 1.262825189555666083e-01 -7.647594735544299693e-01 1.564906386824556073e-01 6.065267224225613374e-01 -7.795101121807865852e-01
-6.142626444258411081e-04 8.450004063230472096e-02 -7.982382446213986960e-01 -1.334963020274141654e-01 -6.341781532035850599e-01 7.615752145023466646e-01
-3.369640992449026567e-02 3.130445421902240677e-02 -8.358211921864067140e-01 6.672456917083897932e-02 -5.413319362673357782e-01 8.381572445824370110e-01
9.383705056404684219e-02 8.388269728339313447e-02 -7.744304339312745311e-01 2.184476149947935930e-01 6.806235131983121578e-01 -6.993084246487191180e-01
-8.413009492536153988e-02 9.117907359611085449e-02 -7.814829577916565517e-01 2.017279701091108379e-01 -6.475550758816648322e-01 7.348321235326807921e-01
2.764374983113710924e-02 6.749573766720627643e-02 -8.066361594354838349e-01 1.253593764171602454e-01 6.371969034627529282e-01 -7.604374615718111352e-01
7.195226670292995119e-02 1.112504790703118529e-01 -7.556314421589211960e-01 2.665467498635043508e-01 6.588582094789473542e-01 -7.034619321181478924e-01
-4.895936136904750074e-02 -1.479323094129043059e-01 -9.158580452565444618e-01 -5.887040739607617146e-02 3.982572052703378107e-01 -9.153826924206507343e-01
-1.770766344450351928e-03 1.590976345480984155e-01 -7.436723443133376188e-01 -1.731646954046474340e-01 -4.635964930391472949e-01 8.689604593462346704e-01
-3.022550022189290225e-02 -3.253333168909038758e-02 -8.715001647570226329e-01 -5.602149598143094794e-02 4.074196508779436288e-01 -9.115211572237349458e-01
-5.660661687967049466e-02 1.594609586264759404e-01 -7.357720047453548684e-01 2.536551990167152937e-01 -4.637465183684593706e-01 8.488805609229855831e-01
4.560173808767940817e-02 -1.208248502727423020e-02 -8.570900461777823942e-01 1.170016163234871565e-01 4.818293413632008804e-01 -8.684187397673978071e-01
1.140413042847814723e-02 1.770363414020333093e-01 -7.310475725898230026e-01 -1.685858014982355435e-01 -4.849614954274864553e-01 8.581323764349725325e-01
-2.995753996516603568e-02 -3.953840030953317819e-02 -8.746476661873793246e-01 -5.602149598143094794e-02 4.074196508779436288e-01 -9.115211572237349458e-01
-3.130030948208509939e-02 3.602947387615169916e-02 -8.329602430200244712e-01 6.672456917083897932e-02 -5.413319362673357782e-01 8.381572445824370110e-01
4.918232125158587126e-02 6.016949042202793946e-02 -8.097944780897597949e-01 -1.253223474900604650e-01 -6.371826002797444932e-01 7.604555497333974623e-01
-2.161077863922832021e-02 -7.159197852916233257e-03 -8.591167420237170171e-01 -6.107239268016968758e-02 4.787210156832444330e-01 -8.758403690145377674e-01
7.294007877803829198e-02 -1.841493844674160774e-01 -9.277701154425241903e-01 2.284687387520432100e-01 4.341813898183131126e-01 -8.713716521373003898e-01
-4.732991555729881145e-03 8.262482680975226368e-02 -8.005217416213595838e-01 -1.334963020274141654e-01 -6.341781532035850599e-01 7.615752145023466646e-01
-5.478122092929213136e-03 -9.349910869772848701e-03 -8.614390833635650058e-01 -6.107239268016968758e-02 4.787210156832444330e-01 -8.758403690145377674e-01
-5.401116808892445637e-02 -1.614879410910415314e-01 -9.216787073547132447e-01 -7.160856952192487523e-02 4.240819891142843523e-01 -9.027882804289693031e-01
-4.907970713113523481e-02 -6.098130256378757330e-02 -8.826616799345544662e-01 -5.353812341310087292e-02 3.686410330316968187e-01 -9.280288024122563817e-01
-2.385510297741712943e-02 -6.235493707032145616e-02 -8.846648113155946014e-01 -5.367106956430547915e-02 3.690072277025502334e-01 -9.278755747378532037e-01
-1.333520689938050563e-01 -2.555821168347044425e-02 -8.554887074092599741e-01 -1.368463833810137920e-01 4.517052842831169035e-01 -8.816095527535106058e-01
3.550789464650240534e-02 -6.490110346310024036e-02 -8.831287837287239428e-01 -1.167767662272701928e-01 -3.650949625964464706e-01 9.236172665970469042e-01
-3.900958509133314878e-02 1.496697626294493377e-01 -7.454211175581406668e-01 -1.192081872294919881e-01 5.100744420320133532e-01 -8.518294850985076438e-01
-4.369160209315590265e-02 5.565113559938864030e-02 -8.182020747126943494e-01 7.185484234318112451e-02 -5.852417425876476065e-01 8.076688581125373023e-01
7.130715458876363266e-02 6.789306600678084169e-02 -7.977156045666068396e-01 -2.208843237969443651e-01 -6.445349763702787893e-01 7.319732097120295045e-01
-3.033181795928761165e-02 4.911386653657937029e-02 -8.235564483382620260e-01 -6.741186803084385504e-02 5.748281092596084774e-01 -8.154926638870613198e-01
