4.171655076552447522e-02 -1.229107323999947127e-01 -1.062664054649685053e+00 7.611614299973042952e-01 -2.234392793261136545e-01 6.088580835783375944e-01
-3.243684529843679498e-02 9.237984095205724333e-02 -8.067661435219930510e-01 9.085264968984679834e-01 -3.737672449071367531e-01 1.867555917982815783e-01
1.239988591663323397e-03 -2.002358225257802882e-01 -1.046544793430076004e+00 8.799357038853329316e-01 -2.406017758384413063e-01 4.096632061721093288e-01
-5.771318866532441222e-02 -6.343866639669978880e-02 -8.937899808842730831e-01 -9.055437029267506821e-01 1.691346756422468789e-01 -3.890810501490666873e-01
-6.187876515542784644e-02 -1.162151679292859445e-02 -8.515889820172898306e-01 9.067315374490118041e-01 -2.840170420915522631e-01 3.117246201327652511e-01
-2.368868106901095977e-02 7.216322001346574255e-02 -8.685636324744490100e-01 8.609039103635850454e-01 -3.938948682129120304e-01 3.220113195467220746e-01
1.198166911894555167e-02 1.993025653086041848e-01 -8.373724776915547618e-01 -7.285027790468018294e-01 4.052310452632590376e-01 -5.523327809173860237e-01
5.359080536971819880e-02 6.926259112691941777e-02 -9.947702927964450215e-01 6.875750303614934777e-01 -4.407899884365029664e-01 5.770136599054990212e-01
7.749641490798450313e-03 1.898046518864586196e-01 -8.387586086929200713e-01 -7.283497797980564847e-01 4.051323699136763490e-01 -5.526068775506240982e-01
2.647401246573594102e-02 1.054147600624239234e-01 -9.264862921733271195e-01 7.261274340967516228e-01 -4.906328156909413596e-01 4.816828724578511300e-01
6.830236516902520039e-02 1.195942290844532602e-01 -9.647386926694259124e-01 6.445175779944163352e-01 -5.646513669879342778e-01 5.155249028076808182e-01
-4.319073474469120599e-02 -2.256925190192159147e-01 -9.570427135189004675e-01 9.153200167846823332e-01 4.341292307279473635e-03 4.027038863164738025e-01
9.286633526612785364e-03 3.290622961175854178e-02 -9.631945730085363921e-01 7.609421454779612404e-01 -3.400354055091049377e-01 5.525784778976247091e-01
-4.010530505877821228e-02 6.936784589329238193e-02 -8.142586393415069956e-01 -9.038922765597238174e-01 3.882192322429821041e-01 -1.796234397074873701e-01
2.370858850077069493e-02 -4.512429037407860756e-03 -1.002214651271320145e+00 -7.641994695704011908e-01 2.701963107590883428e-01 -5.856561485722623361e-01
1.446171328762133577e-02 5.520970727020323154e-02 -9.546440640992380766e-01 7.525878537851729000e-01 -4.084598962324648141e-01 5.164997923569680793e-01
4.034907518699971246e-02 1.769533830781057082e-01 -8.812665203057123975e-01 -6.268848823128578829e-01 3.722236475494666297e-01 -6.844449580006887190e-01
2.196845545832954577e-03 -2.129188164219142643e-01 -1.057343510667234199e+00 8.893497284128912828e-01 -3.124626742618726860e-01 3.338025430775435343e-01
-7.862105814559527950e-02 -8.833330655917105700e-02 -8.568424138246671928e-01 9.089032335019466835e-01 -1.715207818229183279e-01 3.800993732335802289e-01
6.941537460240641833e-03 5.126543947272176743e-02 -9.459673501105799742e-01 -7.525882891774963168e-01 4.084003249932486868e-01 -5.165462627280330565e-01
5.580750695674385753e-02 -1.107278386744769139e-01 -1.073518346349417119e+00 6.999546990538306757e-01 -2.458424699488056531e-01 6.705407513655914364e-01
7.645482829042853090e-02 -1.358100428143239717e-02 -1.064667445722860206e+00 -7.100653544379166293e-01 2.140432838578844865e-01 -6.708149260878807363e-01
-4.213295437572887360e-03 -1.367800221747777489e-01 -1.007730892640417597e+00 -8.584628419103139674e-01 1.076438252209889618e-01 -5.014522469299148577e-01
-1.473903816038525487e-02 -9.300345031985711441e-02 -9.817196445399083427e-01 8.555487667274782604e-01 -1.021608123242513655e-01 5.075425855791217966e-01
8.997995372724918589e-03 3.837923146612506886e-02 -9.588438473285897379e-01 7.581294650095726784e-01 -3.808778396479262085e-01 5.293125594102484621e-01
-1.951068179310947240e-02 -3.846033437061485011e-02 -9.588606460894598671e-01 8.649909810544029742e-01 -1.979384592118223762e-01 4.610975699994429577e-01
-5.706952142453522447e-02 -2.169211675819587570e-01 -9.254867699765491063e-01 -9.048668581509498043e-01 6.976176201850781133e-02 -4.199395975376723489e-01
-4.561775861343606714e-02 3.768035993678836570e-02 -8.461988641237875308e-01 -8.993915207036978776e-01 3.663426014679931897e-01 -2.385120349918486149e-01
3.882494005577941110e-02 -9.482545365679399818e-02 -1.049860377495901220e+00 7.576695068860858084e-01 -1.873709416410009043e-01 6.251632175388763812e-01
-6.389797007700487308e-02 -1.886234596311633926e-02 -8.522279365691117770e-01 9.056235300765219653e-01 -2.721403230019278641e-01 3.252470851032261412e-01
-6.255184122282893278e-02 -1.864647041329987043e-01 -9.089021912672383685e-01 8.980158710909849074e-01 -3.997908453292814412e-02 4.381428626242915847e-01
2.431362598834132041e-02 1.912345486308717757e-01 -8.577100814441097620e-01 -6.372269128500729352e-01 4.116317991276378097e-01 -6.515375073520399685e-01
-1.534338405867293614e-02 2.665950724219726120e-02 -9.313001851067562731e-01 8.664657991911033363e-01 -2.942692356850758473e-01 4.032897664972964202e-01
8.584516957816570870e-02 -8.472346272301790882e-03 -1.073074232795778293e+00 6.971885149774220691e-01 -2.212234459307269030e-01 6.819005510733303632e-01
-5.008894685188720712e-03 1.896503986872732084e-01 -8.154984475189159809e-01 -8.895511323191442887e-01 2.883429648250684929e-01 -3.543403979588239938e-01
-2.043710060577036067e-02 -1.058572294534894653e-01 -9.746206526646513657e-01 8.543844545970383786e-01 -9.271384736249105307e-02 5.113035754326055171e-01
4.586401999921642381e-02 -6.637903268220837760e-02 -1.048732187901687540e+00 -7.023960059335044859e-01 1.994606565030878076e-01 -6.832681006427984149e-01
4.367138993981388440e-02 -1.682807576088536650e-01 -1.084252903209148799e+00 6.852638705769263927e-01 -2.978202942976192480e-01 6.646175591920578940e-01
7.357082880722538853e-02 6.663062422239583726e-02 -1.020535960808401477e+00 6.866414415719463982e-01 -4.462641511194231914e-01 5.739092595015871101e-01
1.299991165021658832e-02 6.372714264940027018e-02 -9.447623879113158374e-01 -7.465883753824975599e-01 4.266316440628471485e-01 -5.104813787279169901e-01
-1.318058673226100638e-02 1.661171922290671232e-01 -8.089172948749531189e-01 -9.331629305076681868e-01 2.606521957288231994e-01 -2.475224797631198070e-01
-2.531800617155828895e-02 -1.163175937919829483e-01 -9.683614568152532076e-01 8.543844545970383786e-01 -9.271384736249105307e-02 5.113035754326055171e-01
4.583079746497119300e-02 -1.847067321312987342e-01 -1.092133657171193040e+00 -6.434811170803389491e-01 2.959549211712717565e-01 -7.059339463402687365e-01
-6.404282413736009719e-04 -1.696031171539974470e-03 -9.694543415619115700e-01 7.636632418831746927e-01 -2.968284272306915827e-01 5.733335310133483853e-01
-3.616377890259078048e-02 7.069496366874364335e-02 -8.319875517559379707e-01 9.057012128850315813e-01 -3.629178270154622687e-01 2.190798115138815338e-01
6.604075334895921634e-02 1.295515877410291505e-01 -9.509388580846622752e-01 6.288705026009547838e-01 -5.820243445692003803e-01 5.155284214155564371e-01
-2.068574685703175250e-02 -9.589311809173231560e-02 -9.714224763605414648e-01 -8.555576018501258595e-01 1.021330199397139649e-01 -5.075332857601121406e-01
6.475515809754499308e-02 -1.717328459863991796e-01 -1.105136469499747864e+00 6.517838866168349510e-01 -2.483309615183223462e-01 7.165957707787831144e-01
1.898531650047462216e-02 9.609328871844137476e-02 -9.237935221784088213e-01 -7.260997104035075145e-01 4.906144389871758826e-01 -4.817433785837030302e-01
-6.001306910793356708e-02 -1.560043529876894430e-01 -9.107233452706479104e-01 8.924999353548396241e-01 -4.435895122329332196e-02 4.488609459932741963e-01
-9.707393070150928394e-03 1.009738687322380840e-01 -8.714153217087832193e-01 8.701736304849639891e-01 -3.690946693194759876e-01 3.264459800465672190e-01
3.123332655290199725e-02 -1.536695403590293725e-02 -1.016560205002625228e+00 -7.640468001712548141e-01 2.308893140641669339e-01 -6.024305867060908426e-01
4.428856931394706958e-02 -7.151953511088170179e-02 -1.049231463214446380e+00 7.010771570529694685e-01 -2.001699964959276212e-01 6.844141964931372835e-01
4.042485393238066937e-02 1.483893843960528702e-01 -9.023324550073357209e-01 6.155906710053759001e-01 -5.332170401022185979e-01 5.802824432255210274e-01
8.784695506668696932e-03 1.920846648327248218e-01 -8.392313750119499982e-01 7.284704189389364926e-01 -4.049776726094255763e-01 5.525612485677792174e-01
-2.830260009001322324e-02 -1.765153070214690589e-01 -9.769755265227249019e-01 -8.665658106052591680e-01 1.606906232123989087e-01 -4.724851526785379119e-01
-3.971374809351636836e-02 1.217761238391135148e-02 -8.895456665002928753e-01 8.644577043689816165e-01 -3.031352055709451432e-01 4.010260895510053825e-01
-5.410578165408031631e-02 -2.003641599793957728e-01 -9.292247157982416184e-01 9.041253578659138590e-01 -7.793693500135452645e-02 4.200990019345772764e-01
8.842119177215487791e-02 -8.167154926878081311e-02 -1.096944946216300121e+00 -7.030780339345996666e-01 2.018777199424114099e-01 -6.818553104504733176e-01
-7.332968888640277461e-02 -4.905037989355635203e-02 -8.493140817524292840e-01 9.095013246350218683e-01 -2.454086100304906093e-01 3.355323451025897241e-01
9.470514645285731115e-02 -6.076090731274500639e-02 -1.097237573146063072e+00 6.946387262534143847e-01 -1.952924742086111221e-01 6.923423210424979324e-01
7.362638703119943340e-02 -6.694993146721406330e-02 -1.077813795941943154e+00 6.985441326448825761e-01 -1.954269491218018906e-01 6.883635684028850399e-01
-2.892677904547056450e-02 -2.075327498082196742e-01 -9.871557597526358085e-01 9.124759678748737279e-01 -8.954992748605308805e-02 3.992097425390002674e-01
-2.153978515240569797e-02 -1.337414757217901713e-02 -9.424549981368497420e-01 -8.668663855189383538e-01 2.316844091934852912e-01 -4.414351642019437305e-01
1.885805182464693041e-03 -2.592345637022410235e-02 -9.842024207696160598e-01 7.629762469338771114e-01 -2.273376780187487123e-01 6.051320738216900974e-01
2.763448173583750445e-02 -7.035570917408554004e-02 -1.028963959406438367e+00 -7.577171160924277560e-01 1.651840095490871851e-01 -6.313311452556900072e-01
2.793072016575453079e-02 4.661424519927459542e-02 -9.792158268510533503e-01 -7.581057420669111702e-01 3.808654262895154741e-01 -5.293554674342029198e-01
4.839075622052221859e-02 6.177460285581344579e-02 -9.936277317535344711e-01 -6.890952541516439656e-01 4.398052650759483040e-01 -5.759505703766218954e-01
2.002423348540808765e-02 -1.481996039638697193e-01 -1.044866781221202690e+00 -7.609658752239565338e-01 2.776091263687641697e-01 -5.863992749837005913e-01
-5.894527639360719329e-02 -1.783723102427352825e-01 -9.153124139933165315e-01 8.937624896795318685e-01 -5.146252292738322243e-02 4.455785236922817361e-01
2.999695586153990415e-02 9.611557957740664293e-02 -9.411830494539861203e-01 7.378777295205383169e-01 -4.528431495779311478e-01 5.004693178986651114e-01
-5.484670663599514051e-02 -1.885119142490140065e-01 -9.254312843399528088e-01 9.041253578659138590e-01 -7.793693500135452645e-02 4.200990019345772764e-01
-2.574734370123539853e-02 1.221729640416280294e-01 -7.933068522644964871e-01 9.463971379845382836e-01 -2.499681587493887691e-01 2.045687581868632643e-01
-5.077737084364383757e-02 -6.293103411818584680e-02 -9.097116710563454278e-01 -9.055437029267506821e-01 1.691346756422468789e-01 -3.890810501490666873e-01
-3.091458020002708917e-02 -2.603665499035671266e-02 -9.317347170322867189e-01 8.661903843123411884e-01 -2.361744349417018995e-01 4.403814873547777786e-01
-4.765333583893002073e-02 -2.188241954510300458e-01 -9.468824495181066281e-01 9.139204666569086255e-01 -1.037917585542628834e-01 3.923985875125344802e-01
1.670849546308265932e-02 4.392389756688594438e-02 -9.658977454386069583e-01 7.581294650095726784e-01 -3.808778396479262085e-01 5.293125594102484621e-01
5.356559190181330726e-02 4.142409442276413084e-02 -1.013943265311025632e+00 7.010870388376655438e-01 -3.846990517119968089e-01 6.004028677360929711e-01
1.445084523692238831e-02 -1.283767444854341799e-01 -1.030583866941436222e+00 7.611614299973042952e-01 -2.234392793261136545e-01 6.088580835783375944e-01
-8.119735762721459011e-04 1.297851722444763323e-01 -8.625387156304373804e-01 -8.879602113154521081e-01 2.990262202534222369e-01 -3.494423882724727592e-01
1.276826998078159185e-02 1.412512359932078798e-01 -8.732456179925833784e-01 -7.232969325428095786e-01 4.093738236263277930e-01 -5.561066623443050583e-01
-6.991453848129742556e-03 -1.249102509561738905e-01 -1.000262482035858991e+00 -8.582572220641847549e-01 1.148819805647271347e-01 -5.001966326517945927e-01
2.066588750228804880e-02 -1.832156290047351754e-01 -1.063014314526149695e+00 -7.447273174682705887e-01 3.505693879767690091e-01 -5.678752740083932160e-01
-1.561291198634538226e-02 1.101473914944215843e-01 -8.455812963565493279e-01 8.741809304113750123e-01 -3.732762374238653424e-01 3.106003082416127214e-01
7.541602028561072979e-02 1.058948500336248794e-01 -9.881617371612489986e-01 6.575497125214656569e-01 -5.474055517307914176e-01 5.176635369593319824e-01
-1.249080486569615137e-02 1.418337778416839667e-01 -8.253011420781963814e-01 -8.935431864155786164e-01 1.800327453466855077e-01 -4.113013306728172669e-01
-7.231154898773708983e-02 -9.370491097362498856e-02 -8.733371627610183596e-01 9.034851758750807038e-01 -1.342912078334289050e-01 4.070385835183360501e-01
-2.766520877426595013e-02 -1.516353950639985348e-01 -9.716365085543539060e-01 8.584483784819960661e-01 -1.076293795045342172e-01 5.014801074310931694e-01
-5.343554939360728451e-02 -1.718014043924960543e-01 -9.247923978349130714e-01 -8.930056839951361347e-01 5.263146776903184637e-02 -4.469572428687741961e-01
1.183078544611491402e-02 -2.132053218589116950e-01 -1.070908693690920233e+00 7.476952831379301001e-01 -3.516758951869445315e-01 5.632724281533331157e-01
-4.829623645847656507e-03 -1.896566903747136379e-01 -1.027180108875468623e+00 -8.800096569931263879e-01 2.065238717266885682e-01 -4.277042132196717250e-01
6.556520743822412400e-02 -1.393205389853128806e-01 -1.093397461444473251e+00 -6.859851678735570113e-01 2.746987983018211454e-01 -6.737691887204575458e-01
-6.798823940736961613e-02 -5.922110246784278303e-02 -8.685635347654250271e-01 9.067975574119840898e-01 -2.055002913194528269e-01 3.680867019321392708e-01
1.717044555664822784e-03 3.171454949611365176e-02 -9.523946076163909424e-01 -7.581057420669111702e-01 3.808654262895154741e-01 -5.293554674342029198e-01
-1.327397482476722762e-02 -2.301012458992026943e-01 -1.029700646851092971e+00 -9.383090531446660609e-01 1.213050079994423547e-01 -3.238228154732384900e-01
3.842801207816488179e-02 5.504518247999912184e-02 -9.872793102612908989e-01 6.949187294827958716e-01 -4.214066161224575002e-01 5.826700810083152993e-01
-4.636445176398724943e-02 -1.325939657276077599e-01 -9.353768546093469416e-01 8.924625254055794654e-01 -5.025949994362439999e-02 4.483130863716923153e-01
3.070664137019168960e-02 1.533381344735334495e-01 -8.884231153777002454e-01 6.213361339282367224e-01 -4.855953802813637310e-01 6.149296994978451503e-01
3.483251561408913510e-02 -3.708037173362627864e-02 -1.028549882485532585e+00 -7.599108424614019475e-01 1.860971470166988828e-01 -6.228188848949972600e-01
1.537476019000749879e-02 4.268386956153073786e-02 -9.640619243119697979e-01 -7.581057420669111702e-01 3.808654262895154741e-01 -5.293554674342029198e-01
1.080312085297486027e-02 1.242701946075835603e-02 -9.773849694551003386e-01 7.636632418831746927e-01 -2.968284272306915827e-01 5.733335310133483853e-01
-5.963401171767380819e-03 -3.231142550710591754e-02 -9.767056574497062771e-01 7.629762469338771114e-01 -2.273376780187487123e-01 6.051320738216900974e-01
2.449795401108497209e-02 1.656908248265954176e-01 -8.732358549876649834e-01 7.239424681775277204e-01 -3.382599335116326933e-01 6.012383222564369190e-01
-6.233806816019462488e-02 -9.729440029552215152e-02 -8.965083198297127964e-01 8.987193427734553319e-01 -9.355321197497203090e-02 4.284289199552412941e-01
-1.390459590067727458e-02 -2.025477687590165332e-01 -1.015740447728971096e+00 8.799772240358144648e-01 -2.064942759925318672e-01 4.277852255052088104e-01
3.608140233770325278e-02 -2.171183564829416712e-02 -1.025567623803300243e+00 7.064076682809502516e-01 -2.640390312566643916e-01 6.567127196628014252e-01
-6.673592573096794045e-02 -1.843140035148026767e-01 -9.001302639714369169e-01 8.980158710909849074e-01 -3.997908453292814412e-02 4.381428626242915847e-01
-5.323606124231872877e-02 3.217316146279118605e-02 -8.258894590167364935e-01 -8.933874677246240736e-01 3.906824096545292169e-01 -2.218695276488283907e-01
9.119576960763459139e-02 -4.965741885818371337e-02 -1.090584539445319523e+00 6.946387262534143847e-01 -1.952924742086111221e-01 6.923423210424979324e-01
4.092311168455133041e-02 -5.802257652826433437e-02 -1.041277368008413751e+00 -7.016342460228535138e-01 1.934157730344016612e-01 -6.857840210659963409e-01
2.795664672495204103e-02 1.438260818860016277e-01 -8.919862157897570087e-01 7.169335728507656436e-01 -4.687719577725245612e-01 5.160030074772340436e-01
3.200087381802303732e-02 1.963641755179478532e-01 -8.617805863980496639e-01 -6.777904748649339339e-01 4.283699976289584987e-01 -5.975777918511808728e-01
-2.294433000844314091e-02 -6.829462301372778155e-02 -9.613440830068783471e-01 -8.585004603745121088e-01 1.236793382780185108e-01 -4.976749750789787874e-01
6.460886910134402972e-02 5.475460775012498671e-02 -1.018297113061402692e+00 7.010870388376655438e-01 -3.846990517119968089e-01 6.004028677360929711e-01
-4.512822389647840049e-02 -1.257437671937774448e-01 -9.369679637210829304e-01 8.543844545970383786e-01 -9.271384736249105307e-02 5.113035754326055171e-01
-1.395998018183287545e-02 -6.731332458141324471e-02 -9.774777803539052012e-01 8.585929875416002943e-01 -1.240194175445863828e-01 4.974306643305085318e-01
6.477422661567400729e-03 -1.937771664243126690e-01 -1.051679483878002808e+00 7.447767648172753940e-01 -3.505305515900694613e-01 5.678343975053595782e-01
-2.310729253687723514e-02 -2.393684245766173335e-01 -1.004589065078242083e+00 -9.341048025031337687e-01 1.394475365010883761e-01 -3.286374940635335973e-01
-1.135507259507665540e-02 -1.266318933121424462e-01 -9.940376454323297528e-01 8.582443340389320774e-01 -1.148488555274601863e-01 5.002263522387666583e-01
2.474972031146706938e-03 -8.429116962231887611e-02 -1.003100311657093346e+00 7.577323978984077391e-01 -1.651966423329400968e-01 6.313094982154567880e-01
-6.990436063134036759e-02 -1.293012276876376841e-02 -8.292594543443571053e-01 9.100521564496497628e-01 -2.816410027470456767e-01 3.041108648387636504e-01
4.424525254173881234e-02 1.311655090232973775e-01 -9.236055281902161296e-01 6.230806981542725831e-01 -5.738215449130815715e-01 5.315066116062422408e-01
3.819583779600269069e-02 1.578776803859174849e-01 -8.923756469760221188e-01 6.095073339192772499e-01 -5.142710969174201230e-01 6.033457124849467279e-01
-3.921989680220557689e-02 -2.990494314968412254e-02 -9.164881413038620250e-01 -8.661991778300373035e-01 2.361638842764233748e-01 -4.403698492063682912e-01
-1.139630099915971660e-02 -8.784045457359271336e-02 -9.863151580644616834e-01 8.555487667274782604e-01 -1.021608123242513655e-01 5.075425855791217966e-01
-6.994756380525421480e-02 -6.716229257836692224e-02 -8.678250716102541285e-01 9.063634032313793165e-01 -1.684097426765698013e-01 3.874835994651176230e-01
6.145426262447675758e-02 -5.335769091949453535e-02 -1.060967380809513028e+00 -7.016342460228535138e-01 1.934157730344016612e-01 -6.857840210659963409e-01
1.194991209791415598e-02 -1.396220586995165769e-01 -1.031030563009508016e+00 -7.591721504410013921e-01 2.370398658901536892e-01 -6.061928306847282899e-01
7.747856243464197601e-02 1.086769638811420913e-01 -9.878396735878738344e-01 6.575497125214656569e-01 -5.474055517307914176e-01 5.176635369593319824e-01
3.035666947130151883e-03 5.102890766309574333e-02 -9.413015326579292630e-01 7.525878537851729000e-01 -4.084598962324648141e-01 5.164997923569680793e-01
-4.834467242848035362e-02 -1.418834148654174732e-01 -9.324762262177017647e-01 8.924625254055794654e-01 -5.025949994362439999e-02 4.483130863716923153e-01
4.660744446827836535e-02 -1.078300803867789093e-01 -1.062852299564658320e+00 6.999546990538306757e-01 -2.458424699488056531e-01 6.705407513655914364e-01
5.469518727850482959e-02 -1.517660056567959326e-01 -1.088218765545613476e+00 6.852638705769263927e-01 -2.978202942976192480e-01 6.646175591920578940e-01
-5.204062734303927656e-02 -1.930389510228839589e-01 -9.323103076235828013e-01 9.041253578659138590e-01 -7.793693500135452645e-02 4.200990019345772764e-01
-4.105959792453976742e-02 1.754721627593385305e-02 -8.824997082617815902e-01 8.630957636455216520e-01 -3.291986237528336523e-01 3.830064867549818897e-01
-5.816120467762660867e-02 -2.105864293940649667e-01 -9.222119175393959090e-01 9.078244567629022432e-01 -7.646772122139210148e-02 4.123195888074551729e-01
4.528823659966538934e-02 -2.239031469824987949e-02 -1.035039352701164095e+00 -7.036174237697516709e-01 2.142774990586893968e-01 -6.775010511908976518e-01
-2.790356987333564645e-02 -9.831460682806741902e-02 -9.605976596801211187e-01 8.555487667274782604e-01 -1.021608123242513655e-01 5.075425855791217966e-01
4.296950751991644724e-02 1.869344486435373931e-01 -8.784828165849004611e-01 6.076816604081650697e-01 -4.269961643540033935e-01 6.696247271648088084e-01
2.789836725172476287e-03 -1.643232929794592456e-01 -1.030135002104678010e+00 -7.609658752239565338e-01 2.776091263687641697e-01 -5.863992749837005913e-01
-6.324173736472948892e-02 -6.564454493262972257e-02 -8.818817887258157961e-01 -9.055437029267506821e-01 1.691346756422468789e-01 -3.890810501490666873e-01
6.397676055895680503e-02 1.105444637412977653e-02 -1.041855619310743997e+00 7.066995376960760744e-01 -3.108034152902535707e-01 6.355918505330810930e-01
1.495397324390556996e-02 -2.088729063410224018e-01 -1.072322844117680196e+00 7.348969038448028845e-01 -3.838023322500260237e-01 5.591263814905919061e-01
6.347363490695986932e-02 -4.724199677360232247e-02 -1.061842049032509783e+00 7.003072127390193025e-01 -1.940585703052120359e-01 6.869578437406497207e-01
5.313472105050318084e-02 -1.229606024341084458e-01 -1.075158107307012889e+00 6.926126459352297537e-01 -2.304954871654641968e-01 6.834907117781159336e-01
4.676108109998849960e-02 1.582782663355535024e-02 -1.020520632657698323e+00 7.046443957252521706e-01 -3.051374753115424499e-01 6.405992481524558357e-01
5.859289183700377990e-02 -9.442779589521077543e-02 -1.070200432324709627e+00 -6.988733163798076520e-01 2.181362847533056537e-01 -6.811700587418052510e-01
1.268077725409074395e-02 -1.801415121706216316e-01 -1.051702360611009190e+00 7.454103926705775152e-01 -3.286006149185454750e-01 5.799870536260696152e-01
5.168913474103635497e-02 1.169501602903427057e-01 -9.465629265713068063e-01 6.431407370515155320e-01 -5.437665313316071281e-01 5.391548495083999804e-01
2.026249337639885600e-02 -1.243264234841728044e-01 -1.035651140782837043e+00 -7.611454787993470195e-01 2.234665057388175446e-01 -6.088680324308345382e-01
-5.599148376940749072e-02 -1.416455524201197247e-01 -9.163774550420510367e-01 -8.916792289278554495e-01 5.122196387330834461e-02 -4.497604508130823020e-01
4.808505006366444075e-03 1.545911645627472408e-01 -8.557747566578302045e-01 7.236393452250613478e-01 -3.395294522207795151e-01 6.008875511415607829e-01
-2.738783457620958331e-03 -1.965018721374588717e-01 -1.034787359158768405e+00 -8.800096569931263879e-01 2.065238717266885682e-01 -4.277042132196717250e-01
5.570277320501664658e-02 -1.692529071430914356e-01 -1.095809724657929030e+00 6.604930715117802720e-01 -2.559504238220010053e-01 7.058599599285062531e-01
-7.691275022525993765e-02 -4.466394646148046099e-02 -8.363652349780270612e-01 9.108572761271512830e-01 -2.470912369611510950e-01 3.305827326755504947e-01
9.130085507048957966e-03 6.700583394787568148e-02 -9.363625503247448023e-01 -7.465883753824975599e-01 4.266316440628471485e-01 -5.104813787279169901e-01
3.068396227605506982e-02 3.337396442202947983e-02 -9.915873431589562470e-01 -7.609153455088948359e-01 3.400626415278340531e-01 -5.525986217917948640e-01
-2.323393067537912055e-02 -2.370486915554413099e-01 -1.003443211036329386e+00 -9.383090531446660609e-01 1.213050079994423547e-01 -3.238228154732384900e-01
4.678522318037744987e-02 1.518057528192868211e-01 -9.059405567845371099e-01 6.155906710053759001e-01 -5.332170401022185979e-01 5.802824432255210274e-01
1.197939506668966106e-02 1.463077941692536021e-01 -8.694199476966550932e-01 7.209865624559239627e-01 -4.001289517061633605e-01 5.657518879902362352e-01
-3.511553154229021811e-02 -2.137984306718728258e-02 -9.209798831379979456e-01 8.668569888538776302e-01 -2.317008050825526966e-01 4.414450110707847097e-01
-1.484627470599228158e-02 1.022552008314899508e-01 -8.563328110040555607e-01 8.726035450963812723e-01 -3.537023132724606000e-01 3.368348655809519920e-01
4.371397570226125823e-02 -5.315982170483279229e-02 -1.043370133568603864e+00 7.003072127390193025e-01 -1.940585703052120359e-01 6.869578437406497207e-01
-2.688254119148274224e-02 5.219584603054813060e-02 -8.811850867858880276e-01 -8.577975680463474362e-01 3.785443826343115603e-01 -3.476887726541940116e-01
-5.789188362495484817e-03 2.463986746748912746e-03 -9.596872866302557092e-01 -7.636561294534208733e-01 2.968261253980793990e-01 -5.733441961242686791e-01
7.041778794220426851e-02 -7.623243819871021801e-03 -1.056837838828932785e+00 7.064076682809502516e-01 -2.640390312566643916e-01 6.567127196628014252e-01
7.633082955797594604e-02 -1.403750608232015307e-01 -1.104634946882937951e+00 -6.611896655469755579e-01 2.396613493231484759e-01 -7.109083371395262807e-01
6.845151677171659732e-02 -1.382072243112975884e-01 -1.095882198380524697e+00 -6.859851678735570113e-01 2.746987983018211454e-01 -6.737691887204575458e-01
8.450045492599375652e-02 -1.223665349300634281e-01 -1.106582891325640805e+00 -7.013650200448531269e-01 2.430046233376746689e-01 -6.701013816535507095e-01
-6.191357505713372678e-02 2.156091181404821890e-03 -8.374360706079354566e-01 9.006130609706942680e-01 -3.271501009704469443e-01 2.861274643301877085e-01
6.216122890787791760e-02 1.556784331500583873e-01 -9.184921311224225615e-01 -6.380766171225338290e-01 5.434791548060776689e-01 -5.454251909957358313e-01
6.591738277234747423e-02 -6.768223941079924352e-04 -1.049136773714294479e+00 7.052202637555168296e-01 -2.702501434504006039e-01 6.554610892750516449e-01
5.705772005656670892e-02 -1.158594848029049010e-02 -1.043490663339616820e+00 -7.077273887643846795e-01 2.632760744229125094e-01 -6.555971719197745129e-01
-5.430364761914134586e-02 -1.119810543505660588e-01 -9.155445405319498908e-01 -8.936389443530333709e-01 6.532846553088607344e-02 -4.440063386112589328e-01
-1.938714254803500930e-02 1.296582119224630458e-01 -8.122137085671741197e-01 9.444048546876889771e-01 -2.337468685340129138e-01 2.312182343433751286e-01
1.795667095153334614e-02 1.631076448918012400e-01 -8.661466013138924280e-01 -7.238823060442618473e-01 2.981979823331260548e-01 -6.221514046664963216e-01
6.681774560751649328e-02 -8.378246609827878777e-02 -1.075316471900552795e+00 -7.012751942857422538e-01 2.060828149074048488e-01 -6.824536433189692941e-01
-3.123248754230270596e-02 -2.258346860199388906e-01 -9.839512174149570578e-01 9.171703586750867832e-01 -3.157836839983622912e-02 3.972421677226838366e-01
-3.113971577105067653e-02 5.353237246784003922e-02 -8.693724826535680350e-01 -8.629125703696599592e-01 3.624362215154190991e-01 -3.521674051238314340e-01
-3.817248941542228380e-02 -1.951429505227912642e-02 -9.130152143622758398e-01 -8.668663855189383538e-01 2.316844091934852912e-01 -4.414351642019437305e-01
6.676652777343309447e-03 -1.973610908241293094e-01 -1.054153192698704222e+00 7.447767648172753940e-01 -3.505305515900694613e-01 5.678343975053595782e-01
-2.390204516214566519e-02 -1.790687903768636013e-01 -9.872700292159392044e-01 8.687074900096997121e-01 -1.972194101477555139e-01 4.543696744524431952e-01
-3.607990670782505732e-05 -7.502966414886611847e-03 -9.733188453487285896e-01 7.645952229403757405e-01 -3.009001813999939712e-01 5.699589686023088797e-01
-4.047626897707523597e-02 6.752850437488203128e-02 -8.163672524050118451e-01 -9.038922765597238174e-01 3.882192322429821041e-01 -1.796234397074873701e-01
-2.661669417410796046e-02 -1.408795640775229729e-01 -9.711229333337355607e-01 8.584483784819960661e-01 -1.076293795045342172e-01 5.014801074310931694e-01
3.870170276831509572e-03 1.386259587280053163e-01 -8.645186519131151659e-01 7.209865624559239627e-01 -4.001289517061633605e-01 5.657518879902362352e-01
-4.279757696627397440e-02 3.617449252137201754e-02 -8.594821093506086473e-01 9.005429540725173876e-01 -3.452062093522996200e-01 2.643010800109604763e-01
1.730580952471082526e-02 -1.871158681339791519e-01 -1.061015570319149282e+00 -7.447273174682705887e-01 3.505693879767690091e-01 -5.678752740083932160e-01
-4.705847878207364970e-02 -1.633763358480072037e-01 -9.375201321589258230e-01 8.972539726318924380e-01 -5.871680141980351042e-02 4.375930139151154585e-01
4.550567914219549176e-02 -1.804261926337573652e-01 -1.090588142985911002e+00 6.409150544167067087e-01 -2.951498072306671383e-01 7.086003699644320974e-01
-4.825792979216905754e-02 -1.013581917216799660e-01 -9.267674603186775162e-01 8.585034570419828315e-01 -1.237429360803070089e-01 4.976539962837528419e-01
3.591896556176694261e-02 4.079888272925687870e-02 -9.939712490008070223e-01 6.982596045887796699e-01 -3.757475976482212987e-01 6.093006379949978957e-01
5.348674626253836425e-03 -2.139842055943335097e-01 -1.062023298458682374e+00 -7.475883866697934366e-01 3.535139308877277564e-01 -5.622628431479019806e-01
-5.109959568430458982e-02 -2.161374656919908266e-01 -9.381524430599839093e-01 -9.010666310627152287e-01 9.267472740343635218e-02 -4.236629807830602501e-01
8.729817831922062621e-02 -1.357971965919317625e-01 -1.113999008591648909e+00 -6.897659495235217708e-01 2.299036300164202518e-01 -6.865619096506793140e-01
7.122262274264385155e-04 8.094500664316371663e-02 -9.117079325298039771e-01 7.357655026693844524e-01 -4.673049659370978048e-01 4.901787366789748801e-01
-5.956950408241808159e-02 -1.477950087108619720e-02 -8.597090455718576774e-01 -9.048072795585526684e-01 2.728457548984768999e-01 -3.269235092368418805e-01
-1.958352937266241711e-02 -2.403588520069324663e-01 -1.015310397080689153e+00 9.427761149275870611e-01 -2.672916700973461401e-02 3.323533492429568970e-01
5.920457789948067179e-02 1.168916972795074477e-01 -9.561766212904856399e-01 6.519392810031876540e-01 -5.595917957779341645e-01 5.116954132910257469e-01
-3.620609723591443341e-02 6.910181488888286760e-02 -8.344517419693145976e-01 9.057012128850315813e-01 -3.629178270154622687e-01 2.190798115138815338e-01
1.840000795703260889e-02 2.414863220640673172e-02 -9.811130391004904139e-01 7.629722018325739707e-01 -3.312217575689048177e-01 5.551266220815930241e-01
1.084535513072196374e-02 2.110437115890942683e-01 -8.266094817865264899e-01 6.442976333780584541e-01 -5.392791434425598940e-01 5.422716709097863408e-01
3.758520908578329156e-02 1.487128251227407549e-01 -8.983639028951391214e-01 -6.236458359414134289e-01 4.840414491648121209e-01 -6.138157270739845739e-01
6.342084745676279667e-02 -1.595099055259205645e-01 -1.099078584914994439e+00 -6.611896655469755579e-01 2.396613493231484759e-01 -7.109083371395262807e-01
-5.121576924248853052e-02 -2.279327388313977243e-01 -9.395546492666929650e-01 -9.001818880961377500e-01 3.922195026398871132e-02 -4.337444028009606045e-01
4.510562157991208215e-02 1.822494689191777872e-01 -8.831363596085480827e-01 6.087617034662401450e-01 -3.921568137941902621e-01 6.896536970013792400e-01
7.484839487433937733e-02 -4.073419556249913837e-02 -1.071119860730781914e+00 -7.018144077227267408e-01 1.921819142470331532e-01 -6.859465350514896143e-01
2.685265625061818498e-02 1.874460971845506030e-01 -8.631682249793272144e-01 6.329071124672552839e-01 -4.152561081235927598e-01 6.534454465786782018e-01
-3.778786120414043270e-02 3.941004078957792423e-02 -8.694468861323850772e-01 8.577796060995411809e-01 -3.785635762380208935e-01 3.477121886066061318e-01
3.286233903445123089e-02 1.687822358079946738e-01 -8.791106861679326423e-01 -6.186853241101619716e-01 4.290322764526299792e-01 -6.581487487586510365e-01
1.604123577319660141e-02 5.334353408722784101e-02 -9.575303559889809524e-01 -7.561657325927171325e-01 3.703193535650833867e-01 -5.395154874771052045e-01
6.234272066033626908e-02 3.095665282022577736e-02 -1.029977952462238777e+00 7.027182223798126293e-01 -3.418779735999415426e-01 6.239443493634301285e-01
6.314553126536814887e-02 2.392869772375834023e-02 -1.034125467037003476e+00 -7.062085695671285190e-01 3.331115673696048440e-01 -6.247448598864302483e-01
-1.455306059058928889e-02 9.800837917590232706e-02 -8.605303966520690961e-01 -8.701923726204190412e-01 3.690985938253453780e-01 -3.263915787354179088e-01
6.578942399084661274e-02 -3.055135538781915058e-02 -1.059500176882570477e+00 7.033495952451632727e-01 -2.172661180390512703e-01 6.768269947488102511e-01
-2.577885157459327767e-02 1.037984980566619836e-01 -8.169029242121390588e-01 -9.291358595579966018e-01 3.019874480634257563e-01 -2.133310471908915484e-01
5.135513475200094435e-02 2.080100089777129485e-02 -1.023072935156823737e+00 7.048398932246805471e-01 -3.338253145322431781e-01 6.259084472161002832e-01
8.519061262932978162e-02 -9.421404428344126725e-02 -1.097515593608407780e+00 -7.002275776536814877e-01 2.289212889684865970e-01 -6.762221402396287884e-01
-4.182823128463404594e-02 2.141896663182117980e-02 -8.760891977160727428e-01 -8.638477922165843648e-01 3.385342461716724372e-01 -3.730436382670409001e-01
-2.267272927980309299e-02 5.059937040667428221e-02 -8.945526476175631458e-01 8.577796060995411809e-01 -3.785635762380208935e-01 3.477121886066061318e-01
-4.160142812535840701e-02 6.417698826727877282e-02 -8.179488964631186354e-01 -9.038922765597238174e-01 3.882192322429821041e-01 -1.796234397074873701e-01
-4.762190396632820510e-02 -8.148519261356114429e-02 -9.219541232308128276e-01 -8.626126717389598353e-01 1.632694345720660245e-01 -4.787927216342073300e-01
-5.608128282414751031e-02 -1.358945077710431715e-01 -9.155444521569363614e-01 -8.916792289278554495e-01 5.122196387330834461e-02 -4.497604508130823020e-01
-5.026863773139256947e-02 -1.872132835908134618e-01 -9.341853214449989951e-01 -9.033478454817132075e-01 7.932629368967276939e-02 -4.215092041616726459e-01
4.267429576234628430e-02 8.458585092840782693e-02 -9.684744059335651523e-01 6.761239325966207359e-01 -4.730094017746772628e-01 5.649057740923187909e-01
6.222946582456688469e-02 -4.917328018022776304e-02 -1.060580346529235607e+00 -7.016342460228535138e-01 1.934157730344016612e-01 -6.857840210659963409e-01
6.902585096341833093e-02 2.965067589734324965e-02 -1.037688654223193341e+00 -7.041129688243561446e-01 3.410873679769438338e-01 -6.228036083228100095e-01
5.003649607011226297e-02 1.712034290989981888e-02 -1.023507847604528731e+00 7.046443957252521706e-01 -3.051374753115424499e-01 6.405992481524558357e-01
-1.626855221687499575e-02 -1.051173120628882685e-01 -9.806038733388872108e-01 -8.543951411487348269e-01 9.270605497542219742e-02 -5.112871308299548057e-01
4.022859585504116875e-02 -1.582631346364402891e-01 -1.075092657624399095e+00 -7.556780206900804986e-01 2.861216211783216279e-01 -5.891393272734484210e-01
-3.647461465584192486e-02 -1.465528829513651488e-01 -9.554654826267703349e-01 8.584483784819960661e-01 -1.076293795045342172e-01 5.014801074310931694e-01
9.632162531068820532e-03 1.431939984346863870e-01 -8.686309034114856331e-01 7.209865624559239627e-01 -4.001289517061633605e-01 5.657518879902362352e-01
-3.085094018630501686e-02 7.514204595810285159e-02 -8.443793192329390740e-01 -8.605886681695743556e-01 3.956176357433350277e-01 -3.207395056848656445e-01
1.355822469210581083e-02 6.646655604694844122e-02 -9.441371503306192903e-01 7.466159561782736986e-01 -4.266019001017702927e-01 5.104658977929489305e-01
1.523141717502879584e-03 8.916408441249583372e-02 -9.042097714792022289e-01 -7.357326148506836416e-01 4.673036210412556124e-01 -4.902293801953387931e-01
5.834849259348424966e-02 -2.097090414751971374e-02 -1.048154130778006898e+00 -7.036174237697516709e-01 2.142774990586893968e-01 -6.775010511908976518e-01
7.991953279105057373e-02 2.760124319620894245e-02 -1.051309235199816783e+00 6.991462199831124380e-01 -3.177358179412534955e-01 6.404986440895311661e-01
2.014708895947401116e-02 1.075654633293804258e-01 -9.147579151561325839e-01 7.261274340967516228e-01 -4.906328156909413596e-01 4.816828724578511300e-01
-2.770589802372378646e-02 -2.850574505721908611e-02 -9.382280397698530283e-01 -8.656318747171161121e-01 2.007207629716918629e-01 -4.586857669317777053e-01
-1.854540542893305319e-02 -1.715066832525026508e-01 -9.942290296263323057e-01 8.687074900096997121e-01 -1.972194101477555139e-01 4.543696744524431952e-01
3.501105902511252727e-02 -1.170217572283077240e-01 -1.052120070388905981e+00 7.611614299973042952e-01 -2.234392793261136545e-01 6.088580835783375944e-01
6.133392574425539784e-03 -1.871911913648767467e-01 -1.047281641819453268e+00 7.454103926705775152e-01 -3.286006149185454750e-01 5.799870536260696152e-01
-3.200951331682654055e-02 -1.285847483819129167e-01 -9.585547612851839094e-01 -8.543951411487348269e-01 9.270605497542219742e-02 -5.112871308299548057e-01
-7.847454038250782637e-02 -4.093141150515289262e-02 -8.292712352486416583e-01 -9.033346832695043904e-01 2.523888478532489987e-01 -3.468231818689372359e-01
-5.404390562572623791e-02 4.023926314337820942e-02 -8.084853029470805419e-01 -8.932346371323534040e-01 3.984566672218049499e-01 -2.082406477456425209e-01
7.487298645825246624e-02 1.284172996105501507e-01 -9.629262345692285452e-01 -6.469917337531670976e-01 5.694385342592928057e-01 -5.070911674991974705e-01
3.348463195349422709e-03 -1.450259784277918018e-01 -1.023084508791233249e+00 7.591888384277772905e-01 -2.370268521193297229e-01 6.061770195092220925e-01
3.879581596777999936e-02 -1.808379439247908005e-01 -1.084690708854464836e+00 6.409150544167067087e-01 -2.951498072306671383e-01 7.086003699644320974e-01
6.428781284524116672e-03 1.831956718803600948e-01 -8.426402819198859362e-01 7.284704189389364926e-01 -4.049776726094255763e-01 5.525612485677792174e-01
6.734800413992003687e-02 2.869320037542689994e-02 -1.036316133430073450e+00 -7.041129688243561446e-01 3.410873679769438338e-01 -6.228036083228100095e-01
-1.915019112977004584e-02 -1.150484222373223675e-01 -9.776142149363618028e-01 -8.553234318217501908e-01 9.504686221948489833e-02 -5.093014048271360394e-01
-8.868534082693623616e-03 -8.406190042120420536e-02 -9.887338141239134792e-01 -7.578379170097543360e-01 1.654964772168296960e-01 -6.311042763055374483e-01
-4.032749063162505143e-02 -2.236935743097648310e-01 -9.626171465395518823e-01 -9.123936781273362939e-01 1.083309900939686751e-02 -4.091704046960424335e-01
-3.163287534228573228e-02 -1.767052988706040439e-01 -9.719280685911486639e-01 8.635907213208234845e-01 -1.512575739450863765e-01 4.809700743007056523e-01
4.863371828017231291e-05 6.538526947514582133e-02 -9.240826302583629026e-01 -7.405763721182556658e-01 4.673187423557845777e-01 -4.828662652362149532e-01
-6.473925431292762087e-03 6.081108204921804178e-02 -9.193998412739993187e-01 7.406045588731637874e-01 -4.672885351238412199e-01 4.828522675913424211e-01
-3.441731178148452197e-02 -1.396211868970723413e-01 -9.574517468131577003e-01 8.582443340389320774e-01 -1.148488555274601863e-01 5.002263522387666583e-01
6.597013641928010930e-02 7.614288750681118267e-02 -1.004265654069907088e+00 6.875750303614934777e-01 -4.407899884365029664e-01 5.770136599054990212e-01
6.757052940217772585e-02 -2.124057292402652120e-02 -1.058362252719318830e+00 7.033495952451632727e-01 -2.172661180390512703e-01 6.768269947488102511e-01
1.056064717235304139e-03 -1.307535891334495604e-01 -1.014842606186835861e+00 7.603137721704010810e-01 -1.939991856424616579e-01 6.199090931887329958e-01
-3.491264309031583135e-02 -1.805264270384772662e-01 -9.667381418109984859e-01 9.031000258076707921e-01 -1.013625366196048427e-01 4.172960334777022218e-01
-1.549606197281246968e-02 1.263880197234832636e-01 -8.281323328872683964e-01 -8.879602113154521081e-01 2.990262202534222369e-01 -3.494423882724727592e-01
3.003414769212721033e-02 1.396564435174947882e-01 -8.978237697239754844e-01 -7.168782577423781222e-01 4.688044849809770986e-01 -5.160503061116943346e-01
2.068901893358238153e-02 -1.799468953789377379e-01 -1.061142956401313509e+00 -7.453634033149870719e-01 3.286233371436637629e-01 -5.800345673175538730e-01
3.305719444863569612e-02 1.022893139855882011e-01 -9.391237237625232881e-01 6.431407370515155320e-01 -5.437665313316071281e-01 5.391548495083999804e-01
-3.554830536583997169e-02 6.414112096792982942e-03 -9.018015269903537634e-01 -8.644776752901581762e-01 3.031179036759834577e-01 -4.009961164350613894e-01
3.679668495441267007e-02 8.631247176079709371e-02 -9.594978427944260702e-01 6.698206390241967512e-01 -5.146417026884432255e-01 5.352422156287345301e-01
2.870860397397265867e-02 8.930602035855633725e-02 -9.448881457834986675e-01 -7.405763721182556658e-01 4.673187423557845777e-01 -4.828662652362149532e-01
-3.960500938102719942e-02 5.787993614334102643e-02 -8.370394167605971214e-01 -9.061955469652210882e-01 3.578060146937675490e-01 -2.253541357716052074e-01
-4.803479716018618784e-02 -1.253606506556732281e-01 -9.302190057628182407e-01 -8.943280009692736732e-01 6.694854249891100950e-02 -4.423746368628904135e-01
-5.268538032009975614e-02 -1.996600428905601632e-01 -9.313483634021149093e-01 -9.033478454817132075e-01 7.932629368967276939e-02 -4.215092041616726459e-01
2.415411009137984760e-02 -1.643975051767894158e-01 -1.057453435354727356e+00 -7.556780206900804986e-01 2.861216211783216279e-01 -5.891393272734484210e-01
6.986375936568441254e-03 1.061120451145355914e-02 -9.724855864158601371e-01 -7.636561294534208733e-01 2.968261253980793990e-01 -5.733441961242686791e-01
-3.932372541165840563e-02 -1.210443469176439996e-01 -9.449650037323974461e-01 -8.543951411487348269e-01 9.270605497542219742e-02 -5.112871308299548057e-01
-5.070139340013871121e-02 -1.198281513905216367e-01 -9.249316282236845765e-01 8.951466226667853521e-01 -6.619399416894211630e-02 4.408297619991303762e-01
-6.479073977040778268e-03 -1.720499441814749286e-01 -1.017534401231353414e+00 8.687074900096997121e-01 -1.972194101477555139e-01 4.543696744524431952e-01
1.632232210825087029e-02 9.417999430209927914e-02 -9.225215280383473049e-01 7.357655026693844524e-01 -4.673049659370978048e-01 4.901787366789748801e-01
-4.590742277566105256e-02 -1.433669705256030436e-01 -9.374944084082462714e-01 8.924625254055794654e-01 -5.025949994362439999e-02 4.483130863716923153e-01
6.432274684615311988e-02 9.995256707444340194e-02 -9.798814531151353036e-01 -6.569999118376778080e-01 5.418889453484174723e-01 -5.241254494436073941e-01
-6.767053395995570320e-02 5.904887516971016066e-04 -8.205883222503721486e-01 9.063147537871737436e-01 -3.294943187541462537e-01 2.646262666033657451e-01
-2.102690809897316687e-02 5.882712759540174863e-02 -8.899289679266297881e-01 8.628906163922760442e-01 -3.624676183803417495e-01 3.521888836517141352e-01
-3.321463787555616748e-02 8.137275045114206184e-02 -8.251455999297634403e-01 9.046477867990765365e-01 -3.876459276331154502e-01 1.770395905694367999e-01
-8.157360076620501221e-02 -1.202316324518939022e-01 -8.608277684655841755e-01 -8.945838909024337315e-01 9.752031017299601923e-02 -4.361300852287364749e-01
-7.199004313860760118e-02 -2.842286810162659300e-02 -8.366573534385957078e-01 -8.995561574869155308e-01 2.929097358982126198e-01 -3.240410562620346657e-01
-4.086565973190527806e-02 -1.740345275205969766e-01 -9.513014217592234978e-01 -9.023091350462741911e-01 1.024643181648756396e-01 -4.187353440003028782e-01
-3.978920082173766082e-02 -1.277762438926890454e-01 -9.462579770917212141e-01 8.543844545970383786e-01 -9.271384736249105307e-02 5.113035754326055171e-01
-1.320163218421782809e-02 1.448096586775091121e-01 -8.234973628564061787e-01 8.934815456267714007e-01 -1.799907856217537461e-01 4.114535754075535623e-01
3.116021727573404371e-02 -1.816316374540196676e-01 -1.076457516000918657e+00 7.368067427784878998e-01 -3.226642294752099516e-01 5.941410765241907921e-01
-3.159413624728949627e-02 -1.912729776837923945e-01 -9.769978531373361141e-01 9.139204666569086255e-01 -1.037917585542628834e-01 3.923985875125344802e-01
5.859451967316711696e-02 -5.412666907710077940e-02 -1.058812969526782943e+00 7.003072127390193025e-01 -1.940585703052120359e-01 6.869578437406497207e-01
-2.573310274272312854e-03 -3.946553483477208135e-02 -9.836677036125753837e-01 7.629762469338771114e-01 -2.273376780187487123e-01 6.051320738216900974e-01
7.662731364292643677e-02 9.560591067126855691e-02 -9.998621398372525837e-01 -6.809154653619444719e-01 4.925253757667880095e-01 -5.420081948243133940e-01
-1.156440282198968779e-02 1.117917555032772181e-01 -8.548207097949090949e-01 8.726035450963812723e-01 -3.537023132724606000e-01 3.368348655809519920e-01
-1.972869403879736958e-02 -3.581002573276747397e-02 -9.573139525458534971e-01 8.649909810544029742e-01 -1.979384592118223762e-01 4.610975699994429577e-01
1.685413153931366800e-02 -7.069890121418882789e-02 -1.016115288649253490e+00 -7.577171160924277560e-01 1.651840095490871851e-01 -6.313311452556900072e-01
-3.723758038637055984e-02 -1.741743960335054298e-01 -9.591535907128769800e-01 -9.023091350462741911e-01 1.024643181648756396e-01 -4.187353440003028782e-01
7.487816365754678717e-03 -1.077242233509452390e-01 -1.014824343660317929e+00 -7.603116416706110492e-01 1.940332906887675679e-01 -6.199010321370890253e-01
4.921528289410193047e-02 1.674640504376601891e-01 -8.958957020946267669e-01 6.170090912383875414e-01 -4.335147809682773912e-01 6.567836142986560599e-01
-1.651665851843544738e-02 -2.368690298540658268e-01 -1.023519607712693347e+00 9.404100155540116024e-01 -7.717873704823864645e-02 3.311683034249239821e-01
-2.238828054485809266e-02 1.144780092666184898e-02 -9.261391460965588962e-01 -8.667596312079524079e-01 2.694634664800444335e-01 -4.196631767749136599e-01
5.930870479879728208e-02 3.390801269115190780e-02 -1.024943748421231371e+00 7.027182223798126293e-01 -3.418779735999415426e-01 6.239443493634301285e-01
9.321836290485994991e-02 -5.540389467689878916e-02 -1.094203149917627904e+00 -7.068740705059763929e-01 1.894630931991940492e-01 -6.814930555491416353e-01
2.945917913467272636e-02 7.423871650771088349e-02 -9.600493857520466801e-01 -7.465883753824975599e-01 4.266316440628471485e-01 -5.104813787279169901e-01
-2.467970240676590349e-02 9.758525330471674863e-02 -8.333119045549108872e-01 -9.210507867905566304e-01 3.408903165447214056e-01 -1.883062405724677535e-01
-7.231389334477506849e-03 -8.136964268133628497e-02 -9.899937187450298381e-01 -7.578379170097543360e-01 1.654964772168296960e-01 -6.311042763055374483e-01
-3.885959496939065446e-03 -1.608360622552988672e-01 -1.017624774323306447e+00 8.687074900096997121e-01 -1.972194101477555139e-01 4.543696744524431952e-01
8.131010192686563554e-02 7.252795805227488235e-02 -1.025209760597691311e+00 6.866414415719463982e-01 -4.462641511194231914e-01 5.739092595015871101e-01
2.320884405853985283e-02 1.608387648894237243e-01 -8.736991286872686224e-01 -7.238521696726101240e-01 3.385270709005392398e-01 -6.011966888862214642e-01
-1.033688379526801794e-02 1.033362621658198838e-01 -8.670663232846039792e-01 8.701736304849639891e-01 -3.690946693194759876e-01 3.264459800465672190e-01
2.214003832661266477e-02 -1.557630718903497691e-01 -1.051785957962757978e+00 7.549202479580252589e-01 -2.581681102313538312e-01 6.028637043997301381e-01
-8.414210650587854515e-03 -1.601833740160791553e-01 -1.007897577174440729e+00 -8.665658106052591680e-01 1.606906232123989087e-01 -4.724851526785379119e-01
-3.772945082329270255e-02 -6.637856924270309211e-02 -9.355307889435743318e-01 8.626046886606466568e-01 -1.632325857821090853e-01 4.788196675571664285e-01
