8.423311493696195029e-02 -1.336609037136541611e-01 -8.821452828197183793e-01 1.113793551387955855e-01 -3.805915626951399400e-01 9.180112753415056170e-01
-3.145401755924927961e-02 4.174809871345169093e-02 -7.719097075522215468e-01 3.770611424653000920e-01 -5.265378995670210172e-01 7.619597989148195749e-01
-2.847841644199260169e-02 4.499086384110633635e-02 -7.705737972979150863e-01 -3.770834925880588995e-01 5.264653786235153898e-01 -7.619988482461046431e-01
1.199290574462267833e-01 -1.267265550310441580e-01 -8.835347699010603906e-01 1.025412260009423010e-01 -3.629123114284807383e-01 9.261641059681924304e-01
1.257288775841974571e-01 -1.033296544598889255e-01 -8.754194936126993287e-01 1.145921526993925327e-01 -3.420667153438070041e-01 9.326623187379331492e-01
5.866310605787857652e-02 9.312454074198013576e-03 -8.188956367520684454e-01 -2.032749296824349350e-01 4.585298547252030232e-01 -8.651183013254808429e-01
1.048419542726115455e-01 9.553306020836287160e-02 -7.611232306653111790e-01 -7.341947263562996484e-02 6.878673541543561809e-01 -7.221136227260857021e-01
-8.263259484408068400e-02 -7.122116100951669804e-02 -8.072236154578482648e-01 4.433081629255611888e-01 -3.073141340187570680e-01 8.420426923356473248e-01
-5.560097703644896472e-02 -6.343625513510013636e-02 -8.161743716309436403e-01 -3.650684089896986673e-01 3.200084877157903240e-01 -8.742537529502422133e-01
-3.594699181038918390e-02 -1.047169119157424916e-01 -8.386123805242799989e-01 -3.626173339970180098e-01 2.882048902485668251e-01 -8.862542582812825698e-01
-8.825344748486085855e-02 6.528865122704972934e-02 -7.188472412528901234e-01 4.758537337864628403e-01 -6.054429389257398597e-01 6.379671400208988263e-01
6.301049816127644171e-03 -1.594907989358333167e-01 -8.771690395969401477e-01 -1.975749406174753808e-01 4.340398441538377283e-01 -8.789616354124414332e-01
-1.974991800303743574e-03 -1.476173317815045183e-01 -8.683658449895516052e-01 -3.754432848608210138e-01 3.595357447183371580e-01 -8.542695055559150763e-01
-8.986744948123969595e-03 -3.112618514644993964e-02 -8.232107615434915981e-01 3.705005891918803917e-01 -3.956168633967493409e-01 8.403669500906061351e-01
5.831480657389186140e-02 1.628116990144241050e-01 -7.034702889203553466e-01 -1.521835295966474447e-02 -4.947124941119651620e-01 8.689234430619960925e-01
8.467218118922836823e-02 8.611700638322633550e-02 -7.675682563582186813e-01 -7.924145933820314625e-02 6.630029632526281969e-01 -7.444110839047105577e-01
-2.644978373235323116e-02 4.258251619674766758e-02 -7.732416170281581902e-01 -3.770834925880588995e-01 5.264653786235153898e-01 -7.619988482461046431e-01
5.832753126082113049e-02 6.765844316058094998e-02 -7.809782423385530636e-01 9.048346182658360826e-02 -6.396373004033247822e-01 7.633327367987200462e-01
-1.267387547289241523e-01 -4.627515025360528361e-02 -7.720433054425926978e-01 4.571790842932677013e-01 -3.883529624172547545e-01 8.001057814230014831e-01
-2.102182868366874943e-02 1.476159926466149783e-02 -7.934703362161328322e-01 -3.740951183340435193e-01 4.629484015884366421e-01 -8.035742777773250411e-01
1.020890302464391719e-02 -7.041794704031595353e-02 -8.438815029450645877e-01 2.004841665537878403e-01 -3.225116217969745680e-01 9.250904565322886075e-01
-1.262186651426568385e-01 -1.363705274884720597e-01 -8.061403150918819982e-01 4.471431339010887296e-01 -2.542658223139477869e-01 8.575616067712715784e-01
-4.873124129351129319e-02 3.348635718564788055e-04 -7.894214375710681963e-01 3.740776026945675237e-01 -4.630356672341513491e-01 8.035321512119534271e-01
2.511335487559105198e-02 -1.558566221354431014e-01 -8.796031191252560166e-01 -1.975749406174753808e-01 4.340398441538377283e-01 -8.789616354124414332e-01
-3.679445261240188447e-02 8.769373705214895953e-02 -7.329133270747263396e-01 -3.918125805004104567e-01 5.940111933110794329e-01 -7.025906375570035722e-01
-5.422592886389310252e-02 7.207442730753138224e-03 -7.823083917454769498e-01 -3.756566480352043214e-01 4.676513832176766305e-01 -8.001151583125697409e-01
5.831106527324666361e-02 -1.939891928030407220e-01 -9.060840790047913762e-01 -1.620541114528686877e-01 4.699791637932796973e-01 -8.676739310140594297e-01
1.762123744804062683e-02 -1.553999497703678345e-01 -8.776935151216337383e-01 -1.975749406174753808e-01 4.340398441538377283e-01 -8.789616354124414332e-01
-3.436590988592793522e-02 -1.319829190867014557e-01 -8.485034984144728121e-01 -3.672591259721060819e-01 3.043589494054382838e-01 -8.789120344534044893e-01
-2.168935444634706097e-03 1.428694460080670026e-01 -7.088268464114251266e-01 -1.445133411519756439e-01 5.418961185208933662e-01 -8.279278295606946614e-01
-9.255742968347478727e-02 5.063329285323091983e-02 -7.287224401331738877e-01 -4.759265941690545287e-01 5.826842505020657370e-01 -6.587662265018524588e-01
6.317930811044343564e-02 4.663750367158010779e-02 -7.973594925591064309e-01 1.089708341188863755e-01 -5.538040772570630432e-01 8.254855548856607772e-01
5.502764767509187027e-02 -1.456935037001624023e-01 -8.819385085579047878e-01 1.961157661935685470e-01 -3.932256645861118005e-01 8.982829080869346727e-01
5.829288897987588286e-02 -2.381025506548180293e-02 -8.360173866819947675e-01 2.022853487119615490e-01 -3.850665906317035092e-01 9.004467549365461343e-01
5.533689075921710554e-02 1.474203684886910837e-01 -7.129575039799902481e-01 3.241633545709654389e-03 -5.384449977008446409e-01 8.426544227991049629e-01
3.542920679954610769e-02 1.310141048837124012e-01 -7.243282221852308522e-01 1.505845245202677707e-01 -6.101305069891410637e-01 7.778592838143533195e-01
6.955123195188173124e-02 -2.100755170245607317e-01 -9.137685124342969090e-01 -4.784663320264178482e-02 4.222244464107974271e-01 -9.052277152983483344e-01
-4.939287608868835056e-02 -7.167443945261738059e-02 -8.222784945070180651e-01 3.650652941041497845e-01 -3.200717792687887142e-01 8.742318840881763142e-01
6.421107897766319128e-02 -1.138517703176458312e-01 -8.710745348633469609e-01 1.977439114894176952e-01 -3.438464833715799140e-01 9.179689217734244844e-01
-1.098492750566742449e-01 -9.960376176157621775e-02 -8.026918425297757675e-01 -4.382572433160425440e-01 2.777311648982186965e-01 -8.548660647875208074e-01
1.361557030291473125e-01 -2.479128346912359490e-02 -8.472803009129984408e-01 1.118734872232434591e-01 -4.092255991267103044e-01 9.055488567028817659e-01
-8.943972955199921970e-02 6.155096508004549022e-02 -7.209532310237997121e-01 -4.739001811189818003e-01 6.055533307679893396e-01 -6.393150881460488710e-01
-3.041839190585260422e-02 1.317270852244904755e-01 -7.016521738944293540e-01 -4.157721073410055035e-01 5.258944337950198777e-01 -7.420030992257613534e-01
-5.780444891140497365e-02 1.090651813576433843e-01 -7.015704838569313262e-01 -5.277274864453673775e-01 5.679448989489822575e-01 -6.316187867756032359e-01
7.941853109510584041e-02 9.831420541297118676e-03 -8.219856332406363375e-01 -1.155278930891806971e-01 4.764732707615560448e-01 -8.715655616005945072e-01
6.348823613007700817e-02 -1.040978613058275298e-01 -8.672424399802853845e-01 2.009584654448461627e-01 -3.513115423467152443e-01 9.144374748335858394e-01
-3.190080023773606693e-02 8.114904692148290632e-02 -7.411459920498809639e-01 -3.918644442057229726e-01 5.923428771801801940e-01 -7.039688723382915292e-01
-5.108570962588448311e-02 7.077442933812884418e-02 -7.391962566574667992e-01 -3.918644442057229726e-01 5.923428771801801940e-01 -7.039688723382915292e-01
7.985521405596883449e-02 -3.207806900683569939e-02 -8.428661066390176204e-01 -1.211022907548876815e-01 4.005343183425346676e-01 -9.082436319643533151e-01
-6.625523030028672433e-02 5.110457565992731349e-02 -7.466388308100578852e-01 -4.662977987086383003e-01 5.612507602608394208e-01 -6.837864776566644487e-01
-7.799677960679440858e-02 1.151681014701985833e-01 -6.797792648060212439e-01 5.408532690143272870e-01 -5.596476515799041485e-01 6.279110187579240998e-01
-1.152859699511015780e-02 -9.934679439634994114e-02 -8.468691895698831074e-01 -3.638205951568804219e-01 2.908491557016797402e-01 -8.848962329941932881e-01
-5.707378812336465213e-02 -1.515757062823996637e-01 -8.460566224402668034e-01 -3.709476038038269641e-01 3.490493821672149832e-01 -8.605593553270363127e-01
-2.437564555982721023e-02 -4.459312093610755950e-02 -8.222763436525284408e-01 3.684922838953778035e-01 -3.586771157224247775e-01 8.576503736177175652e-01
-2.088409733023050517e-03 6.039365038783198886e-02 -7.717028184453431638e-01 -1.879897619623603355e-01 6.176938291659641589e-01 -7.636191346526249868e-01
9.464487158330816066e-03 1.702852578601296851e-01 -6.961565794945169250e-01 -1.481703911983884014e-01 4.767400616770788857e-01 -8.664666460771883738e-01
-1.134673142914181948e-01 -1.288757015868798872e-01 -8.101085896092091732e-01 -4.386198766234246094e-01 2.576406845383003574e-01 -8.609494070510111952e-01
6.108649633341136503e-02 1.394300182665290933e-01 -7.191934689073279374e-01 1.588139439468578412e-02 -5.925876949525344939e-01 8.053493683507315648e-01
-1.247143416089822356e-02 -5.493371537652570052e-02 -8.310722035136467456e-01 -3.652055510949243078e-01 3.203579381674680482e-01 -8.740684738065669368e-01
-7.199188164576010573e-02 4.455113876310613785e-02 -7.481025288846859800e-01 -4.685603709746131162e-01 5.223856398262408662e-01 -7.124355564227980997e-01
-1.060730007405817077e-01 -1.581181028309613934e-01 -8.228180548797359162e-01 -4.447357274923730008e-01 2.736101188802444462e-01 -8.528467831551972411e-01
2.697056970931461725e-02 -4.999272721740771058e-02 -8.395484114677930210e-01 -2.011528845425025191e-01 3.434170383942737881e-01 -9.173888242074550448e-01
4.043320230102129612e-03 7.809158616997938229e-02 -7.599605817037305977e-01 1.799812682024111987e-01 -6.017967668694618188e-01 7.781050022212391282e-01
-1.024987985082442682e-01 -1.731845694608489528e-01 -8.304274001524549753e-01 4.563974910470153801e-01 -2.944539050261747448e-01 8.396417259646080655e-01
-3.462004864611383653e-02 -2.175381387343558182e-01 -8.849271889256474788e-01 5.211652263572681409e-01 -2.736507748878110324e-01 8.083947428325335416e-01
1.264160070081611631e-01 -1.338630211342554110e-01 -8.870355648680988692e-01 9.409211638162347235e-02 -3.619597400878902249e-01 9.274329195097260614e-01
1.267020006904354124e-01 2.527797203478869201e-02 -8.193431331194317435e-01 -1.192264568044452827e-01 5.216082042832401733e-01 -8.448135493836917975e-01
1.819729348115045218e-03 -6.466460260143933048e-02 -8.394832972357774148e-01 -2.017340097731437076e-01 3.408256059734552368e-01 -9.182272570631281328e-01
2.147615467936784053e-02 1.004315758709474482e-01 -7.451450932104574099e-01 -1.707491770830697475e-01 6.277954212804874867e-01 -7.594192699324332496e-01
9.745120767552123420e-02 -1.303825956617608861e-01 -8.823898617992476101e-01 1.113793551387955855e-01 -3.805915626951399400e-01 9.180112753415056170e-01
-2.501789282329081737e-02 -1.580371552952705427e-01 -8.626240932191362454e-01 -3.754432848608210138e-01 3.595357447183371580e-01 -8.542695055559150763e-01
-1.126202411141232484e-01 -2.378612118617377813e-02 -7.683600203206555346e-01 4.554097548887733882e-01 -4.265562429432192548e-01 7.814420815123233055e-01
1.058308405133468466e-01 -1.280003846122389488e-01 -8.824189122874998015e-01 1.113793551387955855e-01 -3.805915626951399400e-01 9.180112753415056170e-01
2.714129480798808253e-02 1.295463130898636961e-01 -7.233209957052788575e-01 -1.505059688086750891e-01 6.101429182030480014e-01 -7.778647522028691030e-01
2.444694946005578420e-02 -2.000710430396787920e-01 -9.034334790259890280e-01 1.755195214239178847e-01 -5.007772772023155738e-01 8.475936622208510851e-01
1.118781597856475102e-01 -6.077591955064778201e-02 -8.582531850375476612e-01 -1.187340423730586514e-01 3.285712554560611953e-01 -9.369862097543275592e-01
-4.874364415914864135e-02 7.828221558314400752e-02 -7.347973224345477616e-01 3.918175479252365423e-01 -5.923553187412521348e-01 7.039845065744022579e-01
-1.228807289410899922e-01 2.912187105951214491e-03 -7.454992835759804981e-01 -4.482902820409632727e-01 5.061504688054543344e-01 -7.367818713538304420e-01
1.246727696108274053e-01 3.926421065048039949e-02 -8.101313822551733379e-01 1.006355620924803684e-01 -5.759666721406593304e-01 8.112551240057254143e-01
-2.814263893360243948e-02 1.040315001081995594e-02 -7.926662745936028376e-01 -3.740951183340435193e-01 4.629484015884366421e-01 -8.035742777773250411e-01
-3.781385138431427040e-02 1.548292446011476642e-01 -6.839754973585814302e-01 -5.487602900407716477e-01 3.994027391746310940e-01 -7.343974373690104196e-01
-4.897477100094589642e-02 1.052501003783080924e-02 -7.833759946288390008e-01 3.756186482735938692e-01 -4.676753105033707447e-01 8.001190130316201410e-01
-5.612024184995781373e-02 9.620987374252200353e-02 -7.153855811670207787e-01 4.926142388326902877e-01 -5.825628749414683005e-01 6.464918471560336943e-01
6.266241341607198256e-02 -1.793793966070503232e-01 -8.992232704988829539e-01 -1.896001199198029952e-01 4.405327823253343267e-01 -8.774865595683479791e-01
1.016259983726702093e-01 -8.362490665589362993e-02 -8.650291030622875299e-01 -1.187194221345760359e-01 3.359011917292933358e-01 -9.343854066726817731e-01
-7.005446454910549403e-02 -1.762462857546127082e-01 -8.487053353148976687e-01 -4.551944759114935901e-01 3.017567591919261827e-01 -8.376997358132846072e-01
3.496969173065294680e-03 -8.143466310683675213e-02 -8.462676290646300448e-01 2.004841665537878403e-01 -3.225116217969745680e-01 9.250904565322886075e-01
8.145747629943453361e-03 -1.538371619021152228e-02 -8.199286960106356714e-01 -2.038081127935231773e-01 4.229549590996689035e-01 -8.829333812539541526e-01
-7.608567414036748744e-02 9.599689504942070239e-02 -6.993469852092842887e-01 5.098835373646403157e-01 -5.960910871783527964e-01 6.202372079382622028e-01
-8.326621588186453038e-02 7.418047580760746273e-02 -7.145518754624906599e-01 4.926142388326902877e-01 -5.825628749414683005e-01 6.464918471560336943e-01
9.974824969725235024e-02 8.596761014068361739e-02 -7.693164815368527254e-01 -8.853423765777021504e-02 6.605674728360014791e-01 -7.455282037545030160e-01
7.300078114341307378e-02 8.061679607691198124e-02 -7.717456111267217977e-01 7.696385544358631814e-02 -6.635619901095423101e-01 7.441518999754839214e-01
-3.070622646191758717e-02 -3.049068076999454993e-02 -8.133359122946055564e-01 3.705005891918803917e-01 -3.956168633967493409e-01 8.403669500906061351e-01
2.602944734848942898e-02 -1.752361173277370565e-01 -8.897195177421013401e-01 1.896518533143021212e-01 -4.405236685280528031e-01 8.774799553272067953e-01
-1.279052792871984701e-01 -3.485103338839946798e-03 -7.468369039820292876e-01 -4.482902820409632727e-01 5.061504688054543344e-01 -7.367818713538304420e-01
-3.697643930018172653e-02 1.636136148676672064e-01 -6.804958425073521777e-01 5.287486096358082754e-01 -4.103403113960451543e-01 7.429978039345715990e-01
2.915738911406862491e-02 -6.414239508076260976e-02 -8.457675947761358337e-01 2.017514829899508810e-01 -3.408362361137461383e-01 9.182194722740147919e-01
-5.194750730686350376e-02 -6.763679883629827860e-02 -8.197334694929457877e-01 3.650652941041497845e-01 -3.200717792687887142e-01 8.742318840881763142e-01
3.378849427295867874e-02 1.014107150504947076e-02 -8.126411477114531268e-01 -2.020835475678711135e-01 4.881610245531204928e-01 -8.490353667013121886e-01
-3.980153013682966728e-02 1.101352123558854146e-01 -7.129279865204518618e-01 -4.142327759335778792e-01 5.770900453658158735e-01 -7.038311494115920830e-01
2.902154947977876598e-02 1.391820812506531502e-01 -7.172960888601572771e-01 1.493774179644746514e-01 -5.520371164168714762e-01 8.203300610732318088e-01
-3.948052155114527284e-02 -1.592088384108367449e-01 -8.572682631569027434e-01 3.754238820501197282e-01 -3.595516960705949505e-01 8.542713191013594498e-01
2.008910518023056951e-02 5.454052340009797606e-02 -7.812748873262461702e-01 -1.945845255553924902e-01 5.621176834916515874e-01 -8.038411362454414011e-01
8.872169627400990077e-02 6.210210263235163130e-04 -8.286308831171433908e-01 1.163299004837892864e-01 -4.694906115301508143e-01 8.752404926295838106e-01
-1.100129615295963453e-01 3.361566077815569126e-02 -7.311492843509489470e-01 -4.593763011345897151e-01 5.483110265280807250e-01 -6.988050029469058400e-01
2.125030817218283991e-02 -9.275162164006170440e-02 -8.536016929060632474e-01 -2.005047962949970120e-01 3.245015957740516321e-01 -9.243898209104186581e-01
-4.554687909733701190e-02 1.543737374757044034e-01 -6.785418928619586509e-01 -5.430219434257802513e-01 3.875612701163075879e-01 -7.449318296756578528e-01
-8.753714425958143003e-03 -1.940012090976211967e-01 -8.868563142830293566e-01 -3.985623964385900941e-01 4.104295823283296563e-01 -8.201802083048097547e-01
-7.549004283318687392e-02 -5.572693701394612620e-02 -8.042543287831712684e-01 -4.448682459786518217e-01 3.466076611642538441e-01 -8.258058930173141077e-01
-1.091718196675817154e-01 -6.609092903566471389e-02 -7.904443775474500056e-01 -4.462520932305713561e-01 3.494936531229858034e-01 -8.238405523607608139e-01
-2.182823119496031181e-02 9.906110602608125815e-03 -7.964304723175834599e-01 3.740776026945675237e-01 -4.630356672341513491e-01 8.035321512119534271e-01
-3.516333203167593818e-02 1.708348137719453985e-01 -6.777980269161397731e-01 5.287486096358082754e-01 -4.103403113960451543e-01 7.429978039345715990e-01
8.203595765585977584e-02 8.912553678679316360e-02 -7.649826420861715048e-01 7.740309142153298239e-02 -6.794677167143724494e-01 7.296111179123760948e-01
-8.776915554155712354e-03 -2.087470349382335166e-01 -8.951874376945871958e-01 4.141987186250981057e-01 -3.930704699574646410e-01 8.209354585695179951e-01
3.503765951982713844e-02 3.403102127798000170e-02 -7.985676438591152726e-01 -1.992202565124302771e-01 5.363312518426454067e-01 -8.201585686268371145e-01
-9.516384778984066095e-02 6.737731883854974901e-02 -7.111914895756944466e-01 -4.739001811189818003e-01 6.055533307679893396e-01 -6.393150881460488710e-01
9.208347346341141937e-02 1.074026456004331664e-01 -7.485557677556939904e-01 -7.315724745170389121e-02 6.825409868966917371e-01 -7.271766074011047909e-01
1.086195416005228814e-01 -1.776714891486811942e-01 -9.025200689814957267e-01 -6.011973660408401893e-02 3.610006375158875680e-01 -9.306256803805590394e-01
-6.274027343266218304e-02 -1.088530236552621468e-02 -7.891126755508436341e-01 3.726593564289225058e-01 -4.340912386896120800e-01 8.201766886219695740e-01
-2.802075746494935016e-02 9.448239525905090253e-02 -7.320666109438594971e-01 -3.918125805004104567e-01 5.940111933110794329e-01 -7.025906375570035722e-01
-4.560350435259339329e-03 1.129631324923504598e-01 -7.301523979112946039e-01 1.599359273365136558e-01 -6.105848732641231402e-01 7.756330393221038122e-01
-7.752797991711643522e-02 -1.894016727881160933e-01 -8.495662828294281432e-01 -4.706270465495701050e-01 3.250571709251580121e-01 -8.202731366356948994e-01
-1.436290251913487082e-02 2.012929503207677717e-01 -6.707020168326716103e-01 -2.420165374204392428e-01 4.060766627387465411e-01 -8.812092484727922503e-01
-6.532461646547730108e-03 -3.953365838594991022e-02 -8.273223014008180831e-01 -3.685134119172362444e-01 3.586699477916264756e-01 -8.576442932756385140e-01
-4.659147432080636142e-02 -1.538147217294801861e-01 -8.514832279578729013e-01 -3.709476038038269641e-01 3.490493821672149832e-01 -8.605593553270363127e-01
8.704550022290319378e-02 -7.362669189422327287e-02 -8.600514114726056647e-01 1.164810279944288735e-01 -3.298785325775154820e-01 9.368096518833833874e-01
-8.367221856779000211e-02 -1.401590479469567996e-01 -8.287416282198111217e-01 -4.395395428207105604e-01 2.651756040184830021e-01 -8.581881433172993123e-01
6.515055861602261911e-02 1.964140940378958367e-02 -8.148964412135500934e-01 1.090940191146231725e-01 -5.090442907619475710e-01 8.537988082892151720e-01
1.237452324050940244e-01 4.342973820887367775e-02 -8.069069371452846084e-01 -1.189542868275211829e-01 5.713413702862080168e-01 -8.120461293823363347e-01
4.004618864637285447e-02 -1.378218153851820671e-01 -8.747824173341212095e-01 -1.998116984464927415e-01 3.805788575862804057e-01 -9.029036594910053726e-01
1.329744212426020415e-02 -2.246006696586900220e-01 -9.167818336600691564e-01 6.669602833191023983e-02 -3.241806988724911798e-01 9.436410939988213453e-01
-1.694738055990112000e-02 7.105793279330177917e-03 -8.003163948661895510e-01 3.740776026945675237e-01 -4.630356672341513491e-01 8.035321512119534271e-01
-2.979515536983469784e-02 -1.365326650787035967e-01 -8.519889521330649140e-01 -3.672591259721060819e-01 3.043589494054382838e-01 -8.789120344534044893e-01
9.414984276940045749e-02 5.776107837603570994e-02 -7.928101145510433323e-01 1.008793945190892272e-01 -6.154702607864106501e-01 7.816774947821956143e-01
9.164807704122719667e-02 -1.966374407187352624e-01 -9.093941830228565726e-01 4.722589436345098202e-02 -3.662896456144743573e-01 9.293016789058303750e-01
9.657593173895367977e-02 -7.362053819069816485e-02 -8.612342392576349814e-01 1.164810279944288735e-01 -3.298785325775154820e-01 9.368096518833833874e-01
2.902497789862177463e-02 1.869869783638624938e-01 -6.883810522146297517e-01 4.608064229025902320e-02 -5.828329993065666237e-01 8.112843332182798628e-01
2.454173239491701589e-02 1.727801499020411302e-01 -6.975748053269033022e-01 2.251798695389878313e-02 -5.255949105784900599e-01 8.504369055006568701e-01
-4.257955416409748423e-02 1.482808428579561744e-01 -6.839757984949327296e-01 -5.487602900407716477e-01 3.994027391746310940e-01 -7.343974373690104196e-01
1.056772942875905952e-01 -1.412108661713217528e-01 -8.876324687256531565e-01 1.025412260009423010e-01 -3.629123114284807383e-01 9.261641059681924304e-01
1.182489748104969679e-01 -1.663037696913599872e-01 -8.988239035326510695e-01 -9.875477427364895422e-02 3.613337153304853056e-01 -9.271922350427814763e-01
-6.962943891917001971e-02 -1.143364065662980239e-01 -8.279591693437983180e-01 -3.626173339970180098e-01 2.882048902485668251e-01 -8.862542582812825698e-01
1.400263623700900503e-03 -1.676921385372563689e-01 -8.794886771252805602e-01 3.773571407253007437e-01 -3.964461524883650667e-01 8.369181779127502496e-01
-2.305579026724613283e-03 1.448415402403672135e-02 -8.020622114778845901e-01 2.020943984395388859e-01 -4.882384565707560409e-01 8.489882588379930040e-01
2.252204155026850049e-02 -1.894724989607328713e-01 -8.963049319082302402e-01 -1.751003418141183210e-01 4.790620967792826868e-01 -8.601391618372088432e-01
-6.528659457866044236e-02 5.402333174808427591e-02 -7.449036672648304824e-01 -4.662977987086383003e-01 5.612507602608394208e-01 -6.837864776566644487e-01
-5.304620747797986896e-02 -8.321188005265500731e-02 -8.249177703488063118e-01 3.630589672909486643e-01 -2.978556830182986226e-01 8.828760832434713324e-01
-6.397785331188095281e-02 -1.634376067063166710e-02 -7.914393366619829617e-01 3.726593564289225058e-01 -4.340912386896120800e-01 8.201766886219695740e-01
-1.869184487407000647e-02 1.469981010197772830e-01 -6.987730382221102321e-01 -4.268551600863464413e-01 4.536219512254575092e-01 -7.823182202109755234e-01
-9.298882793543035430e-02 -1.537489765007541732e-02 -7.747139612243819640e-01 -4.536705712450210815e-01 4.268448283743291882e-01 -7.822956635929320113e-01
7.968796807260047910e-02 1.761404333532865874e-03 -8.263571770738030731e-01 -1.182453414183658319e-01 4.692702982567816261e-01 -8.751019520072191860e-01
5.128169616936958941e-02 -1.139575168686848550e-01 -8.683289668052437404e-01 1.977439114894176952e-01 -3.438464833715799140e-01 9.179689217734244844e-01
4.459293338938855045e-02 1.464673834392472285e-01 -7.130703426290321278e-01 -8.472571670425758233e-03 6.160795334001666346e-01 -7.876383840663953029e-01
3.915874614273069654e-02 1.099017974814521098e-01 -7.418613089325594157e-01 1.707992542457459073e-01 -6.277926245318540266e-01 7.594103207966714786e-01
-1.159290694819587880e-01 1.368959621077587598e-02 -7.424319123567619805e-01 -4.538515190606751681e-01 5.014390869481542001e-01 -7.365986972069115124e-01
2.534563664349822210e-03 -7.963457527572667671e-02 -8.454314986012487765e-01 2.004841665537878403e-01 -3.225116217969745680e-01 9.250904565322886075e-01
7.454255112146684903e-02 -1.930366793035081241e-01 -9.068563392934242406e-01 5.799003784345037327e-02 -3.767822760708396945e-01 9.244848684266242511e-01
4.251668920805590918e-02 -8.936488176425784469e-02 -8.570255827323730591e-01 -2.005047962949970120e-01 3.245015957740516321e-01 -9.243898209104186581e-01
-1.267322178123472982e-02 -7.900137712790114564e-02 -8.396087829968024163e-01 -3.630785727621818060e-01 2.978321761965480596e-01 -8.828759509823593810e-01
-2.461366699684847809e-03 -5.866374556232129001e-02 -8.363153577237574243e-01 -2.017340097731437076e-01 3.408256059734552368e-01 -9.182272570631281328e-01
4.406904731360220678e-02 1.119125569422796118e-01 -7.407338415398663223e-01 -1.707491770830697475e-01 6.277954212804874867e-01 -7.594192699324332496e-01
-3.064200167049425244e-02 5.205448790162359868e-02 -7.650965577052365463e-01 3.806406965175848645e-01 -5.364471549857670052e-01 7.532178370579685200e-01
-4.168870159468827941e-02 7.527292467318734588e-03 -7.880077145898229940e-01 -3.756566480352043214e-01 4.676513832176766305e-01 -8.001151583125697409e-01
1.233543796385035557e-01 -7.521672446832441961e-02 -8.647718612964060414e-01 -1.183502984005192216e-01 3.297154144876343618e-01 -9.366327734591374243e-01
-1.326948873453200894e-01 -4.946478297902663634e-02 -7.700147378123138875e-01 -4.433287889075182009e-01 3.922001845014708166e-01 -8.060016130274216817e-01
-7.474562296357045721e-02 -5.785830974112624037e-02 -8.060701826889553612e-01 4.465362215989977512e-01 -3.462265159400831349e-01 8.250652110349110391e-01
3.785832685845819112e-02 -7.935121811103680589e-02 -8.529855374649250033e-01 2.003505167333656800e-01 -3.221706170246403378e-01 9.252382201198975364e-01
-7.292962796859558949e-02 1.281698007730068534e-01 -6.734453572211754890e-01 -5.346756574636085668e-01 4.730957029189949425e-01 -7.002159646819259287e-01
6.018761273486170071e-02 -1.638477228641999073e-01 -8.910444554043130960e-01 -1.888542477686899479e-01 4.125003560586136819e-01 -8.911663870182936487e-01
-1.183418697721028146e-02 3.304492149645110038e-02 -7.866139526458412190e-01 -3.778662661315279059e-01 4.925659406347589475e-01 -7.839616566174729684e-01
-3.074253272176798515e-02 1.245372315279926270e-02 -7.908078355120865544e-01 3.756186482735938692e-01 -4.676753105033707447e-01 8.001190130316201410e-01
-1.011067347097901470e-01 -1.410864509334465999e-01 -8.205161762148215354e-01 4.412160873709327635e-01 -2.643653764453079424e-01 8.575775836517743889e-01
1.216393065460301924e-02 5.702156463101572953e-02 -7.775951311783064757e-01 -1.883264641753258362e-01 5.783658598542188445e-01 -7.937418188846483424e-01
-1.233471940639826320e-01 -6.446713450465118081e-03 -7.516622064135605186e-01 4.658843424154937574e-01 -4.649026958345684468e-01 7.528726737621930232e-01
4.839305756442349726e-02 7.909681707355414870e-02 -7.690014303668297746e-01 -1.879897619623603355e-01 6.176938291659641589e-01 -7.636191346526249868e-01
2.128504135503479777e-03 -1.899633817628768873e-01 -8.906470979845925173e-01 3.984998278430701424e-01 -4.103863542027912925e-01 8.202322399742556502e-01
6.554580199769863280e-02 -5.599205196517878513e-02 -8.507258422875053627e-01 2.011814401049143719e-01 -3.433779250113061510e-01 9.173972033815246396e-01
-3.961194163063559703e-02 -2.058577436933935467e-01 -8.772389085663058195e-01 -5.186828795766069700e-01 2.767336524413179233e-01 -8.089416270909829398e-01
1.570555323502717884e-02 -3.708977528943963736e-02 -8.316481386717264890e-01 -2.022722237899929609e-01 3.850640508843934384e-01 -9.004507894380192612e-01
9.150626038993193989e-02 6.078237236855884434e-02 -7.896310474512148181e-01 -1.029317011661528281e-01 6.149324966939669901e-01 -7.818331595709957504e-01
6.602575797784614176e-02 -1.645715162503109119e-01 -8.926166910475354932e-01 -1.888542477686899479e-01 4.125003560586136819e-01 -8.911663870182936487e-01
-8.780321259137428835e-02 -1.477763050592401095e-01 -8.294740068715882320e-01 4.464466953644349312e-01 -2.728634663644117775e-01 8.521918075889798327e-01
-3.834713243323508922e-03 -7.011081476580913185e-02 -8.402434331487330654e-01 -3.652055510949243078e-01 3.203579381674680482e-01 -8.740684738065669368e-01
-4.227995362206485308e-02 4.673772684957749196e-02 -7.630019222370468812e-01 3.806406965175848645e-01 -5.364471549857670052e-01 7.532178370579685200e-01
-3.789084274841685723e-03 8.319636083391350467e-02 -7.534733030734224180e-01 -1.800914582765810179e-01 6.158027969737133178e-01 -7.670423599092595079e-01
2.186745091543071048e-02 -1.806088001074726557e-01 -8.912349602161417916e-01 -1.751003418141183210e-01 4.790620967792826868e-01 -8.601391618372088432e-01
-1.213421987618847203e-01 -1.325916478618524019e-01 -8.072294377016830946e-01 -4.317234959482200152e-01 2.603383491965670649e-01 -8.636195730666678116e-01
8.542663776043592228e-02 -6.541052577496778153e-02 -8.565274194463342594e-01 -1.183502984005192216e-01 3.297154144876343618e-01 -9.366327734591374243e-01
-1.077430742233688593e-01 -8.732964921536778835e-02 -7.994592843901653367e-01 -4.414739449221161682e-01 3.081335048358054829e-01 -8.427066507109737259e-01
-7.277111907023209314e-02 8.769894109618470157e-02 -7.097041512922435125e-01 -5.063109505938323540e-01 6.091738271763704748e-01 -6.103740407259007350e-01
-6.768346517762172110e-02 -1.988570991614689865e-01 -8.587946555406321680e-01 -4.695912316535135744e-01 3.110921202307403433e-01 -8.262601090966930073e-01
-2.849231978832057754e-02 -1.483071235440616975e-01 -8.575544142174496010e-01 3.709280922042872963e-01 -3.490567219919223918e-01 8.605647885231777483e-01
6.355593738175234486e-02 -4.648816840734749933e-02 -8.467322093974306574e-01 2.011814401049143719e-01 -3.433779250113061510e-01 9.173972033815246396e-01
-1.113271736360763042e-01 -1.439668921448491179e-01 -8.161458041102606087e-01 4.412160873709327635e-01 -2.643653764453079424e-01 8.575775836517743889e-01
-1.334543685095393277e-02 -2.268597968238341700e-01 -9.035571887719240358e-01 5.386283109674233627e-01 -3.963144849577613371e-01 7.435148765405068527e-01
-2.110281534558529695e-02 1.173102091697044713e-01 -7.184587702198774739e-01 4.036049183357938719e-01 -5.560061381779213274e-01 7.266087284113998956e-01
-7.952371490754923944e-02 -1.684630614837562823e-01 -8.408002357170268892e-01 -4.546277771532264977e-01 2.954672998091947833e-01 -8.402455944449691572e-01
-6.430597973018484237e-02 -1.413266952249486209e-02 -7.895906814782420735e-01 -3.726755839285540994e-01 4.340844105605043968e-01 -8.201729291142513256e-01
-8.288084330876220596e-02 -2.690234231461699488e-02 -7.872710580710933215e-01 4.530470325722566471e-01 -4.212010096121587277e-01 7.857086583328269924e-01
8.376073576378692542e-02 2.444205976653595833e-02 -8.139543165475561226e-01 -1.110883365835933639e-01 5.088331347839781804e-01 -8.536675128063619944e-01
-8.440942580799272454e-02 -1.304385303235546800e-01 -8.253801208041791071e-01 -4.386198766234246094e-01 2.576406845383003574e-01 -8.609494070510111952e-01
2.218162403141014233e-02 -2.225328606338300985e-01 -9.166993826867875228e-01 6.669602833191023983e-02 -3.241806988724911798e-01 9.436410939988213453e-01
-8.564375261255378902e-02 -1.308273000998351476e-02 -7.782388813034839536e-01 4.554097548887733882e-01 -4.265562429432192548e-01 7.814420815123233055e-01
-1.241595652161328750e-01 1.617647443526833845e-02 -7.354955530813443998e-01 -4.517138530435468313e-01 5.427587986087221150e-01 -7.080730763850366927e-01
-1.215814712714244177e-02 -1.676336664260384135e-01 -8.733476417255531254e-01 3.773571407253007437e-01 -3.964461524883650667e-01 8.369181779127502496e-01
5.751813827461503548e-02 -7.761645464299102293e-02 -8.561693796661085099e-01 -2.003298688429461794e-01 3.221527076403601364e-01 -9.252489268350180263e-01
7.928676603790256461e-02 -1.007820066119078789e-01 -8.687947742588563171e-01 1.139444643906448867e-01 -3.305992741452004058e-01 9.368675354442568270e-01
8.182817354952018341e-02 -1.672378871505954268e-01 -8.957409244284214589e-01 -9.134538592402481616e-02 4.270958420284102219e-01 -8.995805479179918018e-01
-1.194905292531577429e-01 -5.637411099058860231e-02 -7.810442484929315254e-01 4.501956182328770151e-01 -3.895302783928103474e-01 8.034861962343455843e-01
6.020590945526619470e-02 -7.946423899565570326e-02 -8.578640234926222519e-01 2.003505167333656800e-01 -3.221706170246403378e-01 9.252382201198975364e-01
-4.181564963369559240e-02 5.437586220720129482e-02 -7.569928453481197250e-01 -3.792351990894289315e-01 5.749199331820971093e-01 -7.250156785901212819e-01
-9.418650474242466764e-02 3.592047410596353046e-03 -7.626921639183920076e-01 -4.569718771957024250e-01 4.552161191289905151e-01 -7.641694761879571640e-01
4.438613195090930497e-03 1.021800704704580176e-01 -7.404965062003591170e-01 1.599359273365136558e-01 -6.105848732641231402e-01 7.756330393221038122e-01
-3.176122274106771282e-02 -1.016993415564624616e-02 -8.028135051439686531e-01 3.737975492410038347e-01 -4.299120519466888002e-01 8.218582723148845082e-01
6.316366837607780005e-02 -6.478035856705822992e-02 -8.533915252755644998e-01 2.003505167333656800e-01 -3.221706170246403378e-01 9.252382201198975364e-01
-8.750485393882898033e-02 -1.927289097255444339e-01 -8.455785396599595494e-01 4.725340812471295893e-01 -3.239530783188938057e-01 8.196132899774405400e-01
-7.232777039857549162e-02 -1.209465028197330427e-01 -8.291481933704605289e-01 4.389977060443938650e-01 -2.626539191048044009e-01 8.592403231149285947e-01
-6.072546397281561315e-02 9.675718136009263393e-02 -7.113298541112206275e-01 5.084959936110903245e-01 -6.090215901468545301e-01 6.087072590469631006e-01
5.860691945170093398e-02 1.058005432685472785e-01 -7.474057192694351093e-01 -6.144073355054624486e-02 6.511810094451895292e-01 -7.564313116197097786e-01
-2.139636118166241691e-02 -3.725583928872576445e-02 -8.204878856038575474e-01 3.684922838953778035e-01 -3.586771157224247775e-01 8.576503736177175652e-01
4.363768463495927910e-03 1.854247588915445555e-01 -6.864624414049521617e-01 -1.563573002370062803e-01 5.496532097802100392e-01 -8.206300894074668451e-01
-3.987556052561172515e-02 1.804467845639150941e-02 -7.826327934275922882e-01 -3.751730808722098520e-01 5.006230559155845361e-01 -7.801421122299423416e-01
-2.719537817967704330e-02 5.903083178462842362e-02 -7.609490173894813969e-01 -3.792351990894289315e-01 5.749199331820971093e-01 -7.250156785901212819e-01
9.016951783603345885e-03 -9.953491530137274432e-03 -8.174417231334570877e-01 -2.032749296824349350e-01 4.585298547252030232e-01 -8.651183013254808429e-01
-3.327587046593609432e-02 -8.531909148496030770e-02 -8.332672786690638045e-01 -3.630785727621818060e-01 2.978321761965480596e-01 -8.828759509823593810e-01
1.124600927023272912e-01 -5.710443893334795490e-02 -8.574138956762614727e-01 1.168747280678546219e-01 -3.287050684871520301e-01 9.371730234540053273e-01
6.793318182273562142e-03 5.234706659452047217e-02 -7.801279188706209400e-01 1.945939688258344902e-01 -5.621780204685864479e-01 8.037966537617780016e-01
5.719984202456672960e-03 -4.421296376045268095e-02 -8.324511592946369776e-01 -2.022722237899929609e-01 3.850640508843934384e-01 -9.004507894380192612e-01
-6.726619908425301997e-02 -9.829717504756151081e-02 -8.236387295883283999e-01 -3.634263924176297511e-01 2.959415946350207327e-01 -8.833684564547162887e-01
1.160231306877059637e-01 -1.239290653477102822e-01 -8.815887686515800903e-01 -1.133520094046694682e-01 3.806467112275228604e-01 -9.177469167453490284e-01
8.900562807906424456e-02 7.488134104473924413e-02 -7.785152299121478325e-01 7.696385544358631814e-02 -6.635619901095423101e-01 7.441518999754839214e-01
-2.685306063946509003e-02 6.843763720949659624e-02 -7.544738530531628351e-01 3.850696152336484657e-01 -5.605988481167422099e-01 7.331100346564570769e-01
-1.257828244847989663e-01 -4.363262278285325035e-03 -7.486522928469073745e-01 -4.495128394689074103e-01 4.667148151144296375e-01 -7.616531287307263254e-01
3.821435245842862150e-02 8.756630880633320402e-02 -7.597850662147259682e-01 -1.709541396456433493e-01 6.360880852950439035e-01 -7.524404493936398541e-01
-5.276918342713973753e-02 -9.357860461224590254e-02 -8.280221517195670566e-01 -3.634263924176297511e-01 2.959415946350207327e-01 -8.833684564547162887e-01
7.250291550406653268e-03 9.667815132151595658e-02 -7.450493994623673677e-01 -1.707491770830697475e-01 6.277954212804874867e-01 -7.594192699324332496e-01
1.234577541518999538e-01 -5.314061134297734523e-02 -8.569711820859438056e-01 -1.201133485650263955e-01 3.535649583192740364e-01 -9.276662135408331178e-01
5.980931263380758617e-02 7.435498165585044394e-04 -8.237066475458018067e-01 -2.032749296824349350e-01 4.585298547252030232e-01 -8.651183013254808429e-01
7.991911892607085621e-02 -8.958233018763131494e-02 -8.644127379990218518e-01 -1.187194221345760359e-01 3.359011917292933358e-01 -9.343854066726817731e-01
1.674745011885693871e-02 -5.978100183757165814e-02 -8.409502246960731675e-01 -2.017340097731437076e-01 3.408256059734552368e-01 -9.182272570631281328e-01
4.774559406264969330e-02 4.606128646900300300e-02 -7.943587586135291145e-01 1.948981437626392532e-01 -5.249010147164225870e-01 8.285491164122665841e-01
-8.389007044028398696e-02 -1.895205261682136322e-01 -8.463944642889826842e-01 4.725340812471295893e-01 -3.239530783188938057e-01 8.196132899774405400e-01
3.584039629990982967e-02 1.587796856478405627e-01 -7.057580285435945955e-01 6.877898282978054095e-04 -4.983046706613244448e-01 8.670017198035199213e-01
-1.937082934908983256e-02 5.193847629602271060e-02 -7.708472902722957043e-01 3.770611424653000920e-01 -5.265378995670210172e-01 7.619597989148195749e-01
9.309173691638834847e-02 -7.987763867950323227e-02 -8.625976712877654329e-01 -1.187194221345760359e-01 3.359011917292933358e-01 -9.343854066726817731e-01
1.957970787113817029e-02 -1.925337507129399051e-01 -8.979723708918446734e-01 1.755195214239178847e-01 -5.007772772023155738e-01 8.475936622208510851e-01
-5.940746091140990809e-02 7.454772898042086315e-02 -7.320044661839587574e-01 3.918175479252365423e-01 -5.923553187412521348e-01 7.039845065744022579e-01
8.548621812574946910e-02 -6.832208333589201432e-02 -8.579896230774423094e-01 1.164810279944288735e-01 -3.298785325775154820e-01 9.368096518833833874e-01
-7.266086548194211625e-02 -1.055255686025163980e-01 -8.242387166493214679e-01 4.409756245070483582e-01 -2.792089049062131401e-01 8.529846927182761496e-01
-2.057501046810307488e-02 -1.639326756909728344e-01 -8.672831476248926696e-01 -3.773756239576186999e-01 3.964448194689779159e-01 -8.369104752354387111e-01
-5.398871299410897689e-02 -9.044910460978251854e-02 -8.264719962412908627e-01 -3.634263924176297511e-01 2.959415946350207327e-01 -8.833684564547162887e-01
1.228068610015165402e-01 3.930987513668113623e-03 -8.309937957171028566e-01 -1.234942524410195530e-01 4.753258489772976270e-01 -8.710995964343258846e-01
1.167110746204267774e-01 -1.087146809200934677e-01 -8.759151638960644970e-01 -1.165067437834926278e-01 3.419951237883916417e-01 -9.324513466974727605e-01
7.713165186342207935e-02 -1.268354140687514252e-02 -8.333976482125099450e-01 -1.176524505372853469e-01 4.406660437425969357e-01 -8.899277154773972409e-01
5.819126858856806840e-04 -2.031149321587280288e-01 -8.964416772678303058e-01 -3.994115995721737034e-01 4.443597766281512929e-01 -8.018820131678832119e-01
1.134063081994362010e-01 -1.392673698800239446e-01 -8.873505707280909816e-01 -1.045844300861052401e-01 3.631243249218613633e-01 -9.258524837324827450e-01
-1.202099174266617332e-02 4.477945346591797465e-03 -8.035851078423360550e-01 -3.740951183340435193e-01 4.629484015884366421e-01 -8.035742777773250411e-01
1.117969018048447227e-01 -1.407944165267353831e-01 -8.881468239584716651e-01 1.025412260009423010e-01 -3.629123114284807383e-01 9.261641059681924304e-01
-6.965772592481517256e-02 2.927767834642854700e-02 -7.608367743625482627e-01 -4.685603709746131162e-01 5.223856398262408662e-01 -7.124355564227980997e-01
-5.161139742031888716e-02 -7.886080399940431640e-02 -8.234882449645557490e-01 -3.652055510949243078e-01 3.203579381674680482e-01 -8.740684738065669368e-01
-4.914675580360042956e-02 -4.236462807643411044e-02 -8.107013794421208397e-01 3.684922838953778035e-01 -3.586771157224247775e-01 8.576503736177175652e-01
4.712656699368762692e-02 7.734475827873352194e-02 -7.706749864685937812e-01 1.880278467695815081e-01 -6.176737081186807199e-01 7.636260335649340814e-01
1.254440971628982202e-02 1.145704821530009465e-01 -7.324140889416308475e-01 1.599359273365136558e-01 -6.105848732641231402e-01 7.756330393221038122e-01
8.788246548077130460e-02 3.038627422557993452e-02 -8.109475988964666149e-01 -1.110883365835933639e-01 5.088331347839781804e-01 -8.536675128063619944e-01
-4.518954292152670138e-02 -5.367115606238689191e-02 -8.171440955510185233e-01 3.681219566777650387e-01 -3.604139616317670880e-01 8.570810937552110209e-01
-7.701043810901231877e-03 1.832052308725079237e-01 -6.853958149466793381e-01 -3.773329061534963502e-01 5.117714635612889973e-01 -7.718224193544089839e-01
-8.735942462281316712e-02 -1.900295487618549814e-02 -7.804539791423532602e-01 4.530470325722566471e-01 -4.212010096121587277e-01 7.857086583328269924e-01
-3.326983086829834318e-02 -1.815762885781731228e-01 -8.700567403765414598e-01 3.832757663814708171e-01 -3.733194897262157030e-01 8.448267547226792074e-01
9.677084084552002585e-02 -1.853490245529044733e-01 -9.051174761197932073e-01 5.799003784345037327e-02 -3.767822760708396945e-01 9.244848684266242511e-01
1.140925754347662802e-01 -1.545199868555106049e-01 -8.939578501891501938e-01 1.029895266817577176e-01 -3.755433601272594735e-01 9.210647871122830121e-01
-6.962534742448668601e-02 -5.682414374865694257e-02 -8.079746302099889421e-01 3.681219566777650387e-01 -3.604139616317670880e-01 8.570810937552110209e-01
-1.542047291891662612e-02 1.691081034789089221e-01 -6.897296106767349944e-01 4.236165159795870494e-01 -4.213510758250433308e-01 8.018804887827081229e-01
6.920479314147504057e-02 5.123684348365271923e-02 -7.942027746839611657e-01 -1.029317011661528281e-01 6.149324966939669901e-01 -7.818331595709957504e-01
-6.973950167275122514e-02 1.132142667240652323e-01 -6.880056227241664324e-01 -5.306537059255382882e-01 5.310888325850007252e-01 -6.605689186534539070e-01
8.654429871264751606e-02 -5.097656793530002534e-02 -8.518035367462311047e-01 1.170227122924750590e-01 -3.509593976248877589e-01 9.290496144052203809e-01
7.158959690771985948e-03 -1.721555227451442294e-01 -8.836158468439070379e-01 -1.975749406174753808e-01 4.340398441538377283e-01 -8.789616354124414332e-01
1.399382699922138429e-01 -1.005320339782575373e-01 -8.759223770539411591e-01 -1.242706103659936695e-01 3.417180049599531921e-01 -9.315501170014702792e-01
-1.436361499076466153e-02 9.890682835072291124e-02 -7.366970046385649118e-01 4.033228987867680249e-01 -5.708370324186402556e-01 7.151753083920883158e-01
-9.568245232733235683e-02 8.898197655186908250e-02 -6.896897177533837242e-01 -4.985676916043507712e-01 5.957254204941867526e-01 -6.297153962428849727e-01
5.685072144456460030e-02 5.508750175967063595e-02 -7.896069730815226118e-01 -1.883264641753258362e-01 5.783658598542188445e-01 -7.937418188846483424e-01
1.374858372624636164e-02 1.078377777667750420e-01 -7.379624319378326192e-01 1.599359273365136558e-01 -6.105848732641231402e-01 7.756330393221038122e-01
6.497406093306883068e-02 3.419567365198348391e-02 -8.054266087454641232e-01 -1.109666753077491741e-01 5.534568972391719077e-01 -8.254525182404698347e-01
-5.757178297522232494e-03 2.473240075573034796e-02 -7.952856351490328324e-01 1.948981437626392532e-01 -5.249010147164225870e-01 8.285491164122665841e-01
7.419537313007894264e-02 7.181686517142052417e-02 -7.788628152705516783e-01 -9.264540245518658457e-02 6.392507511518822350e-01 -7.633972141393173816e-01
1.345406296689408421e-01 -5.238030915079761041e-02 -8.583724122861003947e-01 1.106005335364381448e-01 -3.543311195752262277e-01 9.285563955312687856e-01
6.803386756208823494e-02 7.563077946396778994e-02 -7.749213773353759160e-01 -9.264540245518658457e-02 6.392507511518822350e-01 -7.633972141393173816e-01
-1.303469265249104225e-01 -4.796993474247673167e-02 -7.705788047637809335e-01 -4.433287889075182009e-01 3.922001845014708166e-01 -8.060016130274216817e-01
7.527386352391187037e-03 2.001656230130476055e-01 -6.768235349148007396e-01 -8.198929381935217420e-02 6.156860243497372931e-01 -7.837145367539245511e-01
-1.171863447254388596e-01 -4.050958507436003969e-02 -7.746441641568969638e-01 4.501956182328770151e-01 -3.895302783928103474e-01 8.034861962343455843e-01
4.335043896063908025e-02 -1.511271605437330447e-02 -8.283880394545583004e-01 2.025449482730006523e-01 -4.278530269675454578e-01 8.808616981364308929e-01
5.474295498852676384e-02 1.070213138979528023e-01 -7.465845033122299190e-01 5.905609114338087468e-02 -6.515985818696619081e-01 7.562616387232067305e-01
-7.300556297569008035e-02 4.942105983656028267e-02 -7.440211233663406309e-01 4.681891010680778176e-01 -5.608758403278955029e-01 6.828010379148103937e-01
1.431992692846806026e-01 -5.083295887933038382e-02 -8.587952455328754509e-01 -1.267610605228586540e-01 3.538953807061720469e-01 -9.266551100867860269e-01
3.695919847809434056e-02 -1.447057664393071146e-02 -8.261143572128896162e-01 -2.025279446425946595e-01 4.278865812792039258e-01 -8.808493090194494668e-01
2.080679358275354732e-02 1.092760480838811110e-01 -7.382856198717370200e-01 1.599359273365136558e-01 -6.105848732641231402e-01 7.756330393221038122e-01
2.585849647459922962e-02 1.333002722601919487e-01 -7.201543245109698343e-01 -1.492956020426330910e-01 5.520636656885264948e-01 -8.203270885672828694e-01
-1.304702709255209092e-01 -8.834059586619466553e-02 -7.879913857007285749e-01 -4.347060011160973070e-01 3.094101973173322695e-01 -8.457517498590829685e-01
-2.059138065058021064e-02 -2.114154820728272322e-01 -8.899797273579888035e-01 -4.142788695861402415e-01 3.930424057118893089e-01 -8.209084513675325434e-01
4.849117191640756053e-02 -8.927479159583200097e-02 -8.587593790381878867e-01 2.005233339934909820e-01 -3.244906104604448616e-01 9.243896560688803499e-01
1.197594220676563292e-01 -1.150205777679509239e-01 -8.789738593361127172e-01 1.145921526993925327e-01 -3.420667153438070041e-01 9.326623187379331492e-01
1.043410857397016195e-01 -5.546638945493529566e-02 -8.557771228068931091e-01 1.182530745857598153e-01 -3.536939269460875335e-01 9.278560321474826900e-01
-8.265183487547145269e-02 1.060631379934327406e-01 -6.840937545814455012e-01 5.354402705599908829e-01 -6.057716789764153731e-01 5.885103139391344440e-01
-4.338449043584706455e-02 -2.019064112007108724e-01 -8.737526600338565430e-01 -4.695912316535135744e-01 3.110921202307403433e-01 -8.262601090966930073e-01
1.141588800401087678e-01 -6.188466432392835531e-02 -8.593023725938111479e-01 1.168747280678546219e-01 -3.287050684871520301e-01 9.371730234540053273e-01
1.029450658415354963e-01 -1.350242778893699369e-01 -8.849057866057574717e-01 1.025412260009423010e-01 -3.629123114284807383e-01 9.261641059681924304e-01
8.282960344343366643e-02 -1.259014746177551380e-01 -8.783070775278327691e-01 -1.133520094046694682e-01 3.806467112275228604e-01 -9.177469167453490284e-01
5.455398418242231318e-02 1.535642338823205999e-01 -7.086192055105015042e-01 -6.414479358156296995e-03 5.365271436325623755e-01 -8.438586840224182595e-01
1.030753017253616677e-01 7.003509124588370993e-02 -7.838504528227289159e-01 -7.924145933820314625e-02 6.630029632526281969e-01 -7.444110839047105577e-01
2.891846616052317145e-02 -2.051500594031577529e-01 -9.071345916869117953e-01 1.621348566633965538e-01 -4.699574526176630851e-01 8.676706062693705368e-01
-3.132977322282921168e-02 3.393758581741232461e-02 -7.766562967379175841e-01 -3.778662661315279059e-01 4.925659406347589475e-01 -7.839616566174729684e-01
-5.649806529991870108e-02 -1.667606239457010420e-01 -8.529681245544991075e-01 3.709280922042872963e-01 -3.490567219919223918e-01 8.605647885231777483e-01
5.509319158724666071e-02 6.782666426341761590e-02 -7.797673476567166251e-01 -1.879897619623603355e-01 6.176938291659641589e-01 -7.636191346526249868e-01
