-4.228532628993829368e-03 -1.050057912464187615e-01 -8.822568458340037667e-01 9.579280026726305630e-01 -2.272363081427644371e-01 1.753214246955316913e-01
-9.576615495857282445e-03 -2.340263957425489927e-01 -9.612737119611906023e-01 9.538420085365094669e-01 -1.040100413376597727e-01 2.817220865533535124e-01
-1.719853396537882051e-02 -2.152410360292674168e-03 -7.965321678717368625e-01 -9.159117289742267909e-01 -2.537394185343811587e-02 -4.005769187088298877e-01
9.821186921083469024e-03 6.746085748982094676e-02 -8.766599001573518457e-01 -9.829344629970093727e-01 -1.266633655298241568e-01 -1.334025235347468807e-01
2.238884018188884006e-03 -1.176890496481198534e-01 -9.313293238078669267e-01 -9.584135779918433462e-01 2.218140960619044144e-01 -1.795603528318894804e-01
1.173974294110862251e-02 -9.492684966367720412e-02 -9.959980633841077902e-01 -9.866000591829601207e-01 1.619623370821798858e-01 -1.971102704218049423e-02
-1.167704042271834608e-02 1.201158492840136705e-01 -8.261761255071129462e-01 9.330463916692052218e-01 4.338769839338635359e-02 3.571301424147791392e-01
5.369621092887625962e-04 6.191932966654016546e-02 -8.493702276052880196e-01 9.431366216295884453e-01 4.890325055737339971e-02 3.287883590184556559e-01
1.705811056777980367e-02 -5.824123917299138184e-03 -9.090056647318407457e-01 9.964185713707696124e-01 -2.237919397668541865e-02 8.154264101921181174e-02
-1.144032659896099605e-02 -1.339682777347129816e-01 -8.809444126550572962e-01 -9.333304758647186228e-01 2.560174689988594654e-01 -2.516928254630155237e-01
-1.746280666487741787e-02 -1.948945131887263871e-01 -9.149419743021797169e-01 9.294002547152050431e-01 -2.037079604378895792e-01 3.077632749201030804e-01
-2.265169671128632045e-02 1.080212321123717641e-04 -7.842067955684429714e-01 -9.159117289742267909e-01 -2.537394185343811587e-02 -4.005769187088298877e-01
-1.268772423135870134e-03 1.828994473360689857e-03 -8.367603103595474545e-01 -9.591794068235948156e-01 1.445186129670225639e-02 -2.824287684188659941e-01
8.181691576854947107e-03 1.160031231066695617e-01 -9.235346690363614996e-01 9.728116012993662798e-01 2.271494065368540594e-01 4.517450041027152446e-02
-5.110916830797103926e-03 -3.188586537332065846e-02 -8.313106404474267519e-01 -9.345904654958625546e-01 8.904136513898153193e-02 -3.444013604770068682e-01
-3.825108025597624088e-03 -4.881635269977332298e-02 -8.409717111686151325e-01 -9.391310852317229507e-01 1.268036709029106146e-01 -3.193017910958727001e-01
2.164526781361180569e-02 5.884687913336974358e-02 -9.970103447815852338e-01 -9.978478056668512730e-01 -6.293618938904071980e-02 -1.840632475635095230e-02
-1.078364862949650164e-02 -2.394431122428178627e-01 -9.603307313351389096e-01 -9.003155878713814397e-01 2.846078875342122894e-01 -3.292874012001097417e-01
1.260715413196626319e-02 9.533833905911177908e-02 -9.264215372382047509e-01 9.795808890710623329e-01 1.392581330174235965e-01 1.450119103910027518e-01
-3.061389590126446488e-04 -1.613031952862053753e-01 -9.641953297882216445e-01 9.628651710528562946e-01 -1.630112855833159569e-01 2.152161312398029047e-01
1.111705182657114592e-02 -7.319509797621555347e-02 -1.092166743656808547e+00 -9.878621551471712392e-01 1.353232417344095717e-01 7.626259026860211787e-02
-2.796915123855887517e-02 1.608599856558393382e-01 -7.787470006262345867e-01 -8.897602410991900523e-01 1.251246810700918088e-01 -4.389425105252610093e-01
1.124073637995779730e-02 -4.134733021906981248e-03 -8.836152276334264810e-01 9.642344184115911876e-01 -6.443693663697197538e-02 2.570989450528785025e-01
5.213211973204325000e-04 -5.233304302676019398e-02 -8.579039094076464922e-01 -9.657132306651500242e-01 1.256867589872631696e-01 -2.271580831349753471e-01
1.667954722383244073e-03 1.000273738576011456e-01 -8.585726238782548370e-01 -9.356809209270284811e-01 -4.872083092066788884e-02 -3.494674446175888294e-01
-3.140009647499081291e-02 -1.755958878824511737e-01 -8.509019159670351273e-01 9.338555379455597549e-01 -2.507668676296919696e-01 2.550094358011120166e-01
-1.895250167315495242e-03 -1.268173835229190471e-01 -9.205395409906562687e-01 -9.584135779918433462e-01 2.218140960619044144e-01 -1.795603528318894804e-01
-2.212122719214663219e-02 -3.886212222577167807e-02 -7.876425203665853303e-01 9.389025682802959460e-01 -7.324407397675829212e-02 3.362993798744672858e-01
-5.334001489447362521e-03 1.700248871110391080e-01 -8.863896264496012867e-01 -9.704678506614404787e-01 -2.408927137995427736e-01 1.276131932268213288e-02
-3.104549090918633149e-03 -4.233981568003386542e-02 -8.418509165688707885e-01 9.397934344433127585e-01 -1.261238617256769390e-01 3.176178081919289187e-01
-1.149709846061458887e-02 1.675285813380166661e-02 -8.103347925731342327e-01 -9.155962296580353321e-01 -1.685523573926430655e-03 -4.020953907299502639e-01
1.355107565013583849e-02 -7.331762895291472903e-02 -1.055627997694476683e+00 -9.877749005250809899e-01 1.416419396848913048e-01 6.510227964494025299e-02
2.191335258639492620e-02 2.712795650481718453e-03 -1.062241975496885038e+00 9.983521315090496673e-01 -5.562117159533815774e-02 -1.411760538118355703e-02
1.688850949874466656e-02 -2.684761626150969013e-02 -9.158484072573833679e-01 9.959874727962292340e-01 -5.882675424051700408e-02 6.744158226573626624e-02
2.187258534979771157e-02 8.177192428476103350e-03 -9.582135958991064850e-01 -9.962353726194562720e-01 1.887414080073042399e-02 -8.460998257183802163e-02
2.066675757966883811e-02 3.929071178886500010e-02 -9.502341813748054200e-01 9.949982818552033370e-01 1.785807675010159593e-02 9.828279707039638824e-02
-2.501985489708977162e-02 -2.387263459543710054e-01 -9.225372081735928598e-01 9.163369389567372902e-01 -2.409505272481823890e-01 3.197959626421501556e-01
-5.520546753927224994e-04 7.111426570338993947e-02 -8.478402982282577938e-01 9.399718069161302481e-01 6.538026497299335993e-02 3.349304751062315288e-01
3.529748160442924224e-03 -1.679723760461976356e-01 -9.930749007741790368e-01 -9.966457790354799062e-01 5.355395826362582823e-02 -6.188024470749198258e-02
-2.847061951988339931e-02 -1.298953858472920164e-01 -8.135278849580337424e-01 -9.330282803850800111e-01 2.420496081047422698e-01 -2.662146036903328961e-01
-9.479031246112589251e-03 -1.366671015314526449e-01 -8.944704776107601507e-01 9.581804011460309800e-01 -2.253859133870161624e-01 1.763278449545941096e-01
-7.043478177664580899e-04 7.334086146557650121e-02 -8.478475360309714048e-01 9.399718069161302481e-01 6.538026497299335993e-02 3.349304751062315288e-01
-1.994390093912499010e-02 -1.290670961532645357e-02 -7.899743039905734454e-01 -9.246239779603957487e-01 2.564328221796877139e-02 -3.800170015378033228e-01
4.800015119674449528e-03 -1.490678341537928220e-01 -1.072858357746023783e+00 -9.839307321111472326e-01 1.300853466061878683e-01 1.223033810062884030e-01
1.425897732677204426e-02 -7.471355802637462407e-02 -9.785626576301567070e-01 9.872400242468709619e-01 -1.576143203967992346e-01 2.269053835616140213e-02
2.672209983726565527e-03 -2.165574274635597984e-01 -9.968964560757472837e-01 -9.977616267464046729e-01 -9.589039100264311333e-03 -6.617995558703218539e-02
1.861991098296108746e-02 -5.489187584473070175e-02 -1.011456043992327025e+00 -9.872399504641314882e-01 1.576112832319414570e-01 -2.271483228112432251e-02
-3.257650823100601001e-02 -1.646913792875760452e-01 -8.345850443451986456e-01 -9.289863758448567710e-01 2.654178821090473206e-01 -2.579489510569604738e-01
-6.481751542098047880e-03 -2.088792373104111366e-01 -9.638506556155017613e-01 9.573269725573223532e-01 -8.801591472478151323e-02 2.752785250784947624e-01
1.533810298850034684e-02 8.755985579734237856e-02 -9.415732117915176502e-01 9.803298697116300531e-01 1.878020045362996937e-01 6.069393415594200036e-02
-3.701495797276895677e-02 -1.978257172085604032e-01 -8.516258924553534726e-01 9.369557336576121997e-01 -2.324674167371319211e-01 2.609077486808125679e-01
-1.443821262305102979e-02 -4.180781115062526948e-02 -8.092984651933875506e-01 9.360995361012207638e-01 -7.558040562446852184e-02 3.435189380466814879e-01
3.578639747591856254e-03 1.402842746338429092e-01 -9.447007490592647105e-01 -9.584739715595398390e-01 -2.820382325543069890e-01 -4.221470384267330539e-02
-1.304873381997576770e-02 1.024218296124540795e-01 -8.195032770059815785e-01 -9.356809209270284811e-01 -4.872083092066788884e-02 -3.494674446175888294e-01
-1.019299530714238601e-02 1.721836666526834758e-01 -8.196662447433297194e-01 9.493424417477279720e-01 -1.039750643125123969e-01 2.965436128087574619e-01
2.001956171494443520e-02 5.354180043700765279e-02 -9.464570187675809265e-01 -9.920278776732639470e-01 -5.272946106451702891e-02 -1.144565151265974356e-01
1.338927802463310557e-02 -8.492302677700316882e-02 -1.017641608460143177e+00 9.860834929884193523e-01 -1.651208358172534807e-01 1.935082517023384643e-02
-3.879585729631881280e-02 8.537373063744786716e-02 -7.669385954021387120e-01 -8.599999356362463265e-01 -6.623124815898119577e-02 -5.059777983992532757e-01
-5.488095505026755784e-03 1.396061936374344836e-01 -8.441296456329959730e-01 9.430076688222117642e-01 -3.664094403377004400e-02 3.307476043190814008e-01
7.440946261640315898e-04 8.757768235907673060e-02 -8.534043292796711366e-01 -9.399824794619732193e-01 -6.542534432539223732e-02 -3.348917177602704354e-01
-1.549113236751889326e-02 -2.340930588614274221e-01 -9.454091123437411426e-01 9.071455912587972348e-01 -2.224111829945087104e-01 3.572396141789289659e-01
2.227104066390571749e-02 -2.256177949201865901e-02 -9.931509703508489828e-01 -9.941697148620566304e-01 9.457053927577899199e-02 -5.179759793837023646e-02
1.157026647223901526e-04 1.277763596270868052e-01 -8.758417033913384886e-01 9.809154141575572305e-01 1.516130291756670190e-01 1.217310135186846776e-01
-3.247231234202520994e-02 -1.996468583432255417e-01 -8.678594615781123345e-01 -9.309297869500695599e-01 2.377299335032779515e-01 -2.772259195775621521e-01
-3.611388418598423817e-03 -9.931934644302142789e-02 -8.787730493610157456e-01 9.604535632085136054e-01 -2.075901325871594150e-01 1.855674803744317980e-01
-2.086058161166314678e-02 -2.046573415240961757e-01 -9.098564149803400891e-01 -9.285647642466778873e-01 2.048991266333257399e-01 -3.094896226118275528e-01
2.229190699608833356e-03 1.298678374615271913e-01 -8.952134498360959647e-01 9.749715537098219142e-01 1.708319142136736635e-01 1.422916952697788062e-01
1.815907564709001026e-02 5.079764564869117260e-03 -9.150980666956171072e-01 -9.951691074697943673e-01 -1.196391720394193899e-02 -9.744389269169084766e-02
8.748465315047065233e-03 1.093971327646932057e-01 -9.123912186914249212e-01 -9.754239303669781647e-01 -1.688456929775957460e-01 -1.415601922517482347e-01
-2.363413762782195018e-02 1.696416839333725057e-01 -7.857362753713671433e-01 8.964567086718875366e-01 -1.251033620637306554e-01 4.251053025751588832e-01
1.188484040394567967e-02 7.245747645621290756e-02 -8.965889599186804837e-01 -9.795771289685333283e-01 -1.392493069527172278e-01 -1.450457821343082154e-01
-4.951652731884088887e-03 -1.097292342488027789e-01 -8.819625744483936547e-01 -9.578553655964933133e-01 2.275999900897732464e-01 -1.752465209615958197e-01
2.320649434336829325e-02 -6.181798917981855962e-03 -9.849064268691889446e-01 -9.961574867613396389e-01 5.516380828620601889e-02 -6.802364166004319646e-02
4.803924557846074236e-03 1.346030281990646116e-01 -9.372071742984735554e-01 -9.709130904523481931e-01 -2.350047001963266324e-01 -4.583188490456011066e-02
2.170425011813540903e-02 5.606277089780378753e-02 -1.005106309145363808e+00 9.972821215345809565e-01 6.846458677170530471e-02 2.722077195203672154e-02
4.035443594442425508e-03 3.030124820591771628e-02 -8.552011904809723175e-01 9.543809357206201049e-01 1.151018681913582899e-02 2.983698127029977276e-01
1.641095697965000433e-02 1.754721693129849408e-02 -8.988108383779510602e-01 -9.949938538824023571e-01 -1.785788734353064774e-02 -9.832764919324600561e-02
-2.287106320504803808e-02 -2.377175518064679749e-01 -9.279342360330422590e-01 9.163369389567372902e-01 -2.409505272481823890e-01 3.197959626421501556e-01
-9.009555444586507186e-03 1.190783650587237535e-01 -8.320137824882338773e-01 -9.396574264610451088e-01 -2.578265282196249425e-02 -3.411439222821763817e-01
2.304749297720747742e-02 6.321523725294294141e-03 -9.877493084482666941e-01 9.998470448217539053e-01 -1.534509867580213446e-02 -8.391359117284023783e-03
1.740788484661826355e-02 -1.734864906291525705e-02 -9.111323242635722686e-01 -9.964168628516791859e-01 2.237798573938843544e-02 -8.156384725517429324e-02
1.488675548619499203e-02 -4.306928119567898089e-02 -9.164040381896330079e-01 9.641035845668799453e-01 -1.676465979387738725e-01 2.059099230849436857e-01
-2.867733621468245009e-02 4.088752492298330758e-03 -7.714316319506289155e-01 9.147986086419594987e-01 3.213563529054643680e-02 4.026298629898281689e-01
6.090084669824271518e-03 -1.198274623884015566e-01 -1.089334462425021410e+00 9.948493186414821832e-01 -9.053669552652152119e-02 -4.558442674550712559e-02
-2.792977266582271755e-03 1.613977366379239775e-01 -9.435153850826099031e-01 9.654627682574077330e-01 2.564623710883592866e-01 4.592053271119225094e-02
1.530801560213592913e-02 1.056932971177486080e-01 -9.959278614044841937e-01 9.840304439055532759e-01 1.671398436162116197e-01 6.122383639553977824e-02
2.269749180878597589e-02 -1.105661583118219653e-02 -9.892323423626242507e-01 9.981739976602009845e-01 -5.596912071533336613e-02 -2.271844892164624069e-02
4.925182684285699455e-03 -7.738668526412569026e-02 -8.984207596380262562e-01 9.604535632085136054e-01 -2.075901325871594150e-01 1.855674803744317980e-01
1.790382329434378125e-02 6.564316091795320551e-02 -9.389785073842159546e-01 9.873381507872071028e-01 9.603330093297436643e-02 1.262575982347798054e-01
9.004977726361584542e-03 -3.799878009504378817e-02 -8.860391719347455730e-01 -9.657132306651500242e-01 1.256867589872631696e-01 -2.271580831349753471e-01
1.567474567075062900e-02 -6.748824931876350186e-02 -1.028541456620420513e+00 9.886464771445538924e-01 -1.381306094099259418e-01 -5.914455151326817456e-02
-1.953835784903365166e-02 -2.487185743499770452e-01 -9.444115763487579418e-01 9.133651282155884621e-01 -2.049225289017384266e-01 3.518108862844321338e-01
-8.910761587312333214e-05 1.301972969647857137e-01 -8.731860561344044758e-01 -9.842379426056309111e-01 -1.344794515989187478e-01 -1.148518586401135883e-01
-2.374224325594194440e-02 -2.229369339714136755e-01 -9.126225749399144993e-01 -9.295318152283342794e-01 1.823409358973316630e-01 -3.205033347321091242e-01
-1.539442531999146886e-02 2.380926277970326146e-02 -8.027379296902430461e-01 9.071325273976788006e-01 4.966753166245426593e-02 4.179039531227939919e-01
2.541351912132077187e-03 9.000075250458955400e-02 -8.602085919458104524e-01 9.399718069161302481e-01 6.538026497299335993e-02 3.349304751062315288e-01
1.859177800143813758e-02 -4.105671586752032698e-02 -9.646632890969802920e-01 9.941734694951335216e-01 -9.452548382530431836e-02 5.180777412320263647e-02
4.796461507456314076e-03 8.579108019265022089e-02 -8.644295789679862230e-01 -9.399824794619732193e-01 -6.542534432539223732e-02 -3.348917177602704354e-01
1.912188521017812309e-02 -4.832968877052266216e-02 -9.937697700433015813e-01 -9.903409154751616761e-01 1.344725893788123738e-01 -3.379339937881174760e-02
1.719373853153129822e-02 -1.856503967500788051e-03 -9.043877123645797100e-01 -9.951691074697943673e-01 -1.196391720394193899e-02 -9.744389269169084766e-02
1.851527168568849191e-02 6.040986957798921697e-03 -9.235552398584966349e-01 9.964185713707696124e-01 -2.237919397668541865e-02 8.154264101921181174e-02
-4.571465961954160676e-03 -1.591327153257146854e-01 -9.433546695884896804e-01 9.631604936964982544e-01 -1.732369909821375176e-01 2.056959123020491997e-01
-8.757228047277736127e-03 9.859449079983445552e-02 -8.316440875581199155e-01 9.344853120485548947e-01 7.465684002210287717e-02 3.480855610384162580e-01
1.872121156599900957e-02 -2.849936715067702755e-02 -9.379313093636114651e-01 -9.959850116415371879e-01 5.885227384879328921e-02 -6.745566283295571786e-02
1.479590608272607008e-02 -6.791568874399465938e-02 -1.042233659429685266e+00 9.886464771445538924e-01 -1.381306094099259418e-01 -5.914455151326817456e-02
1.492517266555499307e-03 -2.716464485865968323e-02 -8.529176955072153010e-01 9.654438420274995547e-01 -9.966801880100102651e-02 2.407996551481408620e-01
7.978142069652811863e-03 1.214128717217067693e-01 -9.452867386914242109e-01 9.659721005510140124e-01 2.481594580657790206e-01 7.290256737289872724e-02
-3.997037148109464089e-03 -4.376515984396919107e-02 -8.384600629338541111e-01 -9.391310852317229507e-01 1.268036709029106146e-01 -3.193017910958727001e-01
1.161583945509727170e-02 6.231551926228958566e-02 -8.880124911855409309e-01 9.795808890710623329e-01 1.392581330174235965e-01 1.450119103910027518e-01
-1.454626571774146095e-02 1.701715068936321407e-01 -8.064169317114370239e-01 9.507138101829041288e-01 -1.097141364802411562e-01 2.900104470254474820e-01
-1.165280792066206161e-02 -1.589094433672429141e-01 -9.065424504186933019e-01 -9.595560367769511156e-01 2.089667379577715423e-01 -1.886401725831446108e-01
-2.205676320489053516e-02 -2.287727800852901172e-01 -9.221327873176418111e-01 -9.135209895106740641e-01 2.606216715541012086e-01 -3.123391522684676458e-01
-3.772652554707944111e-02 1.081274490952180006e-01 -7.712472115888816537e-01 -8.756566728706955960e-01 4.559607110411440650e-03 -4.829126227797552739e-01
1.026732359492930902e-02 8.095157985309053839e-02 -8.959939100545659674e-01 9.829403178830963261e-01 1.266637659625559076e-01 1.333589962172039289e-01
2.898225861905929807e-03 -2.394160398697407766e-01 -9.988073908065500106e-01 -7.625316285834156105e-01 -5.165912185358116915e-01 -3.894599187870416146e-01
-1.513261740729010194e-02 -8.184555360509904176e-02 -8.222925161622063328e-01 -9.402517935684781003e-01 1.482935370894052918e-01 -3.064891377337424228e-01
6.917421771247208445e-03 1.016609627531033788e-01 -8.935981975991036386e-01 9.754275500321968329e-01 1.688644106863532723e-01 1.415129161657564527e-01
2.248185948710347201e-02 -2.438726345989371703e-03 -1.034562134697580404e+00 -9.983929817773570248e-01 5.126576852995914230e-02 2.415108516714250045e-02
-1.607193663640301600e-03 -9.839998706648298010e-02 -8.881681124889607704e-01 9.603469391133142574e-01 -2.096936078358059286e-01 1.837453329162155591e-01
-3.812138272007008916e-02 9.362850051688494102e-02 -7.691655148600816672e-01 -8.599999356362463265e-01 -6.623124815898119577e-02 -5.059777983992532757e-01
-4.373051239751488822e-03 -2.274414425191139399e-01 -9.749347508196475331e-01 -9.538669649105396831e-01 1.039916969758503396e-01 -2.816443505778842837e-01
-1.200923634798240630e-02 -6.674753075704603633e-02 -8.244548318769718831e-01 -9.392553563441565778e-01 1.560260642138377729e-01 -3.057045025261329041e-01
1.653312153109693511e-02 -6.369348821377902869e-02 -9.822057700481335862e-01 -9.874479067555199663e-01 1.561098056015527424e-01 -2.400749964463949615e-02
-2.857336762115909173e-02 8.880188389712696806e-02 -7.867407770079942742e-01 8.747640394084686966e-01 8.080530689230167041e-02 4.777639351560765135e-01
3.874719121234443918e-03 -1.112801912137427740e-01 -9.345574413256424462e-01 9.584075812895499480e-01 -2.218447774937016281e-01 1.795544564344887239e-01
-1.154603425282830186e-02 1.275034068425618672e-01 -8.274159087142168856e-01 9.330463916692052218e-01 4.338769839338635359e-02 3.571301424147791392e-01
1.831175642149101765e-02 1.591526743635691965e-02 -9.179877116125844116e-01 -9.951691074697943673e-01 -1.196391720394193899e-02 -9.744389269169084766e-02
8.668827636719439803e-03 -1.102996744525373968e-01 -9.860596495598039635e-01 9.894487068251068829e-01 -1.420345131145553663e-01 2.859114629451842485e-02
-3.385637156204852893e-02 1.045781640082546066e-01 -7.780092362017542174e-01 -8.800075563250325805e-01 -5.361570624689875747e-02 -4.719237828871212237e-01
-4.747907416482464830e-03 -1.025925867011615450e-01 -8.742123739388110160e-01 -9.604574347639246445e-01 2.076115885224363578e-01 -1.855234333390035628e-01
-4.893062906111789873e-03 1.676561644222281100e-01 -9.304111233609282383e-01 -9.531595456643709996e-01 -3.020717354773455599e-01 -1.547731031524044766e-02
1.478705321381950863e-02 -1.158880843930370011e-02 -8.997728917859327824e-01 9.654438420274995547e-01 -9.966801880100102651e-02 2.407996551481408620e-01
-2.376991461286117810e-02 -5.013206153979980761e-02 -7.854941352430689916e-01 9.389025682802959460e-01 -7.324407397675829212e-02 3.362993798744672858e-01
1.784102682160529710e-02 3.951098002570604256e-02 -9.248918176109368616e-01 9.920313012990612522e-01 5.274478803294725682e-02 1.144197735457056636e-01
-2.052004900931644893e-02 5.620995310064923201e-02 -7.966714820128707464e-01 -8.894006909243220571e-01 -9.189624989060143911e-02 -4.477962597425111380e-01
-1.337748297434917383e-02 -1.336455527083299233e-01 -8.750628329109710890e-01 9.339552129389918633e-01 -2.553573706148106748e-01 2.500405437059597391e-01
1.406759076631281316e-02 3.280158999924170926e-02 -8.863476206779943301e-01 -9.593530525663979125e-01 2.921392121616604720e-02 -2.806924782367880566e-01
-2.229358530256822513e-02 -1.900576819139414286e-01 -8.952299417566691453e-01 9.316844375291384317e-01 -2.365912017543099766e-01 2.756605015566508388e-01
3.297835413197709384e-03 -1.712074294242860173e-01 -1.001049415520241181e+00 9.963651498480988744e-01 -7.229343197349397121e-02 4.505716215729763802e-02
1.641160417478243483e-02 4.374566068493319221e-02 -9.098343545640975583e-01 -9.930691402591311778e-01 -4.579724342352690242e-02 -1.082418364579806197e-01
3.623453056404356450e-03 -1.810498585313769782e-01 -1.010741558647092475e+00 -9.984080187077930546e-01 2.559537761950079343e-02 -5.026235991767923073e-02
1.250978178766726408e-02 -8.010997433100935927e-03 -8.876615855526717169e-01 -9.642326781077007469e-01 6.435015578761456301e-02 -2.571272057160825519e-01
1.291800061620930647e-02 -6.727509589469145290e-02 -9.262082086755997201e-01 -9.603528341484792730e-01 2.096746175703396720e-01 -1.837361931947943117e-01
1.143349782136965365e-02 -8.682847298500670497e-02 -1.059806348428627976e+00 -9.889791290776419608e-01 1.344449799781168298e-01 6.200669002222528731e-02
-4.863987246875909644e-03 -1.360464206898025774e-01 -9.160945319602280534e-01 -9.584135779918433462e-01 2.218140960619044144e-01 -1.795603528318894804e-01
7.446944316594853244e-03 -1.081793911990653473e-01 -9.473801912003831927e-01 -9.584135779918433462e-01 2.218140960619044144e-01 -1.795603528318894804e-01
8.226570944640718835e-03 -9.539241783447850731e-02 -1.093805640649836874e+00 9.934669243809196582e-01 -1.054945599820171220e-01 -4.352433773552736446e-02
1.343932083124360806e-02 -7.715608953059321928e-02 -9.424963890363221575e-01 -9.874479067555199663e-01 1.561098056015527424e-01 -2.400749964463949615e-02
1.922381007244318776e-02 -2.582588407055752544e-02 -1.061056072075667656e+00 9.907644087694964519e-01 -1.277596460696605318e-01 -4.542421327645645296e-02
1.526224491637952901e-02 -7.302498644902472025e-02 -9.913441081319328552e-01 -9.872399504641314882e-01 1.576112832319414570e-01 -2.271483228112432251e-02
4.970281982929011626e-03 1.398196176478325448e-01 -9.692277056898309651e-01 9.620654625736965171e-01 2.632892805692905736e-01 7.147587327318519201e-02
5.821565736199024385e-03 3.650051783507663600e-02 -8.611535207668200576e-01 9.543809357206201049e-01 1.151018681913582899e-02 2.983698127029977276e-01
6.514183725080697519e-03 -1.304728214031373457e-01 -1.063238383530716868e+00 9.943594401716401299e-01 -9.075155258357882337e-02 -5.489498561082165051e-02
1.723095438565722115e-02 -5.651858902974313953e-02 -1.026202529838861510e+00 9.911345533528682639e-01 -1.221354481448025942e-01 -5.229942118683692659e-02
6.900641014769279442e-03 -1.194923144911182872e-01 -1.074390961300492719e+00 9.943594401716401299e-01 -9.075155258357882337e-02 -5.489498561082165051e-02
-1.582121677492252798e-02 -2.478340766190734179e-01 -9.533493906245745775e-01 -8.929873267570438422e-01 3.012359548254184838e-01 -3.344107261612983550e-01
5.736923923751324240e-03 -1.598092569348422975e-01 -1.049942724197818533e+00 -9.952561593316119337e-01 7.199691918985762218e-02 6.543409615527427670e-02
7.839357166562938711e-03 -8.473570056283803720e-03 -8.719460022309428737e-01 9.642344184115911876e-01 -6.443693663697197538e-02 2.570989450528785025e-01
-3.413476124008685275e-02 3.875693359779697894e-02 -7.664904128541711881e-01 -8.741337223688090408e-01 -9.887487004137684998e-02 -4.755144535047812759e-01
-5.955022524007461474e-03 -7.098835051389854045e-02 -8.465381058866898734e-01 9.408943246152229323e-01 -1.477035204958381809e-01 3.047975392617184864e-01
3.784315586924278068e-04 1.318567690819694715e-01 -8.828921286868602891e-01 9.842457525185254186e-01 1.344696382951761637e-01 1.147964068514608915e-01
-1.811001010279822757e-02 -6.204519068283865374e-02 -8.043614133372679609e-01 -9.379508614626099750e-01 1.206323560838073738e-01 -3.251092372529841290e-01
2.121738671860252945e-02 -1.122590539227519280e-02 -1.054576712333828548e+00 -9.948048258963346768e-01 8.985925707668933338e-02 4.784006993084921611e-02
8.224345909483466929e-03 1.114243569429052422e-01 -9.111977296414467409e-01 -9.754239303669781647e-01 -1.688456929775957460e-01 -1.415601922517482347e-01
-1.791532601010890902e-02 -1.111589050434442505e-01 -8.353522353298139524e-01 9.362876566144719970e-01 -2.383224674740963278e-01 2.580074137858030525e-01
2.016550011236710113e-02 8.065131051086699143e-02 -1.018376520434553179e+00 9.924935504362807359e-01 1.106979383202298106e-01 5.198575568399592395e-02
5.713991815672463462e-03 -1.338162155359083616e-01 -9.942691347693550785e-01 9.936681143325041266e-01 -1.035705974731259554e-01 4.355238108238038836e-02
4.478688250675355240e-03 -8.628322385337666408e-04 -8.564174715517441916e-01 -9.591794068235948156e-01 1.445186129670225639e-02 -2.824287684188659941e-01
1.515068016726311452e-02 1.072589052563429346e-01 -9.974848508845742812e-01 -9.826835453780902174e-01 -1.797535547912756382e-01 -4.496342049984892314e-02
5.366979574989414609e-03 -1.434029438792870370e-01 -1.006774028829810153e+00 9.948646987867018066e-01 -9.067499787092427044e-02 4.496972169307908440e-02
-2.690985427512936415e-02 -1.519736807455432936e-01 -8.420382428980818235e-01 -9.316679850141135200e-01 2.624609272179751485e-01 -2.512151018223667820e-01
-6.243847732687207198e-03 -8.412960959812441908e-02 -8.525835592403691043e-01 -9.393984678734301763e-01 1.938002203090106457e-01 -2.827931985837545681e-01
1.983054228352227819e-02 -4.195046092030561141e-02 -1.002001663839564793e+00 9.903344418037395291e-01 -1.345291454160106870e-01 3.375799773258257586e-02
-6.524959407022875787e-03 1.197261167825392630e-01 -8.389063862331055388e-01 -9.396574264610451088e-01 -2.578265282196249425e-02 -3.411439222821763817e-01
1.200587423388384430e-02 1.144136301593415006e-01 -9.726390005348078960e-01 -9.721630639885893155e-01 -2.285577282887302497e-01 -5.157850187639063944e-02
2.236449740185323179e-02 -1.042158695277734968e-03 -1.027519584074926051e+00 9.983821329027917635e-01 -5.222636979996703871e-02 -2.248383859551144476e-02
6.323441700371293904e-03 -1.518649544084193503e-01 -1.042951026925852842e+00 9.967100568804150296e-01 -5.794766675301358388e-02 -5.666683713885206641e-02
1.417202834843882091e-02 4.959682711348885331e-02 -8.985520678561180752e-01 9.887477474490092844e-01 8.243508715913591689e-02 1.248292766925117453e-01
1.819607066154853986e-02 -4.351132291562887638e-02 -9.615483353490057450e-01 9.941734694951335216e-01 -9.452548382530431836e-02 5.180777412320263647e-02
-2.138223532972953478e-02 9.561332365361187302e-02 -8.002250414825992086e-01 -8.734784607135285261e-01 -8.059291376050285727e-02 -4.801459787617895492e-01
-1.676742302437234447e-02 -2.015101918695826333e-01 -9.200535731157390984e-01 -9.285647642466778873e-01 2.048991266333257399e-01 -3.094896226118275528e-01
-2.121438724606691112e-02 -2.322965421353106186e-01 -9.285967779765443852e-01 9.163369389567372902e-01 -2.409505272481823890e-01 3.197959626421501556e-01
1.833810765979789967e-02 1.650097843310434700e-02 -9.227685013915325474e-01 9.951756870197150384e-01 1.188421892660904318e-02 9.738643286075414351e-02
-1.220483410270918959e-02 -2.427249893585119445e-01 -9.592638224177888473e-01 -9.119246950871807700e-01 2.218478581667462646e-01 -3.452200433303070914e-01
4.183807315834660832e-03 -1.576905531817799633e-01 -1.001692129179186708e+00 9.966474047034227235e-01 -5.354314307558676045e-02 6.186341833037770771e-02
-6.436054766099202386e-03 1.757954382319490971e-01 -8.305670611068933784e-01 -9.995023150261496125e-01 2.227925368509168363e-02 -2.233287067536645840e-02
4.413680156436712229e-03 -1.665076665907988529e-01 -1.017833276629317441e+00 9.967757798921137447e-01 -6.342035795976792845e-02 4.915183431696935890e-02
-1.257339005481645415e-03 1.102842258016787091e-01 -8.521702558912359615e-01 -9.356809209270284811e-01 -4.872083092066788884e-02 -3.494674446175888294e-01
2.363425490648252223e-03 -7.257074747504763113e-02 -8.795323080086516754e-01 -9.647140709805830383e-01 1.630861204709492529e-01 -2.067115830373454088e-01
1.047273022371459500e-02 1.067381980737574926e-01 -9.262845998762742061e-01 9.728116012993662798e-01 2.271494065368540594e-01 4.517450041027152446e-02
-1.324596459832472900e-02 -1.808725935147742769e-01 -9.189369004789582629e-01 -9.631660919042104307e-01 1.732437429571067056e-01 -2.056640098125628313e-01
-1.112123136564382130e-02 1.809172479833035807e-01 -8.135796659360226002e-01 9.507138101829041288e-01 -1.097141364802411562e-01 2.900104470254474820e-01
4.190701620386960355e-03 -1.799614173611049639e-01 -1.030039594615243637e+00 9.984119063299475849e-01 -2.550969394516944960e-02 5.022868516518908671e-02
-9.590336410686506156e-04 -1.078764724474022552e-01 -9.038544673551578423e-01 9.578474624387328662e-01 -2.276271160911694791e-01 1.752544855908029775e-01
-6.284919986969083640e-03 1.779356606603528235e-01 -8.351959780383192422e-01 -9.995023150261496125e-01 2.227925368509168363e-02 -2.233287067536645840e-02
-1.601533380655765365e-02 -1.270475607361745696e-01 -8.566904977898675000e-01 -9.324736632433253680e-01 2.619392214293174148e-01 -2.487583398291926540e-01
-1.338345095532095415e-02 7.244012095474300361e-02 -8.138492784323999585e-01 8.900495572453098747e-01 6.010837914770999352e-02 4.518835783735263290e-01
6.200440389445933606e-03 -1.536216890001328994e-01 -1.049700774055807084e+00 -9.952561593316119337e-01 7.199691918985762218e-02 6.543409615527427670e-02
2.267096654680499784e-02 1.141750832763208448e-02 -1.044046037649651870e+00 9.983076070535044089e-01 -5.600344214090172829e-02 -1.566959372402790610e-02
4.988247655644284864e-03 -1.490586400340588036e-01 -1.000172305719109422e+00 -9.948638091035827413e-01 9.067234361499211526e-02 -4.499474901891372530e-02
1.742187066234995863e-02 -1.342696587034365382e-02 -9.155372509294112948e-01 9.964185713707696124e-01 -2.237919397668541865e-02 8.154264101921181174e-02
4.615676398475541606e-03 -5.679574131590322400e-02 -8.798261294537235155e-01 9.659746257818261350e-01 -1.298797420788243007e-01 2.236610715864495169e-01
-2.028888951345514044e-03 -6.466222622749348559e-02 -8.557935719970382049e-01 9.657091254347542897e-01 -1.256623780674738233e-01 2.271890221609952354e-01
2.303052896277034411e-02 9.927093945710447134e-03 -9.963640333703770446e-01 9.998470448217539053e-01 -1.534509867580213446e-02 -8.391359117284023783e-03
1.095279656479584106e-02 1.589812855341836070e-02 -8.789994140835905023e-01 9.593450574393196373e-01 -2.916602481035957331e-02 2.807247829521111182e-01
1.162505190749634973e-02 -9.264558056635938121e-02 -9.935415723905136609e-01 9.865986169305883680e-01 -1.619737449839082910e-01 1.968946435375093854e-02
-9.426477189837993362e-03 2.132045245509972820e-01 -8.161396856384834919e-01 -9.855036595213240158e-01 -1.082810639844140749e-01 -1.306053147941592663e-01
1.493857000961087457e-02 -6.882115767469071388e-02 -9.525693966843694627e-01 -9.903878321198849033e-01 1.341130740729078175e-01 -3.384708778594045647e-02
1.098959396433197254e-02 -9.986552370935566914e-02 -9.990309934041089468e-01 -9.866000591829601207e-01 1.619623370821798858e-01 -1.971102704218049423e-02
1.052658589351203496e-02 -7.867064946781684998e-02 -1.090099276129164130e+00 -9.878621551471712392e-01 1.353232417344095717e-01 7.626259026860211787e-02
9.255072758248609989e-04 -1.823490701188514584e-01 -9.792652613809170736e-01 -9.616560389223234306e-01 1.479430690310338525e-01 -2.309339973453563843e-01
-3.427454412880326633e-03 -2.432238183133111076e-01 -9.828549086168734128e-01 -9.116413476688739470e-01 -5.042308236846510666e-02 -4.078818039395016304e-01
-4.997024171919450981e-03 1.622377080965912155e-01 -8.670368357936677484e-01 -9.928288944332547272e-01 -9.326431813724377073e-02 -7.478337609947857678e-02
1.299147070240799784e-03 1.025868837364339176e-01 -8.579419933604498505e-01 -9.356809209270284811e-01 -4.872083092066788884e-02 -3.494674446175888294e-01
3.480428093462527468e-03 -2.166346826469724152e-01 -1.014697015463485341e+00 9.939112834872600999e-01 7.909695133385523380e-02 7.670744974509922931e-02
-3.343890181538996913e-03 8.696571750437870341e-02 -8.436044109646156919e-01 9.323244996158959186e-01 8.469367337288509490e-02 3.515650851642920793e-01
8.159095950600615474e-03 5.261840582039782610e-02 -8.696289851331041598e-01 9.415463701112558592e-01 7.183194733833873913e-02 3.291361485341586235e-01
2.053747395815498644e-02 -3.152992015090042704e-02 -9.762517770681683471e-01 -9.941697148620566304e-01 9.457053927577899199e-02 -5.179759793837023646e-02
1.740124578262636224e-02 -4.840908124638465537e-02 -1.048882756742814282e+00 -9.911456466560394363e-01 1.212982247108102540e-01 5.400970095072701177e-02
-3.266453450461606622e-02 -1.572481211006152568e-01 -8.265262192976403632e-01 -9.296276288980035440e-01 2.662689067732235126e-01 -2.547417140463416052e-01
1.146349686704419696e-02 -1.593656581054034987e-02 -8.882472330656177029e-01 9.654438420274995547e-01 -9.966801880100102651e-02 2.407996551481408620e-01
6.885354216934362614e-03 -1.351802335096675967e-01 -1.050129419274904219e+00 9.967100568804150296e-01 -5.794766675301358388e-02 -5.666683713885206641e-02
-3.461798226462869249e-02 1.196384439450357412e-01 -7.766081451817332670e-01 -8.699910759172314600e-01 1.140288269995991602e-02 -4.929355962907415734e-01
-1.344504649162623147e-02 -1.697359760774413695e-01 -9.086234857993643610e-01 -9.631660919042104307e-01 1.732437429571067056e-01 -2.056640098125628313e-01
3.150130774711660392e-03 -1.657747056250277393e-02 -8.564389194377748371e-01 9.630416189533499427e-01 -5.724434868220357187e-02 2.631994010397079586e-01
5.151701695726216938e-03 2.665249311192870174e-02 -8.571799676731194362e-01 -9.543738155546669377e-01 -1.158270583498000571e-02 -2.983897805039014139e-01
1.026999737964845276e-02 -9.883793005608587645e-02 -1.054116524138918098e+00 -9.904321061784179259e-01 1.232002767888508432e-01 6.217664231955043197e-02
-1.288014565007464772e-02 1.414245835959115349e-01 -8.215556034713660249e-01 -9.430406758453252491e-01 3.662871699302493178e-02 -3.306548363363779330e-01
1.044562423461299974e-02 -8.658315334914667982e-02 -1.070518023561161325e+00 9.890372481743775479e-01 -1.348836136262998586e-01 -6.009769129313850128e-02
-8.491623278737146438e-03 -2.259593787323763703e-01 -9.604388373371829379e-01 -9.538669649105396831e-01 1.039916969758503396e-01 -2.816443505778842837e-01
1.890425676476705646e-02 6.059620308696069685e-02 -9.398327808931383753e-01 -9.930691402591311778e-01 -4.579724342352690242e-02 -1.082418364579806197e-01
-2.309645755012364535e-02 -1.644062514917477569e-01 -8.688512066581906002e-01 -9.331918723218433076e-01 2.515943257232323149e-01 -2.566188315309776424e-01
-2.044518606882351000e-02 -2.426096853460177616e-01 -9.381314899881880720e-01 9.071455912587972348e-01 -2.224111829945087104e-01 3.572396141789289659e-01
4.837226075796371809e-03 -1.428332670140445293e-01 -9.939056257763407842e-01 9.948646987867018066e-01 -9.067499787092427044e-02 4.496972169307908440e-02
1.647478562922559397e-02 9.359307949814196781e-02 -9.768527644015964073e-01 -9.853034210991283848e-01 -1.610440831632724279e-01 -5.693831441528957732e-02
2.343320977141532049e-03 -1.851976592440834624e-01 -9.874253114726989633e-01 -9.984080187077930546e-01 2.559537761950079343e-02 -5.026235991767923073e-02
-1.539912960401128642e-02 1.959661620499499046e-01 -7.989366863438976951e-01 -9.018506671077040071e-01 3.669326363662628321e-02 -4.304869087917563286e-01
1.950547240155752968e-02 7.954262021545137340e-02 -1.002729428801334199e+00 9.929615438478147649e-01 1.096426833068654960e-01 4.478676631142835401e-02
3.792870244932715221e-04 -1.393243287198427105e-01 -9.484430050195282735e-01 9.611710733176841437e-01 -2.003022549365147398e-01 1.898135255577904079e-01
-8.544880164082356566e-03 -1.879046972315471242e-01 -9.433877429456983821e-01 -9.616560389223234306e-01 1.479430690310338525e-01 -2.309339973453563843e-01
-6.987572311727359257e-03 -1.363731396277038654e-01 -9.051633778198984182e-01 -9.584135779918433462e-01 2.218140960619044144e-01 -1.795603528318894804e-01
-1.408433885443254908e-02 1.494973923619005718e-01 -8.169247499721797867e-01 9.477719181851359531e-01 -1.016913133497873989e-01 3.023032713829990059e-01
-2.736628072818833926e-02 -1.757928213228480419e-01 -8.644876612379862602e-01 -9.331918723218433076e-01 2.515943257232323149e-01 -2.566188315309776424e-01
4.719660153938261098e-03 1.202183813841023879e-01 -8.976539056134261729e-01 -9.749674986193760384e-01 -1.708150500570049524e-01 -1.423397179633972276e-01
1.630992125966030173e-02 -5.169120935124549288e-02 -1.060674570039617626e+00 -9.886243472316050829e-01 1.375048086826389515e-01 6.094528406721323038e-02
-9.591054908389599551e-03 -2.436078917259162924e-01 -9.677605682543213295e-01 9.149298656646422945e-01 -2.056016866663356590e-01 3.473201510923850654e-01
-3.147352534564674953e-02 2.664077532123935305e-02 -7.693607451943653697e-01 -8.945040966504419488e-01 -8.075657019112869595e-02 -4.397053529882732903e-01
1.233617175761959677e-03 -1.590767500785053058e-03 -8.469683228461307722e-01 9.591720262837382105e-01 -1.449640894729180285e-02 2.824515500442162930e-01
1.835458121151791258e-02 -4.138932815087964512e-02 -1.047358187201157032e+00 -9.908414231331551525e-01 1.237238485355509343e-01 5.408958778744509671e-02
2.323031017158390388e-02 2.205065136230526315e-02 -9.711052647457518727e-01 -9.962353726194562720e-01 1.887414080073042399e-02 -8.460998257183802163e-02
1.380554530572846057e-02 -7.311174507031985292e-02 -9.493038119075341008e-01 9.874472055046068508e-01 -1.561187393730008866e-01 2.397823091321920480e-02
5.384807096338547518e-03 -1.213231981365913703e-01 -1.098644611698692097e+00 -9.906358492935629645e-01 1.031734224855938020e-01 8.941956713734669493e-02
1.565284054795988396e-03 -1.010125608661506386e-01 -9.087376500063460982e-01 9.579280026726305630e-01 -2.272363081427644371e-01 1.753214246955316913e-01
1.612706331160905504e-02 -6.721098784401488557e-02 -1.021628158011327336e+00 9.886464771445538924e-01 -1.381306094099259418e-01 -5.914455151326817456e-02
-3.794555581659018930e-03 1.640595154171868020e-01 -9.373513919493503543e-01 9.590987031867052037e-01 2.808206065440871924e-01 3.562954512467385315e-02
1.107931607949259878e-02 -8.122783765854062199e-02 -9.326081228131110068e-01 -9.579339726488547146e-01 2.272185061265185047e-01 -1.753118778600471772e-01
2.149535401553449160e-02 -4.147124472615324776e-03 -1.058260761121591065e+00 9.946413338185458031e-01 -9.805654108439885996e-02 -3.276479528743157787e-02
5.215139824143029358e-04 -1.600360101403670854e-01 -9.669383988505794170e-01 9.628651710528562946e-01 -1.630112855833159569e-01 2.152161312398029047e-01
-3.697545407597914446e-02 7.698478011354321915e-02 -7.691415680587220249e-01 8.800930705781051522e-01 8.175045683168072341e-02 4.677104338457863664e-01
1.420370950100689061e-02 -2.514240930495346624e-02 -9.029868114291179637e-01 9.657505986004830678e-01 -9.440819937714511889e-02 2.416875528304543164e-01
2.271963650153569630e-02 1.400802986563009014e-02 -1.050203857611340386e+00 9.983076070535044089e-01 -5.600344214090172829e-02 -1.566959372402790610e-02
1.913288742807329676e-02 4.354316718342344378e-02 -9.379511251866289312e-01 9.920313012990612522e-01 5.274478803294725682e-02 1.144197735457056636e-01
-2.689226515958207525e-02 1.479471316938734196e-02 -7.770252751841544292e-01 9.032747827170738431e-01 8.289065233417064471e-02 4.209795798646750464e-01
-9.522440511866653301e-03 2.112942560915357093e-01 -8.143333230012675950e-01 -9.417621889918265099e-01 -1.876010481470331490e-02 -3.357559200560201740e-01
2.580937837547063983e-03 -1.565756022312755902e-01 -9.715233692306470825e-01 -9.628718280992238920e-01 1.630045038077577446e-01 -2.151914830824981362e-01
-8.712541177361003350e-03 -2.045809587596054968e-01 -9.539790261498658497e-01 9.622741431410822832e-01 -1.198057897711386766e-01 2.442847645257667788e-01
2.621674883991322036e-03 1.040907274685454464e-01 -8.630041140173916325e-01 -9.809185068989104694e-01 -1.515661503862666681e-01 -1.217644647682543518e-01
1.053007755733322524e-02 3.248520961540926275e-03 -8.774883748406930861e-01 -9.630531417440668651e-01 5.724140921279968763e-02 -2.631578751400280858e-01
2.162408610702824460e-02 4.869158711770547876e-02 -9.821823629868654537e-01 9.978761627995773598e-01 6.194862046775313769e-02 2.013782854563953353e-02
8.875242383010493313e-03 -1.184893889058754174e-01 -1.047536569610722834e+00 -9.958661423344550290e-01 7.987514764816133761e-02 4.325028716754619057e-02
-1.781521872844594317e-02 -1.152434861652981563e-01 -8.394884601307128769e-01 9.362876566144719970e-01 -2.383224674740963278e-01 2.580074137858030525e-01
1.535214641422214497e-02 -7.084824447602917907e-02 -1.032989000200727370e+00 -9.886243472316050829e-01 1.375048086826389515e-01 6.094528406721323038e-02
7.628254383399907853e-04 3.399718983944170769e-02 -8.453514329618202483e-01 9.500073608361796484e-01 2.647335857849542756e-02 3.111031591653334871e-01
-1.325964199504869011e-02 -1.005918962659164834e-01 -8.409157619637996905e-01 -9.349597379767089489e-01 2.422021185717067593e-01 -2.592072956571639386e-01
2.154513397319745768e-02 4.405932418385516414e-02 -9.640201887524912916e-01 9.978761627995773598e-01 6.194862046775313769e-02 2.013782854563953353e-02
6.560602616204874032e-03 -1.302507039925471510e-01 -1.069324296207037950e+00 -9.942281749691841419e-01 9.079219935252566542e-02 5.715866193479746810e-02
-3.253693806281784257e-02 -1.549669991044930473e-01 -8.249723850726103924e-01 9.354798673267564757e-01 -2.595069342671861290e-01 2.398615619342961414e-01
8.442146713142277201e-03 -1.295102356524014675e-01 -1.036309802068814179e+00 -9.936666187336385958e-01 1.035762220616108509e-01 -4.357312288442480308e-02
3.568242608690586331e-03 -1.918707743109380193e-01 -1.013982418763499149e+00 -9.977616267464046729e-01 -9.589039100264311333e-03 -6.617995558703218539e-02
8.640412087587123410e-03 -1.065919460023723453e-01 -9.587160196251519606e-01 9.865986169305883680e-01 -1.619737449839082910e-01 1.968946435375093854e-02
2.179950457919162601e-02 5.287933372966660550e-02 -9.849672154462919549e-01 -9.978478056668512730e-01 -6.293618938904071980e-02 -1.840632475635095230e-02
2.354945814697151710e-02 1.044320118412014886e-02 -9.854396342750348925e-01 -9.998445084085395562e-01 1.444943340360174515e-02 1.010806013043832191e-02
-1.833035973362961849e-03 1.568162199373276666e-01 -9.381104160361762867e-01 9.654627682574077330e-01 2.564623710883592866e-01 4.592053271119225094e-02
5.591870614134227500e-03 -1.427998407801143177e-01 -1.000906227785457014e+00 -9.948638091035827413e-01 9.067234361499211526e-02 -4.499474901891372530e-02
-2.198199593422414666e-02 -2.079830111037033469e-01 -9.086936004385078869e-01 -9.285647642466778873e-01 2.048991266333257399e-01 -3.094896226118275528e-01
-3.176166258587444224e-03 -9.665744339951538866e-02 -8.780478461568000936e-01 9.604535632085136054e-01 -2.075901325871594150e-01 1.855674803744317980e-01
7.746844991938164546e-03 3.073456008232202177e-02 -8.670893845549350054e-01 9.543809357206201049e-01 1.151018681913582899e-02 2.983698127029977276e-01
-3.678462747210950630e-03 -1.486943332362188341e-01 -9.380879408844373657e-01 9.595479321796835936e-01 -2.089880534373364518e-01 1.886577837518665091e-01
-3.220378076034171450e-04 -1.960915487330152362e-01 -9.811834279142050974e-01 9.573269725573223532e-01 -8.801591472478151323e-02 2.752785250784947624e-01
1.922650233909304479e-02 -3.028775072476507652e-02 -9.484694288134485340e-01 -9.940955004252824967e-01 9.599216519535216929e-02 -5.059288739847633137e-02
-1.307462927450400453e-03 1.347795632029595916e-02 -8.374621058517347505e-01 9.543809357206201049e-01 1.151018681913582899e-02 2.983698127029977276e-01
-7.452344972257199732e-03 -1.532717727827434262e-01 -9.216637997506824664e-01 -9.595560367769511156e-01 2.089667379577715423e-01 -1.886401725831446108e-01
-7.030961503084907568e-03 1.780105271074150786e-01 -8.830654045496842963e-01 9.872741157420673597e-01 1.485410145748645439e-01 -5.679249400042702539e-02
-1.169603576166593738e-02 1.021885833977351499e-01 -8.243272067771327816e-01 9.356606320993547943e-01 4.873176200877693542e-02 3.495202381993859908e-01
-2.228081979310174432e-02 -1.123384527825258411e-01 -8.193177463434326846e-01 -9.356544893250585693e-01 2.390753163384348456e-01 -2.596029077717366129e-01
-4.424365604917654578e-03 1.553399931102071307e-01 -8.704483482720944965e-01 9.899465846736276164e-01 1.088998483099205827e-01 9.025842083205545818e-02
1.928010617787491096e-02 -3.668847842410915411e-02 -1.034124826117572393e+00 9.908342084143328954e-01 -1.245156960639801774e-01 -5.237759892974021975e-02
-2.490699771272471275e-02 -2.319473261806912767e-01 -9.164454006252482632e-01 -9.135209895106740641e-01 2.606216715541012086e-01 -3.123391522684676458e-01
-2.882000556135921876e-02 2.471680309611032356e-02 -7.743092702833219709e-01 -8.902308586580059968e-01 -7.065460672746892712e-02 -4.499966053663246868e-01
4.585330871648732667e-03 1.292315903933511645e-01 -9.075501249111644908e-01 -9.749674986193760384e-01 -1.708150500570049524e-01 -1.423397179633972276e-01
-2.371516553387001056e-02 -1.448706735129494938e-01 -8.465164249872612068e-01 -9.333304758647186228e-01 2.560174689988594654e-01 -2.516928254630155237e-01
2.239575154721519870e-02 -1.889587510827038866e-02 -1.001569452713279240e+00 -9.981798904500194247e-01 5.515262538068459869e-02 2.439455297407195841e-02
2.129311188689945664e-03 1.127597679051540874e-01 -8.733646738250698816e-01 9.809154141575572305e-01 1.516130291756670190e-01 1.217310135186846776e-01
-2.455107442048767505e-02 -1.948255758857268538e-01 -8.916921635514929445e-01 9.316844375291384317e-01 -2.365912017543099766e-01 2.756605015566508388e-01
-5.516837767733243428e-03 -2.337059521463747680e-01 -9.737406016186399560e-01 9.500452836059392059e-01 -3.931430822446745771e-02 3.096261362788066962e-01
1.676214228013897783e-03 1.248114164288311317e-01 -8.811796565147924643e-01 -9.809185068989104694e-01 -1.515661503862666681e-01 -1.217644647682543518e-01
1.836392766316650299e-02 -3.427852040859547672e-02 -9.476560035336590859e-01 9.940972748178970031e-01 -9.598540453203473211e-02 5.057084452974892896e-02
-1.039506152609886644e-02 5.740003476141307404e-02 -8.177827169003160090e-01 9.323244996158959186e-01 8.469367337288509490e-02 3.515650851642920793e-01
-1.467975785169134406e-03 -1.815979547757042289e-01 -9.688603311879269153e-01 -9.644452738347659704e-01 1.221302462943480022e-01 -2.343704689543137654e-01
1.658926890012223446e-02 8.817647679442018605e-02 -9.609214963181534896e-01 -9.885855276182137219e-01 -1.454545883231053993e-01 -3.926343489270409104e-02
2.185161507882010801e-02 -5.524148420389517027e-03 -1.052089675453062645e+00 -9.948265545163630375e-01 8.954864918538968377e-02 4.797046860489949383e-02
-1.239365522417757055e-02 -1.437176211139487916e-02 -8.095376186401688212e-01 9.305767070424457721e-01 -4.021599465803768481e-02 3.638813901310459786e-01
