-4.019793973719541086e-02 -5.019349823396034027e-02 -8.523632203561356535e-01 1.268972474926479688e-01 4.381530739093812410e-01 -8.898982932911770893e-01
-1.399956950938527900e-01 -9.295348173682491111e-02 -8.918962668399119664e-01 -6.226781080692846138e-02 -3.682006499531537136e-01 9.276588818695090666e-01
8.270375032579664609e-02 8.760084244385513141e-02 -7.622468891232259125e-01 -2.231433476132078653e-01 -4.988499236204904652e-01 8.374698801269223614e-01
4.373489125938492122e-02 -2.470642778498664122e-02 -8.258533743076985623e-01 1.504438297250386691e-01 4.855075543997448007e-01 -8.611904950232801559e-01
1.212221193438794559e-01 5.998712723690902832e-02 -7.687400467374597701e-01 -2.108830194088351373e-01 -5.152261499380710319e-01 8.307047408947447753e-01
-5.819438158585909723e-03 -3.965814225750303179e-01 -1.023034727575945491e+00 4.254606114024984675e-01 4.213003729787867524e-01 -8.009302490685111797e-01
-2.404686837505172828e-02 1.074602465026693182e-01 -7.712989928398636952e-01 2.376786050267277461e-01 4.315652918795344073e-01 -8.702070325833277664e-01
-1.112578089742489590e-01 4.983706846826030379e-02 -8.269820748653111675e-01 -1.856247446358566533e-01 -3.892183856422202770e-01 9.022485812994869292e-01
3.494895766515344893e-02 -1.875029813286973324e-01 -9.165957011960529366e-01 -2.479229318830653006e-02 6.015047454424337081e-01 -7.984844290333393824e-01
-9.169566175073822281e-03 -3.358194831670755498e-01 -9.967044532731919038e-01 9.370601136411319532e-01 1.604558113129705144e-01 -3.101165523456706485e-01
-2.403980678130909071e-02 -9.501631855365844093e-02 -8.807878040627225014e-01 -9.989366226709459062e-02 -4.414262698518133243e-01 8.917197455050446253e-01
3.183192417391308982e-02 1.930296538453273869e-01 -7.103430236404059128e-01 2.805798478432607879e-01 4.497036408347425129e-01 -8.479631975529536847e-01
-1.631362666032874775e-01 -3.163124012319196848e-02 -8.651695732833639685e-01 9.792615133621416224e-01 2.021507704479648115e-01 -1.348904944695404444e-02
8.983744469848922720e-02 6.185798728804887264e-02 -7.629693002610234975e-01 1.918945050568460486e-01 5.735716297500935701e-01 -7.963617798932904890e-01
-4.162597727656752039e-02 -3.419061360505924047e-02 -8.531508808776742114e-01 -1.397119777588206879e-01 -4.351955785512623409e-01 8.894298014346893044e-01
-1.263467866246170412e-01 7.168631364182261045e-02 -8.130358485688832237e-01 2.108970507114760196e-01 3.771183221554244569e-01 -9.018338012604532050e-01
-1.947369215597489350e-02 1.624730848385119997e-01 -7.425375703851576636e-01 2.599919806667352895e-01 4.273219087141444383e-01 -8.659100162960863267e-01
-1.172889463134380895e-02 1.613057454529945034e-01 -7.488914064798802839e-01 -2.542551412446870107e-01 -4.390250015547725870e-01 8.617490186594215507e-01
1.448415494973132600e-01 -4.423153898749587060e-02 -8.204411920028180649e-01 1.200889363156363576e-01 5.283269388801934419e-01 -8.405053795354693325e-01
-5.981973692465043096e-02 -1.479977802107381446e-01 -9.015564294985172200e-01 6.674599270951203644e-02 4.343960058447802752e-01 -8.982455580537670459e-01
-8.602260181320824095e-02 -3.863086908658465435e-02 -8.538695696451232831e-01 1.404589187723942201e-01 4.096171634581138865e-01 -9.013795380070588337e-01
1.235713689215296590e-01 1.116780180626382318e-01 -7.284724456613308474e-01 2.244459711517595157e-01 4.990592558717192873e-01 -8.369969325884709654e-01
9.949967015288194855e-03 -1.751618838837437075e-01 -9.106350739042746723e-01 4.777791285269032684e-02 4.777424621016175821e-01 -8.771997554425817745e-01
-2.259614799236352948e-03 1.099417335583058875e-01 -7.724984480585622704e-01 -2.186698254885458548e-01 -4.484161563137410433e-01 8.666639822778026137e-01
2.425619551932918158e-02 -1.169145717275027613e-01 -8.870387026483605997e-01 -8.679803227569674040e-02 -4.740517848213282592e-01 8.762083125038134801e-01
1.218638736827448547e-02 -3.765261922192691957e-02 -8.426906794068175222e-01 1.679348915039478307e-01 -9.381474229853582480e-01 -3.027825704387365202e-01
2.494627096431358340e-02 1.554320221465439189e-01 -7.325922656068603045e-01 2.585761489396459778e-01 4.552130708197383857e-01 -8.520090582584236572e-01
-8.665277091220117966e-02 -4.353877127326501867e-02 -8.561977947675735168e-01 1.330727588564055153e-01 4.096641890802524277e-01 -9.024781953241663990e-01
8.453242258960490252e-02 -1.483964971374169828e-01 -8.992689357308846221e-01 -7.334616710703519005e-02 -4.968596058573358509e-01 8.647258940485128553e-01
6.543985159658299855e-02 -1.664957460628261054e-01 -9.026738603670213523e-01 5.431059917241370938e-02 5.002574140262099345e-01 -8.641717876263620424e-01
5.238731501842665023e-04 1.229387169812577382e-02 -8.265563964641374772e-01 -2.133704730406549843e-01 -4.489549429707426764e-01 8.677053073575985431e-01
5.058692905325357092e-02 -1.635278677628194122e-01 -9.018807642045981732e-01 4.418149288781729467e-02 4.902369111807406421e-01 -8.704687051251012164e-01
2.111145153723173711e-04 8.895450305995198856e-03 -8.122813285851635534e-01 2.327884965245223259e-01 4.469127695744161688e-01 -8.637583529420582718e-01
-2.387158915816214866e-02 1.510014885032342491e-01 -7.618312767633982352e-01 -2.493648481729903998e-01 -4.265254554375857987e-01 8.694211915748438768e-01
6.404860363384320965e-02 -6.831866201984138076e-02 -8.556010398171814968e-01 -1.129367995574980382e-01 -4.835386725920292061e-01 8.680067000972099267e-01
3.177701685932975140e-03 -1.582835020036740814e-01 -9.105961821838610692e-01 -5.258930464215213346e-02 -4.589015687132145249e-01 8.869293744542491309e-01
9.705488257325340035e-04 1.478182779940935831e-01 -7.438369294119474562e-01 2.493774853316320095e-01 4.450190019182330703e-01 -8.600982256355207412e-01
-1.090535047631359805e-01 -1.438863920683778816e-02 -8.467220359896271420e-01 1.624255273022436885e-01 3.924453511483351753e-01 -9.053201612924833830e-01
-5.841014959954923119e-02 2.205653107739928218e-02 -8.290270663769913062e-01 -1.817202887439551551e-01 -4.231116567825255470e-01 8.876678785185142528e-01
-8.485151656247227892e-02 -1.320012887730314388e-01 -9.041854302194767268e-01 -6.825998543917306816e-02 -4.171971535025480460e-01 9.062489224805816423e-01
4.050529552853931320e-02 -5.239226269136308678e-02 -8.415984359434677264e-01 1.226256068010941475e-01 4.736377174887729247e-01 -8.721412002243036365e-01
1.382262489843730669e-03 -1.471970833093693143e-01 -9.049664734661282406e-01 -5.258930464215213346e-02 -4.589015687132145249e-01 8.869293744542491309e-01
9.536944000945093980e-02 9.936038194508405030e-02 -7.518673996823357353e-01 -2.231433476132078653e-01 -4.988499236204904652e-01 8.374698801269223614e-01
8.190725794516794112e-02 -2.175351126028216356e-02 -8.259533664728930802e-01 -1.529802848074942601e-01 -4.977233209432351257e-01 8.537379739999007011e-01
-1.264179363580592574e-01 1.179693412897642735e-01 -7.934077634239862231e-01 2.313715097422111566e-01 3.856286784177249127e-01 -8.931728538538377116e-01
1.463750891394937914e-01 7.275332583945870457e-02 -7.465295926526400727e-01 1.937292112593018423e-01 5.168722378364425385e-01 -8.338537536395677074e-01
3.080518918086176498e-03 -5.477558366290678771e-02 -8.484172956179036884e-01 1.375103539024417620e-01 4.586477508040407436e-01 -8.779140864868382188e-01
-5.506026951414264015e-02 -5.213788641974668320e-02 -8.637409610013363492e-01 -1.363992856154915834e-01 -4.228983544078649404e-01 8.958527874169411875e-01
3.794980761806707181e-02 9.909047282582911231e-02 -7.593580531308180559e-01 2.198496700537143356e-01 4.623555037548989222e-01 -8.590072821139683734e-01
-5.060511665829296041e-02 1.720978183133997919e-01 -7.473605921728293522e-01 2.741028498074872810e-01 4.141309005668083465e-01 -8.679649906091480016e-01
1.943196219033926529e-03 -7.668994355025636478e-02 -8.724438757636153730e-01 -1.532079749787405853e-01 -4.541121506412513775e-01 8.776727585170289725e-01
-1.074868706513361361e-01 1.470440270414389017e-01 -7.833290796833500824e-01 -2.338108557218541161e-01 -3.922852041422772440e-01 8.896318352878713753e-01
7.695607725689078416e-02 -2.813542084500960175e-02 -8.305611716591440041e-01 -1.529802848074942601e-01 -4.977233209432351257e-01 8.537379739999007011e-01
-2.404389076118754361e-03 -8.584889868043703298e-02 -8.652316679645082331e-01 1.042131397127085413e-01 4.570352774990947831e-01 -8.833223514847480251e-01
2.175026339583393045e-02 7.643550728093033431e-02 -7.757143321524557766e-01 2.179805173172301436e-01 4.662257041125487667e-01 -8.573902768837952104e-01
1.060128011398956821e-01 7.370859399542695201e-02 -7.621708754533369490e-01 1.967433376373706189e-01 -9.104671020125956193e-01 -3.637880086645153832e-01
-8.186006539203368598e-03 -1.736354738767255101e-01 -9.108762799264475962e-01 9.387561701730571251e-01 1.572961335036806574e-01 -3.065856802703065265e-01
1.988700972527117014e-02 5.981857321162625807e-02 -7.933446555323171445e-01 -1.951154607697968002e-01 -4.562655086923659287e-01 8.681887712624981601e-01
1.467453732366598151e-01 -3.747525175513726631e-02 -8.237736844711462947e-01 -1.611017203104859463e-01 -5.296545907844077972e-01 8.327738289439716723e-01
1.793276571922696599e-03 -1.474704825113554163e-01 -8.930310872264076716e-01 3.913407636356862861e-03 4.595339462557619936e-01 -8.881515847417478238e-01
7.233043315449011468e-02 1.008252168493676687e-01 -7.489138497848699672e-01 2.188147946088260798e-01 4.865963019834291803e-01 -8.457801869022167907e-01
-6.707871741786090858e-02 8.647843518728075274e-02 -7.923475339741130608e-01 2.186706791209410694e-01 4.070522628353259731e-01 -8.868436104598301783e-01
-4.904205929821046570e-03 -1.504726581133160046e-01 -8.959132120844935931e-01 5.343221556612103296e-01 3.850393563025490962e-01 -7.524922113003401636e-01
-1.077196268186686734e-01 1.168702580871583685e-01 -7.966928158469388510e-01 -2.338077240704058701e-01 -3.921863392389612901e-01 8.896762464398829673e-01
-9.419446551854236682e-02 3.167373599302384518e-02 -8.315709157044904876e-01 -1.741182173958036594e-01 -4.055261557074885670e-01 8.973468579139357582e-01
9.996655828922836051e-02 -1.572348716998519247e-01 -8.951682120659186781e-01 2.906953485222235276e-02 5.301541829275037143e-01 -8.474027994218253923e-01
5.750994382941818084e-02 1.697318631201506778e-01 -7.227295266718990474e-01 -2.731993708707094459e-01 -4.667668337006196655e-01 8.411247390922149680e-01
1.233757625660208360e-03 -2.458015369564235664e-01 -9.440042173528275793e-01 -1.723378400957286116e-01 4.526618206496115238e-01 -8.748696731498458723e-01
7.016673992934478743e-03 -1.276320614589616376e-01 -8.943879242693344445e-01 -7.930758811346927395e-02 -4.612930219469915660e-01 8.836962455338579492e-01
4.819486118024125798e-02 -3.862560820921918936e-02 -8.291709217072200655e-01 1.780660077937365471e-01 3.706899747721849048e-01 -9.115269823059534149e-01
-5.900762872282851179e-02 1.227929637620342462e-01 -7.813890483656938946e-01 -2.365847418466246743e-01 -4.175078839723487256e-01 8.773339311495355064e-01
1.538531781251801416e-03 9.695037199382552928e-02 -7.700339365553025006e-01 2.186698254885459658e-01 4.484161563137410433e-01 -8.666639822778026137e-01
1.378032830159658662e-01 1.149718460101462059e-01 -7.295914843257117477e-01 -4.011040148363878566e-01 -5.522610362582393018e-01 7.308374081237951625e-01
4.272345319330334013e-02 8.617586359102535898e-02 -7.650875228994262756e-01 2.198496700537143356e-01 4.623555037548989222e-01 -8.590072821139683734e-01
5.247588354003498295e-02 1.383146110417994290e-01 -7.297550496421935096e-01 2.271816026142743916e-01 5.819611562939210891e-01 -7.808391204330457080e-01
3.988254091399011381e-02 6.678043138631621634e-02 -7.764837518527220039e-01 2.017382540413723280e-01 4.673696436869715365e-01 -8.607364829123094196e-01
4.227398749990424892e-02 1.433709387619289399e-01 -7.420919452864228605e-01 -2.580155759747397304e-01 -4.595609441415542396e-01 8.498421625067482665e-01
4.207757025299375953e-02 -3.472976726243620838e-05 -8.210413324449244987e-01 -1.651814953423598464e-01 -4.822579760528414861e-01 8.603152434601393228e-01
1.382213290726369559e-01 -2.242054231038333525e-02 -8.183665619809312730e-01 -3.154098743005130934e-01 1.527022461493399430e-01 9.365888293240960394e-01
-1.353375116860266736e-01 1.222108497584817183e-01 -8.012180405665121352e-01 -2.148398025400867495e-01 -3.847801727834397334e-01 8.976569934430873587e-01
-8.395903211891393714e-02 8.924020205345528645e-02 -8.032819241412826328e-01 -2.046525695040529724e-01 -4.099338327477842214e-01 8.888597069077327495e-01
4.596430910453693647e-02 2.066094731843479693e-01 -6.984923630823208773e-01 2.835806567665420941e-01 4.464023895885531057e-01 -8.487089711305555451e-01
7.725922186292333294e-02 1.580246166525524631e-01 -7.149527643956318235e-01 2.631165740448698220e-01 4.739564317292587758e-01 -8.403183737639912110e-01
-1.371745632307748430e-01 7.486568817600081083e-02 -8.142413557396068757e-01 2.140736399430262504e-01 3.764439715664791297e-01 -9.013669690824039904e-01
6.402454827306874874e-02 1.030046607773816431e-01 -7.499614624445903877e-01 2.402521993927344002e-01 4.724498825216021380e-01 -8.479799462205921401e-01
1.603791566238902400e-01 -1.696856656237294078e-02 -8.078560859502875724e-01 -2.123856137326386173e-01 -5.294706523532038966e-01 8.213118648699062607e-01
-1.531662274774968635e-01 -5.537536042893061172e-02 -8.715198319948618266e-01 1.689411555429686240e-01 3.822130759517767817e-01 -9.084998902230466689e-01
1.602166124272923486e-01 -3.381802645942780239e-02 -8.115769127215403111e-01 1.011016629625818702e-01 5.448225398521079343e-01 -8.324342939928043306e-01
-2.798534319649751551e-02 -4.824653902439367953e-02 -8.496571129151188062e-01 1.277764219410505997e-01 4.381181360714925810e-01 -8.897896857354459232e-01
7.931783382050552195e-03 -2.648979681003334474e-01 -9.678021882685283739e-01 -9.369862562694974972e-01 -1.633776452110530242e-01 3.088114321189592282e-01
-6.213549189002730982e-02 -1.791491880342897525e-01 -9.158777993000405404e-01 3.899560681187344557e-02 3.668928392588274301e-01 -9.294455267254613240e-01
4.427853238028234099e-03 -7.543798102291988938e-02 -8.710825957445891277e-01 -5.493838877997579973e-01 -3.865986626064758513e-01 7.407555723022994920e-01
-1.441427694286560035e-01 1.656847059772506223e-02 -8.474194460992192646e-01 -1.568324863860066087e-01 -3.801896932180596211e-01 9.115148755696426131e-01
-2.362593891764517770e-03 3.903969278154215128e-02 -8.091345045818012505e-01 -1.869770516956062167e-01 -4.514331918808142663e-01 8.724950747182007582e-01
8.908082820858498341e-02 -1.746576519298416730e-01 -9.174760840508493498e-01 -6.972136687881885786e-01 5.989113489385561317e-01 3.939521495911819660e-01
-1.603940646693436875e-02 1.974955243549435420e-03 -8.308257076188951817e-01 -1.591270473038008948e-01 -4.462013462197306768e-01 8.806718693407176168e-01
6.896955277126139497e-03 -1.309188965764278845e-01 -9.003349365908511759e-01 -8.888470570875309229e-02 -4.528118367320521642e-01 8.871645561035526040e-01
-2.511634561840860036e-02 -1.860800609567841296e-02 -8.428176288289134233e-01 -1.517208509411683559e-01 -4.467483513425740127e-01 8.817010230017768846e-01
5.962468364433758626e-03 1.383815101037303152e-01 -7.436525444669930263e-01 2.654588619617010425e-01 4.430502661536949716e-01 -8.562932057812548958e-01
1.263675621018768291e-01 1.289064591406283711e-01 -7.246962384802898560e-01 -3.102540248625257902e-01 -5.216640824148894851e-01 7.947383375519484483e-01
-8.320939155464049039e-03 1.840228090712824338e-01 -7.278874326256874472e-01 9.448971581606824266e-01 1.490390413985735185e-01 -2.914733686614621733e-01
4.861587071939057342e-02 9.149443969964915491e-02 -7.607167578744187253e-01 2.198496700537143356e-01 4.623555037548989222e-01 -8.590072821139683734e-01
-3.326927386288331106e-04 6.219563957892645933e-02 -7.967185001361661856e-01 -1.868895195391730435e-01 -4.514408460656646471e-01 8.725098681332688066e-01
7.159890459950088437e-02 2.249347256466403475e-02 -7.940157250674910738e-01 1.856625828511071774e-01 4.975847208440694613e-01 -8.473127232088427663e-01
1.478509115581220015e-02 2.416677585401819355e-03 -8.248101321627749893e-01 -1.811888871499669207e-01 -4.589291751976272704e-01 8.698014712138524285e-01
6.671331733908004644e-03 8.005034658334435858e-04 -8.188254720742742521e-01 1.582288232521774918e-01 4.568039959795714422e-01 -8.753820587316870627e-01
-7.426783340776846321e-02 9.246286632368772018e-02 -7.994179375238293916e-01 -2.186872185085415865e-01 -4.071731158708923881e-01 8.867840516004932283e-01
2.693795553485609645e-02 -3.416165676498141707e-02 -8.338284391156814968e-01 1.437678011490480801e-01 4.709359409971023425e-01 -8.703735742943611298e-01
2.429180560327826727e-02 1.012319460230711732e-01 -7.702133557115594664e-01 -2.369768031057516156e-01 -4.633177363685621053e-01 8.539195922076557865e-01
-2.659585111876475172e-02 -5.863984640036056656e-02 -8.629162138743691202e-01 -1.185724455583530151e-01 -4.501018525170784601e-01 8.850699958280165980e-01
1.346410201035836383e-02 -6.242455357517843507e-03 -8.296538486756258601e-01 -1.670022760590448574e-01 -4.628728043264302983e-01 8.705509788668811533e-01
-6.389229608240583336e-02 1.849888265047140434e-01 -7.532493808653148992e-01 -2.726372339543211565e-01 -4.198889567975648829e-01 8.656570929768839795e-01
-4.340930833343351058e-02 -8.049928811744028190e-02 -8.675904639781547578e-01 1.080618369335809015e-01 4.421400160876672869e-01 -8.904127388871622140e-01
2.405318629323575236e-02 -1.020084593609186518e-01 -8.791342359493493630e-01 -1.017827330519532059e-01 -4.726799625962945783e-01 8.753364657161497586e-01
-3.617362114096887155e-02 -2.982165348467627486e-02 -8.541094699944048463e-01 -1.672671278519782812e-01 -5.287537580550519811e-01 8.321305013534893158e-01
-7.225374237668698296e-02 7.941348984776688824e-02 -8.050032105132087779e-01 -2.066791442080532781e-01 -4.205003855885389163e-01 8.834382587760825079e-01
-7.692748100724813853e-02 7.051025726771867341e-02 -8.102835954016039954e-01 -2.033882771864749528e-01 -4.039804905278991387e-01 8.918704905847910647e-01
-7.001543279819462395e-02 1.351459061790962965e-02 -8.271737300151095207e-01 1.665948239824000254e-01 4.063228977488738680e-01 -8.984140845886330329e-01
-1.570188310185858388e-02 2.260772243192403150e-03 -8.223704137360686728e-01 1.623085324069789281e-01 4.464721332705470225e-01 -8.799537343069461226e-01
-5.369622116869012841e-03 1.413106716048821432e-01 -7.455113850261488873e-01 2.727510185503779216e-01 4.110257833181022447e-01 -8.698647523192739595e-01
4.146270151071617532e-02 -7.610319049140192027e-02 -8.544622045663607945e-01 1.191574433111445980e-01 4.861304640943597266e-01 -8.657243646698145056e-01
-2.336101984937940385e-02 4.329589544788234323e-02 -8.031833664661361949e-01 1.976896901549039798e-01 4.329103333288989441e-01 -8.794927115692999786e-01
-2.915125755037998451e-02 -5.165138809014247628e-02 -8.515010345934908020e-01 1.277764219410505997e-01 4.381181360714925810e-01 -8.897896857354459232e-01
-5.336947720967821773e-02 -1.686374561372383230e-01 -9.109900036630794729e-01 5.427500345380521785e-02 4.362953932577438576e-01 -8.981651038768763140e-01
-6.084978389295059298e-02 -3.065183490230934116e-02 -8.426335647122675798e-01 1.667778161350129129e-01 5.040385070828528047e-01 -8.474257155780232642e-01
-1.350776110623324883e-03 7.771738708076726676e-02 -7.931278451867684876e-01 -1.533197104804066846e-01 -4.541041869680912946e-01 8.776573669469498462e-01
3.918589567535524232e-02 -1.092216168373762869e-01 -8.728633417917582848e-01 9.465986334680689951e-02 4.766176709678465739e-01 -8.739994885538260316e-01
-1.374687966534947070e-01 1.248762559419395179e-01 -8.005856045532149246e-01 -2.148398025400867495e-01 -3.847801727834397334e-01 8.976569934430873587e-01
5.162861124501644250e-02 -1.037335344307814128e-01 -8.770180913418931246e-01 -1.075575513792149940e-01 -4.875448283775208336e-01 8.664475826405434455e-01
1.300939613111365412e-01 4.375633502956818854e-02 -7.765279018610322659e-01 -2.024289480216456549e-01 -5.074705765477808272e-01 8.375536609323088744e-01
1.174421360062907482e-01 3.785829168656254518e-02 -7.748315096015409020e-01 1.897413941573254381e-01 5.103957226892367194e-01 -8.387457359675615232e-01
8.342160040312959074e-03 -5.971048837215661882e-03 -8.220657370195524338e-01 1.574551803109342507e-01 4.603612719971815759e-01 -8.736563199785073452e-01
1.641312473686399598e-01 4.232528086153426045e-02 -7.665456566910227032e-01 -9.801477712764365968e-01 -1.976268470723915593e-01 1.593661752253862710e-02
-1.341290424536464021e-01 -9.880212941301279306e-02 -8.868654432183102898e-01 1.268711009370230569e-01 3.923756551355709887e-01 -9.110132101149572836e-01
-4.471980689858746916e-02 -1.085166194306547427e-01 -8.813588785975045026e-01 9.471371493647763595e-02 4.380384302217877890e-01 -8.939528208198482817e-01
-1.143524877508665660e-01 8.163606132842934904e-02 -8.060607286179947151e-01 2.115340352729568330e-01 3.803374068931644203e-01 -9.003314994150336537e-01
-1.287707324639497941e-01 -6.448608165189079200e-02 -8.790250803521211242e-01 -1.120120185854762002e-01 -3.891700855791153102e-01 9.143303299042151444e-01
7.957557432700619604e-02 3.273256620284736851e-02 -7.863464376180346882e-01 1.897058335872632839e-01 4.809486469053470548e-01 -8.559790276302785550e-01
1.127263239807406447e-01 -1.206751429488616550e-01 -8.801756486097690457e-01 -9.002505378197177277e-02 -5.138122624030183605e-01 8.531661319437411350e-01
1.807608441596861987e-02 -1.915500243432249339e-01 -9.280514037044567122e-01 -9.597245534831775129e-03 -5.592708574080967887e-01 8.289294306104449950e-01
4.621084739867718783e-02 -9.341052554287683496e-02 -8.718819373811794726e-01 -1.075575513792149940e-01 -4.875448283775208336e-01 8.664475826405434455e-01
1.036094540886879356e-01 -1.533072157464342999e-01 -8.925860155937064278e-01 2.906953485222235276e-02 5.301541829275037143e-01 -8.474027994218253923e-01
9.719988963119538528e-02 -1.062904980315681619e-01 -8.648337256983097410e-01 9.522639148861486436e-02 5.106581642200661575e-01 -8.544941039465685506e-01
-1.315568412695180545e-01 1.013384639239034019e-01 -8.017932761233848016e-01 2.404920974073118944e-01 3.719452671243960173e-01 -8.965602430112512566e-01
5.552768021625970746e-02 -1.655137240835375112e-01 -9.111589916545417278e-01 -4.862107686160286463e-02 -4.819927901697356742e-01 8.748250917236035651e-01
-2.207985917183128560e-02 1.957366367118685280e-01 -7.267892646000886359e-01 2.837271161981251844e-01 4.223172185611303031e-01 -8.608990013007834508e-01
1.698033676548986112e-02 9.100693570543330613e-02 -7.691423416311911065e-01 2.195680205138267616e-01 4.550352339556943959e-01 -8.629790381153683576e-01
8.279330499615526751e-02 -1.578233144734825233e-01 -8.965673624760364113e-01 5.796586995158473088e-02 5.109280233318106434e-01 -8.576669008974316943e-01
-1.485194453513531410e-01 -8.525431861572072001e-02 -8.852978627736043382e-01 9.285183741513749478e-01 3.634109398688699089e-01 7.606653434271941350e-02
1.077360185229317563e-01 9.410796036401587739e-02 -7.433302795212697323e-01 2.336206793483696087e-01 4.969161915473607194e-01 -8.357605379287018632e-01
1.469309700294044174e-01 -4.785887702247378084e-02 -8.224227428074176727e-01 1.200889363156363576e-01 5.283269388801934419e-01 -8.405053795354693325e-01
-2.900923614095495071e-03 8.491137327807367352e-02 -7.896764401159144242e-01 -1.533197104804066846e-01 -4.541041869680913501e-01 8.776573669469499572e-01
2.448284592368319551e-02 -4.273861559987304076e-02 -8.388233126547667284e-01 1.363610469654865653e-01 4.655250732081221421e-01 -8.744667352650122849e-01
-1.127899742622739433e-02 -1.498136195523834813e-01 -8.989034463766675254e-01 7.139129916381850571e-02 4.520326977234348509e-01 -8.891398779677897046e-01
9.556337038875420062e-03 8.467950874673240216e-03 -8.175258568209369248e-01 -9.873003814977615589e-01 7.373777545217531648e-02 -1.407149500434797529e-01
-7.097072878475108038e-02 1.836336693644002316e-01 -7.560237763786293863e-01 -2.634421248159882212e-01 -4.121722102800247645e-01 8.721882342392131005e-01
-9.270589353982068570e-02 -1.980337387403926022e-02 -8.464087068992087737e-01 1.504834896948485934e-01 4.094916931927852777e-01 -8.998173550978922908e-01
-7.863319267577226213e-02 2.230311606891447612e-02 -8.328172723905024055e-01 -1.713321735750321928e-01 -4.241354527789954476e-01 8.892437258671053169e-01
4.835434854299722890e-02 -8.359970870124770401e-03 -8.245029778396584241e-01 -1.651814953423598464e-01 -4.822579760528414861e-01 8.603152434601393228e-01
-5.963704219293900974e-03 -3.662028554178867745e-01 -1.021270917493848795e+00 6.071196797316831262e-01 -3.615247007414514879e-01 7.076055293991861950e-01
1.992814668300551054e-02 -2.107662177005787674e-01 -9.395643282702252908e-01 8.069868906698626776e-02 -4.572452664124631583e-01 8.856717721177893576e-01
7.367352689779523012e-02 -6.298460082602470866e-02 -8.510773787395166101e-01 -1.272574367306979204e-01 -4.998503171882467400e-01 8.567118565792944951e-01
-9.612845832416209990e-02 -5.642935620540703162e-02 -8.633324916734255172e-01 1.297818847896983208e-01 3.971861028967546003e-01 -9.085151963760002003e-01
-5.243538486348241906e-02 1.538366883910977645e-01 -7.673280543438556478e-01 -4.713706824984947169e-02 2.633496012549807475e-01 9.635481743616410855e-01
-9.128303783975495744e-02 1.971741687602169002e-01 -7.489079696470953840e-01 3.353971856303135657e-01 3.326801975081031260e-01 -8.813810833329897010e-01
2.153763915359090553e-03 6.130887385176016918e-02 -8.008572204579066378e-01 -1.842730016263200710e-01 -4.789443099453399855e-01 8.582865540381071634e-01
-9.531648428973579085e-03 -7.246565418968224648e-02 -8.650045949087833419e-01 9.873230307093625591e-01 -7.115087118471959127e-02 1.418830030713146007e-01
-7.181725016381980409e-02 9.781075401900865204e-03 -8.291963899437603258e-01 1.665948239824000254e-01 4.063228977488738680e-01 -8.984140845886330329e-01
5.723302048990993977e-03 -6.623854569635877210e-02 -8.624333607582149730e-01 -1.181770959599301590e-01 -4.597952291495523425e-01 8.801264234425575372e-01
2.353984905944404502e-02 3.219526961698290779e-02 -8.072472288360755810e-01 -1.828223395629179071e-01 -4.598010210437020184e-01 8.689988568484484643e-01
8.091970108370477588e-02 1.915234519387985779e-01 -7.010495013373932993e-01 -6.991550629956646556e-01 -7.139066320452213121e-01 -3.898100318587267160e-02
-1.641614090209491533e-02 -1.385219973721008857e-01 -8.935606488476559583e-01 6.690821089896349660e-02 4.522645082002212935e-01 -8.893706234954648071e-01
4.012647401717573531e-02 -1.101863510559734222e-02 -8.190398087747526867e-01 1.542320921153954860e-01 4.714027541370358620e-01 -8.683270726827108099e-01
1.729983716053008075e-02 1.208727701024180645e-01 -7.614970691995768259e-01 -2.369768031057516156e-01 -4.633177363685621053e-01 8.539195922076557865e-01
-6.707262279868612953e-02 1.442776647093985398e-01 -7.734704697841269239e-01 -2.363528096541729906e-01 -4.101733703726539448e-01 8.808491105778082364e-01
9.648096670381907380e-02 1.664201325323669822e-01 -7.116821007315515812e-01 -3.037540975508079000e-01 -5.038147741604502849e-01 8.086433834260617903e-01
-1.208260280260131797e-01 -1.242023294280030082e-01 -8.962749684214530443e-01 1.159962123108102816e-01 4.022936478896680934e-01 -9.081325341585165800e-01
-1.074210852177991671e-01 9.393083777873006968e-02 -8.017225663809818270e-01 -1.924713352021411583e-01 -8.234942743929506426e-01 -5.336777727875996469e-01
-3.267655254433038392e-02 3.550184147689366011e-03 -8.331456196311193274e-01 -1.649299965047332228e-01 -4.357322274969779863e-01 8.848364380909448101e-01
-1.630833396050117845e-01 6.840816741831200198e-02 -8.293967717473668122e-01 -6.675931592113823476e-02 -3.802813464371445629e-01 9.224582870188191563e-01
-1.402456819101818575e-01 -2.158419357946383607e-02 -8.551152836943733959e-01 1.547377502045818864e-01 3.819916689743440008e-01 -9.111194178019804690e-01
4.439330792608760234e-02 2.359945106002806978e-02 -8.075549072446577270e-01 -1.806554173653099060e-01 -4.833087118236173985e-01 8.566074417444442535e-01
4.163291528840470934e-03 -1.302455579740928737e-01 -8.959930180499101615e-01 -6.958008211948196742e-02 -4.616324535726251121e-01 8.843382214858546142e-01
-2.896116269992033559e-02 9.423502968904765020e-02 -7.792039344561252356e-01 2.197355858600648360e-01 4.415651830877739825e-01 -8.699060072165237800e-01
5.515535403980553059e-02 6.878790352820168819e-02 -7.715900489666889239e-01 2.177066395886081140e-01 4.777128602335611873e-01 -8.511135307622046398e-01
-1.569731008962326757e-01 8.879088287412335856e-02 -8.200328756951087428e-01 -1.725781177990416693e-01 -3.731966133823948484e-01 9.115596969024307716e-01
5.071187414801159137e-03 1.362971337956377649e-01 -7.604756490146322712e-01 -5.185911007346054591e-01 -3.929148171111840893e-01 7.593952967548293076e-01
1.266007598427307812e-01 -6.345627202963452854e-03 -7.999504106746970766e-01 1.572602921831384448e-01 5.133958224786182578e-01 -8.436195410041051890e-01
1.563096308592334949e-02 1.503999824114046202e-01 -7.380901927915655136e-01 2.581988329220836209e-01 4.510577287362950716e-01 -8.543303155249312164e-01
-4.169463876150399789e-02 -3.628392488359671875e-02 -8.422551256379592344e-01 1.690700824899593890e-01 5.307304953446382312e-01 -8.305061399641022746e-01
2.761803283482964708e-02 -2.120646190205338344e-01 -9.333477544209680676e-01 -8.838243122173225497e-02 5.442230900514396508e-01 -8.342720024705361226e-01
1.298136047100944546e-01 1.218615431492306445e-01 -7.279752183962736600e-01 -3.102540248625257902e-01 -5.216640824148894851e-01 7.947383375519484483e-01
-6.798468002148946171e-03 -6.965577660873752130e-02 -8.658383220542376080e-01 -1.214194817852312092e-01 -4.526550367680832743e-01 8.833802845499162393e-01
1.669510217022631207e-02 -2.104157811172084058e-01 -9.312346104185421636e-01 -7.833231298325467329e-02 5.394109190342045723e-01 -8.383912625793330520e-01
-4.371257918285374744e-02 1.786479830315874651e-01 -7.500205932539351084e-01 -2.586176638615411694e-01 -4.230422643275358885e-01 8.684193379534049795e-01
6.504824414672622825e-03 2.942818375515529605e-02 -8.039189008722044116e-01 1.716858951986166282e-01 4.554585395544020754e-01 -8.735453463540520103e-01
-8.351152257062056938e-02 7.503759068828244616e-02 -7.993416435306516243e-01 2.971511105332615976e-01 8.657767212303518756e-01 -4.026560399205150187e-01
8.520934641499774975e-02 -1.307728772494366754e-01 -8.804444464771165046e-01 7.536092470968182300e-02 5.094100573036429713e-01 -8.572176646248027554e-01
1.105598916526099040e-01 1.499345995260439879e-01 -7.169380692164275537e-01 -2.693279428924980068e-01 -5.071676725274106845e-01 8.186839506918552889e-01
-1.350012261453961970e-01 2.606842507566152142e-02 -8.342754463161972112e-01 1.845903157249019488e-01 3.780431602209092246e-01 -9.071988670356511131e-01
-1.615731887342663486e-01 8.732536891086382924e-02 -8.194134723945025733e-01 9.820981844834020258e-01 -1.089434681011443029e-01 -1.536700256800283826e-01
-1.856174350844362955e-02 -2.043929748454297313e-01 -9.256514937408331090e-01 -4.097712944159810633e-02 4.119995487927289313e-01 -9.102621856681263335e-01
-5.497380572587208525e-02 -1.918276486238973677e-01 -9.274892836247123906e-01 3.340281044965831558e-02 -2.741661497794987135e-01 9.611020625142522311e-01
3.272809977527756792e-02 5.290442983567618385e-02 -7.941282056662408717e-01 -1.932632960152082524e-01 -4.654288895508728596e-01 8.637275306395989505e-01
-8.402308216278625910e-03 7.445971769847593846e-02 -7.843411244939734184e-01 9.434461559433144906e-01 1.504729901258636815e-01 -2.954102741584404002e-01
-8.508333038563556383e-02 -7.335749428203224010e-02 -8.776312853175515238e-01 -1.082847912218760644e-01 -3.981369600034539991e-01 9.109123805664531837e-01
3.218556324926815509e-02 4.693964105834702583e-02 -7.890540584812951730e-01 1.979425362487593765e-01 4.678831167077782682e-01 -8.613385753832368819e-01
-1.160677471508760918e-02 2.216507414273625742e-01 -7.104481898792046612e-01 2.951680612616788268e-01 4.189225333255235384e-01 -8.587081731782617577e-01
-4.820831497464679941e-03 3.312023373718117614e-02 -8.016128760206828741e-01 5.906924676067097923e-01 3.666757708956123740e-01 -7.187706781378916387e-01
1.433512050809956084e-01 5.834763341059673314e-02 -7.561670585009471202e-01 1.923109302563500711e-01 5.236151318940985844e-01 -8.299660834970686851e-01
1.967720258706647657e-02 -8.456346909263892653e-02 -8.703082289629404666e-01 -1.038872052831912862e-01 -4.652025686911356872e-01 8.790870370228519581e-01
9.007278372074727091e-02 1.432824911105943233e-01 -7.194570311262029616e-01 2.529448378732995217e-01 4.811728757290106850e-01 -8.393399625038261425e-01
-1.211614003517446150e-02 6.117228101816078040e-02 -7.917047697777609416e-01 1.925951650576547824e-01 4.485011109908629834e-01 -8.727851143531129008e-01
3.852222416704719431e-04 9.703896867899439171e-02 -7.785071568507365702e-01 -2.185846683814622882e-01 -4.484249239300622802e-01 8.666809276468957490e-01
3.874579139303506187e-03 1.550027956500906745e-01 -7.513960766101914768e-01 -2.987065782446794437e-01 -4.385572824139598036e-01 8.476095151395113270e-01
4.453152216523705020e-02 -1.717946572924907989e-01 -9.152306736418706068e-01 -4.862107686160286463e-02 -4.819927901697356742e-01 8.748250917236035651e-01
1.981774742203300591e-02 -8.390765938176204808e-03 -8.296695334502963703e-01 -1.506592640815729855e-01 -4.641252692099021582e-01 8.728628303618127804e-01
-3.135798047073052458e-02 -1.189198821723793237e-01 -8.973964905658390334e-01 -9.857109047276607638e-02 -4.942581915875556287e-01 8.637086199474964809e-01
-1.259176891199163262e-01 -1.006007374020649325e-01 -8.865535873551813051e-01 1.136311963482072862e-01 3.952545846571719479e-01 -9.115161899406732937e-01
-9.769667980183251166e-02 -1.131729452912482725e-01 -8.863058916275393662e-01 2.249968853129276081e-01 8.777164352566062533e-01 -4.230724061906155353e-01
1.645930110534245261e-01 -1.660697279792572659e-02 -7.999333659270185803e-01 -5.983389415967960145e-02 5.498940956969382565e-01 -8.330884638664340924e-01
5.507668870594714661e-02 6.236129144397230262e-02 -7.836216145905854358e-01 -2.178145628099244502e-01 -4.751080221895020994e-01 8.525427751609305771e-01
2.651746846777177855e-02 1.097512793415016119e-01 -7.649732971162120920e-01 -2.369768031057516156e-01 -4.633177363685621053e-01 8.539195922076557865e-01
-1.319967584125382107e-02 1.866030971655580073e-01 -7.364374135442460778e-01 -2.542551412446870107e-01 -4.390250015547725870e-01 8.617490186594215507e-01
-1.585759767312344970e-01 9.722071025949843848e-02 -8.118761717106659503e-01 8.182259845954972244e-01 3.281763953453549487e-02 -5.739592674294149433e-01
-1.087136053676855119e-01 1.312436472085536376e-01 -7.906179689334871252e-01 -2.338077240704058701e-01 -3.921863392389612901e-01 8.896762464398829673e-01
7.481969554882964002e-02 1.741955138696930361e-01 -7.065860107973229720e-01 2.693700901974793727e-01 4.682433330801752946e-01 -8.415390279321391942e-01
2.552490640059323218e-02 5.668664132456679647e-03 -8.210814440875781051e-01 -1.631499181286026057e-01 -4.603542401467482503e-01 8.726145069809120303e-01
1.135187253635056709e-01 -5.770673107651361385e-03 -8.105176221135390602e-01 -1.741675101481692245e-01 -5.090450804327990575e-01 8.429346264663425403e-01
-4.423907135135460300e-02 -2.626104845984283259e-02 -8.454751639925498496e-01 -2.539478664618952664e-01 -7.992089403601236874e-01 -5.447710994242443983e-01
-2.064826178406534412e-03 -8.826874959077868343e-02 -8.664436494283696000e-01 1.042131397127085413e-01 4.570352774990947831e-01 -8.833223514847480251e-01
5.173801827159570446e-03 -1.226140985929490140e-01 -8.834532645583554888e-01 8.682637617992600143e-02 4.610003762249189063e-01 -8.831420234140969772e-01
4.527431284586960064e-02 -1.490641832835066793e-01 -8.942203828284742695e-01 7.243958776091324880e-02 4.814357651190860898e-01 -8.734827475051978318e-01
-4.159552690285722026e-02 -6.104349356417156092e-02 -8.662178882893951659e-01 -1.227963344881856378e-01 -4.383114423984431629e-01 8.903954962256165340e-01
5.873533451765960978e-02 1.671373333807411876e-01 -7.156418729677592738e-01 2.680226234514607175e-01 4.642267935791418720e-01 -8.441903561646657561e-01
-6.731157306097536319e-02 1.617473177786640237e-01 -7.572599881424926238e-01 2.602010847404687688e-01 4.070705133527910968e-01 -8.755506796631356004e-01
8.703166837477009643e-02 1.105078504988382809e-01 -7.393532647529449386e-01 2.340567500534598278e-01 4.868328749967056890e-01 -8.415528441974717833e-01
-1.065420619120000939e-01 1.549770046667922341e-01 -7.795271148942600759e-01 -2.519274162920500659e-01 -3.969820448202089902e-01 8.825745481322117003e-01
8.149675194374488008e-02 -7.426704050243269906e-02 -8.479890676517841674e-01 1.228727701967287367e-01 5.038214195583554655e-01 -8.550241280445748382e-01
3.632846657238351928e-02 2.009399468338521485e-04 -8.220021535198177576e-01 -1.541557774627592137e-01 -4.713900945491898975e-01 8.683474967061045602e-01
-6.291890491891294346e-02 -9.555653061241090040e-02 -8.853268297896209615e-01 -9.594941328361271393e-02 -4.286194818158484687e-01 8.983757843455287828e-01
-1.549143641548823003e-01 -6.507222735446434314e-02 -8.816599158299119887e-01 1.875842413021900495e-02 -3.388729572897761222e-01 9.406451192356404256e-01
-6.511810943161590315e-02 1.299973987662007835e-01 -7.715003355916933980e-01 2.400726661265880080e-01 4.091653133223344674e-01 -8.803117978038849101e-01
1.035425327587580352e-01 -1.225468950838773941e-01 -8.822719583797744569e-01 -9.002505378197177277e-02 -5.138122624030183605e-01 8.531661319437411350e-01
-1.613657970261580255e-01 -4.082555552076854583e-02 -8.717396110585503566e-01 9.792615133621416224e-01 2.021507704479648115e-01 -1.348904944695404444e-02
6.810343905025820210e-02 -7.648744693790436588e-02 -8.596240309771766563e-01 -1.129367995574980382e-01 -4.835386725920292061e-01 8.680067000972099267e-01
-4.176164474404096133e-02 2.733482875080094424e-02 -8.231165691115498451e-01 -1.689298931440926521e-01 -4.369637739787217146e-01 8.834734582502169475e-01
-7.730553411876929515e-03 -1.489489547754746790e-01 -8.971404597728989128e-01 5.343221556612103296e-01 3.850393563025490962e-01 -7.524922113003401636e-01
7.689472745654757357e-02 1.447945967758931529e-01 -7.307892439101650872e-01 -2.577808435515358543e-01 -4.888072387389204576e-01 8.334365723042699292e-01
4.104550599138397787e-02 4.963579344840957086e-02 -7.855774242109726524e-01 1.989818078982864002e-01 4.804314976538434645e-01 -8.541614696224680836e-01
-8.328759016692808409e-03 2.063193231537968075e-01 -7.169589408935268526e-01 2.921813957551642749e-01 4.307788268892508987e-01 -8.538498897806832133e-01
2.895679154742811408e-03 -2.991001519080896953e-01 -9.719085564768027430e-01 -1.723378400957286116e-01 4.526618206496115238e-01 -8.748696731498458723e-01
7.079289438733604722e-02 1.302727340430862302e-01 -7.326588030605710733e-01 2.399903246065732965e-01 4.796173402585642287e-01 -8.440212384878309493e-01
1.400974429990672065e-01 6.282300354138051213e-02 -7.620835128885721232e-01 -2.248002073460172168e-01 -5.200038621312549347e-01 8.240514851304902022e-01
-2.755430501721340547e-02 1.652730326820491813e-01 -7.435820385966037671e-01 2.599919806667352895e-01 4.273219087141444383e-01 -8.659100162960863267e-01
-7.699833751289913986e-02 -1.027879904860151961e-01 -8.820518990145500560e-01 9.198996011836958753e-02 4.153384273898419465e-01 -9.050037778765090968e-01
-1.559897588173312331e-02 1.756268676349044544e-01 -7.427952721455279850e-01 -2.807577028162832056e-01 -4.352539163490864449e-01 8.554116790248458280e-01
-6.394104828111692174e-02 -5.259705055702471044e-02 -8.652560504285828902e-01 -1.274518010685595504e-01 -4.231377206743356933e-01 8.970565800142753510e-01
3.003619559111963058e-02 5.269585253191622770e-02 -7.948429266357170953e-01 -1.932632960152082524e-01 -4.654288895508728596e-01 8.637275306395989505e-01
3.763751610913011053e-02 2.396618153922988950e-02 -8.003423879815294573e-01 1.814800028820995059e-01 4.800924122174454189e-01 -8.582402252779506302e-01
1.468470993717838902e-01 -1.018580528566236515e-01 -8.609742703677571996e-01 -9.263082951169252510e-01 2.477353619269897500e-01 2.838663996468740458e-01
-3.875660325408294016e-03 -2.859191666438827273e-01 -9.644594177129921508e-01 -4.016792790601347862e-02 4.591665922462249694e-01 -8.874415913922033550e-01
1.328861707091710531e-01 8.051919794852591128e-02 -7.529705720815270675e-01 -2.334008154350747377e-01 -5.168563249477305943e-01 8.236404547590946423e-01
1.024644752841697148e-01 -1.536022702938989737e-01 -9.007903259974422427e-01 -8.604948711184948196e-02 -5.029867246075032661e-01 8.599999073467412547e-01
-1.029013314037510035e-02 -1.321584048225613039e-01 -8.981358379976018824e-01 -7.223742143350815603e-02 -4.551118914587817810e-01 8.874992513785281423e-01
-1.965276370225141345e-02 1.655463756264372033e-02 -8.241169702299391275e-01 -1.675528080161341471e-01 -4.460368387149732938e-01 8.791912164228333770e-01
-8.394261003154403905e-03 6.856100703170212030e-02 -7.953524989316054228e-01 -2.028964670192081043e-01 -4.475339301867545805e-01 8.709456957828775048e-01
2.693099665488620387e-03 1.174725352226187042e-01 -7.673094007823740847e-01 -2.340987369906635251e-01 -4.489340832294479999e-01 8.623548980868092073e-01
4.583654459117034174e-02 -2.057948242799759742e-01 -9.354781971421441966e-01 -5.669846748923528246e-01 7.017064325955282289e-01 4.314353496078761063e-01
-1.461931803574091637e-01 5.165666843032871991e-02 -8.332283775591353692e-01 -1.720123559475931763e-01 -3.788464703919262044e-01 9.093333279237806321e-01
1.314409238749507380e-01 -3.529452366951670028e-02 -8.169384139083304408e-01 1.386794583118179103e-01 5.255926985262434625e-01 -8.393570891451637150e-01
1.326667557997531222e-01 2.068323964387398448e-02 -7.821123943805367018e-01 1.866129099761995314e-01 5.229233881507348025e-01 -8.317011193663087498e-01
-3.774164174679872554e-04 -2.035628094598553040e-01 -9.220400365760973438e-01 1.108031034432546275e-01 4.501654010251782134e-01 -8.860438950679498937e-01
7.327655912542307970e-03 -3.938567487650603827e-01 -1.023434488547536825e+00 -6.074500377467815238e-01 3.704654458678294793e-01 -7.026804430602748841e-01
4.381654041991557558e-02 1.220557610320034125e-01 -7.534196046224960197e-01 -2.391350003003092084e-01 -4.703800239759510227e-01 8.494451628420487399e-01
2.051147864233810597e-02 1.867301846006886590e-01 -7.174241497698324865e-01 2.799457863715623662e-01 4.497574518345341388e-01 -8.481442042554521166e-01
-1.148427959848567353e-01 -3.317850593226479884e-03 -8.476732671188766943e-01 -2.947362719268083464e-01 -9.309786609160598525e-01 -2.154280922480320826e-01
-1.023408707628748471e-01 6.464730003557260518e-02 -8.105717095780758941e-01 2.070286226639534988e-01 3.866795004393617785e-01 -8.986757553967014145e-01
-1.849427614686153382e-02 -7.795777992677235813e-02 -8.715798370954322971e-01 -1.019727639839543704e-01 -4.489311139988230170e-01 8.877287932072770449e-01
-1.156805806729989672e-01 2.672787452735445740e-03 -8.405150922832660410e-01 1.624255273022436885e-01 3.924453511483351753e-01 -9.053201612924833830e-01
-8.696859422938475748e-02 1.279916088278638953e-01 -7.863728427069848204e-01 -2.382246107736953888e-01 -4.047258002720706127e-01 8.828624249654377643e-01
-8.674996981297473540e-04 1.245829494481861567e-02 -8.225582938053593862e-01 -1.707679606324916388e-01 -4.527874444989010150e-01 8.751124691864322624e-01
-5.622291459267361735e-02 -5.716049716215992893e-02 -8.581112706031686077e-01 1.372065900004849626e-01 4.264005370917784421e-01 -8.940676336990853734e-01
3.075404256275645568e-03 -1.717335365439663919e-01 -9.091783102730168764e-01 5.268403701808770795e-02 4.588992740960655126e-01 -8.869249395961199545e-01
-7.278529977278069829e-02 2.035560842412665605e-01 -7.471607757759731738e-01 -2.675370462652790771e-01 -4.287523679318179237e-01 8.628993776035006613e-01
-1.254140441516714555e-01 3.398620700861427341e-02 -8.289640458761572406e-01 1.882179006704322588e-01 3.922282864714350947e-01 -9.004060157278477305e-01
9.223615933248956178e-02 -1.005458124561972415e-02 -8.087031565198090632e-01 1.591066462825384831e-01 4.992498237134722627e-01 -8.517245379996927213e-01
4.536628242237548264e-02 -8.280123608451697703e-02 -8.661157320711128094e-01 -1.113353326841991231e-01 -4.745719954810926344e-01 8.731471037581195471e-01
8.229411209376842617e-02 1.886341440900017319e-01 -6.976048501089848752e-01 -6.604108809708052474e-01 -5.687153974877691143e-01 -4.903266920693727382e-01
-3.233970376069143088e-02 -1.994940984637070258e-01 -9.308486991823368140e-01 3.695686695964324475e-02 -3.266429525228390363e-01 9.444249951963836764e-01
3.685861453550549460e-03 8.393348849523059318e-02 -7.762271380390064479e-01 2.186698254885459658e-01 4.484161563137410433e-01 -8.666639822778026137e-01
1.481494340151502109e-01 -9.183458907122148129e-02 -8.576144526196245454e-01 -3.112218713891168886e-01 -4.617246286631735974e-01 8.306330802796807466e-01
5.790700540739176366e-02 -4.044728194754614037e-02 -8.377486728697253193e-01 -3.027876090736356662e-01 7.127514958267863188e-01 6.326965852509004451e-01
9.531695566283028553e-02 5.037569958845398987e-02 -7.725375996542560575e-01 2.033959729654136739e-01 5.102616982201715334e-01 -8.356213721003784567e-01
6.166837150630083420e-02 -2.865888172592875524e-02 -8.249644798342528063e-01 1.438996293686389816e-01 4.860796339875047556e-01 -8.619857806774666731e-01
8.903228012282192461e-02 8.411275542739740652e-02 -7.626557206496920038e-01 -2.225293384549607012e-01 -5.030702418226550288e-01 8.351053977309049747e-01
8.728466435141983559e-02 1.227696142910813526e-01 -7.320955009430122340e-01 2.338665443550753398e-01 4.920454514130774282e-01 -8.385688482021713686e-01
-1.376204293648298216e-01 -9.045738290333207865e-02 -8.910710077104054827e-01 7.527016629875108444e-01 -6.516129452810082157e-01 9.402540123841782171e-02
1.093708473264304454e-01 4.012039778813827895e-02 -7.837543437948871761e-01 -1.933169885058551862e-01 -4.922169708543709388e-01 8.487349383393938407e-01
-1.313160165793974821e-01 -6.583160238616379833e-02 -8.723902850946090304e-01 1.251763663867467291e-01 3.879313310534629466e-01 -9.131484872052844093e-01
-1.150246425676725165e-01 -1.623545207630052584e-02 -8.564083856784436843e-01 -1.555745823243649684e-01 -3.927062480667601885e-01 9.064095939827246928e-01
2.500137088610523278e-02 -1.476453369499696744e-01 -9.034764386021466587e-01 -6.641727721324104661e-02 -4.746441770556645845e-01 8.776683032186649580e-01
8.815868095979161045e-02 -2.330262099596331141e-02 -8.292836381556308867e-01 8.000086433210309989e-02 -9.508751360407284858e-01 2.990590867464867908e-01
-2.141120837768613339e-02 1.077428662595642378e-01 -7.704402474585076988e-01 2.197355858600648360e-01 4.415651830877739825e-01 -8.699060072165237800e-01
-3.570141447541062829e-02 1.433861613717043459e-01 -7.546284162183041211e-01 3.267450715956479734e-01 8.565888430362657013e-01 -3.993660127924591463e-01
1.535941840890600874e-01 -4.570963036544608421e-02 -8.276760548984438692e-01 -1.724322092272488061e-01 -5.276538970283261021e-01 8.317743072323349196e-01
9.239584644850400152e-02 7.811670497944704292e-03 -8.066797136164693960e-01 -1.741675101481692245e-01 -5.090450804327990575e-01 8.429346264663425403e-01
3.300106985954466207e-03 1.197771401464448326e-01 -7.659448635734363853e-01 -2.340987369906635251e-01 -4.489340832294479999e-01 8.623548980868092073e-01
9.573510727980785728e-02 -1.198855263519215675e-01 -8.815300730773685256e-01 -8.720413650659528115e-02 -4.998197727688087899e-01 8.617282827698505843e-01
-3.441773845789634217e-02 1.632003067290295831e-02 -8.271541322485507219e-01 -1.804951838581251855e-01 -4.359165227171636348e-01 8.817019189194259532e-01
3.033347561098239092e-03 1.975149837440417777e-01 -7.255471322924069710e-01 -2.796249533183564062e-01 -4.470217586836107704e-01 8.496949056838688508e-01
5.508966912367335711e-02 -6.563627613587073861e-02 -8.467403173672287675e-01 1.226256068010941475e-01 4.736377174887729247e-01 -8.721412002243036365e-01
