2.376398549529954232e-02 -1.117314348702525134e-01 -9.108069771683420246e-01 -7.504114573189277770e-01 3.265625129846534414e-01 -5.746647456018428857e-01
4.829431414284835605e-02 3.874731844073229375e-02 -8.644311722967347178e-01 6.938886597317113214e-01 -3.662919286157052534e-01 6.199586687245498551e-01
9.273833326711808378e-02 1.292690028198840158e-01 -8.439713806500457327e-01 -6.564855078778503161e-01 4.085323576925676825e-01 -6.341357036664256874e-01
-2.372125101735238911e-02 1.938431466762838007e-01 -6.984623762965056493e-01 -6.012258643623247245e-01 3.570967382388157696e-01 -7.148492005737813182e-01
-4.339819124408881429e-02 1.835389368120682041e-01 -6.960870850879025129e-01 6.069997826864433899e-01 -3.606199793033634249e-01 7.081698202732534808e-01
-2.506971615663676836e-02 -2.201676762126099085e-01 -8.932506087227444214e-01 -8.417076970285362059e-01 1.304742890307958036e-01 -5.239318778856907333e-01
9.323465410926760899e-03 1.664811422921408934e-01 -7.364919657006175902e-01 -6.476975288930402197e-01 3.609138688285177810e-01 -6.709911253907020479e-01
1.094745399709421141e-01 1.372287096934689810e-01 -8.562774966953075051e-01 -6.596262659012621654e-01 4.162644514956440611e-01 -6.257931733042380040e-01
1.893827896479510081e-02 -1.834618253779725927e-01 -9.467938680296550391e-01 -8.154984075726396942e-01 3.715567281016038392e-01 -4.437431070438387359e-01
5.839653599301907611e-02 1.902657993233922984e-01 -7.827164997438771366e-01 6.128235441312832599e-01 -4.093935135963035488e-01 6.759025482890609338e-01
-1.252623138749789367e-02 5.307064144986899101e-02 -7.910555821740726801e-01 6.790317202618165737e-01 -3.425933297333033645e-01 6.492655337383358427e-01
1.072501076979755635e-01 6.687465601862706277e-02 -9.126458418850257326e-01 6.729478375794750722e-01 -4.245397816558112991e-01 6.057286370056679248e-01
1.679590480241957865e-03 7.667233905580471409e-02 -7.821739022184328594e-01 -6.589379453974727463e-01 3.487133939353887491e-01 -6.664831228211405278e-01
-4.175486664160617083e-03 1.311108541871040534e-01 -7.438090777554460242e-01 -3.966703501331308446e-01 8.502036626032262179e-01 -3.461305612356680439e-01
3.420021498631126838e-02 -1.340240653581093178e-01 -9.379844424140140191e-01 -7.697557053638254265e-01 3.276185119024306314e-01 -5.478524114382233856e-01
3.443977559345589440e-02 1.573457624286440371e-01 -7.695020607873864771e-01 -6.276768059925900145e-01 3.791247938669190520e-01 -6.799163315396288265e-01
-6.489472182463424180e-04 6.862289008784801247e-02 -7.982900111174574542e-01 3.031454920100839501e-01 -4.538715552642889617e-01 8.379161187111390241e-01
2.631114365931615240e-03 2.077267910495851355e-01 -7.087713099643588865e-01 -5.575694325149612718e-01 3.901694693392097624e-01 -7.327237631744335511e-01
1.030448205974146686e-01 1.619868654606705649e-01 -8.332868541552851394e-01 -6.526787398319984224e-01 4.099219812831103038e-01 -6.371612290717661997e-01
7.959386145813039312e-03 -2.624306711461840136e-01 -9.653853174946355198e-01 -8.969001585161237022e-01 2.078462851947074919e-01 -3.903460354410079325e-01
1.287676002154333234e-02 1.507182726589605670e-01 -7.635148817779000563e-01 6.267051661670135498e-01 -3.733248059244057004e-01 6.840096665845304402e-01
-1.031282032383303016e-01 -1.325530348439464268e-01 -7.746051309315017397e-01 7.755393632497814549e-01 -2.016040949117275660e-01 5.982428311020087097e-01
-6.127905735396815823e-02 -8.832164834685174437e-02 -7.946023242682003218e-01 -7.226401978070018384e-01 2.662095003099795298e-01 -6.379056720692866111e-01
5.491572679022412029e-02 8.995325761486332172e-02 -8.403663619923898986e-01 6.675726147895412188e-01 -3.781876332858722378e-01 6.413430579749697102e-01
-4.923353735651590790e-02 -5.662709783763733573e-02 -8.055646516399940227e-01 7.134206531902597126e-01 -2.974915426892194570e-01 6.344523257345434653e-01
1.267663209138971715e-02 -1.490712210633685364e-01 -9.301963367568992780e-01 7.745472362185391590e-01 -3.039208931651015133e-01 5.547149444209608093e-01
2.199551506873011208e-02 -1.041815144857631548e-02 -8.514263883047952230e-01 -7.083494258764354568e-01 3.391332613848770383e-01 -6.190555079174895337e-01
7.728588117964735327e-02 -2.989482505234305337e-02 -9.303653701302952994e-01 -7.250959581511892127e-01 3.831286720092019760e-01 -5.722309605022032342e-01
-1.008894027591132440e-02 4.942278532264324925e-02 -7.992981718694682769e-01 9.385213232177369580e-01 1.575120472836351038e-01 3.071932304367174793e-01
8.332394338947607740e-03 1.118657033344735569e-01 -7.805808290678302175e-01 6.578284678735186741e-01 -3.606512496663160650e-01 6.612052502584228053e-01
5.309738973978063437e-02 1.891206048815473328e-01 -7.786055425969995447e-01 6.128235441312832599e-01 -4.093935135963035488e-01 6.759025482890609338e-01
-7.323975932177557990e-02 -7.141023210145386324e-02 -7.739425036272364888e-01 -7.109050354662530546e-01 2.680251419646930700e-01 -6.502126989097731791e-01
-3.488487333499143417e-02 -7.078361996422108393e-02 -8.168782479934190155e-01 -7.189041430819311795e-01 2.944003262536729615e-01 -6.296866529960477576e-01
7.704248544688542533e-02 1.726539454506728077e-01 -8.112145997336630554e-01 6.230995416954036026e-01 -4.160167764301161974e-01 6.623269606981678770e-01
6.061904177321773488e-03 1.371342023572975910e-01 -7.541384300761240222e-01 -6.345157649426896862e-01 3.653575160732124294e-01 -6.811047125721605422e-01
-1.957921355270970248e-02 -1.580425713188733094e-01 -8.779159457102999609e-01 -7.682447097480432641e-01 2.844351424539448003e-01 -5.734951749416457023e-01
9.920562313257128007e-02 1.793697364897627322e-01 -8.276167697355922837e-01 5.665156064645509026e-01 -4.794218269109759012e-01 6.702348689179371544e-01
6.165400309959202102e-03 3.419884335415875401e-03 -8.375712910659429689e-01 6.962125005035091352e-01 -3.480238453272833099e-01 6.278276493005562342e-01
-7.232933586426128214e-02 1.524513759753146347e-01 -6.770746915383438758e-01 -5.858368629250156889e-01 3.137063200218627168e-01 -7.472506372138582043e-01
-9.425165079774676380e-02 3.002688901832389901e-02 -7.100892682474893025e-01 -6.622725357605504515e-01 2.833768674562801015e-01 -6.936084193317985092e-01
1.036060926149199590e-01 1.169905614653995868e-01 -8.602112762177684946e-01 -5.700160557794455851e-01 8.207850635203989276e-01 -3.733062623983540024e-02
1.990087086508512265e-02 1.459271264605398188e-01 -7.570036328038494133e-01 -6.430255771655961627e-01 3.775509843319043712e-01 -6.663132606671293701e-01
4.400489814904942620e-02 9.762179503406220524e-03 -8.651913626171667815e-01 -6.985862304856630400e-01 3.682339739987898208e-01 -6.134989967138418931e-01
-1.207928950868262727e-02 1.068188372041284223e-01 -7.529049856040772593e-01 -6.442605160859693481e-01 3.424897218007249555e-01 -6.838341742509671528e-01
-5.270732502408660008e-02 -1.919654103886619598e-02 -7.731847858693627895e-01 -6.943939949901721809e-01 2.914504900126155262e-01 -6.579312970158777141e-01
-8.472954143794318022e-03 6.938520865943394178e-02 -7.866860939807632791e-01 6.790317202618165737e-01 -3.425933297333033645e-01 6.492655337383358427e-01
8.145740014362469472e-02 -5.590704237111587122e-02 -9.711022664900651469e-01 5.445004238287789455e-01 -3.098083461622674339e-01 7.794472894933182072e-01
6.040812979679140160e-02 8.844156749278460350e-02 -8.323266507305441264e-01 -5.861958898121106820e-01 8.065274341895358745e-01 -7.673250072186828252e-02
9.264261783462246491e-02 1.816786699954072437e-01 -8.200858265530768243e-01 6.088544252634079390e-01 -4.391253072728818485e-01 6.606551697744157403e-01
-1.897313138097405510e-02 1.950106004987593733e-01 -7.112977030646101539e-01 5.965248667076556988e-01 -3.767633520081937193e-01 7.086659720792041206e-01
-5.049975262173877349e-02 -3.329040219396901118e-02 -7.819866568015735320e-01 -7.040904264499235898e-01 3.043031024232060178e-01 -6.416044679061831957e-01
-3.317624604416014034e-02 -1.447152268455694224e-01 -8.499512296964989444e-01 -4.969524077724056799e-01 8.140582745102894480e-01 -3.005784924284148896e-01
-1.199329283994117652e-02 1.343908110599027761e-01 -7.337029738681979385e-01 -6.296566683528643793e-01 3.362049509892975907e-01 -7.003561314995785381e-01
5.960142145597714962e-04 -3.845170361367317158e-01 -1.020750129875681811e+00 -4.911286613954851110e-01 4.140991491885484543e-01 -7.663644906943426482e-01
1.168989615804843646e-01 1.282227844305351694e-01 -8.799561053564586288e-01 6.326858007240042658e-01 -4.455203310716798204e-01 6.334195388239980407e-01
4.610984531046901508e-02 2.346980714969032489e-01 -7.423984053607760591e-01 -2.888383298285998602e-01 -9.557035681808291327e-01 5.659601565707736426e-02
-6.439801128193047008e-02 5.491487181616482027e-03 -7.499557011555718633e-01 -6.888592719912017825e-01 2.936358478005933748e-01 -6.627600563387765487e-01
-8.994754126443715511e-03 -5.276081789594808807e-02 -8.331259275425179078e-01 -4.379503681858977204e-01 8.426124859466141981e-01 -3.133746536219919054e-01
9.158253380115844930e-03 -1.966826800233340555e-01 -9.546447338283959860e-01 8.263596757905978807e-01 -2.976298166801650269e-01 4.780650357955383289e-01
8.344029100881977454e-03 -9.967112180045034631e-02 -8.780578681050101864e-01 -7.784652509194492920e-01 2.983415296825484009e-01 -5.522537322441524177e-01
1.046662396909403409e-01 3.691047938872454859e-02 -9.191852934433095701e-01 -7.160841007780034406e-01 3.988543487406974175e-01 -5.728339804023431237e-01
-9.808096518041700684e-02 -7.422857304212820972e-02 -7.481820536094255791e-01 -7.044184664417896258e-01 2.576599382749996670e-01 -6.613667517678226693e-01
1.337244092458030748e-02 1.453806457380701911e-01 -7.687277451526977057e-01 4.031513077478413587e-01 1.924129399463909706e-01 8.946766363342634198e-01
4.122511149105023698e-02 2.324703131863460059e-01 -7.415757424867114311e-01 5.728387947461406338e-01 -4.521978197760450624e-01 6.836467267701793471e-01
9.304710421289361100e-02 1.630696790993355072e-01 -8.328321778670659814e-01 6.235270243852386596e-01 -4.348596916785599786e-01 6.497007760611940297e-01
3.878892320648107128e-02 -1.324918655270970191e-01 -9.569747619270629890e-01 7.677003945987109779e-01 -3.323365537293837546e-01 5.478946241644095938e-01
-6.218923304129752444e-02 1.379524704167302794e-02 -7.593414924326369331e-01 6.801762959020248855e-01 -3.143229782524215588e-01 6.622395879404436858e-01
-8.845832464185885563e-03 -1.839328001435341087e-01 -9.054875826150730056e-01 -7.757625278925898149e-01 2.815911840799014687e-01 -5.647113469430000698e-01
5.989751447701652243e-02 7.622908342598125331e-02 -8.428188101562287260e-01 -6.692817683278483587e-01 3.934430498458375558e-01 -6.302892043434935587e-01
-6.544138432704182939e-02 1.361146261364510612e-01 -7.043652250434013773e-01 6.074532082022322532e-01 -4.595454327711687159e-01 6.479340977784506794e-01
-1.085906586733650647e-01 1.467157798245061207e-02 -7.026953291444225647e-01 -6.514092418705649257e-01 2.764664829274279811e-01 -7.065637150486530071e-01
9.306084627504958295e-02 -3.571749964213537937e-03 -9.326263733729384109e-01 -7.218682641749510909e-01 3.823905766678767360e-01 -5.767873577434335930e-01
1.690873546602485525e-02 -1.145367093429604660e-01 -9.205757495618333008e-01 5.555891658801813682e-01 1.171608010593250260e-01 8.231609960704536766e-01
5.110062772998196640e-02 3.370781021743945310e-02 -8.588661420173243632e-01 -6.937943736933309680e-01 3.663366651142653252e-01 -6.200377527412641587e-01
7.051161821990600820e-03 1.699999986904696669e-01 -7.476363579408019655e-01 6.305178839851761641e-01 -3.724660814121777963e-01 6.809671182754073460e-01
-3.690129186947437457e-03 2.323251466951861410e-01 -6.957902912656112049e-01 -5.859712221922755981e-01 3.499589813120360104e-01 -7.308669086513173152e-01
1.031170863392259496e-01 -2.234293093489607071e-02 -9.687317602359920565e-01 -7.924127258816723862e-02 -3.086621959817931193e-01 9.478652169429495622e-01
-1.009040621753919120e-01 3.948179810869479472e-02 -7.137038391881027621e-01 5.700872346494662013e-01 4.270928126925519486e-01 7.018491819729426595e-01
-3.830240362700241402e-02 1.945919919053990324e-02 -7.812788110521725615e-01 6.845482789529400147e-01 -3.252917697217708737e-01 6.523640995133362930e-01
-8.122723859708934346e-02 8.540113813938508824e-02 -7.086276963618299840e-01 6.563944947205007097e-01 -3.057000983449418285e-01 6.897055293184993774e-01
8.391521826990142041e-02 1.118275467456858741e-01 -8.460744199510409347e-01 -6.564210037404283327e-01 4.085696052402254530e-01 -6.341784792329796527e-01
-3.352025273728574672e-02 1.393716628397698720e-01 -7.215158296974119034e-01 -1.628397719509524777e-01 -9.306788113896892201e-01 -3.275975560062028835e-01
4.925332271436231452e-02 1.774831824389538719e-04 -8.945524267041168320e-01 6.918346055429313024e-01 -3.048354547923191049e-01 6.545534539476639546e-01
-5.296047235614485815e-02 -5.622153502543970893e-02 -7.896780307070558891e-01 -7.135234364947985464e-01 2.974394346855082638e-01 -6.343611654780094700e-01
2.772634097807051903e-02 3.666093043569975535e-02 -8.313498338001514831e-01 -6.873495762136142551e-01 3.571620163035043038e-01 -6.324443486892581401e-01
-6.854706944618273179e-02 -4.068981997032725118e-02 -7.769164477992654971e-01 7.133013520758283432e-01 -2.844277307344363903e-01 6.405482394918073918e-01
2.215781885995850298e-02 1.140135293775036696e-01 -7.822097207540419372e-01 -6.438009111763001169e-01 3.764394200029460014e-01 -6.661934777798497187e-01
9.676796880127650977e-03 -1.214854230130116980e-01 -8.962735665400562990e-01 4.834822718180586953e-03 -8.167733950323101677e-01 -5.769383378288167608e-01
-1.154568739072583949e-02 2.797507865655137968e-02 -7.939719609344368934e-01 -6.857286861726101801e-01 3.340830457036845780e-01 -6.466565452644360557e-01
-4.067864783407352906e-03 -3.189444551757895652e-01 -9.868202237173731017e-01 2.711680220945820174e-01 4.523829422166844583e-01 -8.495984800979154983e-01
-1.906527006724808779e-02 1.933473452046115815e-01 -7.026259750766959966e-01 -6.012258643623247245e-01 3.570967382388157696e-01 -7.148492005737813182e-01
6.340845188943950990e-05 8.894334954577332378e-04 -8.205477632761464246e-01 -7.064922008967228217e-01 3.326235607968149877e-01 -6.246841897110506636e-01
-2.502623198525739945e-02 -1.430088787098525438e-01 -8.588044988355374443e-01 -4.969524077724056799e-01 8.140582745102894480e-01 -3.005784924284148896e-01
1.063313166022921974e-01 -2.087153440684170677e-02 -9.625960605614822807e-01 -7.609217402072481207e-01 3.921007136244435420e-01 -5.169672481455428459e-01
7.757620474377120712e-02 1.516447489566711826e-01 -8.143536542459065553e-01 -6.424753802114566703e-01 4.029139584499899507e-01 -6.518325919346956709e-01
-7.062296278031225671e-02 -1.701953036778840744e-01 -8.181105369507397640e-01 -7.416886062987103623e-01 2.615133408141199212e-01 -6.176639732596634902e-01
2.874726867910284631e-02 8.955596413810490430e-02 -8.024579612539510798e-01 -6.713302096509011774e-01 3.655360609336265609e-01 -6.447473441335025424e-01
-5.047105262993343416e-02 1.069462378493623023e-01 -7.272502986440722017e-01 6.414317007772671886e-01 -3.264791346490662494e-01 6.942454521830007108e-01
-8.264631390351205933e-03 1.838548153200707247e-01 -7.307847997716033772e-01 6.627485849182384037e-01 -3.519501992435061788e-01 6.609806127575366119e-01
-4.402350483663714648e-02 -1.800672225652642788e-01 -8.687216991713374581e-01 7.731217113426304133e-01 -2.556183647254727243e-01 5.804671145428630386e-01
-9.409933125955056987e-02 5.037192957012070343e-02 -7.117209479149732010e-01 6.600084671120244328e-01 -2.973009396013003292e-01 6.899282387702505570e-01
-7.032035490197602323e-02 1.423534410246568571e-01 -6.832564888219567756e-01 -6.142879620909154070e-01 3.199346561661084443e-01 -7.213127722521375240e-01
3.612380215651885690e-02 -1.083831371983731556e-01 -9.387348417088197117e-01 7.573490976799178709e-01 -3.412446093954036308e-01 5.567535009337549745e-01
1.057739215177215253e-01 5.067223348430569679e-02 -9.222129327943554555e-01 6.844464698954820792e-01 -4.212225867852441574e-01 5.950668552604490014e-01
-9.184877666125713935e-02 -1.348969734913076923e-01 -7.788328360049862065e-01 -7.244641485713709805e-01 2.558684943132423228e-01 -6.400648490993960937e-01
2.348422438729412878e-02 -1.053968825340568932e-01 -9.068419466218551328e-01 -7.504114573189277770e-01 3.265625129846534414e-01 -5.746647456018428857e-01
-3.642963837992419657e-02 1.943178240154041225e-01 -6.965648261704467936e-01 6.104032686956303300e-01 -3.670407720603386936e-01 7.019180302649594694e-01
7.005352227530096607e-03 -3.956704356434393999e-01 -1.040690271441292003e+00 -9.786890930684291057e-01 2.032964056784386520e-01 -2.895221143752511883e-02
-7.576421884557019495e-03 -1.460213258583460683e-01 -8.976071887856926779e-01 7.069012823018242520e-01 3.335400712565826931e-01 -6.237319920816875030e-01
2.403732699675313958e-02 -4.158776135391593909e-02 -8.714277899132563121e-01 -7.212948953685842657e-01 3.427489850675587424e-01 -6.018777343866288376e-01
5.144579758930357266e-02 8.357526204698137451e-02 -8.406331033077040216e-01 6.695430460203890544e-01 -3.933125480707809762e-01 6.300931272881881151e-01
1.975273696639045975e-03 -1.425979387096028284e-01 -8.937726938429428891e-01 -3.663681916880658362e-01 4.373140078088561533e-01 -8.212982446671686088e-01
4.072035975013391963e-03 -2.738324231767135242e-01 -9.640154876957733876e-01 -8.303222010291084754e-01 2.619191884356085187e-01 -4.918977345011959490e-01
-1.287393937663978451e-02 -2.992982078810307173e-02 -8.338720271075450441e-01 7.124042092475444399e-01 -3.195591361392893792e-01 6.247897255527590232e-01
6.421068445811485559e-02 -1.643863621977499981e-02 -9.176329864478337539e-01 7.204950188322186699e-01 -3.699494291893435927e-01 5.865358878026473155e-01
1.000983988863646673e-01 7.970150707208478735e-02 -8.847064270332321012e-01 -6.796588288108068587e-01 4.152031193189162361e-01 -6.047067439076265760e-01
-5.617928370919769709e-02 4.010173059153746000e-02 -7.425726042022666729e-01 -6.698248932984420811e-01 3.228207977837194154e-01 -6.686713279601672610e-01
8.584779000953468922e-03 -2.853106645570217537e-01 -9.820432181975060626e-01 -9.999746156172691913e-01 -3.348779689383227232e-03 6.289180843870105855e-03
6.774516233429110634e-02 3.193299001542553722e-02 -8.789532430796551665e-01 -7.018423675504477099e-01 3.798077312499161806e-01 -6.026303828998118561e-01
2.839191768874138252e-02 -1.296220109262494202e-01 -9.408068753784234461e-01 7.657801891681361717e-01 -3.257888011642169901e-01 5.544748496673187477e-01
3.679994062663800858e-02 1.521696309069584807e-01 -7.705530006503855667e-01 -5.652493701216689814e-01 8.213374167977444129e-01 -7.679842019901658712e-02
5.887753425713282245e-03 -9.551337379839369701e-02 -8.724808203256639860e-01 -7.072353667953457101e-01 3.322745181565986416e-01 -6.240286696439940606e-01
1.063231999866946358e-04 1.015816840831719747e-01 -7.808763763855688378e-01 2.874188199478121541e-01 -4.527450541453790223e-01 8.440452226549859382e-01
8.368522954049940898e-02 1.485998114661189751e-01 -8.329628471489789465e-01 6.381000052836190983e-01 -4.158300237525120457e-01 6.480075420880767600e-01
4.286714947555009259e-02 1.719314996164116316e-01 -7.794272069321601659e-01 6.251969421814399519e-01 -4.023296319104829877e-01 6.687747384387006111e-01
4.247357840560089109e-02 5.157098355301578674e-02 -8.388203507145611804e-01 -6.844194527058475863e-01 3.596857860395589745e-01 -6.341893629500044982e-01
5.335904319320098482e-02 9.802930612230738305e-02 -8.280475263534412544e-01 -2.171970558022533193e-02 -6.744295979084187209e-01 -7.380196283667509460e-01
1.490255223878930724e-02 2.371999844940805569e-01 -7.085767762389497681e-01 -6.032798924897936343e-01 3.551592488632299149e-01 -7.140835240113087012e-01
3.566107339897597178e-02 1.076421002366850510e-01 -7.991418754965137206e-01 -6.578041606960665089e-01 3.702007420345442834e-01 -6.559307103406701867e-01
-8.855412901192787067e-03 6.465704997927608499e-02 -7.778077897948961761e-01 -6.765810724845771063e-01 3.405400182669984788e-01 -6.528939793828179017e-01
-1.521050604776071589e-02 -9.981048464508504581e-02 -8.545749456719420323e-01 -7.415519563118176949e-01 3.071655675572521060e-01 -5.964478268862641874e-01
6.850066510344540206e-03 -9.949734702400733766e-02 -8.948558605318939208e-01 7.527224775642390453e-01 -3.167462126558774349e-01 5.771314482314331418e-01
8.640185519048845797e-02 8.221355954691267343e-02 -8.677849434652881166e-01 -6.704810235877038949e-01 4.050985490458728910e-01 -6.215708829809463154e-01
5.752655032307019828e-02 1.137044113038941512e-01 -8.175384176777290568e-01 -6.576551486725861206e-01 3.918850472683180763e-01 -6.433628953801633354e-01
5.197329411659041588e-03 -2.071050379984766820e-01 -9.389025379941943195e-01 -8.478660992751935188e-01 2.586799128547499493e-01 -4.628258639978178324e-01
3.974013765235987622e-02 1.151261156337457653e-01 -7.989745591138496250e-01 -6.421913534697121229e-01 3.886988441849043019e-01 -6.606840955086316081e-01
-4.657762142500388586e-02 -1.750784471117270424e-01 -8.631229916308733596e-01 7.731217113426304133e-01 -2.556183647254727243e-01 5.804671145428630386e-01
-8.139773612818956491e-03 -4.987324331119588616e-02 -8.318183478086731419e-01 -6.990791079479031778e-01 3.879429644876640215e-01 -6.006568547309575345e-01
-6.599226596462405559e-02 -1.745610185091594491e-01 -8.374314443077145453e-01 7.706326608578083492e-01 -2.386498976940441830e-01 5.909073771326910363e-01
-7.954231278430723417e-02 2.198224568326893891e-02 -7.378934364655925782e-01 6.818871593359375760e-01 -3.019961456967564239e-01 6.662043454654653640e-01
-1.078850193348375869e-01 4.002731378530163635e-03 -7.172708081956974402e-01 6.849569101822068351e-01 -2.593908133129536053e-01 6.808453841824063657e-01
2.503539224132828034e-02 -1.241197927688035829e-01 -9.329992034052644323e-01 7.620412019362398093e-01 -3.271720079687518989e-01 5.587948494333729865e-01
-1.062238032301578011e-01 7.034249925232918810e-02 -6.827508491196609963e-01 -6.104710766448946391e-01 2.857800215282672585e-01 -7.386845361013901767e-01
9.120805638091863260e-03 -2.121349843934888790e-01 -9.430274989810326636e-01 -9.942845241891137276e-01 6.028844622676276382e-02 -8.811122635391369085e-02
-1.735617391625932093e-02 5.932101956004830201e-02 -7.780581449070815836e-01 -3.053015894804316649e-03 -9.867385647261867065e-01 -1.622888904886925499e-01
1.221634786745423168e-01 7.420706345027505701e-02 -9.143210221963233852e-01 -7.132956531758877228e-01 4.093122439847660110e-01 -5.689224886436982098e-01
7.023088665100007955e-02 2.125637064017292521e-02 -9.050825752896717313e-01 6.221459195270946374e-01 -7.829010988998723608e-01 -5.693480113749969842e-04
3.425145601698378894e-02 1.255347569832760135e-01 -7.875158138500396587e-01 -6.421913534697121229e-01 3.886988441849043019e-01 -6.606840955086316081e-01
6.396314228777080779e-02 -3.556666564336603831e-02 -9.296739894115586544e-01 7.302656005521824811e-01 -3.650898424844094547e-01 5.774266702923144257e-01
1.075163928105286326e-01 4.025067315577207649e-02 -9.204224730596423099e-01 -7.160841007780034406e-01 3.988543487406974175e-01 -5.728339804023431237e-01
-8.148549010250634439e-02 -1.529517763005125985e-01 -7.951756500409371542e-01 -3.384723313332163586e-01 8.636776922086109032e-01 -3.734934067732188501e-01
2.605983687418380115e-02 -1.167218216396738589e-01 -9.300753253826622435e-01 7.607351844373515526e-01 -3.217883950140280613e-01 5.636791711544471006e-01
1.694437186277518437e-02 -2.756572326169244580e-02 -8.551749185958313904e-01 -7.199103516866847130e-01 3.355532066360271681e-01 -6.075632732898141875e-01
8.350827315555432381e-03 -1.352573827155218178e-01 -9.034422626531511957e-01 -7.625192868288975800e-01 3.072662927912320208e-01 -5.693432730157459432e-01
4.860915985896132469e-03 -1.014431460569269455e-03 -8.356841164624383422e-01 -2.849808888961882780e-01 -4.511475810504904094e-01 8.457255778774989130e-01
-9.555396248399143991e-03 -5.321331679568255119e-02 -8.436495659107408063e-01 2.648511823753065264e-01 9.055566070275052892e-01 3.313926412327745097e-01
1.743457246479915290e-02 -6.377421565382627999e-02 -8.757530539291744631e-01 -7.336082777879698869e-01 3.369961249102566558e-01 -5.901292286918512486e-01
4.446340854474321869e-02 6.574471830719477716e-02 -8.326066427342753151e-01 -6.729758991956863445e-01 3.773454923861471189e-01 -6.361712178946903329e-01
1.569748849102110128e-02 -4.679514147682927588e-02 -8.766600764501946141e-01 7.250789688146422884e-01 -3.409877543139441802e-01 5.983208507068996651e-01
-9.454841599945901232e-02 7.084861935783738629e-02 -6.928280811340270517e-01 -6.471496762220798615e-01 2.969729030890509991e-01 -7.021427144082020844e-01
-4.730529192165648655e-02 -1.574884787122595164e-01 -8.542333883476499468e-01 7.582107729148556130e-01 -2.670814130083919435e-01 5.947973963134826070e-01
2.898123788891628777e-02 1.317423895722902305e-01 -7.895899623448825455e-01 6.423250911853440881e-01 -3.862823452389423928e-01 6.619701103452042545e-01
7.523537044211618674e-02 1.514219052522049469e-01 -8.121841684202769640e-01 -6.424753802114566703e-01 4.029139584499899507e-01 -6.518325919346956709e-01
4.357659092700166131e-02 -3.472963542768719991e-02 -9.035359957638535722e-01 7.244729872636859191e-01 -3.522755670726652744e-01 5.924869750204330154e-01
1.807302666228883040e-02 -4.517014896854505690e-02 -8.786127916531587534e-01 7.250789688146422884e-01 -3.409877543139441802e-01 5.983208507068996651e-01
-6.071680951054090475e-02 -1.449457118968989489e-01 -8.139467822090584725e-01 -7.559456055816826670e-01 1.467426995080322316e-01 -6.379755650045213500e-01
8.494282507328822229e-02 9.179461168704333707e-02 -8.712936328669893538e-01 6.694192157279243993e-01 -4.085976438980296610e-01 6.204239510328315443e-01
-1.058961323240390495e-01 4.927452561031793465e-02 -7.007530406601770734e-01 6.652019194317384532e-01 -2.858594166940683357e-01 6.897759058358430284e-01
-6.456143563930397122e-02 3.794981945851652605e-02 -7.458970556701037813e-01 6.717775858899193153e-01 -3.055331452391533698e-01 6.748069147957677094e-01
-1.501749779275796635e-02 -4.972586216502978412e-02 -8.295880364863150724e-01 -7.222252878146140365e-01 3.182205100854633151e-01 -6.141061313828787283e-01
2.516907629257825532e-02 7.450482613205927640e-02 -8.183892256854865543e-01 6.713468662097592521e-01 -3.655286285371143751e-01 6.447342141922606240e-01
4.680185255795174006e-03 -3.632706154195759485e-01 -1.029247794916169800e+00 -2.714395784164714276e-01 -4.482687703925126166e-01 8.516898876703147270e-01
-5.615960275120812639e-02 -8.588712102878513777e-02 -8.110574933693438515e-01 7.274207031602138995e-01 -2.733277075604305106e-01 6.294053422824275046e-01
7.024384344529444046e-02 1.631398447997701173e-01 -8.106527115565815844e-01 6.366241721982716095e-01 -4.070318240736961468e-01 6.550074484798664720e-01
3.139054758923801036e-02 3.916614968505716804e-02 -8.339402922621110825e-01 -6.861538017227756248e-01 3.699226991480461524e-01 -6.263786051873146965e-01
9.959815348567958859e-02 1.861833286511343499e-01 -8.143747691573895997e-01 -6.622448901701675217e-01 3.834900774259208944e-01 -6.437134967975765010e-01
-6.116272622444365002e-03 -1.793251488694354995e-02 -8.279294197317611514e-01 2.849632189041617636e-01 4.492134701952154585e-01 -8.467604277875476759e-01
-1.014300846905533265e-01 3.515639175648486991e-02 -6.988392541564355520e-01 -3.455162861123692863e-01 8.253225613142939343e-01 -4.466107542555695642e-01
8.423995073709365095e-03 1.119695362364490632e-01 -7.647577388908082252e-01 -6.779436685134873075e-01 3.488831251411212975e-01 -6.470494164391460412e-01
-5.171932095201921264e-02 1.190970486629668382e-03 -7.759086549331585259e-01 6.939393263693712788e-01 -3.099924523316717750e-01 6.498868292367674382e-01
2.268266183597799149e-02 1.741807165684808589e-01 -7.492655200866933374e-01 -6.260589947771294517e-01 3.801705972407141143e-01 -6.808233633272940954e-01
2.058343776873509251e-02 1.473582572048265094e-01 -7.709357028710401849e-01 -3.808134538587320487e-03 6.799293866390576646e-01 7.332677050681906117e-01
-1.043479467550602752e-01 -2.008349635257828877e-02 -7.304457225487448468e-01 6.937137172020382270e-01 -2.646978816362552389e-01 6.698479753070912812e-01
4.072837475538722274e-02 -4.375936199765219359e-02 -8.930233457557361643e-01 -7.285242130793759818e-01 3.393663354719893555e-01 -5.950487049858937949e-01
6.983608183386300072e-02 3.176484544827877401e-04 -9.013812583257111433e-01 -7.131743426122307827e-01 3.727468109422418796e-01 -5.936684023695392165e-01
3.108681152591666677e-02 -1.091918016251904600e-01 -9.129025833067321294e-01 -7.444421695349190404e-01 2.760476320855272947e-01 -6.079502948746025037e-01
-7.981382951363118899e-03 1.617044994295732951e-01 -7.333408763372133432e-01 7.150954730150502758e-01 3.293674476695000464e-01 -6.165675541974786622e-01
1.006492690304982146e-01 -3.162136075336508152e-03 -9.421037732925873209e-01 -7.315525057349633320e-01 3.930393162677281449e-01 -5.570915788456085593e-01
1.632859528685234526e-02 -4.124296161062285249e-02 -8.561248876322212764e-01 -7.297187805779482561e-01 4.019524969918139568e-01 -5.531226730426785920e-01
-3.063988331530472300e-02 -1.321707995554704529e-01 -8.636136348310863298e-01 7.495531398257819777e-01 -2.808739865939993141e-01 5.993996114714336132e-01
7.196941480592361148e-03 1.713835082961048251e-01 -7.317619474856754680e-01 -6.626669593731636665e-01 3.519841483275009120e-01 -6.610443708869243595e-01
-3.251305352414864819e-02 -3.930750467005347804e-02 -8.046503927960091396e-01 -7.088810852560498699e-01 2.997788646727990725e-01 -6.384514384522073094e-01
7.037714370593162183e-02 -1.010532558364013178e-01 -9.682867148373236477e-01 -7.695865130832273415e-01 3.552119558113375208e-01 -5.306232800481748280e-01
1.039708332786948575e-01 8.074572308272487745e-03 -9.384917807496120368e-01 -7.273423992764571633e-01 3.933839449227839458e-01 -5.623362927037118819e-01
2.977024855267139045e-02 -1.247065802214184366e-01 -9.263736852602061367e-01 -7.626634297191158263e-01 3.302653211067435590e-01 -5.561198707503040017e-01
-6.651648755454886430e-02 1.705628474231664360e-01 -6.741499587866276455e-01 -5.653407785370877514e-01 2.980437735802436983e-01 -7.691291914581893652e-01
-7.585742035597844990e-02 -2.503576888754255325e-02 -7.514155007615399562e-01 -6.904171307779465305e-01 2.814780626456862556e-01 -6.664039959195765528e-01
5.395849544280750983e-03 -2.655674625741633044e-01 -9.618492651211431044e-01 -8.303222010291084754e-01 2.619191884356085187e-01 -4.918977345011959490e-01
2.617439934876153451e-02 -5.260491100792358959e-02 -8.802627674128055135e-01 -7.212948953685842657e-01 3.427489850675587424e-01 -6.018777343866288376e-01
6.190777087502877078e-03 -1.678797624009238099e-01 -9.181232599297441954e-01 -7.750526570622099376e-01 2.969867583183645743e-01 -5.577564380303984271e-01
-3.735358898281464224e-02 -1.392415157880934895e-01 -8.459561539507742811e-01 -7.560804069270847805e-01 2.796440446214614739e-01 -5.917276625008535129e-01
6.139454245211260763e-02 -6.049653575899585634e-02 -9.295413859566588055e-01 -7.467143382763971049e-01 3.557569383465176149e-01 -5.620095175624293393e-01
-4.446111535563517653e-02 1.492265840405165578e-01 -7.122367659207795576e-01 6.192992558309526885e-01 -3.473287534468235127e-01 7.041528021362292167e-01
3.474994505638531045e-02 2.213443994022037675e-01 -7.429705923862434114e-01 5.918011001991849707e-01 -4.126137192358233508e-01 6.924748201208584808e-01
-3.449404814758621346e-02 1.333158985190044665e-01 -7.290911671759526813e-01 6.274552316089380133e-01 -3.503029709420367732e-01 6.954047460837150529e-01
6.190513888147013838e-02 1.659478032022232430e-01 -7.903817150554779403e-01 -6.340150719478835351e-01 4.006013352480076173e-01 -6.614706786702139185e-01
2.727151671423709567e-02 -1.421721211875140722e-01 -9.466396926296387626e-01 7.737873254956926239e-01 -3.197578178131804671e-01 5.468163428881545052e-01
7.505818319238038994e-02 1.959404541068088534e-01 -7.847174798016682828e-01 -6.257510218274291436e-01 4.084319838734524755e-01 -6.645441845589531438e-01
2.384094610174263777e-03 -1.658832177949525200e-01 -9.117702280707985496e-01 -7.751125977447506088e-01 2.969522010081206975e-01 -5.576915376207685071e-01
1.026455553487412992e-01 5.012844946726761203e-02 -9.189996046553637887e-01 6.844464698954820792e-01 -4.212225867852441574e-01 5.950668552604490014e-01
-2.674309323050297338e-02 -4.801344292749557680e-02 -8.104904365158742685e-01 -6.352364302812554264e-01 -4.480354489468009183e-01 -6.290778283571646368e-01
1.873647565750841473e-02 1.087908464682619814e-01 -7.925384857111568149e-01 6.437449205678545949e-01 -3.742200257799266350e-01 6.674967037734024222e-01
-1.940781266778618050e-02 1.489699927532691370e-01 -7.348274804115765280e-01 6.274819590661691038e-01 -3.588578352166497121e-01 6.910046636239889351e-01
-1.157665364798975971e-01 3.684010371640645404e-02 -6.876668207958184231e-01 -6.336555758038484587e-01 2.767576020636551837e-01 -7.224166671337732826e-01
-7.810921355210001527e-02 4.938733048474201748e-02 -7.201127009439048932e-01 -1.930416044220448213e-01 -9.095351991279226889e-01 -3.680769763371415371e-01
4.307202842596875858e-02 -4.835343807196484977e-04 -8.701513943946715957e-01 -7.109879621071638622e-01 3.581149723596351864e-01 -6.051857436445111649e-01
-3.006985764293251297e-03 -2.156034874205395024e-01 -9.498674873084915760e-01 4.743959057762917597e-01 -4.193886533263392891e-01 7.739907506190311093e-01
-7.259600460938057942e-02 -8.908983118704374982e-02 -7.934306638056962679e-01 7.273348557951838655e-01 -2.629949795027822224e-01 6.338908804374220329e-01
-7.593940845703312480e-03 -5.678944422157187338e-02 -8.419598063361316553e-01 -7.311299891606840573e-01 3.110106992049708752e-01 -6.072242451763049109e-01
-4.526179986202460981e-02 -1.153766216314475040e-01 -8.253936654836081521e-01 -7.375145387670539732e-01 2.743808196570341473e-01 -6.170797929859264119e-01
-8.412768574734658111e-02 7.076839761833410292e-02 -7.123530437245275682e-01 6.563944947205007097e-01 -3.057000983449418285e-01 6.897055293184993774e-01
-2.915343108281513718e-02 2.036747766766033862e-01 -6.891622285855265595e-01 -5.976262751373977444e-01 3.484857930541928606e-01 -7.220806653724979318e-01
1.001746671383596660e-01 1.825526019321546400e-01 -8.261591365119576036e-01 5.665156064645509026e-01 -4.794218269109759012e-01 6.702348689179371544e-01
-9.205808363849297266e-03 3.400677537252400073e-02 -8.045191250757962598e-01 6.939500806751314199e-01 -3.356727590499336555e-01 6.369906469978846575e-01
3.693618952025547880e-02 2.100232165549693886e-01 -7.420744095893211378e-01 -6.166600585488803965e-01 3.849275720770077291e-01 -6.867030919148329193e-01
-4.184526737365468901e-02 1.455108858660943971e-01 -7.163707140637851634e-01 6.269434506502896687e-01 -3.453863931113691499e-01 6.983195179430591315e-01
-5.382199587640645877e-02 2.297608182188335540e-02 -7.527285241520429437e-01 -6.717926238576633624e-01 3.053912312800727835e-01 -6.748561820030078984e-01
4.491678179257894282e-02 4.477354518034391134e-02 -8.570903771114368741e-01 6.938886597317113214e-01 -3.662919286157052534e-01 6.199586687245498551e-01
8.173999206074587798e-02 6.950158728709181222e-02 -8.708395418065392191e-01 -6.817301640722766010e-01 4.031607781219309072e-01 -6.104960035725917056e-01
5.133446828083829128e-02 1.426828707767798521e-01 -8.048612525298628473e-01 6.413469805525903178e-01 -3.867577843740070409e-01 6.626405260487652216e-01
-6.506884956422675321e-04 2.334593372920844567e-01 -7.060468559746035933e-01 5.851581221747652606e-01 -3.900965819660974776e-01 7.109251921202892621e-01
-6.213185739713055628e-02 -1.450989278165117358e-01 -8.298545697873745963e-01 7.569624635332093954e-01 -2.660559719449198113e-01 5.968434037452190477e-01
-1.075545175664739395e-01 5.859259391194539257e-02 -6.952928882066569116e-01 6.652103657833414729e-01 -2.856322233520464660e-01 6.898618718536049244e-01
-4.962003198382123476e-02 -9.664112375288665471e-03 -7.721187213456682796e-01 -6.921301945116830057e-01 3.074905153081034515e-01 -6.529972257527413282e-01
-4.982178504528945832e-03 -2.334830009675619433e-01 -9.571608710342567328e-01 8.303222010291084754e-01 -2.619191884356085187e-01 4.918977345011959490e-01
-8.208834563618984392e-02 4.759081030889660002e-02 -7.135865215520307281e-01 -1.930416044220448213e-01 -9.095351991279226889e-01 -3.680769763371415371e-01
-8.825390236123158150e-02 1.445892470947163222e-01 -6.727492121642865142e-01 4.546104448694526234e-01 -2.631982575362445398e-01 -8.509148139769827646e-01
-1.121007130724322870e-01 8.009114656800762899e-02 -6.818065664826455929e-01 6.891754966574367147e-01 -2.850488069291452486e-01 6.661713837108632630e-01
2.856015438712480523e-02 -1.616877256220556336e-01 -9.464252751944080000e-01 -7.815111440549015187e-01 3.098415176611447053e-01 -5.415150650272231303e-01
-1.619130256988056751e-02 -1.541094452305420970e-01 -8.933908803071174409e-01 7.660977359928189401e-01 -2.858615058048543656e-01 5.756539397986071283e-01
8.956858263780372031e-02 4.633514805455382635e-02 -9.065619033643204094e-01 6.904491161137948918e-01 -3.989186584642893663e-01 6.034433875573836925e-01
5.995589663658750304e-03 1.501564210754934058e-03 -8.268262442376759225e-01 -6.946245356192755072e-01 3.380997478458038774e-01 -6.349687512171835468e-01
-6.806016105543900678e-03 -3.884904334386912184e-01 -1.035533951058488666e+00 8.972803954967555340e-01 -2.011565390721049840e-01 3.929681140318111998e-01
2.483244322727764727e-02 -1.795760465539292527e-01 -9.543723391104594889e-01 -8.154984075726396942e-01 3.715567281016038392e-01 -4.437431070438387359e-01
-1.126176653334007849e-01 4.360384047643501432e-02 -6.991291038238581779e-01 8.159656854062463660e-01 -3.605773118650772435e-01 4.518672398035394333e-01
5.982916999463961695e-03 -3.073647448612074062e-01 -9.983386264984727143e-01 -6.994240688704103093e-01 -3.359069693710901583e-01 6.308506002316942585e-01
6.810897776435868856e-02 -4.813299880143987602e-02 -9.431554119701746064e-01 7.318386528248992384e-01 -3.749307216314878288e-01 5.690686603638689389e-01
5.715877190912031780e-02 1.655524942594342463e-01 -7.812560890078107390e-01 -6.429100643485482491e-01 4.797196201728484710e-01 -5.971061339331253937e-01
-5.854445058164039345e-03 -2.164086714310656592e-03 -8.194760233169448016e-01 2.849632189041617636e-01 4.492134701952154585e-01 -8.467604277875476759e-01
-7.978842420167209931e-03 1.110279974020239868e-01 -7.697020140337531569e-01 6.925406326703533733e-01 -3.390427390968408505e-01 6.367397373858948439e-01
9.126541658976429494e-02 1.771775713502471150e-01 -8.218084063576061027e-01 6.088544252634079390e-01 -4.391253072728818485e-01 6.606551697744157403e-01
9.308462317862077617e-02 6.922323398164417774e-02 -8.837779510787564519e-01 -6.891492034745865247e-01 3.994942839216427122e-01 -6.045475105103624847e-01
-8.478710433983448549e-03 -1.898894869905847493e-01 -9.089621896462066752e-01 -7.757625278925898149e-01 2.815911840799014687e-01 -5.647113469430000698e-01
-7.080823847485820388e-02 3.259848370197374751e-02 -7.420206838718368392e-01 6.818871593359375760e-01 -3.019961456967564239e-01 6.662043454654653640e-01
-3.941154635086706326e-02 -2.152429936925364939e-01 -8.685543340241846932e-01 -6.853063255305257284e-01 3.241050679015188285e-01 -6.521588342945305872e-01
1.554752112890309644e-02 -3.895184726011421961e-02 -8.598082518460580248e-01 -7.199103516866847130e-01 3.355532066360271681e-01 -6.075632732898141875e-01
-4.444747063402814530e-02 -8.368746031269432006e-02 -8.236988158522065007e-01 7.381389922183574370e-01 -2.860897950423130776e-01 6.109856441353712642e-01
1.146266811753247350e-01 1.639436199663208416e-01 -8.442818667318243708e-01 -7.617378344795219247e-01 3.258992998351623593e-01 -5.599509959714326079e-01
-4.500695048206009019e-02 -1.649612586700829331e-01 -8.480506869306769779e-01 -7.611943341581628442e-01 2.646325596360837862e-01 -5.920749902047591773e-01
-6.919400535025005405e-02 1.577492573856326408e-01 -6.773172779235163699e-01 -6.079036245833185914e-01 3.247257590511805070e-01 -7.245732293061195595e-01
-4.927355860043566155e-02 2.727723295000073628e-02 -7.662079463861690698e-01 6.801762959020248855e-01 -3.143229782524215588e-01 6.622395879404436858e-01
-7.295869486838391094e-02 -9.636498704408053007e-02 -7.960328974853039252e-01 7.273348557951838655e-01 -2.629949795027822224e-01 6.338908804374220329e-01
-2.446439883230768289e-02 1.962242774775329324e-01 -7.059309405066340748e-01 6.097295195446978955e-01 -3.639292254853657704e-01 7.041203248262426495e-01
2.347658617045769811e-03 1.142483622032809676e-01 -7.579738442852909097e-01 -2.726165078300376021e-01 4.496161136809968539e-01 -8.506030742813901480e-01
-5.146871617573728179e-03 1.789923559306027812e-01 -7.230739687191013454e-01 2.933956931965475134e-01 4.486139840574305260e-01 -8.441945631913514436e-01
4.164480952154469423e-02 -1.420870130440044510e-01 -9.671185893629987707e-01 7.820425453606715260e-01 -3.724394199559309948e-01 4.996982446524018684e-01
1.656052882975243140e-02 1.175551490325851773e-04 -8.394357383121345828e-01 -7.083494258764354568e-01 3.391332613848770383e-01 -6.190555079174895337e-01
-9.440558491927343587e-02 -6.006674941267441808e-02 -7.599455917159376739e-01 6.105256374129673924e-01 4.563461272450078376e-01 6.473072363337002422e-01
5.927694571902317883e-02 1.767068602981397285e-01 -7.918753749068414560e-01 6.258844328879071828e-01 -4.142425609463481484e-01 6.608114537212513850e-01
-3.807755692112317451e-03 1.486139031209201275e-03 -8.322997137877645724e-01 6.479334209200178218e-01 -3.605956861415940407e-01 6.709344477599551437e-01
5.291355829841720010e-02 1.793374897195186279e-01 -7.894029635925646771e-01 6.188297242059095371e-01 -4.085122353977000409e-01 6.709452481161274351e-01
-6.652611567966774941e-02 -1.280264834659387008e-01 -8.054569954386722186e-01 -7.321484052825976141e-01 2.628545643747938754e-01 -6.283837924624458005e-01
-7.268747101401926147e-02 -9.107965024595447712e-02 -7.828294676761153870e-01 -7.226401978070018384e-01 2.662095003099795298e-01 -6.379056720692866111e-01
-6.693791166235049661e-02 -1.147539658629718323e-01 -7.994252714346925526e-01 -7.321484052825976141e-01 2.628545643747938754e-01 -6.283837924624458005e-01
7.158063048000207207e-03 -1.105376543469704653e-01 -8.821349936877812548e-01 -7.917313354359386546e-01 2.871041316290894874e-01 -5.391963557836157994e-01
9.021326637904429624e-02 3.090715824476236370e-03 -9.246455436446220366e-01 -7.218682641749510909e-01 3.823905766678767360e-01 -5.767873577434335930e-01
6.681957444326071249e-03 -1.854549972640130162e-01 -9.213830544151205837e-01 -8.182310039400658708e-01 2.767936364357827528e-01 -5.038683429427645022e-01
-9.899992245196878246e-03 2.022462478521544135e-02 -8.141095861511279397e-01 9.778261621500164980e-01 -9.579015991712924727e-02 1.862263189724280288e-01
3.601606920562199637e-03 -5.156328103292821818e-02 -8.463435149483721220e-01 -6.889175036375347894e-01 4.063533853018723718e-01 -6.002246241496056456e-01
-1.982851985142907586e-02 6.280334176959169457e-02 -7.785369692464818581e-01 6.730198178539475995e-01 -3.395677200484363278e-01 6.570677957996008400e-01
3.442199308662871604e-02 -1.346689716985979834e-01 -9.521764633161475810e-01 7.677003945987109779e-01 -3.323365537293837546e-01 5.478946241644095938e-01
-7.146133409504608347e-02 -1.680440071599019480e-01 -8.161929842962851733e-01 -7.416886062987103623e-01 2.615133408141199212e-01 -6.176639732596634902e-01
6.777668677453252410e-02 -3.923713630117164897e-02 -9.242245488625998595e-01 -7.353138331955462181e-01 3.633148785735301756e-01 -5.721152556245756582e-01
1.969102372935178924e-02 2.402394623716231914e-01 -7.186855080717090560e-01 5.687492839154001389e-01 -4.406208992719871098e-01 6.945339985705990538e-01
-5.887363256812959411e-02 -1.853738647105520332e-01 -8.392257077067075688e-01 -7.571768691600270218e-01 2.569574309114623922e-01 -6.005464740620832798e-01
4.661526938794761932e-02 -1.148512705136753020e-01 -9.437099255844765278e-01 -7.609758733641538431e-01 3.437131214205261798e-01 -5.502517699390181427e-01
3.464684183046360527e-02 2.071559079918375013e-01 -7.512620303512306252e-01 6.051421659805537034e-01 -4.003783217231580149e-01 6.881134778846519362e-01
-1.050649216813930309e-01 -6.483664132981817319e-02 -7.472681078925479392e-01 7.165053950259010485e-01 -2.524022250571171244e-01 6.503177190304704203e-01
-5.326770622322203608e-02 -1.216801230841240700e-01 -8.304340042271710631e-01 7.400287228609708778e-01 -2.727515061120049378e-01 6.147878538604948373e-01
9.044359131092874482e-03 -1.022388966969766944e-01 -8.804322413444198858e-01 -7.784652509194492920e-01 2.983415296825484009e-01 -5.522537322441524177e-01
1.876249357105891011e-02 -7.803734229558077079e-03 -8.582028787177832241e-01 7.089875373931546765e-01 -3.420836359234646906e-01 6.166972173235197863e-01
-2.962008583651227350e-02 1.361821398588913545e-01 -7.173451757738129597e-01 -6.407146844145560349e-01 2.250683163725459013e-01 -7.340496891497084730e-01
-3.004579196611655012e-02 2.119142769467514675e-01 -6.928311300053715538e-01 6.068583295394636146e-01 -3.748233922911734517e-01 7.008783007483601057e-01
-3.815078215028452902e-02 7.621897310689575156e-02 -7.538217743382595870e-01 6.576595320248920240e-01 -3.399402859971698554e-01 6.722533316339626142e-01
-5.755026718729284313e-03 2.203277906559250321e-01 -7.135935453381434534e-01 5.414556859870199856e-01 -4.111936091622181433e-01 7.333113635397140451e-01
-5.460015633065128104e-02 -1.255274547753197807e-02 -7.682003782795556734e-01 -6.921301945116830057e-01 3.074905153081034515e-01 -6.529972257527413282e-01
5.661372681062615958e-02 8.203243632506981853e-02 -8.357092673475564615e-01 -6.692817683278483587e-01 3.934430498458375558e-01 -6.302892043434935587e-01
-2.077636700505894329e-02 1.818706221734741890e-01 -7.069199501167221511e-01 -6.012258643623247245e-01 3.570967382388157696e-01 -7.148492005737813182e-01
-1.253477877608039359e-01 3.042264447842638660e-03 -6.990904236688463280e-01 8.086910959699942225e-01 -2.256375417578106168e-01 5.432369750379127948e-01
-1.649815963486124873e-02 -4.696501247906370580e-02 -8.215823694022054147e-01 -6.352364302812554264e-01 -4.480354489468009183e-01 -6.290778283571646368e-01
-7.754483738928543736e-03 1.011246688668497040e-01 -7.600355435665308024e-01 -6.416894090081243229e-01 3.513224158962393040e-01 -6.817677481779510495e-01
3.970099346026210313e-02 1.434943738077693598e-01 -7.930555363736057073e-01 6.264508862763403796e-01 -3.919623489030318875e-01 6.737394185632937793e-01
-8.552260645499769331e-02 1.298497551641059622e-01 -6.868441585464089005e-01 7.612328190807543526e-01 -3.553004303730796232e-01 5.424815198060407573e-01
-3.098121084841623171e-02 -1.314296467607880547e-01 -8.666490453238988589e-01 5.832600036803420318e-01 -7.271046395315639010e-01 3.621140859984344762e-01
4.414215040600475565e-02 -9.702449995840198294e-02 -9.238327054758813661e-01 -4.966474177715044513e-01 -2.241300661769235758e-01 -8.385147916741987340e-01
-2.505770506917563353e-02 3.145448131296096905e-02 -7.780575250482782979e-01 -6.840917628854585875e-01 3.283420849871375724e-01 -6.513140065886536823e-01
3.193517895052621486e-02 -1.495118245270214419e-01 -9.440086494931539951e-01 -7.740208094854686971e-01 3.235376887666551182e-01 -5.442565116110149592e-01
3.995060103426287951e-02 1.686311880867283897e-01 -7.786637439155619234e-01 6.264508862763403796e-01 -3.919623489030318875e-01 6.737394185632937793e-01
7.042137482098938250e-02 6.030768295772608034e-02 -8.641147290325732477e-01 -6.910563999070793439e-01 3.848934885097165526e-01 -6.117990312596836011e-01
6.891390432808822131e-02 1.026557723253938431e-01 -8.492201610954570601e-01 4.413593959429102931e-01 1.833739620047651064e-01 8.783939171417255443e-01
-8.962342125721961539e-02 1.376257183937222572e-01 -6.774263882993908359e-01 6.356442093928122983e-01 -3.288206218058540853e-01 6.984507410981809494e-01
-9.753760371349083635e-03 4.995038588198053714e-02 -7.941690927427720315e-01 6.601127889953248840e-01 4.582435652852676067e-01 -5.952007566186894305e-01
