4.563226864036282887e-02 4.864687238275291342e-02 -6.649062096237261521e-01 -8.015916641760102435e-01 -1.993409401501121392e-01 5.636612400224123576e-01
-3.512458773840348297e-02 1.385334490131637786e-01 -7.348188091370362329e-01 -8.080976855673474013e-01 -2.225956416246703540e-01 5.453708012998107479e-01
1.281719365402330529e-02 -1.681206119885856887e-01 -8.124716266304495838e-01 -6.835910464463064162e-01 -3.193685800469331371e-01 6.562827068400091113e-01
4.200941624880132064e-02 -5.715681101934130121e-02 -7.038233624774754560e-01 7.303845360418613764e-01 3.912622744721785395e-01 -5.598680756086850119e-01
-3.446666738378548200e-02 -1.409549485792939150e-01 -8.384359693614332754e-01 6.996923436562284548e-01 2.820646353338556733e-01 -6.564070122438008248e-01
2.006947814043348252e-02 -2.014176637280217785e-01 -8.225467118180478376e-01 -6.491946262973872228e-01 -4.265277021343623076e-01 6.297781009995316870e-01
6.245756672778642743e-02 -2.252018690237850979e-02 -6.754633194789848583e-01 -7.628876388665476460e-01 -3.229040341304489914e-01 5.601209112387303124e-01
-6.660914082355443022e-02 -5.560560204167922134e-03 -8.201251587407129007e-01 7.491403026510599084e-01 2.197529167818334517e-01 -6.248979616783485458e-01
5.263841177121849485e-02 2.758630696788037621e-03 -6.746025628133668350e-01 -7.755607981080985258e-01 -3.168634312608197279e-01 5.459881082656921070e-01
-2.859877231116689927e-02 1.471633485200063984e-01 -7.083254815137917104e-01 8.098010830311271890e-01 2.261488450858444021e-01 -5.413676253600245847e-01
-3.206478871515731910e-02 -1.920932295463308181e-01 -8.557285270384195064e-01 6.359151452770660518e-01 2.345280621580699831e-01 -7.352608489968903704e-01
-1.215627077378239390e-03 -1.631319805924409394e-01 -8.088198877119165964e-01 6.489832875098509035e-01 3.279443894122560654e-01 -6.864933867022526837e-01
-7.098573908320149513e-03 8.139323757945218785e-02 -7.013570815687160120e-01 9.758574540183000412e-01 9.086088426475751045e-02 -1.986115030594851338e-01
-6.390753303552131059e-02 1.286702151357353024e-02 -8.216039639487033863e-01 -7.482765536951129226e-01 -2.380589568015653301e-01 6.192012050026349801e-01
6.828230155359051035e-02 3.744061328588262072e-02 -6.180944286084214534e-01 7.938661011322666328e-01 3.149062280889634025e-01 -5.202025384250209550e-01
8.466739917286327660e-03 -1.564556264008914663e-02 -7.309063944351975595e-01 7.509836374517113722e-01 2.894178353111437896e-01 -5.935157056756020788e-01
-6.721713332036201305e-02 -1.511235983613170297e-01 -8.745321708607269873e-01 5.559224667593325453e-01 1.185937183886153490e-01 -8.227306612196851887e-01
3.529468458031513600e-02 -1.125218951723866295e-01 -7.473138387030583418e-01 7.219831651579947662e-01 3.243034442805305395e-01 -6.112017549518556914e-01
4.848387612499398952e-02 -1.240204272254502027e-01 -7.381888683277344487e-01 7.132778583338322820e-01 3.291805521906077114e-01 -6.187688266793891501e-01
-3.795852878612680781e-02 3.392380926580659817e-02 -7.810827110972048404e-01 -7.671057568346864031e-01 -2.454764465509350069e-01 5.926972853150320741e-01
-5.555081469294069485e-02 -6.192515082321874836e-02 -8.403987501345853151e-01 -7.148301980194091687e-01 -2.535860962281279996e-01 6.516992249491408984e-01
-6.212243014966373211e-02 6.842079820720865790e-02 -7.868877878721493024e-01 7.778928302601232359e-01 2.084268051327847759e-01 -5.928246043578445645e-01
-8.967312597958935691e-03 -2.896004310797226089e-01 -8.803755488914287719e-01 9.407454561098705925e-01 -1.451995686291882859e-01 3.064556608687933892e-01
5.942629737442101101e-02 6.532104986162150240e-02 -6.285093818326142889e-01 -7.991159624353481039e-01 -3.088020416066302176e-01 5.158051741506709531e-01
4.617529118152358114e-02 7.543252135747632175e-03 -6.810064960555874958e-01 -7.755607981080985258e-01 -3.168634312608197279e-01 5.459881082656921070e-01
3.624752476375397298e-02 -6.576118665271564467e-02 -7.337460626759650939e-01 -7.436679090936944014e-01 -3.184520181429654206e-01 5.878319089032892908e-01
-2.049523433074983483e-02 -6.470697654355721251e-02 -8.014519732305314115e-01 -7.298578908717143765e-01 -2.744082689017442456e-01 6.261050719253441477e-01
-3.361243087927568568e-02 -4.216517064222111838e-02 -7.951890772411471797e-01 7.377348342047181928e-01 2.710457197565587784e-01 -6.182891978698848989e-01
-8.364465715991806216e-02 8.452403496960893270e-02 -8.096126231926674688e-01 7.836409941031119430e-01 1.921354790718819427e-01 -5.907543906251603305e-01
7.423461421844889871e-03 -5.826506078707069380e-02 -7.531467631140167374e-01 7.370728389973015826e-01 2.955989955021249838e-01 -6.077374958570453956e-01
-1.315181927171111403e-02 2.235428436495965898e-01 -6.639535023480670484e-01 -8.344123969555087283e-01 -2.271267494005158594e-01 5.021647055635408696e-01
-7.272925323153264093e-03 -3.299529908066158868e-01 -8.932708982128222397e-01 6.150732357942998441e-01 3.376022807695707728e-01 -7.125374478781543175e-01
4.259027529746124696e-02 -1.624462424867689214e-01 -7.775832992797532262e-01 -6.918811806309395074e-01 -3.339178813249174538e-01 6.401556688964142872e-01
5.017933639842988951e-03 -8.642042560234054413e-03 -7.444644882208600878e-01 -7.560841010970962284e-01 -2.835603379221875997e-01 5.898562255547111777e-01
6.269961959722998579e-02 1.167871664462759584e-01 -5.925050789465740042e-01 -8.197100425784957789e-01 -2.998700741302884887e-01 4.880096154145490694e-01
2.449844373830430480e-02 1.683862609873221783e-01 -6.273732870509188819e-01 -8.318097801023268678e-01 -2.524415785990343220e-01 4.943336313872907506e-01
-9.878330210502783010e-03 1.612556289563028822e-01 -6.730964572709865479e-01 8.189829975009126350e-01 2.413871121616258664e-01 -5.205757503828720711e-01
-2.131774525104216181e-02 -1.226702861889477220e-01 -8.115404169213515928e-01 6.868431905203495891e-01 2.401250893861910929e-01 -6.859929832608351319e-01
1.037668490677820798e-01 -3.205402258415512851e-02 -6.226997634835815809e-01 -7.912461499122535047e-01 -3.405792165067658139e-01 5.078733380801485620e-01
8.010240769090475055e-02 7.359491056121800212e-02 -5.777842528749215223e-01 7.692860862898147634e-01 3.278619006138285830e-01 -5.483662020646306035e-01
-5.471212751463076264e-03 -1.813254994269722364e-01 -8.355057255841197295e-01 6.593380912809261307e-01 -3.187330488579717680e-01 6.809423800526199777e-01
3.133576773106815008e-03 -1.616101551351614707e-01 -8.066654915091558964e-01 1.784956584913914845e-01 4.253347958579169474e-01 -8.872596076302743384e-01
-5.272839560464607535e-03 -5.858269599115974863e-02 -7.635877912020079261e-01 7.779570557595397728e-01 2.690291438277555014e-01 -5.678081887092267799e-01
-1.340499818515740287e-02 2.179195956008160226e-02 -7.418299853249672449e-01 7.615208264514821135e-01 2.704172382551646714e-01 -5.890335713141492402e-01
1.369547998758801656e-02 5.236321810626967665e-02 -7.030392338461809443e-01 -7.827123396319400905e-01 -2.721417859257360683e-01 5.597322947097522761e-01
4.310441499392193322e-03 1.152586472342516516e-01 -6.861371473186308467e-01 -8.069358236236787718e-01 -2.550992971235889195e-01 5.327090436249659611e-01
-5.870590159988347406e-02 6.913293326213097723e-02 -7.942272318415815047e-01 -7.751077121577363283e-01 -2.066267290808032620e-01 5.970874553890475056e-01
-1.158322082732251602e-02 2.179099810553921102e-01 -6.505396280224924332e-01 8.414892031715668352e-01 2.175431464587889718e-01 -4.945411007939494175e-01
-5.694313382625142833e-02 1.543702679087387009e-01 -7.605673477947700878e-01 -7.972595698929538788e-01 -2.052770955284721477e-01 5.676605431642193222e-01
-3.011032097933049982e-03 4.968346958727783841e-02 -7.092491408245600315e-01 7.651911591623159481e-01 2.756597141636040749e-01 -5.818025540740355828e-01
1.053210561772122550e-01 -5.860154769207662206e-02 -6.380167048401087504e-01 -7.790772658747513457e-01 -3.450121485795524245e-01 5.234550898879891667e-01
-9.447785935425929982e-02 7.993646824239253323e-02 -8.363786173354029740e-01 -7.657059599442490594e-01 -1.996250855401164870e-01 6.114280073148081751e-01
-3.896951459740598950e-02 -1.101613638021948227e-01 -8.301828926558817434e-01 7.129434463909030129e-01 2.693711023333141830e-01 -6.474186060625665151e-01
-8.438709770879668226e-02 1.291975593907734587e-01 -7.902806623382792051e-01 7.790461342036394399e-01 1.046538704953486193e-01 -6.181704361846396267e-01
8.817406336572343462e-02 4.084918195614661157e-02 -5.935377174720105620e-01 -5.371232894742348218e-01 -7.003482281171842239e-01 -4.701179971852788575e-01
-7.815436152043578333e-02 -4.404048104517406526e-02 -8.478473284804325383e-01 7.289730803809056914e-01 2.344715068220627197e-01 -6.431340144702073491e-01
9.158283201515059202e-02 -8.112967408638840916e-02 -6.715697390591054416e-01 -7.514618697050057250e-01 -3.558549530363415703e-01 5.555828568080191099e-01
-4.203952620932403794e-02 1.093020457132891018e-02 -7.834935276638816948e-01 7.572319173070399811e-01 2.460776622837444194e-01 -6.050170307821686189e-01
3.544064390900682204e-02 4.332936772089002186e-02 -6.766197269479272691e-01 -7.872363854836551544e-01 -2.945507440653900577e-01 5.417552330537792615e-01
-3.268206354056213403e-02 -1.033914123825692422e-01 -8.374416829137438789e-01 -7.177480917449104991e-01 -3.356152691221278017e-01 6.100820173785006517e-01
-7.262539998927991514e-02 1.230070475104908141e-02 -8.155602609952439241e-01 7.243796997482638833e-01 1.472151100678531221e-01 -6.734996376838852106e-01
4.530469657494195015e-03 2.083900161039016485e-01 -6.483403438432734367e-01 -8.677760185291477635e-01 -2.127686887828511009e-01 4.491038485020210080e-01
2.261732865634960912e-02 -2.081385321992793025e-01 -8.245801245927886214e-01 -6.064956646844578136e-01 -4.454248295032783300e-01 6.586043804750564279e-01
-9.874399011144037452e-02 -8.195913042898326367e-03 -8.696972510845365489e-01 -7.304038640268100124e-01 -2.110206377987425275e-01 6.496002507986866625e-01
-7.396304096330946071e-03 -1.681694084694128899e-01 -8.179792244933915546e-01 9.484934081226927827e-01 1.338907063529730657e-01 -2.871124056882607967e-01
-3.598926001684114168e-02 8.257410230345986479e-02 -7.404129791725539977e-01 7.985726600666360753e-01 3.122330943952182913e-01 -5.145796355847008785e-01
5.990059244427086566e-02 -2.101803870648041861e-01 -7.879453786580670194e-01 -5.786676989041543706e-01 8.141161783756418746e-01 -4.856482628416182445e-02
1.727590756075547684e-02 2.989030318156771920e-02 -7.092550711662620744e-01 -7.748460464566704342e-01 -2.788106165610478304e-01 5.673431451805119874e-01
-1.949403899887597541e-03 -1.632876254177302311e-01 -8.289058664073830629e-01 -2.028339520378608096e-01 -4.151846307121728197e-01 8.868371385553828201e-01
-5.456993399138355266e-02 8.688132192652323060e-02 -7.698612913799871560e-01 7.868756322562470151e-01 2.172140863500082730e-01 -5.776199269869959352e-01
-9.487885795019808388e-02 2.583341292850682008e-02 -8.542419571791950439e-01 -7.406663554919598047e-01 -2.030525516189132518e-01 6.404553154774391688e-01
-6.625285002661566352e-04 2.451637078947712656e-01 -6.317554128408358061e-01 -8.433348251128603978e-01 -2.532411791451106842e-01 4.739781407797779011e-01
-1.277348108329048881e-02 3.505867080470861930e-02 -7.474838041244614706e-01 -7.732682111402943148e-01 -2.551090436104374581e-01 5.804960374611155549e-01
6.914340429821051737e-03 1.684779404058565078e-01 -6.630960866468988968e-01 -8.586090625485103267e-01 -2.236110441042562791e-01 4.612901241780192341e-01
-6.535088043769624044e-02 1.807737206420009235e-01 -7.632060072166855225e-01 -8.055489825641739543e-01 -1.977933647338896150e-01 5.585415128323683032e-01
-1.096771511970475732e-01 -4.773630510001823386e-04 -8.707974326843325175e-01 8.487581529658470014e-01 1.730788261508007797e-01 -4.996531974402492193e-01
-2.444668582859014193e-03 -1.063784966188320580e-01 -8.023907360939482869e-01 -2.279340585323453572e-01 -4.136880398906551681e-01 8.814240016089878171e-01
2.906234192711500477e-02 1.356583185425391802e-01 -6.438112599559179250e-01 -8.250575492665193078e-01 -2.080152959792179734e-01 5.253662313443862031e-01
-5.075481337918853753e-02 4.616704308635152104e-02 -7.925737001967299022e-01 -7.671057568346864031e-01 -2.454764465509350069e-01 5.926972853150320741e-01
-5.070321025190146005e-03 -6.079800003056128055e-02 -7.790669217448348283e-01 6.508865646373979130e-01 -3.232437954310544148e-01 6.869207586686058020e-01
2.288861493781357143e-02 1.340580112228581533e-01 -6.478850240323483778e-01 -8.211613908264863149e-01 -2.601714470502405341e-01 5.079417174791750478e-01
-4.120025592204932911e-03 -2.930271520474058145e-01 -8.892734301807597719e-01 6.630133220296291485e-01 -3.205342468463314165e-01 6.765139550740177921e-01
5.248071932882820284e-02 2.602046698258235827e-02 -6.483208324497576891e-01 7.767402409305039779e-01 3.110007733821948395e-01 -5.476797577735542655e-01
3.057858100176830476e-02 1.373573302461355838e-01 -6.338245126140673591e-01 -8.097382378298606520e-01 -2.757536832421023654e-01 5.179612846290790884e-01
3.862732980031105545e-02 -2.880884285347301912e-02 -6.981930706737859982e-01 7.571474486484889299e-01 3.124019719552718066e-01 -5.737009228888698686e-01
-2.310290511915588305e-02 -1.993178934020450044e-01 -8.502820095194372207e-01 6.359151452770660518e-01 2.345280621580699831e-01 -7.352608489968903704e-01
2.706711413025356637e-03 -7.970067418589460440e-02 -7.811527392530587255e-01 -7.102682765331397308e-01 -3.014049304680033736e-01 6.361399557017474171e-01
-8.636291163825078609e-02 1.014859576282678283e-01 -8.191558972226331559e-01 -7.732091590577155893e-01 -2.010626474797150842e-01 6.014327960277089380e-01
9.934999507196390356e-02 -1.476954315254813688e-01 -6.936235655417815060e-01 5.130720698419534154e-01 5.251820440461409945e-01 -6.789262638605246813e-01
-8.163777764710773710e-02 6.842675995933772404e-02 -8.124750492180610184e-01 7.769229080094390838e-01 2.090074186722232219e-01 -5.938911465497112019e-01
1.050951573102118508e-02 -4.512555461401574625e-02 -7.551603345659584354e-01 -7.447363218709986965e-01 -2.892440119160042400e-01 6.014197473119672344e-01
3.939646397133843292e-02 6.431952962070791591e-02 -6.460630312174431289e-01 7.963318919581862110e-01 3.025188552330849712e-01 -5.237727179595736970e-01
2.314221695924111033e-02 -9.371875417503396435e-03 -7.085024417925490647e-01 7.677216436313430981e-01 2.935513475964512953e-01 -5.695885218509029180e-01
-1.706084344278261181e-02 2.498893933717962201e-01 -6.520551532748990464e-01 4.426917076126011819e-01 -8.921016515946558201e-01 -9.043613897732873108e-02
7.218525624322266743e-02 6.025167849166343514e-02 -6.116481482816429338e-01 -8.035493001919176148e-01 -3.145395007397560616e-01 5.053448571376423226e-01
9.353651376662111550e-02 -1.239935215037268473e-01 -6.956263548241901074e-01 -7.351380102405176142e-01 -3.562433118093010775e-01 5.767692854952952697e-01
-7.619530015126747303e-03 -5.831173018709152195e-02 -7.834172519952469216e-01 -7.391230466520913867e-01 -2.821529396888935448e-01 6.116263896633680197e-01
9.353199451523934449e-02 -1.310731610844306783e-01 -7.000048759896262407e-01 -7.351380102405176142e-01 -3.562433118093010775e-01 5.767692854952952697e-01
4.005413983319387750e-02 1.447823198794658262e-01 -6.141293419482736216e-01 -8.217969293500138050e-01 -2.773109672134325132e-01 4.977433418681147526e-01
4.554899569688936056e-03 5.047323184355934772e-02 -7.168014868498718828e-01 -7.773462380078508538e-01 -2.721315692624227123e-01 5.671659680074366827e-01
6.022429382046118329e-02 1.309662972906137646e-01 -5.907943298611334493e-01 -8.250601457259044702e-01 -5.230362694579159255e-01 2.137962038163810641e-01
1.040022464469205626e-01 -3.805086850610921861e-02 -6.263545011445202926e-01 -7.912461499122535047e-01 -3.405792165067658139e-01 5.078733380801485620e-01
8.675725428947860321e-03 5.480336530584440508e-02 -6.905429351571849006e-01 7.976303301758568276e-01 1.929309246079090046e-01 -5.714573603633877896e-01
-3.155084178382892932e-04 -1.971552135137731865e-01 -8.289762484403379039e-01 6.591970552286158247e-01 3.257269797217370866e-01 -6.777618881725911981e-01
4.634589100251183119e-02 1.349807863556793108e-01 -6.038635066815243313e-01 1.401498210394634125e-01 -9.495481396427285503e-01 -2.805643565452310972e-01
-4.565775969940049500e-02 -1.369694792618849494e-02 -8.042942167627595840e-01 1.159342441537589419e-01 7.606691371733933504e-01 6.387031507550134934e-01
-3.949162799659911016e-02 -6.291967586685419736e-03 -7.942316640820751283e-01 -3.600023175669459508e-01 -8.305290436287715572e-01 -4.249939282336937518e-01
8.867675194760567259e-02 1.533250160207984963e-02 -6.143887375248600069e-01 -7.890726689963063478e-01 -3.292894130508297046e-01 5.185873171373222013e-01
1.772581077436741117e-03 1.267139920937340389e-02 -7.445379628430791596e-01 -7.274846217216096589e-01 -2.937803945701415453e-01 6.200477440687758302e-01
-3.947288222097063842e-02 1.318864363822634111e-01 -7.438645079668068094e-01 -7.970417428596837661e-01 -2.185745695976430980e-01 5.629827862949300377e-01
-6.606201557408770964e-02 9.548388746695865570e-02 -7.943744592910138014e-01 -7.849645661437336663e-01 -2.046542765305520151e-01 5.847625646333184379e-01
5.948235877180935161e-02 1.456489066870431809e-02 -6.580244560403178955e-01 -7.808506398225345535e-01 -3.093264640158783219e-01 5.427609206162248290e-01
4.575339871774138090e-02 1.130273828482726700e-01 -6.226218521999670186e-01 -8.098943313458664139e-01 -2.876849978713761913e-01 5.111834446200091975e-01
-1.657358525751992731e-02 1.251960093784916517e-01 -7.129500053609288956e-01 -8.089135589723828179e-01 -2.342813099863445547e-01 5.392319741092095331e-01
-7.282960602153104590e-02 -7.972603694338151192e-02 -8.517719082012490395e-01 3.712709080179789067e-01 -3.851326115562980212e-01 -8.448850716963407503e-01
8.209421382159816372e-02 -5.746726065059243327e-02 -6.570427797246189972e-01 7.463843044511521141e-01 3.451551239914432689e-01 -5.690152989607758505e-01
4.333693095879108392e-02 -4.086896413128952160e-02 -6.986322132565725429e-01 7.546957901417180592e-01 3.250251818136536963e-01 -5.699060409658500692e-01
6.058190821453156294e-02 5.441370127230561217e-03 -6.485965913583294773e-01 7.734223708966732058e-01 3.290644881964796542e-01 -5.417881493762647382e-01
-7.018161657656749562e-03 -1.229454529690780229e-01 -8.181892626158624449e-01 -7.043288447755187143e-01 -3.212399482464113887e-01 6.330290467804980947e-01
5.699485581281827501e-02 -1.395686569230148999e-01 -7.487587111151275954e-01 -7.095886536839881575e-01 -3.443072343585060202e-01 6.147653787676577997e-01
1.786508040218186657e-03 -1.179163145937828783e-01 -8.002869082290793301e-01 -7.103342309392125520e-01 -3.013764336093349705e-01 6.360798107320456696e-01
-5.348483863197612403e-02 1.107324388768958084e-01 -7.656184608814978754e-01 -8.512215980619856903e-02 -7.981007373116549841e-01 -5.964808722939241026e-01
1.202855013546061912e-02 6.045379266455021272e-02 -6.942332636333208296e-01 3.194786378408481786e-01 -8.671066224447614434e-01 -3.821773217706589398e-01
1.285555307130531628e-02 6.947151079258868933e-03 -7.141015012691411812e-01 7.620774397034462133e-01 2.843014513995339443e-01 -5.817307458155867028e-01
5.339681127373880482e-02 -1.046751605525190754e-01 -7.335811447371769489e-01 -7.245105278437409257e-01 -3.376416071451546208e-01 6.009015228538040487e-01
-1.337489987936650755e-02 2.357753882297608239e-01 -6.586948999041718489e-01 -8.376075312508166615e-01 -2.299812538719430977e-01 4.955020145866220194e-01
6.821423356113610892e-03 -2.035285313089044423e-01 -8.299019938140258512e-01 -6.552056648365398583e-01 3.269622730558097712e-01 -6.810295212134975795e-01
1.645221465331058938e-02 4.591939641050663684e-02 -7.023947767692110267e-01 -7.814595776188743015e-01 -2.819429692323585646e-01 5.566229339940743648e-01
2.127041328382908714e-02 1.313060334814304397e-01 -6.317065949916904621e-01 8.201308195437517767e-01 2.661029823959606966e-01 -5.065319748983956316e-01
6.098215287503686022e-02 2.828198494607111427e-03 -6.496123828853785920e-01 7.734223708966732058e-01 3.290644881964796542e-01 -5.417881493762647382e-01
-2.078440995880977138e-02 -7.699145200989308824e-02 -8.071730876595446524e-01 -7.298578908717143765e-01 -2.744082689017442456e-01 6.261050719253441477e-01
-2.909193909714302001e-02 1.248375409898393046e-01 -7.183232180627315833e-01 8.097042961720967158e-01 2.239784252538211118e-01 -5.424136961593686301e-01
4.896672291534391597e-02 1.275188403158777350e-01 -6.138667183675478034e-01 -7.509652901842416295e-01 3.621887089655603797e-01 5.521507692979863435e-01
-3.308704777708277103e-03 1.799126734585099752e-01 -6.672432661833277434e-01 6.462870219643299663e-01 -3.258882226487306855e-01 6.900072112516859590e-01
-7.103216593863626027e-02 -1.588555615984309916e-02 -8.292157086738405347e-01 7.412075385345212597e-01 2.406198403004004005e-01 -6.266685545592708406e-01
9.083833296501780952e-03 -1.978104643028875953e-01 -8.199415845325978003e-01 6.832609353292625753e-01 3.316216107650303280e-01 -6.505240975756301225e-01
-2.372620413851899562e-02 -1.415350685172115930e-01 -8.386981862618427819e-01 -6.891696859236398076e-01 -2.931664874788432185e-01 6.626451196705736013e-01
-8.878158338178013947e-03 -1.203303578573054235e-02 -7.637950860826611121e-01 -7.545259986346740666e-01 -2.733915512206788190e-01 5.966134235042811484e-01
-2.561877854061830103e-03 -1.230293594799256561e-02 -7.383121049076046827e-01 7.126832642956091313e-01 3.003579947128058314e-01 -6.339303114736327682e-01
5.971173980966017897e-02 -8.452779504046710468e-02 -7.145300684006163916e-01 -7.372842152734796484e-01 -3.338807575550212792e-01 5.873122045752618980e-01
5.679580766539217562e-02 -5.957736339193471509e-02 -6.920883267364730251e-01 -1.339273257137957862e-01 9.708793787175103995e-01 1.986371148810106846e-01
2.500599892295454763e-02 -5.491358887357204732e-02 -7.420617242995108942e-01 -7.392620198320056790e-01 -3.060586169717594562e-01 5.998498053773435590e-01
-6.847694943510022371e-03 -8.212086910471420864e-02 -7.869776781808484056e-01 9.358042293777156795e-01 -1.525490672007615012e-01 3.178037545010396481e-01
7.135840354552470954e-02 4.453236507915907944e-02 -6.291459087650760340e-01 -8.062331829918490955e-01 -2.080440802557891322e-01 5.538101798571006817e-01
-4.450347694886514632e-02 -6.985355560913660521e-03 -8.057638179097151854e-01 -7.474767724522778378e-01 -2.553800655838218692e-01 6.132369009988948294e-01
1.020819414868967684e-01 -1.142044425148470571e-01 -6.675915543132117103e-01 6.937984572609724454e-01 3.963931416485411696e-01 -6.012621541027622918e-01
2.494503286475415957e-02 -1.869958948964902667e-01 -8.091590638309343886e-01 -6.836101713666851154e-01 -3.251323907015150061e-01 6.534264014567582324e-01
-4.350002592760406767e-02 2.187844441055750710e-01 -7.030582397829365782e-01 8.365417104420821426e-01 1.966781510373695474e-01 -5.113860299178663027e-01
-9.120728234593762640e-03 2.263159685943068045e-01 -6.558501789507042989e-01 -8.395397204117441836e-01 -2.285232940793739953e-01 4.928997483404531921e-01
3.382092447291176057e-02 3.392433753877269025e-03 -7.003193397175666579e-01 -7.730613013825458069e-01 -3.033577362677946643e-01 5.570909334670631763e-01
-1.303354732905348881e-02 -3.142018441478613977e-02 -7.655818695275499186e-01 7.405814397494935308e-01 2.815570956722623364e-01 -6.101350120876259941e-01
-2.552653136766927164e-02 1.515131775294978889e-01 -7.019128098142501937e-01 8.098010830311271890e-01 2.261488450858444021e-01 -5.413676253600245847e-01
2.364797776584207784e-02 9.397249106250139816e-02 -6.675676404366674976e-01 -7.978067451282595535e-01 -2.746801149786531338e-01 5.367077713832416608e-01
-1.425503105997524313e-02 -1.181952695217322880e-01 -8.066144712598971589e-01 7.082616511872699139e-01 2.854239285333793896e-01 -6.456768653731168595e-01
4.815887457846744490e-02 3.778264206970747413e-02 -6.612469089704140490e-01 -7.852293068799394149e-01 -3.073742314115977536e-01 5.375276899667392749e-01
-2.437452830140409907e-02 7.106066217808920497e-03 -7.626236892528681643e-01 7.596378549991874563e-01 2.606007946341588610e-01 -5.958502790871864629e-01
-1.754543456140605570e-02 -2.069912016825911083e-01 -8.485715647158388331e-01 6.193530525767447781e-01 3.014099721437897283e-01 -7.249509121010523360e-01
8.268132180895470997e-04 -2.103342683699852278e-01 -8.306011379350592971e-01 1.527202977860624145e-01 4.336582840866758382e-01 -8.880411045031283424e-01
5.665493003754926149e-02 1.409979214598377217e-01 -5.880517930671412818e-01 -8.288481617441572080e-01 -2.894849664375345744e-01 4.787579544822109234e-01
-1.257163257008775750e-02 -2.885914003278192488e-02 -7.759610348683625425e-01 -7.435540315968929281e-01 -2.766647067687942885e-01 6.087561433977841663e-01
-2.554521603725617290e-02 -1.593593510193909782e-02 -7.912654656244755280e-01 -7.024839347164630876e-01 -7.020483872806069225e-01 1.168091750761677539e-01
2.922550594796842482e-02 9.056884761925491911e-02 -6.610186828476105614e-01 -7.978067451282595535e-01 -2.746801149786531338e-01 5.367077713832416608e-01
6.111376231634861600e-02 5.714010861497538507e-02 -6.308706618419135381e-01 -7.985435815729736708e-01 -3.132887152080560678e-01 5.139828102688773770e-01
8.314214776781998426e-03 -1.514431707549022954e-01 -8.127359935402520552e-01 -9.483438044376918397e-01 -1.393382329509662010e-01 2.850068164496190604e-01
5.056308397027538259e-02 -7.904295392192507708e-02 -7.105583390303090718e-01 7.384337045133015920e-01 3.178608639157781690e-01 -5.947101270614758572e-01
-2.497659043099355325e-02 2.081203190758910693e-01 -6.770728388802080833e-01 8.333928986084851998e-01 2.097678270379500221e-01 -5.113254690397530666e-01
5.425007246117063975e-02 -4.552321722066089704e-02 -7.032248917466852323e-01 -4.178038798671733778e-01 -8.701012644480132785e-01 2.614645436266738732e-01
-3.072111593943329527e-02 -1.091316842429561618e-01 -8.321969332300421796e-01 -7.105248777855378561e-01 -2.734262247609269836e-01 6.483768176460608101e-01
3.890583776605117255e-02 5.578667808273482520e-02 -6.516402144392500206e-01 7.874150106592721077e-01 2.927498289569432366e-01 -5.424713251722512730e-01
5.260880634124547039e-02 8.688102740048517236e-02 -6.128365216192527276e-01 8.062190152930018838e-01 2.938219501497957853e-01 -5.134973816779917488e-01
2.754353970284526346e-02 1.647111015808929435e-01 -6.103321646312431792e-01 8.275687965844789051e-01 2.663628001864688510e-01 -4.941464819226588090e-01
-4.655946711088741058e-02 1.526610739586727883e-01 -7.459548078133616533e-01 -8.087263458330915533e-01 -2.092718873089791654e-01 5.496971663903611471e-01
-7.651282941845685692e-02 2.248686259483755837e-03 -8.292516848823151543e-01 7.491403026510599084e-01 2.197529167818334517e-01 -6.248979616783485458e-01
-5.417080530722706566e-02 1.736073748511393622e-01 -7.366233919710569733e-01 8.203007335051976101e-01 2.042404423270706704e-01 -5.342214412852379635e-01
5.705490598949655191e-03 -3.966166656685780056e-01 -9.209386212955978923e-01 -6.707051369247677419e-01 3.207083814002246736e-01 -6.688054675332554266e-01
4.018869618491040935e-02 6.654322310653036643e-02 -6.573371615216193620e-01 -7.878146169379152131e-01 -2.899205450743177481e-01 5.434097964545505643e-01
-6.193557350143847479e-02 3.386373244596517507e-02 -8.114223423764690413e-01 -7.586689682349884167e-01 -2.310505778712086400e-01 6.091280875995118693e-01
5.960220983223113618e-03 -1.634986009231956250e-01 -8.099584107008993561e-01 -6.551031582402342401e-01 3.246373322766061831e-01 -6.822392942040196306e-01
-7.869217103580081196e-02 1.409914435209910777e-01 -7.957669528713857687e-01 -7.931424756893161732e-01 -1.926310409185886252e-01 5.777701059522234450e-01
4.528733188885735589e-02 -2.254374976764328062e-02 -6.987551547963074539e-01 -7.577466861302536438e-01 -3.088247858365439358e-01 5.748453803516485605e-01
-4.191143190172682761e-03 -8.102108234669180842e-02 -7.727316181772481141e-01 7.689258852970284330e-01 2.737478234792326548e-01 -5.777673511549124008e-01
-3.011507835404772515e-02 -1.603961940862216051e-01 -8.424022352404672009e-01 6.873142280478845567e-01 2.881594911852590202e-01 -6.667557720506008812e-01
6.483852805011008913e-02 -5.320481721681814130e-02 -6.900063726855394375e-01 -7.526785604376041716e-01 -3.261168395105112361e-01 5.719464936908443820e-01
3.313669747399698110e-03 -1.923817496751274170e-01 -8.214066852452572842e-01 1.527202977860624145e-01 4.336582840866758382e-01 -8.880411045031283424e-01
-1.060610926528971626e-01 -7.928761315477922747e-03 -8.771211159423045745e-01 -6.284342628217089999e-01 -2.176492216106861721e-01 7.467926041706608453e-01
-1.718296648388984230e-02 1.294557855006956693e-01 -6.987036026179858084e-01 8.090165135302049837e-01 2.365779788760449531e-01 -5.380735458525691683e-01
2.885061302882902662e-02 -1.533132813449245291e-01 -7.761870066682764469e-01 6.996085448817638275e-01 3.294065730101997658e-01 -6.340656066891633413e-01
6.611106080330008111e-04 1.570687962761292411e-01 -6.546655100511185044e-01 3.560600527572387319e-01 4.052901901620861724e-01 -8.419982782576769242e-01
3.044951471513448679e-02 -8.402195558303791889e-02 -7.503975704510701394e-01 -7.329278075366771894e-01 -3.182191117448955331e-01 6.012931280663108558e-01
8.698370539045831296e-02 -1.363814657554289766e-01 -7.113464615515334710e-01 -7.207388423483829243e-01 -3.591001874455838627e-01 5.929439910369777023e-01
-7.642614824714952237e-02 1.917646416822325894e-01 -7.750368056400125383e-01 -7.002656678079026698e-01 -3.148382576414985312e-01 6.407065365788124911e-01
-5.816602589872001822e-02 -1.897263921569832326e-02 -8.268537204962551623e-01 -7.387660021305862967e-01 -2.415645023226964394e-01 6.291831095266134932e-01
3.760195637761881964e-03 1.568275292653140141e-01 -6.534775075166168179e-01 8.272456679506653421e-01 2.438657858892218089e-01 -5.061561847191928809e-01
-2.211025605617547574e-02 4.800835419502477025e-02 -7.417270491147862632e-01 7.842290267046126973e-01 2.477632916904707328e-01 -5.688569107997533125e-01
-2.705494917003617699e-03 -2.649741917883992326e-02 -7.504363724817300074e-01 7.452739489782096438e-01 2.854885480741507497e-01 -6.025471184006592207e-01
2.677254653348558333e-02 1.506862116979801602e-01 -6.329476536703032563e-01 -8.214721756813395670e-01 -2.678238031948834696e-01 5.034420274704867193e-01
-1.150860225362977142e-02 1.859894063860148827e-01 -6.645324763883698749e-01 8.348169916382450761e-01 2.274394754904764948e-01 -5.013500528180754312e-01
8.811021940614181813e-02 -1.149643288342959944e-02 -6.197030895652914095e-01 7.615588895040097395e-01 3.485405548460683844e-01 -5.463950397331716058e-01
-1.973181070929626822e-03 3.530746662324869833e-02 -7.148921728682910981e-01 7.418393818058689471e-01 2.856176229628785701e-01 -6.067099018929235088e-01
1.739746555749407259e-02 -4.914831192982459240e-02 -7.485870617524894577e-01 -7.413540873259515385e-01 -2.943304262674391603e-01 6.031282760560418010e-01
-8.427811209664989867e-02 1.017431735919232111e-01 -8.163193569707301034e-01 -7.855662617161381922e-01 -1.921445220874023752e-01 5.881888566482158520e-01
-1.966069342226772418e-02 4.313955879809276001e-02 -7.405457322465043291e-01 7.745574492082445417e-01 2.626242144551896862e-01 -5.754035799834861242e-01
1.018137460877111544e-01 1.844439310183628930e-02 -5.890055253469494989e-01 -8.158150657014889839e-01 8.491169793623809525e-02 -5.720452623071535792e-01
4.139703270968617815e-02 1.024266837323855872e-01 -6.354807771101892433e-01 -8.102684780505665652e-01 -2.800563147473337788e-01 5.148139994675363651e-01
2.054581529276162249e-02 -1.398805734386619759e-01 -7.902736207964541348e-01 -7.099374029786007512e-01 -3.180572876978409180e-01 6.283537583195414333e-01
7.024312352854231167e-02 6.301436538410129518e-02 -6.130167685775551600e-01 -8.035493001919176148e-01 -3.145395007397560616e-01 5.053448571376423226e-01
8.551576061925907080e-02 3.693436432649774975e-02 -6.054389647588361845e-01 -8.043534880296594469e-01 -3.248495927194302579e-01 4.974818674128141383e-01
3.235094836248506023e-02 -8.264494467739814942e-02 -7.349853748274652876e-01 7.322013470437614968e-01 3.219228344421394827e-01 -6.002056947847461688e-01
-4.913522640944089498e-02 1.218224280369432505e-01 -7.487821586524554540e-01 7.970400801563258808e-01 2.185606260505268406e-01 -5.629905535306958253e-01
1.498005151789536492e-02 1.995124946223196527e-01 -6.138846651759772843e-01 8.343749603630215006e-01 2.447709366779141360e-01 -4.938680128101258782e-01
-5.118592687140743197e-02 -7.542171055183269357e-02 -8.292887348565681771e-01 7.247693183149443996e-01 2.511188565585049659e-01 -6.415985934445613825e-01
-5.268659388700826229e-02 1.808677061657449070e-01 -7.443628780593292138e-01 -8.085865413446239325e-01 -2.065049674171373639e-01 5.509478229273488958e-01
-4.098813746367822343e-03 -1.603275573477502269e-01 -8.269295793449654708e-01 6.591968038894766568e-01 -3.208586456418949240e-01 6.800803652942405408e-01
-5.372191732827420046e-02 1.963556389990276652e-01 -7.400994199439745458e-01 -8.210812068150392662e-01 -2.006581300630715659e-01 5.343799833964121282e-01
5.775911441845316303e-03 1.702822468351690155e-01 -6.508021817344173954e-01 -6.462550017684149939e-01 3.275985797649366704e-01 -6.892268445332800919e-01
-2.528424651044492572e-02 -1.722986929740605300e-01 -8.537127800379062936e-01 -6.777427031480182107e-01 -2.975789990721648404e-01 6.723924208680713832e-01
-7.462304806662597989e-02 1.322617817421763153e-01 -7.972811568691869910e-01 -7.227591824607270121e-01 -6.799528298886502453e-01 1.236256983604842596e-01
1.021175763822642080e-01 -1.192592153072419975e-01 -6.815846003099532702e-01 -7.435757361413344313e-01 -3.544089389121287681e-01 5.670003779902192953e-01
-6.232695865517525607e-03 2.497097708554200934e-01 -6.287591964947406575e-01 8.688726092358968200e-01 8.725355474436752301e-02 -4.872855488356658826e-01
-1.591490752157985467e-02 8.842831411904568395e-03 -7.510196410041102277e-01 7.615208264514821135e-01 2.704172382551646714e-01 -5.890335713141492402e-01
9.143141301757891359e-02 -1.746056322906856112e-02 -6.313646104996287756e-01 -7.827328605149902474e-01 -3.390431754977523138e-01 5.218994100575519157e-01
5.702541221302412366e-02 -2.071448291647957074e-01 -7.827136216637845534e-01 4.502365433056589317e-01 7.072283853803311704e-01 -5.450826230806675721e-01
9.725805651118539508e-02 -9.029277924800908905e-02 -6.578926876038095894e-01 7.309685444178135594e-01 3.650233150596179921e-01 -5.765786733261902830e-01
-4.108573653415290017e-02 1.717170608013851227e-02 -7.917826882427754231e-01 -7.573168360227495732e-01 -2.460351804846494517e-01 6.049280121141503708e-01
5.887561684684290697e-02 -7.172598991765391507e-02 -6.958082496905306780e-01 7.361806237184113089e-01 3.353386389921906852e-01 -5.878657044431456757e-01
-7.114654180688941010e-02 1.689167513138829513e-01 -7.636726377192983861e-01 8.108801996781764831e-01 1.913867274127639406e-01 -5.530320265048965789e-01
2.678478464895068731e-02 -1.597833354144229667e-01 -7.818276682769729202e-01 6.996085448817638275e-01 3.294065730101997658e-01 -6.340656066891633413e-01
-2.527855438849896386e-02 -1.219070134070057154e-01 -8.203251462675588135e-01 7.013756686629357695e-01 2.878213248673930913e-01 -6.520974285788880831e-01
-8.244285813086775494e-02 8.201032378500146269e-02 -8.204165342418771045e-01 -7.755084142768445821e-01 -1.936606668115647967e-01 6.009011944703669394e-01
5.565077803845901172e-02 -1.316261366040883674e-01 -7.339784462286035316e-01 7.147771837178034104e-01 3.533188440074489511e-01 -6.035390394213827614e-01
3.442918171968278873e-02 -1.155963798624802114e-01 -7.621786577912524896e-01 -7.241842883373170725e-01 -3.263897216735595075e-01 6.074758152480062012e-01
5.132701340072262815e-03 -2.177493063865371288e-03 -7.473837933002346334e-01 -7.941946894548262970e-01 -2.601856134758979699e-01 5.491431887785939159e-01
-5.962727496232038404e-02 -1.559642740286718010e-01 -8.700163294574025930e-01 6.810244064987394097e-01 2.313273110270825106e-01 -6.947614215873094690e-01
9.157070959784588404e-02 -9.062622403564532525e-02 -6.774543219105546576e-01 -7.416124446956389171e-01 -3.552765583611441347e-01 5.690250863992010188e-01
4.054992457816658166e-03 1.064241104228769025e-01 -6.974668988700021277e-01 -7.689973453511813606e-01 -2.737110201643821461e-01 5.776896747245954256e-01
8.717844843719731174e-02 7.738164164125978239e-02 -5.750873113852343899e-01 -8.796286442903612501e-01 -3.252853637601900161e-01 3.470488153953297794e-01
-9.227963354810691729e-03 1.495900402852715083e-01 -6.910206842817496753e-01 -8.218344740430882922e-01 -2.388723051097783878e-01 5.172312047100995347e-01
3.455836230206411203e-02 2.131140464312762661e-02 -6.766341752315233604e-01 7.847882952675949708e-01 2.958512830235797697e-01 -5.445909932640126128e-01
7.092901258870017850e-03 -3.058773953634127407e-01 -8.901137608968270332e-01 -6.150732357942998441e-01 -3.376022807695707728e-01 7.125374478781543175e-01
-6.881646556397826194e-03 -3.888433541309082031e-01 -9.211200482411820989e-01 6.156820552406124802e-01 3.438465977268971296e-01 -7.090170125507091470e-01
-2.731415800143591893e-02 -1.564513833767599560e-01 -8.489073969591305335e-01 -6.860429322804034724e-01 -2.843489850868651803e-01 6.696945197238628467e-01
5.417020036412632106e-02 -1.415440642241954650e-01 -7.531718627469022875e-01 -7.155907770604303941e-01 -3.402600575492221724e-01 6.100433861805643065e-01
7.901198032923104075e-02 -6.018935896323381399e-03 -6.422753650961755545e-01 -7.760519737207933755e-01 -3.307649061774509680e-01 5.369710522230065619e-01
-3.461584278433064293e-02 9.631583825878596572e-02 -7.569732733194166618e-01 -7.983858985801930430e-01 -3.031452175139119354e-01 5.202719808395803724e-01
-3.106513730502509160e-02 2.097306881517240623e-02 -7.653102101809635682e-01 7.677328253824017290e-01 2.548528576534506151e-01 -5.879084365581296323e-01
-2.148492516374003129e-03 3.998783759965152118e-02 -7.337854953304983052e-01 -3.038409417551994895e-01 -4.024891054393163747e-01 8.635295027478632202e-01
-5.723407727956857094e-02 -1.002221158043313659e-01 -8.412753944400241934e-01 6.751924269078557472e-01 7.210965221954758197e-01 -1.553544087686903608e-01
6.186836134748866650e-02 1.236427436256390261e-01 -5.765188499678624012e-01 8.107774888216975340e-01 2.911291425294758040e-01 -5.078224945687558334e-01
4.349355245680308624e-02 -1.668914454383242929e-01 -7.789257419479276301e-01 -6.918811806309395074e-01 -3.339178813249174538e-01 6.401556688964142872e-01
2.994271005112001185e-02 -1.420262200270420161e-01 -7.691685616649031054e-01 7.128468973373216500e-01 3.304777078989614147e-01 -6.185739935839547066e-01
2.642836089570850533e-02 1.407789427213017863e-01 -6.248311647371346256e-01 8.269397139387477669e-01 2.625548614372746892e-01 -4.972279700967708327e-01
2.350087874372871338e-02 -3.874297593514769433e-02 -7.356775878104991895e-01 -7.519136727942470344e-01 -3.021114534359951587e-01 5.859645879810964075e-01
-6.105352880000365634e-02 7.640218807367625715e-03 -8.068150747374502885e-01 -1.126162490421398349e-01 -7.624070850518179787e-01 -6.372228943740713136e-01
-6.960763035395452214e-02 -3.407132976784572193e-02 -8.342715489547416485e-01 7.384555615239595250e-01 2.288864958517845827e-01 -6.342667858803773262e-01
2.654298963399082459e-02 -3.034851217391650990e-03 -7.133832095794480077e-01 -7.650990010771325789e-01 -2.948762103617894037e-01 5.724260119119705115e-01
9.256137320000559776e-02 -5.555758539693884251e-02 -6.602191280378827409e-01 -7.688918431461481129e-01 -2.737653529052149759e-01 5.778043484536975471e-01
-4.883732436752066808e-03 -3.458036009323112170e-01 -8.987185747412737014e-01 6.150732357942997330e-01 3.376022807695707728e-01 -7.125374478781542065e-01
2.802692910438638399e-02 -1.310640548436396713e-01 -7.751316017018017313e-01 1.053130905261997485e-01 -9.745330210987713793e-01 -1.979761191455220171e-01
1.465984870648587290e-02 8.772391430152436109e-02 -6.841940000684798573e-01 -7.978110132644140595e-01 -2.671861717731590646e-01 5.404712172976584572e-01
6.306811451690312598e-02 -1.891868142907839750e-02 -6.594654683345556601e-01 7.650118550159568098e-01 3.358896417333521178e-01 -5.494861329108174930e-01
2.007969738432940302e-03 -1.339662472277902971e-01 -7.914235088802072937e-01 6.556798029829121743e-01 2.413693209329413614e-01 -7.154193503621913974e-01
-8.920365300363217176e-02 2.874975573795003278e-02 -8.301854975720865948e-01 3.993485949867992546e-01 -3.892453036356612883e-01 -8.300655355329787932e-01
2.313103433006869283e-02 1.734665646984069956e-02 -6.946419429860042349e-01 7.756656221692863618e-01 2.877154946289920412e-01 -5.617496210369244958e-01
4.229591769080678909e-03 -2.683547585452148998e-01 -8.584616345578702790e-01 -6.631577631058583888e-01 3.233592172933567044e-01 -6.750263682433907952e-01
-6.439449008972981947e-02 -7.392691815289358093e-02 -8.547289848678009117e-01 -7.130814353413880147e-01 -2.469664106004827442e-01 6.561421024492936072e-01
5.079557663718556326e-02 -1.554718197597965701e-01 -7.646538189633033111e-01 -7.028613983952533006e-01 -3.434698301845408586e-01 6.229079630241305399e-01
4.882496426215479635e-02 1.529795165608261176e-01 -5.812043058628686421e-01 8.237438351209875886e-01 2.747302788004204466e-01 -4.959529897181890745e-01
-9.906314585221290270e-02 -1.982906630789207578e-02 -8.738396562260603018e-01 -7.260506870751483044e-01 -2.116392912087970979e-01 6.542623405136068770e-01
5.497163863180012933e-02 -1.509509200208147273e-01 -7.574489256157195260e-01 -7.028613983952533006e-01 -3.434698301845408586e-01 6.229079630241305399e-01
5.356697688586159467e-02 -9.248977925182064186e-02 -7.267702193364223850e-01 -7.372842152734796484e-01 -3.338807575550212792e-01 5.873122045752618980e-01
-6.563909374511096850e-02 5.626238724865319923e-02 -8.079476181020821546e-01 -7.683563235114920786e-01 -2.259614620679416541e-01 5.988071290323964124e-01
-6.225384925068441593e-03 1.175678320044727838e-02 -7.369277195088024257e-01 7.666649602248407636e-01 2.718026374094649200e-01 -5.816770281356329342e-01
4.779463611368561099e-02 -2.125751167869720237e-01 -7.951884392229646714e-01 4.877374097901830963e-01 6.019220146249960601e-01 -6.322990648426966009e-01
-4.522690417252938494e-02 -1.757332486042224029e-01 -8.625343518467888382e-01 6.319233450581583922e-01 1.849721531560908350e-01 -7.526341664629020434e-01
-6.082512136935708941e-02 -1.251321700902149198e-02 -8.158440704515729225e-01 7.461995572757065265e-01 2.386686514343955845e-01 -6.214688210554302206e-01
-3.962901766959119748e-02 1.797874150309966002e-01 -7.290315953968753426e-01 -5.016014137982016674e-01 3.934629400790553566e-01 7.704433376050382476e-01
4.738220784165399213e-02 1.310633556077888395e-01 -6.096002071131874089e-01 -8.202513571419939309e-01 -2.901536185728093020e-01 4.929488703058578225e-01
8.195181572328451292e-02 -5.542039791514722508e-02 -6.683956106408716069e-01 -7.547931264696375875e-01 -3.406251653380969469e-01 5.605906108494713713e-01
8.896147208867700995e-03 2.015110403423690522e-01 -6.232895854802349422e-01 8.430880561000446693e-01 2.307221789751245922e-01 -4.857672341671658844e-01
3.148303853576088496e-02 -1.504815881012405154e-01 -7.718395455931499338e-01 7.013254721118086232e-01 3.223819559557418724e-01 -6.357770494767002178e-01
-4.100979922040825371e-02 -1.071711441668440033e-03 -7.871024405543518565e-01 7.532894081433895161e-01 2.491515309857636473e-01 -6.086695180362098334e-01
6.132807456436635551e-02 1.279027376974215813e-01 -5.909635383868501179e-01 -9.049102512059999937e-01 -2.948473413393510323e-01 3.069242293586645354e-01
6.544250550175777052e-03 -1.555915498614726111e-01 -8.131603295641236517e-01 -6.863032715107030279e-01 -3.114175211223059736e-01 6.572723537862703580e-01
9.926863742958319525e-02 -3.589631191104170060e-02 -6.199336699165794995e-01 7.595939288444728543e-01 3.575257756212286142e-01 -5.433160986286499350e-01
7.860837582693497305e-02 -4.370926833372396070e-03 -6.289442356418329938e-01 7.750767060532974817e-01 3.425684976324008257e-01 -5.309453118386582293e-01
6.067122156244741937e-02 -3.148238090245516346e-02 -6.830629451263414698e-01 -7.628876388665476460e-01 -3.229040341304489914e-01 5.601209112387303124e-01
4.698355254962043731e-02 3.081483191010719706e-03 -6.692401328754189471e-01 7.757871317995397309e-01 3.167366569550629785e-01 -5.457400629193114305e-01
-1.040192828335092107e-01 4.163014019414564698e-02 -8.597183771770944283e-01 -7.271505794631423214e-01 -2.049624032439174570e-01 6.551659698449651126e-01
6.752049122852539498e-02 -5.469248508619555665e-02 -6.873251732072844788e-01 -7.526785604376041716e-01 -3.261168395105112361e-01 5.719464936908443820e-01
-5.624515141322918022e-02 3.754194655672579012e-02 -8.029397255746878459e-01 -7.586689682349884167e-01 -2.310505778712086400e-01 6.091280875995118693e-01
-9.593108285072121655e-03 3.078537788982310675e-02 -7.326174428554843576e-01 7.747189805723927458e-01 2.651374776627442587e-01 -5.740318972666152986e-01
-6.199613612649323285e-02 4.961789207124966961e-02 -7.937394183306355488e-01 7.726651159480032449e-01 2.235042251256170176e-01 -5.941670471744927573e-01
8.833420094538158018e-02 -1.050239763345401367e-01 -6.784670451597302199e-01 7.354983853515579817e-01 3.594504807025339921e-01 -5.743147891774756930e-01
6.160232912451679699e-02 -5.738417007882230109e-02 -6.779571384010095736e-01 7.389846033394230629e-01 3.865976391847703586e-01 -5.517644618893440267e-01
-3.782042633403643467e-02 -1.800000101960470833e-02 -7.900846639080795208e-01 7.532894081433895161e-01 2.491515309857636473e-01 -6.086695180362098334e-01
-3.482651876931475154e-02 2.830183302603735823e-02 -7.793773272451643974e-01 -7.657702397726972032e-01 -2.590854592589134087e-01 5.886175878098303116e-01
-3.066009474317840655e-02 -6.287252609884122490e-02 -8.123214732930877924e-01 -7.323780868830034319e-01 -2.604106450069139100e-01 6.291332401174450917e-01
-3.921580983737166411e-03 -1.054453275690087483e-01 -7.891592225009650408e-01 7.220250092486167892e-01 2.928398907420816100e-01 -6.268370477322637857e-01
-3.657415811257944127e-02 1.062090772254018212e-01 -7.371286464061064247e-01 7.895493254829833996e-01 2.331292240805718785e-01 -5.676818012839200955e-01
6.692585893675206954e-02 -2.487384091022636426e-02 -6.707343396001149705e-01 -7.628876388665476460e-01 -3.229040341304489914e-01 5.601209112387303124e-01
-5.482186034171887545e-02 -4.106086774031976049e-05 -8.155386674218934040e-01 -7.549281083978340856e-01 -2.350824670955842799e-01 6.122252729307418040e-01
3.997241840605306185e-02 1.328683244517430417e-01 -6.208941544654538180e-01 -8.215218112736374367e-01 -2.702988647947727752e-01 5.020362908120675760e-01
2.327045647245329363e-02 1.077178660593982179e-01 -6.610864632553499209e-01 -8.095119381438004025e-01 -2.804117678986267070e-01 5.158097153278854430e-01
1.825324293830136654e-02 4.018066687465507436e-02 -7.027730645278198462e-01 -7.814595776188743015e-01 -2.819429692323585646e-01 5.566229339940743648e-01
7.301644318397904065e-02 -1.512771522957870318e-01 -7.250620224984556383e-01 7.037502825916388538e-01 3.616516675506466494e-01 -6.115092894715704608e-01
-6.444365075828446809e-02 -7.919147920034656785e-02 -8.620948599655617883e-01 -7.228867091675761358e-01 -3.094274310110006754e-01 6.178102221935181104e-01
-8.780671419261100452e-02 7.411844184150354065e-02 -8.185421280137229472e-01 7.769229080094390838e-01 2.090074186722232219e-01 -5.938911465497112019e-01
-4.407637191218210376e-02 1.777391634488288338e-02 -7.952817717182011359e-01 -7.573168360227495732e-01 -2.460351804846494517e-01 6.049280121141503708e-01
2.901694443622292174e-02 -3.997371080892811977e-03 -6.978142902732611397e-01 7.677216436313430981e-01 2.935513475964512953e-01 -5.695885218509029180e-01
-4.180676269722934102e-02 -5.613699927468213113e-03 -8.077272410488887111e-01 -7.289937064897906716e-01 -1.860360068211972528e-01 6.587554782043942847e-01
9.066478415215489806e-02 4.680569912185182646e-02 -5.907137267700630634e-01 -7.989607879186110262e-01 -3.301769378280191014e-01 5.026378906280191128e-01
-1.171456756374153387e-03 7.993868221626104775e-02 -6.979077500710495485e-01 7.973946501349049587e-01 2.608484373773278242e-01 -5.441689670075267049e-01
