-2.048348719880000845e-03 -2.269034108583015408e-01 -1.062181613986111550e+00 -1.202160002348821449e-01 5.869330748634593586e-01 8.006607764333479871e-01
6.314254627278374776e-02 2.166524672586730635e-02 -8.578162830309771225e-01 -7.382306751218586927e-01 -3.490909146628958237e-01 5.771923454178404800e-01
-8.791718479015873944e-02 -5.344595297525026739e-02 -1.064260033724259369e+00 -6.719143215816375525e-01 -2.776746273005885057e-01 6.866061067358542047e-01
2.959854263417664461e-03 -2.827052732294924597e-01 -1.094019176224844792e+00 -4.472594419456837889e-01 -4.082540683540740178e-01 7.957936964206129282e-01
-6.053046398194200650e-02 -6.646042216799367963e-02 -1.042855288868648644e+00 -6.674523130271809990e-01 -2.947592426875035310e-01 6.838306798359924388e-01
3.807941067069744306e-02 7.876827692079069188e-02 -8.440368459369681498e-01 7.701629453183237439e-01 3.174586291793523030e-01 -5.532350824181085924e-01
8.533476379612107282e-03 -1.270266108686656237e-01 -9.992679169306807330e-01 8.206160235131029768e-02 -9.372450501696395486e-01 -3.388769826235550342e-01
5.903555323569435742e-02 1.560877363088540304e-01 -7.796854078771577878e-01 -8.221256443173751149e-01 -3.435105312903297126e-01 4.539933257751443962e-01
5.058244348783771244e-02 1.608079704677407018e-01 -7.783432182718325043e-01 7.794615424500486167e-01 2.977680203668561232e-01 -5.511568831904347654e-01
-8.797456401214191757e-02 1.522043178730472235e-01 -9.850510642451640875e-01 -7.520126942325640051e-01 -2.361723975402712505e-01 6.153856566033697462e-01
6.845168537806476652e-04 -1.363829602786977881e-02 -9.530835058328055442e-01 -7.117382331260899697e-01 -3.206334712662278208e-01 6.249982916859219140e-01
-7.714141596092673192e-02 4.609762537545335215e-02 -1.013459149101835211e+00 -7.215614509921467468e-01 -2.534976532707385322e-01 6.442732434521367679e-01
8.108179931599335255e-02 7.501597819664759803e-02 -7.871076078616747740e-01 7.583078679980267411e-01 3.573524667154232004e-01 -5.452232495635981335e-01
6.414174308450717142e-03 5.710740810429794367e-02 -8.977058709980701989e-01 7.379028688260256263e-01 3.105106494801501693e-01 -5.992349228288823548e-01
-1.016484026449973599e-01 -7.724216973432160294e-02 -1.077600476804921659e+00 7.219139351143689654e-01 2.841832840034704266e-01 -6.309359170158959085e-01
7.158339611697168980e-02 4.646425658177269491e-02 -8.370311971671624551e-01 -7.251415146933608558e-01 -4.566134297564219402e-01 5.154356986417368836e-01
8.768578529568003821e-02 -1.368688960202269211e-01 -9.210806663000381533e-01 3.532369108091133469e-01 -8.110034198748642398e-01 -4.663658840366745606e-01
1.297482069671735544e-02 -5.825383783965679130e-02 -9.511552149942856804e-01 6.972501512702273807e-01 3.445421281219227527e-01 -6.285960137503748824e-01
-1.763398278585142503e-02 2.394374317501060390e-01 -8.403144229505569163e-01 8.233119850243147964e-01 2.018960842758903418e-01 -5.304671021556238708e-01
-1.511310104081803676e-02 1.469843314485615171e-01 -8.884559249648450452e-01 5.740408553263173785e-02 7.623635023854424819e-01 6.445980617367413901e-01
-3.750301503491069305e-02 -2.693567130038700824e-02 -1.001644492239157636e+00 -6.984153945451883061e-01 -2.941655867775728184e-01 6.524435180290283354e-01
3.246628571140883907e-02 -1.287155124923152483e-01 -9.690840329907398631e-01 6.652769717030839747e-01 3.705057912425658850e-01 -6.481759094391692511e-01
3.953677990645964452e-02 -8.273881724323585429e-02 -9.355741325128298369e-01 6.859210075090654835e-01 3.619765247922698825e-01 -6.312569737888523713e-01
2.611520707895444160e-02 1.388739486080829144e-01 -8.356639362643889513e-01 1.473353416944145899e-01 -9.426122114528643348e-01 -2.996239574996149013e-01
-5.017827812826805567e-02 4.829634766220702174e-02 -9.703755130883856550e-01 7.232563421173042739e-01 2.864626149091085150e-01 -6.283625019417793389e-01
4.020232059708563066e-02 1.010178069660082056e-01 -8.411214035941934064e-01 -7.700679573561729496e-01 -3.198737877304879684e-01 5.519747285666638525e-01
7.931019118648928445e-02 -9.351153466319749377e-03 -8.566434489325255308e-01 -7.341309718513359117e-01 -3.697693342802411687e-01 5.694930689609492003e-01
-4.013976486939422467e-02 9.968861042487331403e-02 -9.354447458787642500e-01 7.475745334083248039e-01 2.739881535751154673e-01 -6.050312460524863711e-01
4.442926872596464349e-02 4.468508676101461130e-02 -8.557838307217005003e-01 7.452644360117094413e-01 3.327175353591015350e-01 -5.778234696520325731e-01
-1.169078588075115992e-03 -2.756460459469027846e-01 -1.074228008070536200e+00 4.472594419456837889e-01 4.082540683540740178e-01 -7.957936964206129282e-01
1.723575041455832624e-02 6.411775485240200217e-03 -9.115250178108368351e-01 7.297123372724860779e-01 3.310529640792849171e-01 -5.982673648183105541e-01
-8.995817393140261367e-03 1.071658339902677309e-01 -9.041113597559498061e-01 -7.565914408794693902e-01 -2.894759839810406854e-01 5.863216235873760507e-01
-3.392415951616339215e-02 1.078382975029976848e-01 -9.358778519506293359e-01 -7.552283200288957277e-01 -2.692872300521181872e-01 5.975906394491043994e-01
8.631750986117811553e-02 -1.152179107761370225e-01 -9.156685246099692810e-01 -6.752119516607836269e-01 -3.933963807833021908e-01 6.239616237566495416e-01
5.701761844128424433e-02 9.664777400334925717e-02 -8.200705731591825254e-01 -7.701614960293585721e-01 -3.378150256588148270e-01 5.410473902283924330e-01
9.067949197346275581e-02 -8.692001552447303769e-02 -8.926018178858523555e-01 -6.962248958264725118e-01 -3.946265512284720112e-01 5.996171941305048492e-01
-5.807904468328298209e-02 -8.917119969166181770e-02 -1.039518797925760518e+00 6.654803015952180933e-01 2.982127054770589702e-01 -6.842551793598573573e-01
-9.898504260218524489e-03 1.443568324078089715e-01 -8.744204520624391241e-01 7.698667803107468455e-01 2.843807654524546646e-01 -5.713429100064517652e-01
5.782392761534829902e-03 -3.995237054080251760e-01 -1.149228475812027472e+00 -5.495264500720359324e-01 -1.192346562140414873e-01 8.269242876036145828e-01
7.816746574832937611e-02 -8.059738190757008425e-02 -8.912113960744497687e-01 6.989605441695885268e-01 3.868056323643477845e-01 -6.015276888600969984e-01
-7.652313903537273643e-02 -5.887953985397487849e-02 -1.044713977940668004e+00 6.826110246498977574e-01 2.758240014406362350e-01 -6.767298643149218806e-01
5.231797663977603985e-02 1.164239178977724137e-01 -8.018822480671677910e-01 7.781331200269824278e-01 3.220216636528134835e-01 -5.392688528511063728e-01
3.513082392439619006e-02 -1.221779323082637508e-01 -9.627151470416663859e-01 6.679974836916572345e-01 3.588185863723719615e-01 -6.519421629679637009e-01
-6.451065254205130828e-02 1.264539294481479559e-01 -9.545813932454600970e-01 7.604833014076922693e-01 2.426798193807480630e-01 -6.023052826809545124e-01
1.780093686686154766e-02 -2.010488248874168771e-01 -1.035363726328816902e+00 -5.983946070995508348e-01 -4.649016048820115987e-01 6.525261619064053331e-01
-5.082955748281249575e-02 -1.535099632331955455e-01 -1.061530865647847932e+00 6.372748360908494503e-01 3.291129379234743468e-01 -6.968252703345081400e-01
1.111313429750921539e-01 -1.063913968654501552e-01 -8.814986974273570919e-01 -7.192445127092080837e-01 -3.878915829238705482e-01 5.763917511853443587e-01
5.174531759810679921e-02 1.179096275084634687e-01 -7.990891748880452061e-01 4.798114477796329158e-01 8.533138145442049627e-01 -2.040502597097849924e-01
-6.725004939238631886e-03 -1.928860978344643651e-01 -1.047782034218234459e+00 7.073155585503952958e-01 -3.195267627168103530e-01 6.305611378290431057e-01
1.747561151155272233e-02 -2.118750377972527521e-01 -1.032318170706663318e+00 5.272744662307170538e-01 4.689426736796479256e-01 -7.085720895316830470e-01
4.272562006262101142e-02 -4.603937075246274102e-02 -9.284097447152953597e-01 -6.934997511001138593e-01 -4.106494840301025961e-01 5.919671413937521720e-01
-3.552185270033561548e-02 2.232937549246160336e-01 -8.738754046314688440e-01 8.049086656752222346e-01 2.201952338778302432e-01 -5.510318492595696060e-01
-6.997057388936438714e-03 9.540177885175478434e-02 -8.991129244318181168e-01 9.556148119824899867e-01 -1.352989782231118210e-01 2.617145727915283215e-01
-3.203766525516506952e-02 5.255814345940835325e-02 -9.588529037077647699e-01 -7.326592265719515940e-01 -2.932552785235534309e-01 6.141757072182705279e-01
4.527606294631134759e-02 1.275626421914172019e-02 -8.734128402660469304e-01 7.360742775631275991e-01 3.386654264511195778e-01 -5.860890604990003361e-01
2.151404291291412335e-02 -8.871157595038886567e-02 -9.699718772363994379e-01 -6.844828859411155042e-01 -3.504763118012179657e-01 6.392570169500976229e-01
-7.661161282490712432e-02 -1.331376323676332629e-01 -1.075653646131620844e+00 6.355586840325035958e-01 2.193914729331588043e-01 -7.402246555979418163e-01
-3.237273368833404330e-02 -5.597417363963998888e-02 -9.983963138995258779e-01 6.891046415190963392e-01 3.003608428075608683e-01 -6.594832500865882574e-01
9.153533260888979672e-02 -3.927944539873384072e-02 -8.486911972688252481e-01 7.123292193075858592e-01 3.796108131604906122e-01 -5.903242446759886519e-01
-4.287118762607176892e-02 -4.249385542196199711e-02 -1.014316787602226766e+00 -6.890664737205521861e-01 -2.849873860664000613e-01 6.663104265861102826e-01
-9.564821369710850563e-02 -1.774309741281834135e-02 -1.047718681472413982e+00 6.997264148286963525e-01 2.560269504250964889e-01 -6.669581284061274484e-01
5.575670230373890729e-02 -1.557071050368112330e-01 -9.724669774598015959e-01 -6.546901676424961014e-01 -3.833192532477940895e-01 6.514960740340604017e-01
-3.762721888911013668e-02 1.316398036412521622e-01 -9.177158217455900768e-01 7.702535495341938931e-01 2.641345469534936985e-01 -5.804674069537821834e-01
3.556366318055367848e-02 3.708669732812147624e-02 -8.715901845754903121e-01 7.424302709711108061e-01 3.358022956214750110e-01 -5.796844926346663707e-01
-2.243332124795524574e-02 1.835814949410984054e-01 -8.854358699044871939e-01 -7.822210685525036178e-01 -2.634022780111477391e-01 5.645789934554042988e-01
1.652151080310452005e-02 4.089673651168339308e-02 -8.936084908110253355e-01 7.419563119633466597e-01 3.234568024757349947e-01 -5.872618905308961690e-01
5.441250183133538448e-02 -1.423350334979343046e-01 -9.645588676380528748e-01 -3.429360171893179321e-01 8.279364353418342537e-01 4.437523488926954918e-01
-3.551012498770311082e-02 3.861973576468118174e-02 -9.577230376600651685e-01 7.304938028712325560e-01 2.827935773280845222e-01 -6.216161167382242558e-01
4.496881656454732035e-03 -1.635474917762013702e-01 -1.026208836656427703e+00 -6.361630315160053950e-01 -3.521789215648588600e-01 6.864886048127666340e-01
1.080940166435397365e-01 -2.866092846961199297e-03 -8.034847990908131621e-01 7.074425080017263667e-01 3.898761637866398622e-01 -5.895096901521131860e-01
-5.642742918543767333e-02 3.416649803700201778e-03 -1.013863036761800007e+00 -6.896911839204188377e-01 -2.185866138731127062e-01 6.903230859952010912e-01
-2.872680476352022089e-02 8.884833903208635975e-02 -9.410681712985005110e-01 -6.790880274436211783e-01 -7.268422364389746093e-01 1.026635977896810797e-01
-4.822809556649244878e-03 -2.652854420999056217e-01 -1.086644737314830689e+00 7.107705594107103231e-01 -3.210803974478046996e-01 6.258694674209196451e-01
-7.877669604789283575e-02 1.507734612720772471e-01 -9.631101033358735464e-01 7.631666260384033507e-01 2.328703340844708869e-01 -6.027836331591519548e-01
1.017437830661739595e-01 1.621391277888750704e-02 -8.098781178142435699e-01 -7.572438233507915450e-01 -3.737461203436091006e-01 5.356263898700062143e-01
-2.827701063052751734e-02 2.090884302882646817e-01 -8.695607786046192222e-01 7.953271065844267351e-01 2.502366247365547247e-01 -5.521199373075568184e-01
-8.703719402229313784e-02 7.932869135645219394e-02 -1.011561760637714080e+00 -7.252316025494618401e-01 -2.517740387295269722e-01 6.408189729442803628e-01
3.489642152314903489e-02 1.933352454896542505e-01 -7.949263122947800575e-01 -8.064480709310896112e-01 -2.980929878585391046e-01 5.106682675486047263e-01
-5.313626878267189123e-03 -2.148096404521471492e-01 -1.045777357789262618e+00 6.801083568133956536e-01 3.280730293792019636e-01 -6.556071311284956682e-01
-3.398518698645973390e-02 -1.185095662181705339e-01 -1.029429287967081885e+00 6.530400141287199256e-01 3.285716485637441564e-01 -6.823337978635271028e-01
-6.399841022047733641e-02 1.808700505614277421e-02 -9.992249084933937375e-01 7.127456703377442748e-01 2.870992449727460261e-01 -6.399747127433074168e-01
-5.577782139341782436e-02 7.514283493480168608e-02 -9.770332103407542990e-01 -7.449971899945847520e-01 -2.581715819519549981e-01 6.150826132907657451e-01
1.340084925352442308e-02 5.257020938104392527e-02 -8.912567172271268490e-01 7.433338557365593013e-01 3.133914205445024748e-01 -5.909658166467149920e-01
2.714734975827600219e-02 -1.407725048977798987e-01 -9.762261137088968921e-01 6.436416543390260925e-01 4.252636081708217053e-01 -6.362988954612880388e-01
-6.230587932092026410e-02 -5.000691232873667735e-02 -1.026624182615829994e+00 6.889573472774066509e-01 2.852055461768597255e-01 -6.663299258343708953e-01
-1.176725060128432088e-01 4.451662475568905764e-02 -1.054687938521613466e+00 8.622625993296199054e-01 -2.023727336749378825e-01 4.642719962072449635e-01
6.728396467782164769e-02 -1.078273219904702235e-01 -9.202814913487055160e-01 6.797157230272051764e-01 3.906870609354387014e-01 -6.207657821491390226e-01
9.067662295232233050e-02 4.799950380423463614e-02 -7.917592364570185115e-01 7.469178984024436030e-01 3.656713793513563515e-01 -5.553360202340141827e-01
2.828192430209970284e-03 5.572872051309561009e-02 -8.981108250187250786e-01 7.161920143972261288e-01 -1.883222149244453691e-01 -6.720146887379728762e-01
1.811427469200650557e-03 -1.400294656670655058e-01 -1.022054720674283157e+00 -5.964777100761187167e-01 -3.522930075454877019e-01 7.211823474107671439e-01
2.055974808143466379e-02 -1.683022850704730677e-01 -1.013714111651479177e+00 -6.341577264143930526e-01 -3.596847064493328694e-01 6.844493333880785624e-01
3.540726098352377140e-03 -3.741896309112930329e-03 -9.329269547118164141e-01 7.144186459010507528e-01 3.224489812604661165e-01 -6.209932792494590181e-01
-2.159312647612623981e-02 1.163002539437087562e-01 -9.038504170891148437e-01 7.686607820001163383e-01 2.771104951881242506e-01 -5.765157202293463845e-01
-7.130977155976567228e-02 1.147532735804613346e-01 -9.677483285050781925e-01 7.599335192660662264e-01 2.386855537558321694e-01 -6.045909796913639944e-01
4.849764887603375679e-02 -1.859504522984186947e-01 -9.970175354564118075e-01 -6.328899987069180888e-01 -3.764016554954326410e-01 6.765885332142830277e-01
-9.171007154397123329e-02 2.020258074352892369e-02 -1.023620669450874709e+00 7.224765819594702876e-01 3.155899321909872990e-01 -6.151671181230745633e-01
1.778578032965737535e-02 -3.241014381900402669e-02 -9.318157349374140974e-01 7.059744849930117416e-01 3.298597887459914224e-01 -6.267316381891867572e-01
-5.407753932105046485e-02 1.956098356283524423e-02 -9.988823091424801071e-01 -7.128368867482762772e-01 -2.870566219005734609e-01 6.398922321094829835e-01
6.046318079534308831e-02 1.176440016065823935e-01 -7.893645965632818395e-01 7.735417388816919759e-01 3.310134834984170271e-01 -5.404287667677688534e-01
4.325817460457455355e-02 -8.377699826662834970e-02 -9.438753225048468476e-01 -6.866855288261924928e-01 -3.583313127601268078e-01 6.325042725518117415e-01
-3.380448776592857169e-02 1.128653086730938837e-01 -9.333957320697805482e-01 -7.694437014447188528e-01 -2.621794969637606942e-01 5.824245029863353018e-01
-7.989480448712832361e-02 -9.064578183154482771e-02 -1.061258095904729526e+00 6.681165446669063979e-01 2.832883865175299665e-01 -6.880174218772719952e-01
9.741136722159654537e-02 -1.104634969485909224e-01 -8.888351438912697189e-01 6.696584137399429482e-01 4.110279581327741516e-01 -6.185576986349017314e-01
1.311870791736471746e-02 -1.387748739105634233e-01 -9.889602103208211537e-01 6.299594851972389886e-01 4.333518383058731493e-01 -6.444821419146925523e-01
-6.130597328687820147e-02 2.183665656789540999e-01 -9.238986816758066878e-01 -7.606566008976650695e-01 -2.781507868071363410e-01 5.865438392050346117e-01
-8.417879182125466431e-02 3.528427691869833599e-02 -1.014652811212708672e+00 7.262777183712522122e-01 2.512687815744144015e-01 -6.398317553885218834e-01
-7.617728939452625414e-02 -1.916094609532023596e-02 -1.038861596176795521e+00 -6.892173253615091477e-01 -2.676134075839793902e-01 6.733220199152991636e-01
-3.648563193870160877e-03 -2.803105462747288584e-02 -9.537000203577371549e-01 6.998513931467180704e-01 3.260395633736354326e-01 -6.355361757018455071e-01
-9.795689277290758890e-02 1.427378963330291350e-01 -9.905562820454009154e-01 7.620693030364531495e-01 2.177574916015750095e-01 -6.097803311200883369e-01
-1.802675198809504734e-02 1.588546595440341325e-01 -8.910242998748594268e-01 -7.818380423247498490e-01 -2.710838718995492447e-01 5.614648786609465203e-01
9.884841215263673320e-02 1.280329852239854051e-02 -8.044801618795415221e-01 7.360890731789523356e-01 3.810276552667968275e-01 -5.594558090398544792e-01
9.884798631472767327e-02 -1.757729632228189828e-02 -8.250707093761164845e-01 7.176615398492665054e-01 3.878016687860058598e-01 -5.784218010310199221e-01
-9.408644249749227237e-03 1.669837662884294804e-01 -8.750583900355867195e-01 -7.831210729034167040e-01 -2.699000902035899041e-01 5.602457732840968596e-01
-1.989807169489260508e-02 1.779557242696712671e-01 -8.845479785556545904e-01 -7.822210685525036178e-01 -2.634022780111477391e-01 5.645789934554042988e-01
7.994681894033742187e-02 -4.816486181266697170e-02 -8.778985492338231555e-01 1.435173508545204146e-01 -9.619987339190202436e-01 -2.322955142526486882e-01
4.796663645874983672e-02 -1.800503304489433909e-01 -9.941708038625516330e-01 -6.400146015299037483e-01 -3.833705618036677976e-01 6.658891215291465882e-01
1.221807036938753546e-02 -2.433607675067095064e-02 -9.338378940835079245e-01 7.059744849930117416e-01 3.298597887459914224e-01 -6.267316381891867572e-01
-3.972394460778215508e-02 2.212375499142698043e-01 -8.926207766983094150e-01 -7.925766516051118149e-01 -2.508832975082623817e-01 5.557695766788697256e-01
-4.414924488502229571e-02 -9.500867484318338552e-02 -1.036253759373805705e+00 -3.387070021573952983e-01 -8.500644693813146358e-01 -4.033211680348731121e-01
9.784025827488922189e-02 1.821649341631222455e-02 -8.021198576640871103e-01 7.360890731789523356e-01 3.810276552667968275e-01 -5.594558090398544792e-01
-2.358756052891718396e-04 -3.599712136079279423e-01 -1.116965794144427981e+00 4.465391957012853075e-01 4.147672440658021209e-01 -7.928246211820798584e-01
1.311856250579308651e-02 1.850518340930117078e-01 -8.204083089951267338e-01 7.959594422582497719e-01 2.849108533814206368e-01 -5.341108236175395874e-01
2.833230484206931618e-02 -2.228713973444360896e-01 -1.032488177386421846e+00 3.262587664793311082e-01 7.000820878833132754e-01 -6.351694951116009236e-01
-2.325631089162389850e-02 3.079785150325663537e-02 -9.470279801839712741e-01 7.293992502966856195e-01 2.929824406950420901e-01 -6.181731336049870462e-01
-1.174405500975788663e-01 6.432102219745000626e-02 -1.046233213188834110e+00 8.608142700321861351e-01 -2.565012793183314432e-01 4.395519152694180032e-01
3.614255119336934330e-02 4.561641132485355632e-02 -8.602269206085051412e-01 7.613760289767820266e-01 2.322393987217334366e-01 -6.052862167445367536e-01
-7.895909621371371978e-02 -1.512484825625196733e-02 -1.040104917403157136e+00 -6.892173253615091477e-01 -2.676134075839793902e-01 6.733220199152991636e-01
5.619728647043640418e-02 8.400550191898567554e-02 -8.289738224201341765e-01 -7.705304192787721940e-01 -3.318531181542805353e-01 5.442025183122188858e-01
4.160097617252607460e-02 1.251941244906037420e-01 -8.121108989098433373e-01 7.797013843394988708e-01 3.112356349044987924e-01 -5.433213881531471223e-01
-1.017960889723463873e-02 -1.701222950519377247e-02 -9.553697643102176951e-01 7.065485605576693473e-01 3.197338418339741861e-01 -6.313156120039900010e-01
-1.039886449935842061e-01 2.865803752226712617e-02 -1.049148861040709146e+00 -6.953220580346339830e-01 -2.447025853937959405e-01 6.757572643428060299e-01
6.237437482180240370e-03 -2.229225850918581733e-02 -9.395594847693367058e-01 7.068714711858182786e-01 3.261418920650472897e-01 -6.276656669468448912e-01
-7.778032316442505707e-03 2.339137487490552669e-01 -8.391252269037343670e-01 -8.067891924367499579e-01 -2.729532040255048253e-01 5.240112092116619991e-01
-1.711318358100424181e-02 -5.053081984955439324e-03 -9.573196903549541226e-01 7.090847948649918742e-01 3.110391735157334026e-01 -6.328138638098266266e-01
-3.877403279419434218e-02 1.958146455157848964e-01 -8.905408038923283698e-01 7.919948933675977631e-01 2.506915819740395124e-01 -5.566846680186198215e-01
1.074849273727677100e-02 1.723519575653611469e-01 -8.306267713370679706e-01 7.952195031883858567e-01 2.801712998791872078e-01 -5.377080848125896928e-01
6.116296119780905566e-02 -1.209842529353619411e-01 -9.463446684839328382e-01 -6.777632460516048729e-01 -3.774714909219509806e-01 6.309930711527277358e-01
7.731634631033276750e-02 -1.198884364578762249e-03 -8.415579107321203844e-01 7.303208984767173284e-01 3.685581894365094202e-01 -5.751488905035309074e-01
-3.413156707189028000e-02 -1.724726565934859568e-01 -1.054905615729486712e+00 5.905220973983353883e-01 2.636558521159932944e-01 -7.627379917961738531e-01
-1.043230167182519243e-02 2.108928670649972137e-01 -8.423887333651973730e-01 8.041838261183668068e-01 2.577333966750448013e-01 -5.355948749269064946e-01
-1.090329175421642094e-02 -2.823244501696244718e-02 -9.618338487345671206e-01 7.061093188687688205e-01 3.172315011933903861e-01 -6.330669825992122357e-01
4.722691629072812980e-02 1.212807130531505517e-01 -8.137473193046174114e-01 -3.516692961007960583e-01 8.254324489605062709e-01 4.415766959238585643e-01
1.746129295026062692e-02 -1.092702352452715603e-01 -9.737782908282470729e-01 6.725936691454709182e-01 3.566643392180376959e-01 -6.483890077380966011e-01
-1.478541011383845312e-02 -9.224907765977574670e-02 -9.978293210717631423e-01 6.754505575158387121e-01 3.175186220410337601e-01 -6.655437393655700973e-01
-1.047673800625446017e-01 1.390675734331338897e-01 -1.000712753515310860e+00 7.720303789587228405e-01 2.018076608908016267e-01 -6.026962435345305513e-01
-3.960730910530554233e-02 -1.417648557393372082e-02 -9.843084283582007599e-01 3.928417271006234834e-01 -2.927448342362389266e-01 -8.717659315874853876e-01
-2.880287530750668887e-02 1.108397050350597157e-02 -9.743634939907011017e-01 -7.086789733437472982e-01 -3.044463491004261724e-01 6.364640863865562714e-01
-9.005602205842657077e-04 1.976266472196587520e-01 -8.347611016540399387e-01 8.042154687107309075e-01 2.655104874846446195e-01 -5.317345775121695706e-01
7.898157527568660033e-03 -1.726548461858708194e-01 -1.024426500577370502e+00 -9.582618556297650692e-01 1.294624601261468444e-01 -2.548993673257839432e-01
1.000483397890743545e-02 1.753520873316762041e-01 -8.301633631884821618e-01 7.952195031883858567e-01 2.801712998791872078e-01 -5.377080848125896928e-01
6.807832605066223286e-02 4.240044709398888695e-02 -8.220061692897853156e-01 7.031949180397147892e-01 -2.932685742634804082e-01 -6.476962641490102701e-01
2.838508437238468525e-03 1.438361659414015559e-02 -9.362551179665327128e-01 -7.116744485578573309e-01 -3.206629684762419275e-01 6.250557894443296014e-01
-5.910631686623211284e-02 2.013043920343285387e-01 -9.167428470744086733e-01 7.911752175128081710e-01 2.243358406077964884e-01 -5.689597576387577238e-01
-4.819213217861905850e-04 2.470642782540387675e-02 -9.397655025437929854e-01 -2.150214065203816527e-01 -4.431225190675002201e-01 8.702920359472844369e-01
-2.110562846791892998e-05 -2.016780280028700745e-01 -1.039780591138520283e+00 6.046223496801953479e-01 3.967339469389117856e-01 -6.906764724626665020e-01
8.389257253088969191e-02 3.679513795338215133e-03 -8.422666917451616664e-01 -7.405115277829439346e-01 -3.781976102047526767e-01 5.555260973671570790e-01
-1.846804599937007171e-02 -1.765540172694037013e-01 -1.043133374798692614e+00 6.329260213049514583e-01 3.425757306609060193e-01 -6.942957009208906571e-01
-4.264955033105995857e-02 -7.879610424244813671e-02 -1.030550069089429588e+00 -6.687921886690231243e-01 -3.104224856246062814e-01 6.755404420121262632e-01
4.193685325165533856e-02 9.011032300801463668e-02 -8.450225064500657135e-01 -7.700679573561729496e-01 -3.198737877304879684e-01 5.519747285666638525e-01
6.918735915881109311e-03 -3.667024725718474598e-01 -1.134168102010383317e+00 -5.623646451865750295e-01 -3.731927736435868281e-01 7.378842453558580594e-01
7.044962258771561570e-02 8.234893092252723590e-02 -8.099664600081677435e-01 -7.707872988918622603e-01 -3.449393043980585327e-01 5.356340319176614573e-01
1.123337976800486554e-01 2.333463795859075179e-04 -8.057885790782044477e-01 -8.387715718266006704e-01 -3.433307790247656643e-01 4.225946361109914617e-01
6.789479050714829211e-02 1.132985629185917636e-01 -7.813910129979891872e-01 7.706794975333679520e-01 3.307374984143480745e-01 -5.446703766722903461e-01
-8.922094970866185915e-02 1.656811888862136095e-01 -9.710906137440292740e-01 7.815010899619875273e-01 2.148574209237581745e-01 -5.857408429179380427e-01
8.343717902764795358e-02 -1.478641889395550524e-01 -9.305762056378160674e-01 -1.255074472761484317e-01 9.626747364103380722e-01 2.398024865498913083e-01
6.775297092163959367e-02 -1.531289643236830866e-01 -9.587899921963023431e-01 -6.598184952657891733e-01 -3.913869120369284360e-01 6.414482351611761057e-01
7.208718322465153261e-02 8.954985807517278074e-02 -8.029625147378456340e-01 -7.706927799953199321e-01 -3.462852284241581535e-01 5.349010931362114807e-01
-3.181863888647272574e-03 -2.468327000652222741e-02 -9.464063143208412132e-01 6.650492337357452044e-01 3.408793450903302991e-01 -6.644627821016658720e-01
-7.566003851063685115e-02 -1.376350829557580202e-01 -1.083511580317341849e+00 -5.437289577866834950e-02 9.347620880556069267e-02 9.941356982786511143e-01
7.872247263198810588e-03 1.277498164921202217e-01 -8.744573821549982418e-01 -9.639929182079106651e-01 -1.157766693003458303e-01 2.394022065285013323e-01
-6.461571176409110218e-02 1.006882583841113982e-01 -9.605708423018229913e-01 6.881812780346970859e-01 7.161023966779086480e-01 -1.166356979431530799e-01
6.558029244966415150e-02 -7.359933582319398704e-02 -9.129697971436877557e-01 -6.952582641980629141e-01 -3.723772183030834571e-01 6.147773201356361295e-01
-8.233477999421688967e-03 -2.865961645188524476e-01 -1.085665665718539064e+00 8.836315936887949585e-01 2.137037708876172171e-01 -4.165644067169125275e-01
2.739793893126209190e-02 -1.364800907602055080e-01 -9.786870064938221203e-01 6.529866870296436865e-01 3.625989792303304649e-01 -6.649288434285074434e-01
-1.990921493881352838e-02 -2.857898981855616985e-02 -9.833640712323078459e-01 -6.980147528316321681e-01 -3.173624791832654890e-01 6.419162419163786382e-01
8.064516350469000394e-02 -5.795676895308352755e-02 -8.738207033587178652e-01 7.109846632053307136e-01 3.797715640558261274e-01 -5.918398160156125298e-01
4.617226668512952603e-02 1.203279100556119141e-01 -8.112171211236047785e-01 -8.192587697178364825e-02 9.614056549477115743e-01 2.626543685472715328e-01
-4.831945149634393755e-02 2.344112349535767414e-01 -8.942208479794432341e-01 5.494455813014404999e-01 -8.329714646588870508e-01 -6.533063793007667930e-02
-1.121518998011868107e-01 4.546939380208524228e-02 -1.042097444119154170e+00 7.450585978357577854e-01 2.209168246353713227e-01 -6.293516047362072152e-01
-7.483930588904537384e-02 -9.299171970889552608e-02 -1.057348719732541076e+00 6.620293158891505936e-01 2.988027019957785746e-01 -6.873384393320115526e-01
5.756687175470533158e-02 -1.876335590305147627e-01 -9.897963311143143095e-01 -5.412437294731452520e-01 -5.845284717603388414e-01 6.044681058645886562e-01
-7.703437924537324955e-02 8.575933342934591308e-02 -9.862818815991879484e-01 7.467901275773831671e-01 2.400294906340255108e-01 -6.202341082034475983e-01
-5.657941329839429739e-03 2.021089838492501900e-01 -8.521122084450732936e-01 -7.903520212232131303e-01 -2.754580313597428387e-01 5.472353748688005837e-01
-3.418676228503160497e-02 1.368804695739480326e-01 -9.107727264345835128e-01 7.694438424884872951e-01 2.646761272325939829e-01 -5.812940055855623234e-01
-3.339728400047681234e-02 -9.962570105412431321e-02 -1.020088008188092310e+00 6.680366814447381563e-01 3.201563564086597480e-01 -6.717342478208423451e-01
5.131318204497607033e-02 6.411218964471214476e-02 -8.477408285521121911e-01 -7.572174592209338639e-01 -3.411574868341959443e-01 5.569858962558826843e-01
-3.122652337614386167e-02 -8.843185474719350569e-02 -1.023596716291881537e+00 -6.654715126448219609e-01 -3.244747012673030451e-01 6.722081776471533487e-01
7.236716689376122835e-02 7.405633680288585541e-02 -8.125473693020989208e-01 -7.707872988918622603e-01 -3.449393043980585327e-01 5.356340319176614573e-01
5.814690141577389532e-03 -4.948329887157486284e-02 -9.492955686563248063e-01 7.175840033659869333e-01 2.377546520766485316e-01 -6.546341906203455574e-01
1.398033019804050502e-02 1.674801500829705136e-01 -8.412305744114499939e-01 -7.919114344178781462e-01 -2.867253776488531414e-01 5.391334137765356749e-01
7.664240658306047116e-02 -6.578972599960608569e-02 -8.834615807133306964e-01 6.989605441695885268e-01 3.868056323643477845e-01 -6.015276888600969984e-01
6.281729618902597012e-02 -8.099261203481956939e-02 -9.086980560322249767e-01 6.902469920232496836e-01 3.751212775398884425e-01 -6.187431754287864294e-01
-5.375380712196971278e-02 9.456239405108907148e-02 -9.664306293188186237e-01 -7.449971899945847520e-01 -2.581715819519549981e-01 6.150826132907657451e-01
3.566147615241040125e-02 1.238147303489126605e-01 -8.274250576284444270e-01 -7.263128237723462388e-02 9.646714182780002922e-01 2.532464246100027960e-01
-3.400595065109833504e-02 -1.756796847512809203e-03 -9.862537268551984093e-01 -7.064698356175832528e-01 -2.945549156687146675e-01 6.435353704481684423e-01
-9.449974435816888008e-02 2.216318253220986995e-02 -1.025891153442777481e+00 7.224765819594702876e-01 3.155899321909872990e-01 -6.151671181230745633e-01
-7.510747535859163375e-03 -5.700254577923832833e-02 -9.690624653776795938e-01 9.391530872705050603e-01 1.615846490212292930e-01 -3.031202399559703164e-01
-1.395007503519532337e-02 -4.250754508842601032e-02 -9.754568824575331476e-01 3.513376315071056744e-01 8.248648535554531369e-01 4.428993588343950738e-01
7.858499519250647380e-03 5.662026097919857504e-02 -9.082766307135167194e-01 -7.448522115661533327e-01 -3.094187864865353133e-01 5.911473568360180453e-01
-4.092041009239266031e-02 -4.767043247451478727e-02 -1.014654530794605769e+00 -6.808070449317199513e-01 -3.032524841103188540e-01 6.667381033451290628e-01
9.192073421604067887e-03 1.875133152800994574e-01 -8.249467366934661872e-01 7.959594422582497719e-01 2.849108533814206368e-01 -5.341108236175395874e-01
1.036746168741120716e-01 4.257731908492182193e-02 -7.879793671380190823e-01 -8.356685982581263383e-01 -3.531669952307188165e-01 4.206317479280468619e-01
7.951122895257628498e-02 -1.668347213770548787e-01 -9.443623987695148880e-01 6.532095802491781900e-01 4.099099356519981252e-01 -6.366247630468572227e-01
1.052159420117593502e-01 -4.149597725642353852e-02 -8.447884368754897677e-01 -7.246147403621102656e-01 -3.845913104339688249e-01 5.718592501556953867e-01
3.229262578867343747e-02 -2.480346306996088560e-02 -9.110038820974462048e-01 7.114687998652805545e-01 3.381174428719473934e-01 -6.160265754364766533e-01
-3.993360481133000246e-03 1.386505348437058471e-01 -8.818025167126618546e-01 -7.699781161192410517e-01 -2.865192435520006464e-01 5.701231654404631533e-01
-1.097677388145756189e-01 9.602296190786407948e-02 -1.021544689175283516e+00 7.585260555700821250e-01 2.141153241474981761e-01 -6.154614943166668573e-01
3.175645777047193113e-02 -1.086206139867003512e-01 -9.701804011151002882e-01 -6.652944487633375426e-01 -3.567598448977353232e-01 6.558244502252342789e-01
4.000871006094273985e-02 -1.319525314067540034e-01 -9.665364224966327411e-01 3.424084506577474984e-01 -8.247437067863568894e-01 -4.500602971096879790e-01
1.383213544809246652e-02 -1.157547725842431735e-01 -9.922464562780819453e-01 -6.642672076169580109e-01 -3.485374974654165681e-01 6.612644627872527048e-01
5.527488611612445951e-02 3.278867733976374016e-02 -8.487024578218652637e-01 7.429886853933895807e-01 3.469724953840935266e-01 -5.723442153322929604e-01
1.330796271499240513e-02 7.524331870437227232e-02 -8.791151994914455647e-01 7.555272710674920678e-01 3.167556418993824341e-01 -5.734495670921888610e-01
-5.952633174160826095e-03 1.545331597861935580e-01 -8.586631982126607943e-01 8.071163135101382391e-01 2.603845780731596782e-01 -5.298708597077848026e-01
5.882859732773176864e-02 -1.665208947185677635e-01 -9.645544347027661392e-01 6.434174747180338994e-01 3.906881966686316932e-01 -6.583135166554615614e-01
-1.119581911740221702e-01 4.870477254332573197e-02 -1.050057786785481229e+00 -6.884048486678314704e-01 -2.407504117309359482e-01 6.842061119151193749e-01
3.482158958952596972e-02 1.567717534158040160e-01 -8.166156970514097946e-01 -7.914765702988082463e-01 -3.036342608624618689e-01 5.304442235509236880e-01
3.104784425801556877e-02 -1.898643233393235152e-01 -1.015498865136277740e+00 -6.341842560840660337e-01 -3.653562807165224302e-01 6.814140572926929984e-01
1.445314043659925128e-02 -1.594530685821336224e-01 -1.014721672842056721e+00 -6.341577264143930526e-01 -3.596847064493328694e-01 6.844493333880785624e-01
-8.580931559620164420e-03 -1.831112720898953328e-01 -1.037366351927930141e+00 6.198824301442211748e-01 3.544633220933968709e-01 -7.000725148789999075e-01
8.419230506894706534e-03 -1.443554512613700602e-01 -1.001495076423104758e+00 6.633857022685438753e-01 3.505523508633567875e-01 -6.610843057657962429e-01
-9.595990401995994901e-02 -1.555498534698167463e-02 -1.057491892825395796e+00 -6.892525653807656250e-01 -2.545617492344460220e-01 6.783282516177049359e-01
6.908798028752582976e-02 -4.878345075279022502e-02 -8.938047696788582464e-01 -7.079140232130750610e-01 -3.659150567047368408e-01 6.041224271743659280e-01
1.201401771312080556e-02 -8.990979175146682212e-02 -9.690173263561804307e-01 6.749874366853545471e-01 3.449254202655339663e-01 -6.522410710554642499e-01
-3.991958802173131704e-02 1.318599412872460686e-01 -9.328765859059922061e-01 -7.677040130587275968e-01 -2.633370262102397441e-01 5.841953089166950219e-01
-1.133557350907561830e-02 -3.320904923500996725e-02 -9.648097957578732897e-01 7.061093188687688205e-01 3.172315011933903861e-01 -6.330669825992122357e-01
4.105297713048939451e-02 -6.422389703631914415e-02 -9.233311195160435192e-01 6.925805098607041854e-01 3.579368464232474123e-01 -6.262694718199725008e-01
-7.780468364940577863e-02 1.220899029864062207e-01 -9.843731501797313710e-01 -7.554122676083803167e-01 -2.420619791226568673e-01 6.088992562074512227e-01
8.320799862042423112e-02 -7.726143694156939468e-02 -8.950631939637884171e-01 -7.038718146915491358e-01 -3.841052090901641569e-01 5.975179133989430014e-01
2.338769611451381458e-02 1.348987440683015460e-01 -8.516635032257799942e-01 -7.948546465971931818e-01 -1.925389905627656606e-01 5.754431578322244389e-01
-6.380003064844985694e-02 -3.668119071603992334e-03 -1.019425575879204571e+00 -6.999822620085781599e-01 -2.662074167504009381e-01 6.626903078666780411e-01
9.885809218510552276e-02 -8.524173624732507559e-02 -8.820257733540272094e-01 -6.979310530212896602e-01 -3.873670692507129587e-01 6.023611864062186072e-01
7.161542359763231613e-02 -1.520038600550945203e-02 -8.576121000394750782e-01 7.245271661829877363e-01 3.601342176739487644e-01 -5.876765528104914704e-01
-5.514391331404989299e-02 -3.637326952085948722e-02 -1.013363971990940637e+00 6.925924281070390265e-01 3.000215443248990255e-01 -6.559746957541112700e-01
2.852165250511042027e-02 -1.173068250338176327e-01 -9.668061020413292184e-01 6.679974836916572345e-01 3.588185863723719615e-01 -6.519421629679637009e-01
-1.372763052629427487e-02 -1.083042560963203838e-01 -1.004774919444266779e+00 6.624990355775570716e-01 3.344752277349671288e-01 -6.702397704481946050e-01
2.608385283757208226e-02 2.039149052048473687e-01 -7.913866024736406768e-01 7.876431775571821614e-01 2.616061980411038546e-01 -5.578354793253149646e-01
-1.893636818816148495e-02 1.501026372381179530e-01 -8.965165483840096261e-01 -7.818380423247498490e-01 -2.710838718995492447e-01 5.614648786609465203e-01
8.067158452706568728e-02 -1.210771256806920243e-01 -9.140363292889979174e-01 6.678735142909495437e-01 3.983092938979451159e-01 -6.287246418768531742e-01
-4.986298795542913609e-02 1.637322569320651400e-01 -9.318513758312910733e-01 -7.756860944340470132e-01 -2.494126206496262155e-01 5.797451401800107762e-01
4.449852493611790999e-02 1.046714332853932727e-01 -8.329434908563770890e-01 -7.696955730739224455e-01 -3.273730031981970101e-01 5.480836081907570767e-01
-1.329734003441419843e-02 1.943231443521081236e-01 -8.672493593943926271e-01 -7.964871395372894458e-01 -2.701806095106629169e-01 5.409350005279313089e-01
-2.964899073802331267e-02 8.450027251451096288e-02 -9.469382714681738866e-01 -7.300776950880527583e-01 -2.182563266630861698e-01 6.475729572847005455e-01
-9.870274536494358375e-02 6.226828581736750662e-02 -1.031128014368747126e+00 -7.114432741952851913e-01 -2.463676448313008027e-01 6.581424246943594625e-01
-4.074756734724903351e-02 2.181762712323413178e-01 -8.835817887716851393e-01 7.988337925797838190e-01 2.372552830461445994e-01 -5.527879362823437948e-01
-7.681433543417041931e-02 -9.227849424661371813e-03 -1.024480374910578417e+00 7.042316385387699107e-01 2.611651153835979344e-01 -6.601898073945640100e-01
3.545414192575464807e-02 1.354408407155104355e-01 -8.207609715636617898e-01 2.865928249750495649e-01 -8.713515931206624598e-01 -3.982599073957913682e-01
-9.508198613904217389e-02 2.159038428144549604e-02 -1.029794859944683116e+00 6.887052362783000481e-01 7.122328233911902062e-01 -1.356816229526490725e-01
1.847639424453497402e-03 -2.127008049514542976e-01 -1.058813945410471247e+00 -5.794233906570643855e-01 -3.653302343927768425e-01 7.285618396526060137e-01
-8.727606054405326330e-03 -1.792361727307583419e-01 -1.035059091425686084e+00 9.596301386427273927e-01 -1.294365060580267290e-01 2.497122101700881835e-01
-2.773308647492229995e-02 2.366342752553446949e-01 -8.676548170002719162e-01 -7.924468189510209815e-01 -2.877390354942455652e-01 5.378050637426622371e-01
4.056214769486145288e-02 1.076578378519300327e-01 -8.238344548871446849e-01 7.698202429078873088e-01 3.247307532343272629e-01 -5.494785996862003863e-01
-3.035877921448831146e-02 -7.951477942993245840e-02 -1.007568959090506144e+00 6.750005837162722511e-01 3.085431337416033593e-01 -6.702054510399052534e-01
9.132997496598900533e-02 6.491530985974927614e-02 -7.911968626027517937e-01 -7.638821305184424482e-01 -3.642744657088050619e-01 5.327177529491295971e-01
6.405483317105649908e-03 1.844246076057877159e-01 -8.307543782112505326e-01 8.059294335715224689e-01 2.706794559776694031e-01 -5.265077209450190754e-01
-7.212335818753615180e-02 2.661649847237472152e-02 -1.015820902582398100e+00 -7.111560640298281166e-01 -2.591343428423730777e-01 6.535338131675013651e-01
-6.633236990007589096e-02 7.934774175290534859e-02 -9.877660691605153476e-01 -7.356202221849410527e-01 -2.637535861677645088e-01 6.239366430145142361e-01
-5.535507377555789858e-03 -1.406690897736469215e-01 -1.008453678592770242e+00 6.998513931467180704e-01 3.260395633736354326e-01 -6.355361757018455071e-01
1.471395779205797623e-02 1.370516434616965151e-01 -8.565010106124063549e-01 -7.820665722557020860e-01 -2.915724567134756473e-01 5.507788839872904685e-01
3.457645697000953644e-02 3.826532464729053701e-02 -8.846267695907952255e-01 -7.450780506211435172e-01 -3.344894976996387048e-01 5.770402710480786457e-01
7.643662331629036411e-02 -1.682063262304628326e-01 -9.591238359446464523e-01 -6.550916135045827815e-01 -3.932743548278192502e-01 6.451280956141383083e-01
-1.019420538187951284e-03 -1.313576757551969953e-01 -1.003945265906624362e+00 6.494946390822147197e-01 3.470718939856700658e-01 -6.765336755909961974e-01
1.535077401152651344e-02 1.205671525267246608e-01 -8.518877303213422403e-01 7.682820914254002709e-01 3.068852109253635829e-01 -5.617509192785605787e-01
-2.463108140424575751e-02 -3.998082196826732021e-02 -9.939530948885173522e-01 -6.888091427194982241e-01 -3.130900218094462284e-01 6.538475381534983866e-01
5.310200816280034875e-02 5.453442081618418286e-02 -8.511753808234568952e-01 -7.572174592209338639e-01 -3.411574868341959443e-01 5.569858962558826843e-01
3.356081047646990168e-02 1.107012710285880663e-01 -8.448122095358245875e-01 -7.694730283908429724e-01 -3.156556339869224237e-01 5.552231797316632411e-01
-3.684467177365011170e-02 2.181306896619598923e-01 -8.899183158383670023e-01 -7.919723492786354679e-01 -2.514235393088520287e-01 5.563865579428470820e-01
-1.031820420781511954e-01 9.924946748760972437e-02 -1.012452681155006529e+00 7.491836910234024316e-01 2.198280920267793592e-01 -6.248194995840131716e-01
7.285540532241840950e-02 -1.350095662331519952e-01 -9.310851440594490880e-01 6.674532434519437896e-01 3.929231863095186683e-01 -6.325484467342051831e-01
-5.418972332761254340e-02 -5.442572326320802706e-02 -1.020247740253264368e+00 6.807921384805345477e-01 3.032576160631396123e-01 -6.667509898626338138e-01
4.814291935605246459e-02 1.057687180254475862e-01 -8.271701095601923237e-01 -7.696955730739224455e-01 -3.273730031981970101e-01 5.480836081907570767e-01
-9.690572229123481374e-02 1.121845862406998934e-01 -1.010602692159047411e+00 -7.301677058775403184e-01 -2.424950172536364801e-01 6.387889228068127645e-01
-8.708377839294245693e-02 -9.560417365319305583e-02 -1.079983389548381689e+00 -6.372036998822924181e-01 -2.765864247384858254e-01 7.193548460298988534e-01
1.003446080648949523e-01 -2.437837811486071038e-02 -8.394489420585721229e-01 -7.246147403621102656e-01 -3.845913104339688249e-01 5.718592501556953867e-01
4.526794912486876293e-02 -5.117503822100728794e-02 -9.272384988960618024e-01 -6.827517227813213463e-01 3.107980027817938140e-01 6.612523621931234441e-01
2.026419550557395297e-02 -2.109849588893230876e-01 -1.039427846468846894e+00 -5.473831723057771548e-01 -4.245779888469756180e-01 7.211831903636697350e-01
4.870910529901777142e-02 -1.545012579011995346e-01 -9.788396452415676352e-01 -6.546901676424961014e-01 -3.833192532477940895e-01 6.514960740340604017e-01
5.267014239062704078e-02 -1.564121136911178142e-02 -8.811051101038843703e-01 7.193957264550905339e-01 3.624271907734447074e-01 -5.925506899381872694e-01
-6.344322008742823635e-03 -6.814986550713302005e-02 -9.884385384940731489e-01 -6.871419069143386293e-01 -3.236282833388877123e-01 6.504619389212955571e-01
-3.474851475387702449e-02 1.205657668989738515e-02 -9.691070845226954500e-01 7.211922193875702769e-01 2.831072841736663737e-01 -6.322436621609123231e-01
-5.986890725962717291e-02 1.417748231170850616e-03 -1.001814936364703090e+00 7.101990429722663256e-01 2.763022429387175793e-01 -6.475140074996920125e-01
5.403262800337925095e-03 -4.030736008743118770e-01 -1.141331120608816807e+00 -7.798300572362041327e-01 3.826236511875337198e-01 -4.954434613383237318e-01
3.852066378914835443e-02 8.933770908563129498e-02 -8.502362179375708706e-01 -7.700679573561729496e-01 -3.198737877304879684e-01 5.519747285666638525e-01
-6.972568087116079449e-02 -8.749955215342893056e-02 -1.050035809686981070e+00 6.620293158891505936e-01 2.988027019957785746e-01 -6.873384393320115526e-01
6.860751421867863908e-02 -1.949164474110300638e-01 -9.749477528608960775e-01 4.172897504300339677e-01 7.301528437309776631e-01 -5.410601528273972782e-01
-2.346806437222959466e-02 -2.051625450461684042e-01 -1.067611908087172434e+00 -5.012783417423408716e-01 -2.662352346998240193e-01 8.233096767950554007e-01
-5.872395704437000791e-02 1.197592235058133753e-01 -9.499524456538096517e-01 7.599335192660662264e-01 2.386855537558321694e-01 -6.045909796913639944e-01
7.523209796877582123e-02 -1.253207271009169343e-01 -9.339951776101881320e-01 -6.732478473388868734e-01 -3.801280884348240963e-01 6.342239134851679339e-01
6.337829019711521683e-02 -4.826754805991952807e-02 -8.881570628260764266e-01 7.030638393066716008e-01 3.682778417491399114e-01 -6.083359837589404906e-01
-2.294515892915609603e-02 1.573282218341390259e-01 -8.860481256552473761e-01 7.819454098581856138e-01 2.687274725598690628e-01 -5.624472610772489611e-01
2.641334808782828253e-02 8.323568873361348458e-03 -8.993637101043384652e-01 7.239808377526874006e-01 3.337584553758700112e-01 -6.037027745770516818e-01
-1.738314021756123947e-03 -3.543764166219708911e-01 -1.114937792778860404e+00 4.472594419456837334e-01 4.082540683540739623e-01 -7.957936964206129282e-01
1.682270606181768876e-03 -1.621423147647846064e-01 -1.033394389972222216e+00 -5.977273105601519365e-01 -3.637687936475189621e-01 7.144188736160016484e-01
-3.064811175241953511e-02 2.592060665686245560e-02 -9.579771249122612797e-01 7.239929181463871100e-01 2.956571613053339820e-01 -6.232343840344100050e-01
-2.525361270210226342e-02 2.117521753473875501e-01 -8.760109670758198241e-01 -7.904938151751287334e-01 -2.643138045379315182e-01 5.525013492296229067e-01
8.533332998140508163e-02 3.247952309039364716e-02 -8.090981630409628256e-01 7.417816582619917165e-01 3.670105517913760385e-01 -5.613049316903242492e-01
-9.567607642313938343e-02 -8.864280179861884490e-02 -1.084607544252578659e+00 -4.502637624156400897e-01 -2.217832557482691536e-01 8.649131353638986885e-01
6.385903305179013723e-02 -1.207273142489448670e-01 -9.318971946179360755e-01 6.702425216541547659e-01 3.817170467784861132e-01 -6.364487869148552912e-01
2.408922748738710415e-02 -1.310905081575601192e-02 -9.140595573751195690e-01 7.114687998652805545e-01 3.381174428719473934e-01 -6.160265754364766533e-01
5.273522336057873128e-02 2.513650054641736187e-02 -8.566383038521359072e-01 7.429886853933895807e-01 3.469724953840935266e-01 -5.723442153322929604e-01
-5.282654817025188299e-03 2.347120124042997857e-02 -9.412124746392066532e-01 -7.243045100902893996e-01 -3.076866438275888682e-01 6.170185620165574703e-01
-2.270660043659720670e-03 -2.160119525568478527e-01 -1.044253947407197014e+00 4.472594419456837334e-01 4.082540683540740178e-01 -7.957936964206129282e-01
-7.922476962584799887e-02 5.428020486866774741e-02 -1.001569559971729584e+00 7.262777183712522122e-01 2.512687815744144015e-01 -6.398317553885218834e-01
-8.141100388658109588e-02 6.411170891169325724e-03 -1.033978659009057388e+00 -6.999822620085781599e-01 -2.662074167504009381e-01 6.626903078666780411e-01
6.790271649791709656e-03 -1.108051197961271578e-01 -1.001966822985596695e+00 -7.109359752382835573e-01 -3.210040862685559770e-01 6.257207170222833792e-01
7.177099588310238698e-02 -9.799953541584723038e-02 -9.209625743585664326e-01 -6.850179053020908349e-01 -3.771967842039451457e-01 6.232760667647507802e-01
1.363007476890633514e-02 -2.116508526429792397e-02 -9.305784102213705555e-01 7.059744849930117416e-01 3.298597887459914224e-01 -6.267316381891867572e-01
-2.170401681813558057e-03 -1.332476961962638096e-01 -1.006019854515086687e+00 6.494946390822147197e-01 3.470718939856700658e-01 -6.765336755909961974e-01
-5.531887603311135297e-04 3.012901027523863517e-02 -9.153907310197232361e-01 6.958795894282343575e-01 3.305054323101714875e-01 -6.375874498691601611e-01
-5.605525344863133280e-02 -1.046436921607833692e-01 -1.044301439673920306e+00 6.572044445279352498e-01 3.124708160076356545e-01 -6.858894278498907093e-01
-3.944082431897518587e-02 2.059138121471354166e-01 -8.991344029969978724e-01 -7.925766516051118149e-01 -2.508832975082623817e-01 5.557695766788697256e-01
-5.004976904975790009e-02 1.200052942976505277e-01 -9.389758748127385868e-01 7.557375540438933115e-01 2.595138944321838115e-01 -6.012597508601376095e-01
3.758605511906305818e-02 -6.959052891626087145e-02 -9.302637998779039741e-01 6.960747811247315342e-01 3.562408105932557967e-01 -6.233557442985642183e-01
