-3.981700933760613098e-02 1.183877892325279763e-01 -5.945901901297255820e-01 7.623216603675249115e-01 -2.751408660912720849e-01 5.858013229253112852e-01
-7.079608914174903567e-03 2.109751219651614662e-01 -5.793403455361821885e-01 -7.341097369349580681e-01 2.965724377900186282e-01 -6.108417825268440682e-01
-5.373881532818965655e-03 2.003619564146790211e-01 -6.031259334239923442e-01 6.884948458918735970e-01 -3.373439740923058205e-01 6.420077026982893287e-01
-7.934832035483860291e-02 -7.148257935886148662e-02 -6.017069293818279041e-01 -5.736660877965655825e-01 7.662277124605139100e-01 -2.894862904693612515e-01
-7.732949329514192394e-02 -5.220245356905954537e-02 -6.129899218379553094e-01 8.221526930220743878e-01 -1.894053316516265684e-01 5.368338380714167135e-01
2.320365640602824880e-02 2.439107263795937952e-01 -6.053946238997152118e-01 -1.778351883575500225e-01 -9.826008899531096796e-01 5.357365812777403064e-02
-7.832157795738188197e-03 -3.431422372068621551e-01 -8.830263181568981379e-01 9.631281408547678335e-01 -1.251446566540819483e-01 2.381659068896522513e-01
7.672483709829701348e-02 2.189464929203288612e-02 -8.298443132916314413e-01 8.219054937903129687e-01 -3.326798617619775023e-01 4.623802210901041820e-01
-5.395291564539947404e-02 8.799511248897859406e-02 -5.774765494350924122e-01 -7.705868724680521309e-01 2.541681979255802082e-01 -5.844607763940788958e-01
-1.596109094160258826e-02 -1.653211008292916062e-01 -7.503901717565845120e-01 -8.685275373767376017e-01 2.070356287606078538e-01 -4.503289522582346605e-01
2.017654041875466611e-02 7.360998577699047474e-02 -7.025290948999299845e-01 7.965897574815542503e-01 -2.984119290777387801e-01 5.257328968778549605e-01
-4.860372214888610334e-03 6.556034945563203598e-02 -6.605405581662235903e-01 1.075999492975449057e-01 4.624467434925232934e-01 -8.800938929138901745e-01
-4.603724202946719163e-02 -1.753789130714027977e-01 -7.130780941303270781e-01 8.724616868323745722e-01 -1.845341403476060960e-01 4.525016641469704060e-01
-4.558206740391321232e-02 -1.188153453096810891e-01 -6.760760935759206891e-01 -8.447724690863112063e-01 1.911088628246180865e-01 -4.998368514062347945e-01
4.681995834192882039e-02 1.730365371082696890e-01 -6.694351896795244228e-01 -7.596882204743968803e-01 3.256925509056815549e-01 -5.628482654827979825e-01
7.076684442115543927e-02 -1.342238273941844407e-03 -8.201331490866974328e-01 -8.376578004934178701e-01 3.246907426949651176e-01 -4.392098938784522177e-01
3.783647378151466095e-02 1.947735078729996849e-01 -6.447572592956103410e-01 -7.503704269856030784e-01 3.292720093903106493e-01 -5.731702767393919151e-01
2.472055677112412406e-02 -6.724485585562954559e-02 -7.767990739987679083e-01 -8.507813917740727483e-01 2.623242925733038078e-01 -4.553646768655729704e-01
-7.984751388620366791e-03 -1.541004438688196310e-01 -7.778051811116014624e-01 8.722173853662267273e-01 -2.210857981996204036e-01 4.363002435242729904e-01
-5.460030324275735869e-02 -1.239907237489660391e-01 -6.771974445352119121e-01 8.465641778975857568e-01 -1.888939030442044475e-01 4.976426288947836118e-01
6.373643166929490733e-02 -3.126846685221685435e-02 -8.440675242779653864e-01 8.387356064841935410e-01 -3.173361647909297423e-01 4.425159216699168230e-01
9.056839571687413937e-02 1.525543824754499456e-02 -8.462953076371635408e-01 -8.479654057505534581e-01 3.308405741331629790e-01 -4.141246010049854376e-01
-8.455636090649757547e-03 -1.698640785560273092e-01 -7.849257346424007853e-01 8.784176717534313283e-01 -2.190196862787377186e-01 4.247502454073973643e-01
-6.571175471165394133e-02 -1.287595331490227479e-01 -6.458965238714283741e-01 -8.414038748714812721e-01 1.812592727215570076e-01 -5.091017534871677963e-01
7.181879163453966375e-02 1.031163990452891449e-01 -7.642831903232754076e-01 7.944707749255389695e-01 -3.417888141680114344e-01 5.019926237494313215e-01
-7.388914942913676724e-03 -2.372071208046592772e-01 -8.291549884080922084e-01 9.631281408547679446e-01 -1.251446566540819760e-01 2.381659068896522513e-01
3.810285908988085384e-03 -2.629721417223058744e-01 -8.333295032831953275e-01 -6.453010631722263524e-01 3.504032651529559450e-01 -6.788255222359731444e-01
-5.325682188363806135e-02 -2.414039289973060609e-02 -6.253762385527936729e-01 -8.115703543123272690e-01 2.127690830031122582e-01 -5.441349807900410784e-01
5.896524128796306469e-02 -9.678509923643464907e-02 -8.650383569101245396e-01 -8.724753202057233814e-01 2.887342205455262767e-01 -3.942326286824670567e-01
4.781256649682297938e-02 1.104602846996360216e-01 -7.269012633455287364e-01 6.545518782529764490e-01 -7.555518327028635239e-01 -2.651917749186288864e-02
-3.247402007847668276e-02 1.543154403704748157e-01 -5.870625026131451873e-01 7.599341893238512613e-01 -2.814869819187387767e-01 5.858883058288335555e-01
-5.520475692767851106e-02 -2.435054987877805638e-02 -6.225530945161427132e-01 -8.115703543123272690e-01 2.127690830031122582e-01 -5.441349807900410784e-01
-6.758041107713064211e-02 -1.078374679980264178e-01 -6.352665900719293157e-01 -8.329949003111494221e-01 1.862898189957625239e-01 -5.209756226486459418e-01
-5.826995259872973579e-03 -2.858549550400817374e-01 -8.596506930997199758e-01 9.189355891997682546e-01 -1.834576316920429606e-01 3.491427792122039908e-01
1.795570578282801311e-02 8.308120877215202649e-02 -6.971145930248048295e-01 6.529091499045620584e-01 -7.560921764835497605e-01 -4.510280070317842366e-02
-4.969524544914123709e-02 4.442999147836995677e-02 -5.981633150778904451e-01 -6.558097378432341529e-01 -4.475392890454961137e-01 -6.079656014205412351e-01
3.780041869838777352e-02 -5.737184577486263010e-02 -8.119249137443547149e-01 8.490100361711491184e-01 -2.870629972249562623e-01 4.435953044215965591e-01
-1.483039645063135605e-02 9.206229376500650596e-02 -6.413399962100426732e-01 7.856709441780695968e-01 -2.810361677233753630e-01 5.511259746244046021e-01
3.512218078211794964e-02 -1.342800317407990846e-04 -7.774136868548611190e-01 8.214928056423203007e-01 -2.307774263691347028e-01 5.214320183459659752e-01
-4.765392320107548346e-02 4.120600701046211317e-02 -6.001543599690346564e-01 -7.939902096129924924e-01 1.573146091394549417e-01 -5.872236888869665217e-01
-2.217356339622332181e-02 -9.060707228373610089e-02 -7.043628807346890008e-01 -8.436436611392011953e-01 2.226868512482259865e-01 -4.885447157638646010e-01
5.748346268803420159e-03 -1.332623017299606194e-01 -7.832472574339609528e-01 -2.278068309841776162e-01 5.422909738378057787e-01 8.087178416796495517e-01
-4.082129639695861179e-02 5.204728852120821432e-03 -6.449672169790235943e-01 8.148145792474861260e-01 -2.410805244838446493e-01 5.272166368394840541e-01
4.199822002387722589e-03 -3.442937979777060953e-01 -8.763536354579337662e-01 -6.443408291694494583e-01 3.557159957496189295e-01 -6.769719538009558724e-01
-7.797226329094232751e-03 1.551527484284283553e-01 -6.239045661284781108e-01 7.896085928185860858e-01 -2.854194048038710685e-01 5.431887641588845073e-01
7.057777721812640015e-02 -2.311626413108327366e-02 -8.511484967452913608e-01 8.286948015788582200e-01 -3.288198602198061926e-01 4.529265120979383275e-01
8.752102665880959198e-02 1.120175816531292640e-01 -7.826765649528392155e-01 7.862153156498566942e-01 -3.557315824754385680e-01 5.052925080259121904e-01
8.239221188500951698e-02 6.416363123633739285e-02 -7.946932039062780673e-01 -8.113156240789548557e-01 3.411498663352924288e-01 -4.747459603038114428e-01
-8.134410216636567964e-03 -1.331387045826317589e-02 -6.908223877535636381e-01 -8.213363562870105161e-01 2.478131355932853830e-01 -5.138046707345125252e-01
6.466714004680317908e-03 2.104680189798218137e-01 -5.900345810250874345e-01 -7.012451597883360144e-01 3.316272825368327126e-01 -6.310931558420411758e-01
-3.008835309652446027e-02 -5.450754676961042100e-02 -6.891695872694922897e-01 8.349353739203498881e-01 -2.395968525878630351e-01 4.954556182005359077e-01
-9.092415722945285106e-02 -6.239413092636404007e-02 -5.842302463694625247e-01 -7.862389151288787792e-01 2.019866614296058627e-01 -5.839775311957520199e-01
-4.383710586015766852e-02 -1.540687611564691695e-01 -7.087722596069712111e-01 8.642979091957295745e-01 -1.925627403333795007e-01 4.646597843532296324e-01
5.445470298265965570e-02 2.025600501749269255e-01 -6.621794090820773970e-01 -7.546955382557132275e-01 3.415236055317797392e-01 -5.601752149118097712e-01
-1.925200635934485802e-02 -1.249632584516338907e-01 -7.414361232208217523e-01 8.631150354041603467e-01 -2.274560448769278598e-01 4.508837802673992812e-01
-1.635040981029551102e-02 2.098486692383863539e-01 -5.792211757376576342e-01 7.347279060974620801e-01 -3.161533105370774588e-01 6.001849616893822903e-01
-5.079999203377838501e-02 -1.503535377238144344e-01 -6.724637659130436873e-01 -8.501303800260531229e-01 8.614265122058097079e-02 -5.194783735608708986e-01
-2.431301860530478420e-02 -1.155364655796345952e-01 -7.276543214298575313e-01 8.572880890531149323e-01 -2.200739299334133758e-01 4.654294766463785149e-01
-2.722777570328925242e-02 -1.148170756474137105e-01 -7.220287304891932489e-01 8.520408870005609092e-01 -2.152846117550455129e-01 4.771570630523840340e-01
4.526630174746416185e-02 2.943075462433566557e-03 -7.867473552716511831e-01 8.244662099939115141e-01 -3.062287312872693512e-01 4.758985529631973854e-01
9.415051574247879085e-03 -3.778674229399865692e-02 -7.328437409124450852e-01 -8.389953760929003135e-01 2.565363144291870623e-01 -4.798706891172058175e-01
-1.739079334785960732e-02 -6.384713225217501786e-02 -7.150924899391142286e-01 8.360591302153580484e-01 -2.376571371161577406e-01 4.944938988109869871e-01
-3.996459837438704615e-02 -9.901202395961315739e-02 -6.775629214283604984e-01 -8.390174050004161055e-01 2.075194563685579530e-01 -5.029766091329358479e-01
2.666620797600593659e-02 -1.617403136475224490e-01 -8.607370303243746523e-01 7.932572938844655308e-01 -1.381808045394411766e-01 5.929999417840844389e-01
1.651318786895016738e-02 -6.753702716735880685e-02 -7.778510912106119113e-01 8.503692593991596382e-01 -2.592293945706720115e-01 4.578998183658165577e-01
7.464896932919637407e-02 1.522019346477949953e-01 -7.221455378160483995e-01 -7.748683946996639538e-01 3.462503452141704741e-01 -5.288569460020675628e-01
-3.125662608101550249e-02 -1.355338356706546621e-01 -7.273402553551177041e-01 6.953355455420847653e-01 -6.697321352930140081e-01 2.607054776209185021e-01
4.257613065447945350e-02 -9.880096471861218865e-02 -8.312839682875264868e-01 -8.698725936460552921e-01 2.690982172664779237e-01 -4.134099905511335882e-01
-5.524263909054927257e-02 -6.536393314113157771e-02 -6.345555985366750917e-01 -5.679615434540681296e-01 7.814619738043641073e-01 -2.583347995432670463e-01
7.523556170360763684e-02 4.000364058314462984e-02 -7.993437523225902508e-01 -8.193819926559618994e-01 3.363359008204630518e-01 -4.642104177314778091e-01
-1.472889266857163766e-02 1.349256272334176665e-01 -6.198435752354245487e-01 7.604403393396723665e-01 -2.949530727204113800e-01 5.785612977012475344e-01
6.710635029997064072e-02 3.121471656824915952e-02 -8.061540043760119234e-01 8.227388563754634010e-01 -3.225145943638621504e-01 4.680652845835802656e-01
-5.335373913276798136e-02 3.953120112260571223e-02 -5.987828790920556310e-01 -7.903271049937647952e-01 2.414795380770132227e-01 -5.630903122966041119e-01
-2.850266356062772927e-02 5.579581378674032532e-02 -6.266149588518945546e-01 -7.863862102270856580e-01 2.602639771340557462e-01 -5.602315508528999954e-01
-6.561465350703775401e-02 -4.092857175543791748e-02 -6.266749084509171119e-01 8.210443669693919810e-01 -2.183873514315627928e-01 5.274401503512389233e-01
-5.144406111910834745e-02 -1.238615903197257256e-01 -6.826625162749416775e-01 8.544426487577985174e-01 -1.970979557751244282e-01 4.807079735276131860e-01
-2.163847728109036944e-02 -8.339265668798011288e-02 -7.019984431588708329e-01 -8.436436611392011953e-01 2.226868512482259865e-01 -4.885447157638646010e-01
-5.285328404883292419e-03 -9.157317635222768371e-02 -7.574373718320562832e-01 8.140397109681665189e-01 -2.733941479227488536e-01 5.124402295375122263e-01
9.313518797438762042e-02 1.625295412653792460e-01 -7.431541166954593880e-01 -7.920547390813739153e-01 3.421920316500269843e-01 -5.055233958720048992e-01
-4.565587025709803848e-02 -1.914152838307718874e-01 -7.199080592724698135e-01 8.783849517345618807e-01 -1.644698449295471931e-01 4.487644668142991566e-01
-6.730626308977844148e-03 1.882940107849345457e-01 -5.911855742191138852e-01 -7.367992626542549939e-01 3.052526082185754164e-01 -6.032807735440465224e-01
-1.696383023435067000e-02 -1.408117919960899522e-01 -7.573948169371412797e-01 7.967132097478772934e-01 3.297596698838313189e-01 5.064648275362678698e-01
-5.086861425808341525e-02 8.090106182641600141e-02 -5.969789371445943793e-01 7.852991408362425263e-01 -2.487546548264356894e-01 5.669447778258834836e-01
-1.676516132519742519e-02 -6.433216245548591117e-02 -7.013288422088683749e-01 -8.425098537436881418e-01 2.327934437065736772e-01 -4.857822134578661522e-01
-8.813890155176987151e-02 -4.343092386163011076e-02 -5.932967288510268000e-01 8.246037066267961624e-01 -1.885180283345540830e-01 5.333757399903007457e-01
8.581162395628623429e-03 5.996181711113943158e-02 -6.875750987205281328e-01 6.164065915649112604e-02 6.902512442500150502e-01 7.209394211374899886e-01
-3.542467307985862346e-02 -2.802955006480262277e-03 -6.568656216715955676e-01 8.086794057814697956e-01 -2.448859248229273700e-01 5.348537206456999149e-01
-7.384838341399127537e-02 -1.461403104051435253e-01 -6.389614001663725951e-01 -8.305174952682242706e-01 1.973147409850143086e-01 -5.208719449571189708e-01
4.758546554429906282e-03 1.677085156385519360e-01 -6.163158179105665546e-01 -7.460663727418385127e-01 3.097283444359828497e-01 -5.894517114376557343e-01
7.424615131803063983e-02 -8.182661138287233588e-04 -8.417718908650323462e-01 8.283990356596975246e-01 -3.254415548526489177e-01 4.558978307616449732e-01
5.753132390256421314e-02 8.616471504401758408e-02 -7.388010838869034647e-01 -8.030810557640380987e-01 3.205563860829430123e-01 -5.022991351917311942e-01
-9.823542651314792762e-02 -1.934897030075407795e-02 -5.697901652237034043e-01 8.296879374582892819e-01 -1.779266573574650734e-01 5.291124937457148958e-01
-6.290128792500061794e-02 -1.388984546828874456e-01 -6.541512807232979787e-01 -8.414038748714812721e-01 1.812592727215570076e-01 -5.091017534871677963e-01
-6.996061923396627857e-02 4.599887059493733277e-02 -5.855593930112776846e-01 7.842449226274855745e-01 -2.318242294096487799e-01 5.755149242127713949e-01
-2.459474183401056530e-02 7.249368538499531556e-02 -6.372912870428214527e-01 7.966729784695043559e-01 -2.636796651521901569e-01 5.438613789944619636e-01
5.679593948194380792e-03 -1.613377202279295264e-01 -8.097018720059873109e-01 8.790190554500729725e-01 -2.340375164913646167e-01 4.153937180919032857e-01
-2.120479266570770432e-02 -5.295853116350853623e-02 -6.885714631171367950e-01 -8.331644474917910825e-01 2.373732491505651521e-01 -4.994906846212471274e-01
2.504462218321294037e-02 -5.925145823638637566e-02 -7.727997441299297998e-01 -8.507813917740727483e-01 2.623242925733038078e-01 -4.553646768655729704e-01
7.338705896509085946e-02 -4.749231535602258664e-02 -8.549914412718844225e-01 -7.046064490755189480e-01 -3.117000831255734017e-01 -6.374737720884671166e-01
-4.572037403856051702e-02 -1.725001806167056340e-01 -7.125150702628922916e-01 8.724616868323745722e-01 -1.845341403476060960e-01 4.525016641469704060e-01
3.076236465776050616e-02 7.873922975587402395e-02 -6.953436457794044401e-01 -7.807076133329426959e-01 2.267613784044570924e-01 -5.823013822309638376e-01
-4.235944914428019237e-02 1.647169053370464709e-02 -6.376693441590234324e-01 8.036769200892263099e-01 -2.464217372823116481e-01 5.416453964640173258e-01
-4.984074138757785440e-03 -3.175562350318719695e-02 -7.114654494954850694e-01 1.026622621602148733e-01 4.551661163046066827e-01 -8.844683524560551513e-01
-8.403186866850466397e-02 1.139515410594226091e-01 -5.380103883485599647e-01 8.968988723531893248e-01 -2.849224326738682422e-01 3.382183024775309299e-01
-1.023375772928560717e-02 1.734800351827313070e-01 -6.085877055518810197e-01 9.942739871365753324e-01 -4.362363843222977905e-02 9.755109775636372493e-02
4.013539450254741472e-03 5.729021649873342753e-02 -6.735161205209353463e-01 -7.961385488266533583e-01 2.814672962813749013e-01 -5.356674081893012529e-01
5.503104977976690064e-04 1.486119108452393089e-01 -6.385141258104836126e-01 7.686116218730936200e-01 -3.959154448237927615e-01 5.024809800097820300e-01
-5.740568190879569849e-02 -1.452484393636685744e-01 -6.742723047439918016e-01 1.111083907560911355e-01 -9.845683488949990014e-01 -1.352038899505744740e-01
-6.839206855339180491e-02 -6.422754926302638029e-03 -5.960893708592637230e-01 -8.035848656209683138e-01 2.139089094192139495e-01 -5.554226698794465511e-01
-8.739634547413799304e-02 6.373834506823145007e-02 -5.546704193555498374e-01 7.805815110705092152e-01 -2.278052104214543516e-01 5.820629610958915068e-01
-4.496655892388568693e-02 -8.251870362387060676e-02 -6.768828450716798395e-01 8.391415307528482526e-01 -2.236768171055023013e-01 4.957924695427696760e-01
-4.960573840642637511e-02 -1.231048687074093317e-01 -6.856198066119106871e-01 8.544426487577985174e-01 -1.970979557751244282e-01 4.807079735276131860e-01
-7.386238582154827648e-02 5.467109710764073843e-02 -5.767314378065114822e-01 7.868909249546932605e-01 -2.308486716840136288e-01 5.722862596687727788e-01
4.828610209165770661e-02 -6.800849329021463330e-02 -8.224962166681119013e-01 -8.570301033306735317e-01 2.892954296562726402e-01 -4.263889730809272693e-01
4.302265316892773389e-02 5.817698940412619618e-02 -7.333275336814017997e-01 -8.052616176769296086e-01 3.212437551109905698e-01 -4.983534658237308013e-01
-3.255444375035373983e-02 -1.415973050346350792e-01 -7.040517117287332649e-01 -7.010946701659684921e-01 -4.888096394099291642e-01 -5.191641357844424265e-01
-5.537549327387574633e-02 -1.351975499568662253e-01 -6.657066887034950309e-01 -8.497135933871549085e-01 1.856337336043676067e-01 -4.934844740832192156e-01
5.710002104315945251e-03 -4.007033280353160254e-02 -7.202494831943548892e-01 -8.055201141891566996e-01 2.756315832382253417e-01 -5.245613176343423278e-01
-1.943375443188439730e-02 3.960498139876712093e-02 -6.608493546002321972e-01 7.990043913596329705e-01 -2.620822378403037667e-01 5.412068765237937340e-01
4.614468354653055229e-03 4.021083116237784277e-02 -6.834430857528741576e-01 -8.058504947697706644e-01 2.754225590159131709e-01 -5.241635184409937365e-01
8.037822235183934849e-02 -2.960390552893428333e-03 -8.398160480862069122e-01 -8.438652655663555491e-01 3.217475419710038032e-01 -4.293832004238651856e-01
-3.277980392617253075e-02 2.004653492668153070e-01 -5.540850773794524509e-01 -7.159409113191245178e-01 2.648118551916531227e-01 -6.459901646693210209e-01
-7.005270396036163139e-02 -1.601115089058851582e-01 -6.572098599051870993e-01 4.029338416027083980e-01 9.036678373918122231e-01 -1.450129613341128998e-01
3.721909046446325586e-02 1.431893574685866866e-01 -6.868008403474498147e-01 7.718656862297681442e-01 -3.219127387427832554e-01 5.482659492036412452e-01
6.354924691833328115e-03 -1.876719777875196782e-01 -8.081290609790700019e-01 -8.893193527309761759e-01 2.237375329618885578e-01 -3.988139982526763272e-01
5.001591907409035087e-02 -3.840607933350094483e-02 -8.227691488674329090e-01 8.445269835080078114e-01 -3.035325153685626831e-01 4.411827129896393473e-01
-2.478439746923918885e-02 -5.182217926417033438e-02 -6.756484038250704094e-01 -8.329746172158153383e-01 1.692891537176097749e-01 -5.267774383055348064e-01
-5.353826355581223218e-02 -9.246450637055242394e-02 -6.524073541982564617e-01 -8.360832023789828149e-01 2.092036810627115051e-01 -5.071476101979741635e-01
8.659869695820460178e-02 1.680034116514837403e-02 -8.370711674148977322e-01 -8.406121186733885864e-01 3.223866545807731465e-01 -4.352448861131559821e-01
6.359865622751612046e-02 7.322935664868993055e-02 -7.714136233802870724e-01 8.022082113887214483e-01 -3.340012765286269891e-01 4.948789072669757538e-01
3.292951212571025577e-02 -1.969249165735565202e-02 -7.563566020172335369e-01 -8.381280424582907562e-01 3.489934558318998348e-01 -4.192194559315460256e-01
9.332472523664163411e-02 1.329956280276790304e-01 -7.626558591401143561e-01 -7.715814243299259356e-01 6.212247851143880562e-01 1.369009568578144764e-01
-2.331442894080581335e-02 -3.128039822935622244e-02 -6.893566165292313030e-01 8.213387542403673969e-01 -2.477928733377288695e-01 5.138106097638639458e-01
-1.556458138584602491e-03 1.226509231410919804e-01 -6.440786475722171112e-01 7.763544320837936219e-01 -2.931807346369765810e-01 5.579595438932583029e-01
-6.795505010568399749e-03 -2.671815625282880635e-01 -8.372067086332178887e-01 5.552827390934611529e-01 3.896660596486486994e-01 -7.347254192028194186e-01
6.352475445130779941e-02 1.369208157264705794e-01 -7.288664174216112901e-01 7.794693219739362577e-01 -3.423211811626282186e-01 5.246368124988134429e-01
9.731256633431670244e-02 9.480733431884701135e-02 -7.981576329172012096e-01 -8.288904037105385703e-01 3.326725249656457550e-01 -4.497440269415063363e-01
9.537689486091724400e-02 1.633080420473443373e-01 -7.547911671286128277e-01 -3.522164548771982706e-01 -7.155862612524875876e-01 6.032245615195268584e-01
-4.858499088662650636e-03 -3.797901301209163361e-01 -9.108993152311631869e-01 9.185993042691430466e-01 -1.774618563059733034e-01 3.531042448805798983e-01
7.350151077932086385e-02 -2.708987139870667332e-02 -8.592513773758674311e-01 8.151948143948564152e-01 -3.323215368208370379e-01 4.743625309283741043e-01
3.383582658718310016e-02 1.603926814967274739e-01 -6.717863401256275457e-01 7.594859516038471314e-01 -3.282377185856252266e-01 5.616414242326704942e-01
3.114117157267540237e-02 -1.634490582894265742e-01 -8.588950437333031651e-01 -8.877754884077536657e-01 4.416375915731305946e-01 1.296569315226111518e-01
5.397941432562508579e-02 1.828773411517109759e-01 -6.732932582758378581e-01 -7.654922927288070333e-01 3.377985095052508102e-01 -5.476437863692286134e-01
-5.352589099037384501e-02 -6.595945970789357515e-02 -6.559508250341835600e-01 8.301036600109128472e-01 -2.140666171313400090e-01 5.148819253638944327e-01
3.546346388678083775e-03 -1.499377247030546645e-01 -7.925586454816422322e-01 -9.846343584325803477e-02 -4.644329519346019897e-01 8.801175972330357311e-01
2.976456051722741261e-02 2.240976343379664018e-02 -7.330861152153410609e-01 -8.164273051745620791e-01 2.843116740610412418e-01 -5.026065333419479364e-01
6.847057731492144084e-02 1.213404131173771369e-02 -8.220922540085688901e-01 8.298764355508964075e-01 -3.188781618911766258e-01 4.578447548965082214e-01
-1.471251050955854622e-02 2.207536293797354027e-02 -6.767717852689200120e-01 8.082967541132348721e-01 -2.658335370718519219e-01 5.253464455555754142e-01
-6.045149930335510374e-02 -4.803845215267003865e-02 -6.375433795298762751e-01 8.223506585840587579e-01 -2.027994293333927056e-01 5.316124394598147340e-01
5.192341436668763272e-02 -7.423281622471718244e-02 -8.275772295070943363e-01 -6.022945006681066360e-01 -2.733991705228893121e-01 -7.499961520050301145e-01
-6.980679581293680602e-02 -2.562694120763530509e-02 -6.014386180003938875e-01 -8.035848656209683138e-01 2.139089094192139495e-01 -5.554226698794465511e-01
-5.034555534582794978e-02 9.816256380462669295e-02 -5.778923472485847368e-01 -7.704323627593078205e-01 2.480366381498654849e-01 -5.872919210651742494e-01
1.247127942295666106e-02 -6.903039203873288787e-02 -7.712454790725873366e-01 8.459619743583758344e-01 -2.622511158634648898e-01 4.642980617750268046e-01
-4.056107652516157541e-02 -1.234557380036897939e-01 -7.017123615953880789e-01 8.584609832124469042e-01 -2.092793614938241731e-01 4.682380688866043528e-01
4.875901859596643018e-02 2.065890311672839152e-01 -6.521940576518806543e-01 -7.485978835102603535e-01 3.350427931260663295e-01 -5.721429328220727362e-01
3.791725953125816423e-02 1.107168663191629571e-01 -7.074506985848841856e-01 7.852866825162432285e-01 -3.279218137371451292e-01 5.251591285867305281e-01
-5.519557208182234928e-03 -3.663702822214674054e-02 -7.217005150250516143e-01 8.251388683342349983e-01 -2.593530511910811520e-01 5.018783147357279706e-01
3.919107280267617593e-02 9.397611477625269355e-03 -7.747256968219617956e-01 6.842374202879032419e-01 -7.200903482963634250e-01 -1.152781114009802516e-01
-7.365051419270066124e-02 -1.653746429152119501e-01 -6.549441829205850940e-01 2.471667865615429505e-01 7.883285561189343760e-01 -5.634240563095233023e-01
2.578579323526815348e-02 2.221367584449557286e-01 -6.139447257831692761e-01 -7.443849447884880455e-01 3.214609700915938006e-01 -5.852810424744774309e-01
-1.244434824196963274e-02 -3.386572487589899205e-02 -7.086888257837611338e-01 8.350895964077784672e-01 -2.455496545021492727e-01 4.922709956369245576e-01
3.813966737176443383e-02 2.106169584643083348e-01 -6.476143807767101856e-01 7.474671255973682760e-01 -3.433051932395638217e-01 5.687129684172446131e-01
3.300511634147295509e-02 -6.614556788976384827e-02 -7.917173212979531360e-01 -8.519669281906540048e-01 2.708709103300671051e-01 -4.480862675940222029e-01
-7.382099564375008138e-02 -1.244311752772779694e-01 -6.312288688353495658e-01 -8.327188421083593362e-01 1.857405340202027966e-01 -5.216126762451266385e-01
-8.055478752791718489e-02 -1.447730846026991924e-01 -6.341160758054655844e-01 2.940570686687992152e-01 6.566111207838556396e-01 -6.945446540208065622e-01
2.681357651498321101e-02 6.633057103132644627e-02 -7.171171200307169258e-01 7.978420912758652506e-01 -3.102220333486032655e-01 5.169238700365964556e-01
6.518973676116006019e-03 -1.766781306848081573e-02 -7.219400783128198107e-01 -5.736535919332624855e-01 -3.795089996127934406e-01 7.258749724814617110e-01
5.659873233536758669e-02 1.796339525536350124e-01 -6.789551130435087511e-01 -7.654922927288070333e-01 3.377985095052508102e-01 -5.476437863692286134e-01
-7.250606026720294965e-03 -2.984722509453773820e-01 -8.542934411931161209e-01 9.770954839660188629e-01 9.898396598739311880e-02 -1.883788461866622022e-01
4.058993062227173737e-02 3.239702674245423936e-02 -7.599829617352356070e-01 8.167019262777791555e-01 -3.133375093890322094e-01 4.845797858186443041e-01
-5.966818161752889330e-03 -1.219456634583654560e-02 -7.144982607014771503e-01 7.896085928185859748e-01 -2.854194048038711240e-01 5.431887641588846183e-01
6.895326798564320805e-03 1.509018724920655440e-02 -7.145640848722834004e-01 8.204030798875823205e-01 -2.728742366449046775e-01 5.024723250950542397e-01
-2.454282073400587336e-02 1.825742935669234443e-02 -6.500132591000380433e-01 -8.069610921914859292e-01 2.601887007939764906e-01 -5.302033908494614423e-01
-7.357319148300194012e-02 7.438395719857295030e-02 -5.574361940935017579e-01 -7.690152739056500542e-01 2.406621065999738907e-01 -5.921969764754636545e-01
-7.419820306453513148e-02 1.243726313482788615e-01 -5.471953101908068051e-01 7.705239600882111128e-01 -2.553122435984156446e-01 5.840449342291431645e-01
5.674138196147165969e-02 1.941033227275084094e-01 -6.825441397409452993e-01 7.479566297769806305e-01 -3.606759798272963224e-01 5.572016848038782166e-01
-5.695398739387977360e-02 -1.449946363797396665e-01 -6.873539753258777196e-01 5.906301755656616637e-01 -7.816636834489845143e-01 2.003943155088023231e-01
-2.428774572445655412e-03 -6.417060465112993676e-05 -6.946261384751304391e-01 1.030971609101418163e-01 4.613723788032794149e-01 -8.811960641592034849e-01
9.511582438705784570e-03 4.650845680341621907e-02 -6.809406348277280419e-01 -8.373908940017478209e-01 2.587663319008502993e-01 -4.814732350998678911e-01
-5.015863374855004247e-02 -8.605586482109335578e-02 -6.697350460865346689e-01 8.317994626347701148e-01 -2.124886245548558705e-01 5.127945381878528108e-01
-3.823028240964543301e-02 -6.710992669585486015e-02 -6.669887540551041605e-01 -8.318918765404966775e-01 2.126022868511868169e-01 -5.125974769461676406e-01
6.528750892231285907e-02 3.044188222723862372e-02 -7.883914697232201618e-01 -8.222131728028069242e-01 3.228395512537838852e-01 -4.687644639003656910e-01
2.218953399893081394e-02 1.537164537279506193e-01 -6.570185505571489726e-01 7.612747209884750121e-02 6.777447025655183310e-01 7.313458321042214383e-01
-5.704692003965374826e-03 -2.098759658465210454e-01 -8.091706141062930957e-01 9.347563901864648361e-01 -1.306817497818608675e-01 3.303827648039777687e-01
3.475864525903016311e-02 -3.094393645042004676e-02 -7.735251214372380613e-01 -8.345367824171620041e-01 2.876606396050375158e-01 -4.698933019471879247e-01
3.923674094372239102e-02 4.898320052334511482e-02 -7.328597288342951765e-01 -8.146969443592093629e-01 2.975988790402481210e-01 -4.976984991395443925e-01
8.663911261956708243e-02 1.765379160157625749e-01 -7.351796581123950514e-01 7.261143215505955206e-01 -4.073019769521323830e-01 5.539522466873862960e-01
-1.288836541589209565e-02 8.027817325891663247e-02 -6.370218632735925590e-01 -7.858476218029417648e-01 2.787312522861202235e-01 -5.520438427386651359e-01
4.064954869860189050e-03 -1.666723372894053923e-01 -8.092796784292988210e-01 8.803374300310736755e-01 -2.312881697742323328e-01 4.141398215684778950e-01
7.269089337771223597e-03 -2.441008369850518056e-01 -8.396344705325209379e-01 -5.552825558651495186e-01 -3.840155216892860435e-01 7.376946266942524533e-01
-4.170048793044101032e-02 4.543429232353875247e-02 -6.124706242019984925e-01 -7.952889489852627003e-01 2.556957866967410342e-01 -5.496682201905537246e-01
6.612198199552773992e-02 1.070568113447526865e-01 -7.343743074884907518e-01 -6.210250773116716694e-01 7.799972397114089961e-01 7.702051280415242451e-02
-2.700547397828986437e-02 -1.539994513579625857e-01 -7.241410631463091052e-01 -8.637764034604059615e-01 2.062394394796881192e-01 -4.597342911161950152e-01
-4.115035847111843392e-02 -5.219264798466644734e-02 -6.699865432923203246e-01 8.303610779286125787e-01 -2.271473312017865676e-01 5.088266602578312980e-01
-5.717715649134845653e-03 1.246045652631022072e-01 -6.372849253667705050e-01 7.763522150769617269e-01 -2.910643345431974671e-01 5.590695764410908986e-01
-6.394051463470530605e-03 1.068502671760557521e-01 -6.392483452118462584e-01 5.736871805674746971e-01 3.819466333883329567e-01 -7.245686910817085158e-01
-4.471299716456094558e-02 -1.536539382259016762e-01 -6.854966410808677191e-01 -6.075791975340834039e-01 7.647739895826277667e-01 -2.144021072231098168e-01
5.112869940550125031e-02 9.563839203434312819e-02 -7.161896080695275835e-01 -8.021187044081190542e-01 3.810109579440096317e-01 -4.598219589854629086e-01
-7.053554909569430265e-02 6.302600256194226813e-02 -5.659588564692215051e-01 -7.762151976164598510e-01 2.314729803849865930e-01 -5.864385955417087404e-01
2.992565681850655954e-02 2.551889415790228877e-02 -7.315890420736232969e-01 -8.164273051745620791e-01 2.843116740610412418e-01 -5.026065333419479364e-01
9.140666758897816879e-02 1.513845143124366854e-01 -7.599782580169825996e-01 7.463746878709024424e-01 -3.899627485104007474e-01 5.393087057333925127e-01
6.449915311985815469e-02 1.588433061539353463e-03 -8.222385324557319741e-01 8.298764355508964075e-01 -3.188781618911766258e-01 4.578447548965082214e-01
-3.976720013012859795e-02 -1.317869472712981938e-01 -7.068914835586922463e-01 8.584609832124469042e-01 -2.092793614938241731e-01 4.682380688866043528e-01
8.538504813876350574e-02 5.374870701986361743e-02 -8.073135257277990195e-01 -8.317327388784275799e-01 3.286716079270325941e-01 -4.474322576887459491e-01
-5.762947635757490611e-02 1.700269236418499863e-01 -5.473763352886505951e-01 7.826333745954194843e-01 -3.065256819341159455e-01 5.417813279213402611e-01
4.166449355403971377e-02 1.887127417508507876e-01 -6.532505006032315320e-01 -7.503704269856030784e-01 3.292720093903106493e-01 -5.731702767393919151e-01
-2.796561264156244980e-02 5.306683348024174990e-02 -6.474459943489887515e-01 7.775643212011829064e-01 -3.523434856889119948e-01 5.208145490359606944e-01
-8.538579374480465001e-02 2.796026699445971000e-02 -5.578025596994691249e-01 -5.143834303091431304e-01 6.835602430359880577e-01 -5.178369248749838949e-01
-6.595157140680055208e-02 -5.057877127009884066e-03 -6.119022797623874244e-01 8.064223378288571942e-01 -2.154833999491865548e-01 5.506813210895931121e-01
3.357628939798630585e-02 2.008239700033504771e-01 -6.475282367571203457e-01 7.474671255973682760e-01 -3.433051932395638217e-01 5.687129684172446131e-01
5.249356885173033643e-02 -1.158675486206480754e-01 -8.657583386979819107e-01 -9.165756125718608205e-01 3.998613136816962510e-01 -2.761508035534042263e-04
-3.218513789022722088e-02 -3.710039408344878355e-03 -6.485569051175666955e-01 -8.133263235732631768e-01 2.387043873241677383e-01 -5.305850609044635569e-01
5.735723398893595448e-02 1.288400618183185020e-01 -7.115064937698483138e-01 -7.727035708369315303e-01 3.354154941134618872e-01 -5.389115307028392587e-01
-3.032721591833238695e-02 -1.800475138515360840e-01 -7.455430781232429416e-01 8.766049980057613045e-01 -1.809821625149503621e-01 4.458801793337882069e-01
7.312088481275661259e-03 8.071828998918447601e-03 -7.190559575693447059e-01 8.204030798875823205e-01 -2.728742366449046775e-01 5.024723250950542397e-01
-5.523545191880783328e-02 7.093399556849866450e-02 -5.953112992082437716e-01 7.754400167896956519e-01 -2.525155166811576812e-01 5.787302430290339750e-01
-4.859983114483019256e-02 4.366867824359551425e-02 -6.163985698827939563e-01 7.955387498058708040e-01 -2.528539630822474460e-01 5.506205325911062154e-01
-1.627915151739839708e-02 -1.533221111347207732e-01 -7.442602910755903300e-01 -8.685275373767376017e-01 2.070356287606078538e-01 -4.503289522582346605e-01
-4.623338000767181211e-02 1.195772677988192756e-01 -5.856816877050395886e-01 7.623216603675249115e-01 -2.751408660912720849e-01 5.858013229253112852e-01
-9.397110481543625993e-02 -3.788088753605924758e-02 -5.825463240623920402e-01 8.160280784371610752e-01 -1.854687032623667520e-01 5.474482033145519067e-01
-2.049344459332803870e-04 9.619417933731037873e-02 -6.470441606070783669e-01 -7.763780554593634475e-01 2.910048675662976203e-01 -5.590646492614778085e-01
-5.986155357195081100e-02 1.187859111849055155e-01 -5.533496596024506387e-01 -6.246568859724946909e-01 3.030220392781343697e-01 -7.197092597145506865e-01
-2.762948797870737674e-03 -3.505986568993305630e-01 -8.979705808760523045e-01 6.268134189038409021e-01 -3.577121303861590107e-01 6.922044276488511505e-01
8.673521290859813326e-02 1.172038587747455951e-01 -7.777802048007970148e-01 7.754068267307736573e-01 -3.721275175700892168e-01 5.101620955406573898e-01
3.982932825582873038e-02 1.631713032635918048e-01 -6.660786634333273337e-01 -1.989055424471979916e-01 8.122323900226235960e-01 5.483749901134462590e-01
-2.756483258074085563e-02 -1.306348499423917453e-01 -7.128648026849376818e-01 -8.548880191388050775e-01 2.091449397593831416e-01 -4.747892889545570205e-01
4.179413480532670824e-03 -3.358629087804250735e-01 -8.900842609286104823e-01 -5.554497816150553158e-01 -3.867932440968678276e-01 7.361158376402507919e-01
7.796806252579566512e-03 -2.043346343686336941e-01 -8.418422757960426495e-01 8.374168019465716428e-01 -5.769440342519997073e-02 5.435112286153680472e-01
7.349846066345794293e-02 7.116837088036181980e-02 -7.746651743646751909e-01 -8.104844508337316622e-01 3.312245386079510912e-01 -4.831203369562231953e-01
4.453984346901833022e-03 -1.682581012702058509e-01 -7.932763185199589451e-01 -8.783913854279040700e-01 2.223134217058314599e-01 -4.230901990539282509e-01
-1.712553017295478323e-03 -8.208975871812639047e-02 -7.375033329842454188e-01 1.030787906899112844e-01 4.610910049321158000e-01 -8.813454760084702411e-01
5.198312514591988537e-02 2.331117011409022666e-01 -6.421774933886728043e-01 -8.222628306926050845e-01 1.097548221953831005e-01 -5.584243156115646922e-01
-3.135467510026555132e-02 -3.980561242847110992e-02 -6.803058454144391698e-01 8.266659330754748680e-01 -2.298260577245956615e-01 5.136179691981437312e-01
3.972272752436333682e-02 2.603326482611081211e-02 -7.475350519597412369e-01 -8.231293375701644877e-01 2.960487182281962282e-01 -4.845753296101075192e-01
4.417269075480281804e-02 2.317402165813797488e-01 -6.319823105853830114e-01 -7.493969516220894134e-01 2.986215848887111557e-01 -5.909563079772260918e-01
-3.885176877767142906e-02 -1.516662998840240806e-01 -7.169760356046818162e-01 8.642095547500701080e-01 -2.024089510074132958e-01 4.606218210536318636e-01
-7.634560495513313845e-03 -3.772813654224282387e-01 -8.984266278139214634e-01 9.785802771154257229e-01 1.011366085938985998e-01 -1.793098648787108951e-01
-8.807914380485283579e-02 2.673866169302223372e-02 -5.679637901279526169e-01 7.909774812012947409e-01 -2.190062333630310998e-01 5.713063048668314270e-01
-2.992874246178019344e-03 -1.622863233624961543e-01 -7.796467401518772933e-01 9.847541424085444473e-02 4.618584435613322658e-01 -8.814700056730209177e-01
8.264460414185366421e-02 1.289566412674907625e-01 -7.630527819003776191e-01 7.751320860562651571e-01 -3.661134257969051453e-01 5.149089323533986295e-01
-3.128011572038767729e-02 -1.301184217226085404e-01 -7.217048478506694620e-01 8.587182924833929309e-01 -2.079290789046431831e-01 4.683677959683743008e-01
-3.444548241089585155e-02 -1.222297572663816334e-02 -6.489219315072154437e-01 -8.133263235732631768e-01 2.387043873241677383e-01 -5.305850609044635569e-01
-4.672782024651443017e-02 2.445876496888604174e-02 -6.146196472442394532e-01 -7.967183579849996811e-01 2.380854482429689278e-01 -5.554774319309744302e-01
3.457293297299563611e-02 4.708415306430125714e-03 -7.728455409283373490e-01 6.842374202879032419e-01 -7.200903482963634250e-01 -1.152781114009802516e-01
-3.664606476929758994e-02 -1.507711113721342810e-01 -7.121851895760057394e-01 -9.758600582765999953e-02 9.860709835495831133e-01 1.346884808295116531e-01
-3.474401427501088574e-02 -2.028805666916531358e-01 -7.261837169958207383e-01 -9.027088356040008366e-01 -6.621687367338360830e-02 -4.251259622316570508e-01
9.243859723294686401e-03 1.617246772314065439e-01 -6.377088443449558941e-01 7.597923059814829516e-01 -3.095198786428173809e-01 5.717631472001986070e-01
-4.571291501330237636e-05 -1.123423699146186977e-01 -7.549971312336651863e-01 -8.600346217343163291e-01 2.340109065169850844e-01 -4.534085851077487850e-01
3.092439310796013877e-02 6.528850483486709540e-04 -7.631269092555564848e-01 8.303005369598255303e-01 -2.902183198263044162e-01 4.757881305386066906e-01
6.885275059339948656e-02 2.464692769656883341e-05 -8.313301622186808348e-01 8.303738513468889026e-01 -3.245609723631362464e-01 4.529232188992198815e-01
6.912387904618341739e-02 1.216393145220810851e-01 -7.472899610975898277e-01 7.759341986972112526e-01 -3.489449419665888730e-01 5.255126513872437899e-01
-1.779272797001640177e-02 -2.059723809143458317e-01 -7.621347963450056939e-01 -9.055552717243103844e-01 3.905855122420091863e-02 -4.224264189519603141e-01
5.804892617931022014e-02 -7.466746299266452565e-03 -8.008772038223088696e-01 -8.377607876027683975e-01 2.981076155969180075e-01 -4.574808326895342114e-01
3.248648246924489696e-02 8.509714149906545330e-03 -7.610250793973081240e-01 8.244662099939115141e-01 -3.062287312872693512e-01 4.758985529631973854e-01
2.873473258072997000e-02 1.927184446880755575e-01 -6.459505292999079273e-01 7.492007053907494551e-01 -3.352336179144562722e-01 5.712413889609083695e-01
1.851446788933410956e-02 2.741391112149915016e-02 -7.121917783131331836e-01 -8.095886283704845088e-01 2.888567339883734153e-01 -5.110068884494294306e-01
7.770114458551768966e-02 1.046326024611281408e-01 -7.725583958906300230e-01 7.882381918636304219e-01 -3.542032469593167088e-01 5.032103066621667065e-01
2.907461956651592044e-02 -7.139016184502991469e-02 -8.039950160102220522e-01 8.563562793880411528e-01 -2.682105202425060231e-01 4.412675374236307846e-01
-8.480402446677245965e-02 -6.187672238457291030e-02 -6.117193190285084015e-01 8.219875207467201017e-01 -2.649039244395606230e-01 5.041452435094275764e-01
-3.635544005376292742e-02 -1.850976021075493305e-01 -7.195945907683700682e-01 -8.674357763243487618e-01 1.916543806980713083e-01 -4.591554990543110226e-01
8.643126318557466103e-03 -1.626521947697147710e-02 -7.348704888689655546e-01 8.281958870440838671e-01 -2.800635684561229022e-01 4.854440959645978659e-01
1.037902453334695226e-02 2.088663699481561054e-01 -6.130448269663700822e-01 7.362515931621317344e-01 -3.281070410556399253e-01 5.918440345022797366e-01
3.782117537406377156e-02 -6.770907414369944921e-02 -8.020099411841236092e-01 -8.563650755493383837e-01 2.681873185579448648e-01 -4.412645686479660379e-01
5.632807972350358308e-03 -5.804137198257459940e-02 -7.294768673866862674e-01 -8.171872073910950718e-01 2.680980132523967940e-01 -5.102239933269125949e-01
-5.567921977865707139e-02 -3.922021887045446659e-02 -6.414336431225926560e-01 8.210443669693919810e-01 -2.183873514315627928e-01 5.274401503512389233e-01
-1.954508523891909655e-02 2.035618170270737104e-01 -5.680050983295067413e-01 -7.313807500755035162e-01 2.977596407169895709e-01 -6.135319020059861739e-01
-3.241578483319712545e-02 -1.742098870238320274e-01 -7.225007524350784971e-01 -8.675564570523502939e-01 1.908410729360018043e-01 -4.592662394596508935e-01
-5.024959511668675161e-03 -2.197084517273052984e-01 -8.150880577159604901e-01 9.318809746745989608e-01 -1.377292722851985451e-01 3.356016933737211438e-01
3.709359776031541378e-02 1.597017382576819133e-01 -6.584170251196190815e-01 -6.393159767945670868e-01 7.687337218566081543e-01 1.798740380643476522e-02
1.404841581655304900e-02 -9.206730787418493378e-02 -7.874073409596500372e-01 8.572586643550893504e-01 -2.585441811827686731e-01 4.452667613517318768e-01
-2.984477924732871143e-02 1.846131066645929630e-01 -5.644722766358587496e-01 -7.418416176340509871e-01 2.850840091785672437e-01 -6.069580892094353919e-01
-1.038671551559044136e-02 -1.362712587077838655e-01 -7.474154792582654583e-01 -8.613827852146828112e-01 2.198469354064443992e-01 -4.579159555291676398e-01
8.078299168972170180e-03 -8.198777678915072920e-02 -7.464640243490926474e-01 -8.807757768888642147e-01 2.202628380531469476e-01 -4.191876823316629808e-01
-5.499166339020571809e-03 1.422302090927609342e-01 -6.338879907496079991e-01 7.647893408804423698e-01 -2.996852748589988735e-01 5.703384960778511426e-01
3.626491281819251705e-02 5.359419921590515001e-02 -7.253380768781051424e-01 -8.072122340969328791e-01 2.916007288668601150e-01 -5.132031021423725248e-01
-1.770122814828453683e-02 -1.251989374638283747e-01 -7.445236297301310868e-01 8.631150354041603467e-01 -2.274560448769278598e-01 4.508837802673992812e-01
-1.119782283404506008e-02 1.515792268306497270e-01 -6.159692675116756888e-01 7.537320026896086045e-01 -3.035966835670376729e-01 5.828525729964723068e-01
9.402492651486521122e-03 -4.907859012249884273e-02 -7.388861433509954502e-01 -8.393148150072468061e-01 2.589647045137893899e-01 -4.780041036700805601e-01
8.472247125426561609e-02 1.669530717959918642e-01 -7.273351958485433366e-01 -7.805815714196283617e-01 3.501153614499478706e-01 -5.177949826300328739e-01
2.891804697437725183e-02 1.227357125768521601e-01 -6.871167333842649327e-01 7.726764769043928949e-01 -3.213635032778368039e-01 5.474454866008222620e-01
-2.438087926542749709e-02 -1.432589629547778298e-01 -7.242540646661225212e-01 -8.637764034604059615e-01 2.062394394796881192e-01 -4.597342911161950152e-01
-6.670335402400850988e-02 -4.546878804767618548e-02 -6.136376984936037227e-01 -8.138001483619762277e-01 2.113053176913921027e-01 -5.413680644823498644e-01
5.162412283944987218e-02 1.382690344783605307e-01 -6.972637178963656535e-01 -7.851969122827405778e-01 3.258618949150498545e-01 -5.265736742223481315e-01
7.355458556859496844e-02 4.992267643696750301e-02 -7.894171036814026099e-01 -8.185261027912679177e-01 3.259923986911107407e-01 -4.730158295923665990e-01
-8.754664395596353788e-02 2.150796060450542446e-02 -5.706969855415122694e-01 7.961510592225400362e-01 -2.101215530943794374e-01 5.674437626972682613e-01
2.026096669479511016e-04 1.281122759536411360e-01 -6.309815026405997118e-01 -7.561827474831867013e-01 3.001622419431412836e-01 -5.814553129178942070e-01
-6.605129341767614071e-02 7.307314833119567254e-02 -5.797574686655242449e-01 7.840315900913502611e-01 -2.395292875275475408e-01 5.726431577827281183e-01
1.138702311708831259e-02 3.615016923570758909e-03 -7.283607836416611248e-01 8.218171485281728916e-01 -2.822324600351843182e-01 4.949357664258171585e-01
3.878059356232581301e-02 -7.873534158657807813e-02 -8.346435991378721164e-01 6.060470923831925427e-01 2.673497019184800649e-01 7.491535614932213205e-01
-2.159005130575825798e-02 -1.463080176649474984e-01 -7.248527794097449073e-01 -6.080288013512425982e-01 7.645410996700150452e-01 -2.139576678755294725e-01
4.636707369384929223e-02 -8.454856198628464548e-02 -8.468747359890957949e-01 8.638522994759223472e-01 -2.801612691893987095e-01 4.186512485785118254e-01
-5.059686319001498699e-03 -8.154022817089048858e-02 -7.376373127569596511e-01 5.687867178457940431e-01 3.843527603011656635e-01 -7.271551589936522397e-01
6.033117984211931045e-02 1.620352715279189601e-02 -7.825738050372345045e-01 -5.609396935861091782e-01 -2.485689978195228245e-01 -7.896582257423271356e-01
1.954303267403529470e-02 2.321571758910776218e-01 -6.111896850118897495e-01 7.292124108086145418e-01 -3.422159272908816274e-01 5.925685774922008209e-01
1.659699832916389228e-02 1.444103841265345078e-01 -6.381661283104750337e-01 -7.653848796675315480e-01 2.894697770219292199e-01 -5.747984291620783504e-01
7.071737940777919618e-02 2.013906480153813683e-01 -6.850372952119356817e-01 -7.588903264119715164e-01 3.441316847249477062e-01 -5.528642293065273439e-01
9.213443509138736359e-03 -1.707323872069335113e-01 -8.224832181067702752e-01 8.823901068733663866e-01 -2.315931633490605768e-01 4.095757634211094067e-01
5.574252029221387489e-02 1.761484861477003172e-01 -6.799013806727084441e-01 -7.656703980588854819e-01 3.363483644445345311e-01 -5.482869862324241117e-01
4.588326979314055754e-02 -5.305211655786739450e-02 -8.080137396995876742e-01 -8.490011318384905747e-01 2.870852421086197981e-01 -4.435979507396278221e-01
5.135458213354757162e-02 1.255862748748757807e-01 -7.181868442120953322e-01 7.795714448653067175e-01 -3.461210959644150376e-01 5.219852002490208420e-01
3.284143421787788508e-02 1.362210731219827275e-01 -6.847292487300156161e-01 7.718656862297681442e-01 -3.219127387427832554e-01 5.482659492036412452e-01
-2.069069531134081971e-02 6.600990724503680296e-02 -6.328353573895892925e-01 -7.863862102270856580e-01 2.602639771340557462e-01 -5.602315508528999954e-01
-7.500853459663586742e-02 -2.887257214433209054e-02 -5.951240860704840596e-01 -8.044656113760623173e-01 2.018879046609416417e-01 -5.586379454216773288e-01
7.989216725605600977e-02 5.496665118058165211e-02 -8.112671396392117096e-01 8.062029750531936045e-01 -3.533935936055965232e-01 4.744994531228693968e-01
7.837771690677164393e-02 8.364417839640168884e-02 -7.742972903038581878e-01 -8.104844508337316622e-01 3.312245386079510912e-01 -4.831203369562231953e-01
2.774976502986655630e-02 2.934919113050222725e-02 -7.403450935034543434e-01 8.145537181284842054e-01 -2.886018836272060129e-01 5.032009469882685604e-01
-6.368984110770219143e-02 3.331224693520148245e-02 -5.948623524418531483e-01 1.790128150430471410e-01 9.236729294238370525e-01 3.387960027803619822e-01
-2.592026357058607733e-02 9.693809047145973690e-02 -6.234147373951922644e-01 7.854019190564986985e-01 -2.737504845001605402e-01 5.551616861584530715e-01
-4.739813623660724812e-02 1.080063898606647629e-02 -6.327731405424485978e-01 8.036769200892263099e-01 -2.464217372823116481e-01 5.416453964640173258e-01
2.521169068748704833e-02 -1.025484043839519459e-02 -7.599157837594647802e-01 8.266660139184116574e-01 -2.926044163183865732e-01 4.806307907148906766e-01
-9.248769550115464033e-02 3.583220619885343905e-02 -5.629908463686944531e-01 9.068631501270041362e-01 -2.834783497018120157e-01 3.118320897407195202e-01
-4.949154621180062996e-02 1.748739078817629911e-01 -5.456604059439147392e-01 -7.090993038148020178e-01 2.437224173309913144e-01 -6.616476106052988637e-01
