2.874765974883406253e-03 1.797658630217696396e-01 -7.977158213587570712e-01 -9.861756255207230204e-01 -7.721229282009506312e-02 1.466147927948413809e-01
-3.703701131688275083e-02 9.902375296080270783e-02 -1.001098363443057915e+00 -9.572549936998125952e-01 -5.331548151624179721e-02 2.842891775419230105e-01
1.616256053578753182e-02 -5.127142508354430583e-02 -8.381586748241254270e-01 9.527349001662180905e-01 1.649946267782146370e-01 -2.550940672371350693e-01
2.512767134861958532e-02 -6.680081912742000250e-02 -8.436158848558831247e-01 -9.516835237958941596e-01 -1.819597007372407704e-01 2.473643827292915376e-01
1.193255858775200441e-02 -2.786328360785075495e-02 -8.690145813489269511e-01 -9.558885898004925163e-01 -1.435259259123395081e-01 2.562758523158808477e-01
-1.115326097497762285e-02 2.037913353672648198e-01 -8.852260565966838524e-01 -6.010919261601553876e-01 -6.839285286437930544e-01 -4.134371342927615767e-01
2.935326150312733543e-04 1.972327310458958094e-01 -8.054689145839779574e-01 -9.861168966220625887e-01 -7.165224867011929510e-02 1.497979354229805049e-01
-1.073448883030048238e-03 -9.271937824965245656e-02 -9.226037628116315892e-01 9.421529814953003568e-01 1.550628964263931209e-01 -2.971586404790777514e-01
3.166408907187158450e-02 -1.081811677118831722e-01 -8.489366665234231446e-01 -9.448662090802810720e-01 -1.916673543382260148e-01 2.655023017211776137e-01
-2.093722718956836024e-02 1.350029021204721680e-01 -9.448176096295842763e-01 -8.280783443486473550e-01 -5.258523358109099544e-01 -1.943336732092843244e-01
3.145920794634939066e-02 3.223606734471760882e-02 -7.338163236763616259e-01 -9.749816184359215709e-01 -1.537005625547958332e-01 1.605832518739428727e-01
-2.696362700080851341e-02 1.948395352308624762e-01 -9.448091146350293679e-01 -9.000351847327948684e-01 -2.390947919228615937e-01 3.643766550128690329e-01
1.414732805331625314e-02 -6.383677751908044262e-02 -8.820955277694146890e-01 -9.487009675059228098e-01 -1.603503178337664370e-01 2.724963299274613671e-01
-2.861168498543001457e-03 2.778596623796403264e-02 -8.669192722861507328e-01 9.660871734432023850e-01 1.167820241488178590e-01 -2.302987888466386801e-01
-1.108252191317760094e-02 -1.122960962917970637e-02 -9.428588174514334064e-01 -9.514579330110786159e-01 -1.225739469787814895e-01 2.823179576865919582e-01
-1.736291419281197701e-03 -6.407807861059877652e-02 -9.275023450760542243e-01 2.857885630455844761e-01 -4.316103571771329195e-01 8.555918400789991329e-01
4.666572433941141435e-02 -1.112517780736813067e-01 -7.945541418135603218e-01 -9.512010172502576300e-01 -2.030651793442180830e-01 2.323384551037029622e-01
-2.218357673308939126e-02 1.718613102491926004e-01 -8.990752208995750339e-01 9.775869084360903072e-01 4.426678264048926337e-02 -2.058258691443478894e-01
-1.646137215962684489e-02 1.208487206882834925e-01 -9.333913702360545628e-01 -9.764486913895187303e-01 -1.383003220819260248e-01 1.655927957241244419e-01
3.906455972277220884e-02 -6.569655289595946468e-02 -8.019362459384353770e-01 -9.613910431419570024e-01 -1.244568334338719551e-01 2.454338175110205855e-01
-3.766806183803408925e-02 -1.394189541659127951e-01 -1.037402917898267996e+00 8.074036020894044263e-01 -3.328164365011988118e-02 -5.890600610540499549e-01
-6.166546562387407657e-03 1.312620483739376509e-01 -8.120535914254193299e-01 9.756320009086926204e-01 9.923287639583500130e-02 -1.956911726295021137e-01
-3.984757056394402398e-03 1.094578630384596546e-01 -8.665984628877260176e-01 -9.779301252241392461e-01 -7.941451859003986757e-02 1.932511433762069131e-01
6.377198837398834023e-03 1.295657679325248612e-01 -8.037543650527042560e-01 -9.825167105406700241e-01 -9.129512836192875402e-02 1.622532373967303099e-01
1.901881159859464959e-02 1.078296176338052609e-01 -7.424156503223331427e-01 -9.813132481250690375e-01 -1.240927484808512782e-01 1.470554277430603241e-01
3.787298433308053380e-02 -7.911721328522945684e-02 -7.714188848822139954e-01 -2.426732795381928223e-02 9.800337683027999791e-01 1.973446472043155209e-01
5.748836447331513201e-03 -2.609176503787264192e-02 -8.622211684871007309e-01 9.598863660911642892e-01 1.439948737330184747e-01 -2.405901920920948123e-01
-8.006518738562935431e-03 1.309586181651109515e-01 -8.771783485499253796e-01 -9.780865913956331426e-01 -6.657397229448309972e-02 1.972676505284242932e-01
-2.138985714815135053e-02 -1.094541038912067998e-01 -9.798020835808909368e-01 9.390403556830649867e-01 1.619140303720618401e-01 -3.032936813837334711e-01
-7.745059033739599107e-03 -2.765690348972068557e-01 -1.030429427350708638e+00 7.214835369355240280e-01 -3.131623127365545378e-01 6.175685158850784395e-01
-3.600210276464384240e-02 9.350667411370711807e-03 -9.930223159651035969e-01 9.521828907746896498e-01 7.305264963781792076e-02 -2.966665685527261065e-01
8.945386279306719729e-03 -1.379625541210968698e-01 -9.093464578648610130e-01 8.672044527902025290e-01 -2.970628862602059939e-01 -3.996374340168863948e-01
2.420848563776446111e-02 3.886928844080719814e-02 -7.860322454218661159e-01 -9.745435936025980128e-01 -4.316542527651393013e-02 2.200034777653111784e-01
2.566981979471332897e-03 2.396486433672800898e-01 -7.654955046568928667e-01 -9.871053752737909415e-01 -1.057834430936942377e-01 1.201367607055862929e-01
-6.627174984737079638e-03 2.436261452532072491e-01 -7.901074136104853096e-01 9.911700981190573190e-01 9.774080051241708020e-03 -1.322357892320006612e-01
3.363852893488605833e-02 -2.201762664506540582e-02 -7.378951848386440249e-01 9.590132356269230884e-01 1.953498158118865957e-01 -2.052609640302842375e-01
-3.966312178171838010e-02 3.703677911628435598e-02 -1.021205674812387221e+00 -9.432743711530717778e-01 -7.136996834843369053e-02 3.242526612746923220e-01
-2.608844223364411088e-02 -1.448501704316776106e-01 -1.032551677777304056e+00 -8.524287817258209277e-01 -4.890412385114992905e-02 5.205512066605781918e-01
1.404361664448777053e-02 2.124190045569157928e-02 -8.306043727125650422e-01 -9.652193014995045228e-01 -1.352329278765808940e-01 2.237493133637192266e-01
2.995193884556668004e-02 -5.241724412666575600e-02 -7.826471170902064012e-01 9.594421322198048996e-01 1.847937497317277133e-01 -2.128897953909527629e-01
2.502025065925252839e-02 -1.535578205786447270e-01 -8.856771956511154675e-01 -4.844606875073931285e-03 9.775297841712117242e-01 2.107416685005846779e-01
1.273561674890783977e-03 -1.369169418277241257e-01 -9.388356649041117441e-01 9.333650332255878368e-01 1.682617720076528822e-01 -3.170452504495877011e-01
3.820384598741163873e-02 -1.674041021436702414e-01 -8.449695486828990854e-01 9.291178863756729411e-01 2.296695445470990082e-01 -2.898134805773014411e-01
4.859083754186190734e-02 -7.937598621792893439e-02 -7.553462880571620852e-01 -9.671196428905222131e-01 -1.883582847583913367e-01 1.708822778938330622e-01
2.969920109234172254e-02 1.588309166180378908e-03 -7.720791175910408644e-01 -9.664814968129287198e-01 -1.587630837277093365e-01 2.017617395927900348e-01
-1.480684432298651036e-02 -1.849788241098190011e-01 -1.002722135086480115e+00 8.737149452865595745e-01 1.056380711800735672e-01 -4.748292243536172408e-01
-4.289589207162455148e-02 6.024496308362117802e-02 -1.004301642714261256e+00 9.574417672149876379e-01 5.258884802408095999e-02 -2.837951293728301350e-01
-3.946898020643544586e-02 1.114869908929821268e-01 -9.836720830245102576e-01 9.665939448091894759e-01 2.559687464363244458e-02 -2.550312644886645330e-01
-2.763815058452629217e-02 1.331303783606561410e-02 -9.894750906217152364e-01 -9.500735734298948465e-01 -7.549794782215271671e-02 3.027544631294366573e-01
2.822380387818924745e-03 1.518421150887026005e-01 -7.685851855741899774e-01 9.846719806186670088e-01 9.295002639928258426e-02 -1.475851726186730439e-01
8.104874151009113610e-04 -3.381442092875381333e-01 -1.045067982082085623e+00 -3.012062515006396213e-01 4.312610095949753197e-01 -8.504638355979964315e-01
1.769452511952751203e-02 -2.266108902513020440e-01 -9.558083157254433360e-01 7.787188452951556705e-01 5.135222218423465268e-01 -3.604051715171121550e-01
1.710148052599399018e-02 -1.363777581575558728e-01 -9.052931886755564150e-01 -1.832378419444636859e-04 -9.780683932032571137e-01 -2.082839039404922321e-01
3.003858618251514095e-02 6.651933220037879735e-02 -6.926366834148757201e-01 -4.245097854034537987e-01 -4.051431713480711100e-02 -9.045164632021983619e-01
4.297827554590285745e-03 -9.380016208032882288e-03 -8.580902092737690001e-01 9.607745884262123282e-01 1.323953250671051907e-01 -2.436876446084569325e-01
2.887183559699424765e-02 -3.486369682462407693e-02 -8.054365535025493905e-01 -9.591530438992131868e-01 -1.721195062402726406e-01 2.245001424286375280e-01
-7.303460549162270679e-03 2.461985107352322177e-01 -7.952437910188794312e-01 9.872340407582338440e-01 -9.539306506478628656e-02 -1.275504288731146296e-01
-3.815396842776259956e-02 -1.143550878908886764e-01 -1.052125690358778343e+00 -8.381314147708296414e-01 5.718880733468276883e-02 5.424621386694964409e-01
-3.236534920267206128e-02 4.879311594980353245e-02 -1.007758389999984683e+00 -9.635502892204554914e-01 -1.209931202623071161e-01 2.386032375982506393e-01
-5.196534740649291512e-04 -2.700124121033566776e-02 -9.137301159618640423e-01 -9.544595471505672446e-01 -1.244980249607565009e-01 2.711221396972310349e-01
-1.554150235095241861e-02 -4.678801003001635539e-02 -9.467748552982745425e-01 9.470476100067538594e-01 1.272063787912367239e-01 -2.948208974535486693e-01
-1.136084384662948421e-02 2.157930121323128891e-01 -8.686038852676862820e-01 -9.827631534830890692e-01 -4.980596214807594957e-02 1.780335650670359093e-01
2.924968598813587617e-02 6.627270841939011947e-02 -7.139230032543559812e-01 -9.799994602389036080e-01 -1.510990598068408242e-01 1.294995446206124168e-01
7.024346031228238633e-03 1.253897362430788920e-01 -8.021853265110391318e-01 -9.825167105406700241e-01 -9.129512836192875402e-02 1.622532373967303099e-01
1.457558394092117737e-02 1.101424373093003034e-01 -7.682601163861451088e-01 -9.821272591133326513e-01 -1.102360552405299982e-01 1.525583790931820116e-01
-5.070233936356864819e-03 2.134430234679538241e-01 -7.886823181126197957e-01 9.883489305869814778e-01 5.940547099489575100e-02 -1.401334414886200030e-01
-2.620635444804208375e-02 2.220235849360737562e-02 -9.887802907220661908e-01 -6.147541913771102928e-01 4.446979418607198697e-01 6.513992820759899605e-01
-2.128287870896429599e-03 4.000977020226060372e-04 -8.947930302282426362e-01 2.857362472042101476e-01 -4.319373705965279808e-01 8.554442734134189985e-01
-5.051050200514430738e-02 5.123912512217232429e-02 -1.032051809542765985e+00 9.638260412937053045e-01 3.282118088072409623e-02 -2.645035580284305632e-01
6.092730318415162487e-03 1.258542940938450205e-01 -8.074669788881700949e-01 -9.785211713762925756e-01 -1.000916210007529727e-01 1.802164936231138159e-01
3.728335762710838913e-02 -1.385608246270867705e-01 -8.516400770252346986e-01 -9.395257058517919591e-01 -1.967469495899064613e-01 2.803249647654638133e-01
5.636843031773403241e-03 1.329516198578353792e-01 -8.060004789389446644e-01 -9.785211713762925756e-01 -1.000916210007529727e-01 1.802164936231138159e-01
4.134080169844748381e-02 -1.612980702624387808e-01 -8.470983672091749739e-01 -3.311107285831958458e-01 8.934876257752808471e-01 3.033900921314947596e-01
2.516813260143733327e-02 7.659841912630518945e-02 -7.301810765783569579e-01 -9.774709862603336852e-01 -1.469076741298505351e-01 1.515539715778118912e-01
-9.470127258146988219e-03 2.109226872735721348e-01 -8.595294425879123068e-01 -9.827631534830890692e-01 -4.980596214807594957e-02 1.780335650670359093e-01
1.645473574830220694e-03 -5.589958279581876827e-02 -9.204347021328953549e-01 -9.519255854715508169e-01 -1.350367118483634943e-01 2.749595718970827551e-01
4.888698820811564899e-03 1.482453828625046321e-01 -7.576642619551551272e-01 9.821878271474272504e-01 1.051419915525470261e-01 -1.557312872090237943e-01
-1.869889732163850307e-02 2.261920710895032050e-01 -8.708413589864196780e-01 9.878003171204347010e-01 -4.374474041035016254e-03 -1.556643744523220907e-01
3.223299355086391843e-02 -1.664410024606015615e-01 -8.631881186812134787e-01 9.228384289073499058e-01 2.289847754444711836e-01 -3.097340903847343729e-01
-8.576441580293898623e-03 5.838177989630589232e-02 -8.615328141152210906e-01 7.964270300577355188e-01 5.537643597434607212e-01 2.430000404759834476e-01
6.785741654345042208e-03 7.092834963238758839e-02 -7.979699839309274401e-01 9.739988918581188315e-01 1.186046197170588790e-01 -1.930261713885660924e-01
7.107582228800243818e-03 -1.258664772805374588e-01 -9.428205992336378127e-01 -9.933781624111598374e-01 5.196090776501460784e-02 -1.024689733961586940e-01
-1.064815379049856292e-02 9.691637195929682369e-02 -8.682810249697553440e-01 9.735879644286589141e-01 8.489306407539427834e-02 -2.119425469120136962e-01
-3.274945756659090879e-02 9.537699016583522926e-02 -9.869704458432565497e-01 -9.628852656587759684e-01 -4.291727377884758249e-02 2.664771524701877170e-01
1.745586903343034763e-02 4.943828061489134035e-02 -8.032022540488378270e-01 -6.613703792886310717e-01 -7.495948599300314985e-01 -2.639635137834064546e-02
-2.203529364708518151e-02 2.246345257480740140e-02 -9.799470885336519776e-01 -9.620439075569332532e-01 -1.486074791250609761e-01 2.288828020640285843e-01
1.532962214184588508e-02 -3.792592253722316172e-03 -8.089206050317439001e-01 9.645218030460992464e-01 1.638928686817643920e-01 -2.069705753095436307e-01
-1.408416892793733742e-02 8.640065631683663261e-02 -9.001915388883391378e-01 3.060842054403443147e-01 7.742659314291013839e-01 5.539176171671914561e-01
7.799541405709169498e-03 4.123443119235149779e-02 -8.123723275906287178e-01 9.697248579836563742e-01 1.275859543506684401e-01 -2.082198935284675922e-01
-4.573476188303204557e-03 -7.745152683764484902e-02 -9.505294979920905218e-01 -9.409767935470820799e-01 -1.448359314360270766e-01 3.059170262847595856e-01
-2.581430519295952949e-02 -3.470705981140598251e-02 -9.981792407608803819e-01 -9.430590939528337158e-01 -9.890305837454171911e-02 3.175810610805088752e-01
-2.419387023476844006e-03 1.381834996548023109e-01 -7.919678105346723562e-01 5.703662856575976159e-01 -7.627785087907044126e-01 -3.047150254125730595e-01
-2.761081255774595206e-02 -1.069338136486676083e-01 -1.027350486438485699e+00 -9.252911322023521512e-01 -1.281663007930425868e-01 3.569449817671012104e-01
-3.716414034979383454e-03 2.297801347813430151e-01 -8.173738492650379772e-01 -9.861808269430385465e-01 -6.959974996366104227e-02 1.503437773070111505e-01
4.842952955912914470e-02 -1.609893349717483602e-01 -8.299758309978237936e-01 -9.463526394513605000e-01 -2.052255262093588273e-01 2.495980071946384826e-01
1.194019119488916661e-02 -1.255849284482374595e-01 -9.001095905733553781e-01 9.364845034543961555e-01 1.745722441778095879e-01 -3.041731519258332739e-01
7.219923213812344184e-03 -3.653103943563303924e-01 -1.071266450373058232e+00 -8.829468630211259050e-01 -2.059241138009715033e-01 4.219005764827033489e-01
-2.078784954467960758e-02 -7.428096985333343394e-02 -9.742746613688304524e-01 9.417052067834186246e-01 1.202570669409160492e-01 -3.142125735354437954e-01
3.265174186790958943e-02 -1.602282655831223923e-01 -8.546168911721421235e-01 -7.245863112347869679e-03 9.772595931051762941e-01 2.119225923578290371e-01
1.935443218601769905e-02 -1.713726423074148908e-01 -9.061336467057666821e-01 9.248933114877659900e-01 1.996307786366221526e-01 -3.236045651503237641e-01
-8.190384073518944610e-03 -1.282278226546737510e-01 -9.615568045847899814e-01 9.358565864701772208e-01 1.535353844102455012e-01 -3.171739826883435143e-01
1.385928323743251984e-02 -5.985795204408880799e-02 -8.807570233789038250e-01 -9.487009675059228098e-01 -1.603503178337664370e-01 2.724963299274613671e-01
5.582452700874039261e-03 2.233708148099685931e-01 -7.503586402510944442e-01 -9.901826940999086668e-01 -1.121409746752696224e-01 8.344239991711001336e-02
2.131406847563200365e-03 2.178371930877325557e-01 -7.364378483726102820e-01 9.659283018155786493e-01 -1.810240617367580782e-02 -2.581759451273408779e-01
-1.555073071477315258e-02 1.749619648582487752e-01 -9.006351065305658876e-01 -9.761202798818912063e-01 -4.935203016474039306e-02 2.115504108289950613e-01
-5.116038697125163681e-02 -4.226853449677418773e-02 -1.047057657637006756e+00 9.892723741300794016e-01 -2.656761746063091706e-02 -1.436465505520459485e-01
1.633736763519078039e-02 1.518226285707861001e-01 -7.219965571074143940e-01 -9.846718074954148303e-01 -1.207735347399945258e-01 1.258379308083219517e-01
2.022964934227073491e-02 -5.233711409877133541e-02 -8.652288757017346787e-01 -9.358770214812076604e-01 -2.577099297180555637e-01 2.402494386844179208e-01
1.041106384470451762e-03 -2.283362257243971849e-01 -9.913808320145816033e-01 8.574446666417309126e-01 2.762003708244510913e-01 -4.341681688056904798e-01
2.381087395964871789e-02 -1.549060307231106548e-01 -8.794621176002547225e-01 -7.245863112347869679e-03 9.772595931051762941e-01 2.119225923578290371e-01
-6.698248417406490844e-03 2.151164526905121888e-01 -7.993176601222607980e-01 9.854252608250038126e-01 5.851869938146960631e-02 -1.597266951723285144e-01
7.064906745785580131e-03 4.318767035875394761e-02 -8.613899559333635381e-01 -9.811273099116278873e-01 -8.523280383390458015e-02 1.735643134292980116e-01
9.712097328732328949e-03 -1.841389535922338117e-01 -9.412031114708333535e-01 9.181223954688041422e-01 1.959532275407936119e-01 -3.444613179371099898e-01
1.030261726389392063e-02 -1.856827476360635443e-02 -8.698757178720216698e-01 -9.583630669311633543e-01 -1.463419173857046507e-01 2.452025186619619102e-01
-3.490347459489478998e-02 1.068313883562282789e-02 -1.012688884049374849e+00 -9.468508702666992294e-01 -7.913048845174956714e-02 3.117880614657685401e-01
8.557826900885138338e-03 1.386368535174992422e-01 -7.398199068744303331e-01 9.821027885438220473e-01 1.141015240205087988e-01 -1.498497746099271555e-01
1.677006670391030518e-02 -6.734095191601315034e-02 -8.463176536273077089e-01 9.506628617300015849e-01 1.835693347141695575e-01 -2.500848309672565328e-01
-3.978838511273978529e-02 6.824362458981359696e-04 -1.007248912803574425e+00 9.485241698446993386e-01 6.983864684347380891e-02 -3.089085020317441921e-01
-1.148319335316065268e-02 1.506778695686814273e-01 -8.878573341423270371e-01 -9.783113456506201677e-01 -6.600314292596025367e-02 1.963428025041102920e-01
-8.694736917281755545e-03 -3.323053109502738245e-01 -1.056682831914816711e+00 9.997065683964452276e-01 1.095542422185721669e-02 -2.160453158766710569e-02
-4.177487434723909342e-03 -1.815548342426397954e-01 -9.767147418830450789e-01 9.082796740191767526e-01 1.892110196730605598e-01 -3.731316440586329719e-01
1.171417390827744244e-02 3.784235593405792242e-02 -7.958041061269287564e-01 9.705943518514469348e-01 1.368607090552320105e-01 -1.980296706833805376e-01
-9.655568084183186253e-03 1.701224170166904803e-01 -8.730010616031007586e-01 -9.779974232257930833e-01 -5.876609455827704748e-02 2.001688944218761868e-01
-3.159960020202326968e-04 -1.412572091073399649e-01 -9.341077619696461776e-01 9.220780563218855530e-01 2.264659704052087441e-01 -3.138235528096648963e-01
-2.063997961642786289e-02 2.013346916847479628e-01 -8.853897394785781305e-01 9.835843972904001475e-01 2.759847317371541195e-02 -1.783257067429138976e-01
-1.375644990587613151e-02 1.174371086417723004e-01 -9.075958443116093344e-01 -9.726916200620121522e-01 -5.878484528802069287e-02 2.245336371807160059e-01
1.207791174944017852e-02 2.259455521206078094e-02 -8.048300538434172147e-01 9.663168716723400387e-01 1.454423717929808901e-01 -2.123163206364837852e-01
-7.454570153656722535e-03 3.090789077116094102e-02 -9.131031717648009360e-01 -9.618335012433856246e-01 -1.042917911348126697e-01 2.529813000752875185e-01
3.267725574696730972e-02 -1.340845518079733512e-01 -8.639360139938021543e-01 -9.395257058517919591e-01 -1.967469495899064613e-01 2.803249647654638133e-01
4.482375266605773817e-02 -7.733610432904769461e-02 -7.714862436045262228e-01 -9.578227750728542933e-01 -2.000422625094771256e-01 2.062974182141544544e-01
-3.892611643036383157e-02 -2.951234594129920411e-02 -1.034452960097765883e+00 -9.404677462752747408e-01 -7.933375538040735031e-02 3.304944378853401643e-01
-4.229607457150104909e-03 2.316033749641696893e-01 -7.654981114746568505e-01 2.086271990890444794e-01 -8.979091157701752923e-01 -3.876001955844220470e-01
4.117457703223882486e-03 -1.940031262720596783e-01 -9.825937077878882375e-01 -9.073582372546981079e-01 -2.044164422634474620e-01 3.673077012783715900e-01
-1.786419464199455118e-02 -1.510927228247928022e-01 -1.018724275993690975e+00 -9.185124372153525840e-01 -1.465356431940477711e-01 3.672359023222259711e-01
4.001650829445011631e-02 -1.864576799947834929e-01 -8.774314695713032464e-01 -9.319370898079242238e-01 -2.065402114495856201e-01 2.980510051898790369e-01
4.562864467199267970e-02 -1.199273148613082263e-01 -8.063346858130004957e-01 -9.500627392731911813e-01 -2.051616991492805075e-01 2.351371273255252747e-01
2.572947872656717455e-02 8.391548297601356121e-02 -7.193709722574428422e-01 -9.773827818310379945e-01 -1.481185882045991942e-01 1.509429746907668957e-01
2.055530776811384519e-02 -2.229223329516252516e-01 -9.626517217939217774e-01 -8.935501019702931647e-01 -2.229513307193018434e-01 3.896933658652287358e-01
-2.771951268309645958e-02 4.126930550429123989e-02 -9.820988257357136098e-01 -9.552013954473863588e-01 -6.986797565448453484e-02 2.875913074369774169e-01
5.871762974124877972e-03 -1.141504592760433923e-01 -9.124178315510907966e-01 9.395049849992249680e-01 1.705152160451675059e-01 -2.970773371677408181e-01
-3.216750589405064503e-02 1.296394878017957664e-01 -9.788788688681820949e-01 -9.622740148705934971e-01 -5.035681235879464063e-02 2.673815845451765760e-01
7.531633233300971675e-03 -2.761626808660672117e-01 -1.025574957035079615e+00 -8.825971999953309277e-01 -2.126231513899144443e-01 4.193012974621272981e-01
-3.071583890639294906e-02 -4.370730185110290045e-02 -1.015163508109560686e+00 -9.418448899427354082e-01 -9.186365668596281620e-02 3.232480036582434657e-01
1.085908407693338476e-02 1.383301034872944091e-01 -7.718177864614556016e-01 -9.821926957795168445e-01 -1.003201226998516327e-01 1.588501852024484240e-01
1.531809201191104003e-02 4.613634901491509011e-02 -8.225115537255747178e-01 -8.023473165385477390e-01 5.029778661095392067e-01 3.213285699207058532e-01
8.969513071577259883e-03 1.884322780230375527e-01 -7.494051492646972568e-01 -9.878093160477386947e-01 -8.836964196500038393e-02 1.281544439661617407e-01
2.569182453068162217e-02 -1.220610664242477578e-01 -8.526979781893727628e-01 9.367358214974113029e-01 2.011775309654386668e-01 -2.864499987052190333e-01
1.816178761833885449e-02 -6.437290971420232821e-02 -8.468647541526048705e-01 -3.618839501851247187e-03 9.822373515709322822e-01 1.876078068193869353e-01
2.543533762887698058e-02 4.081602651850435581e-02 -7.778240618567645592e-01 -9.582318541497889530e-01 -2.349087204068583956e-01 1.631245130857708336e-01
-3.946210237427745515e-02 -6.181599174325122514e-02 -1.044408991738732029e+00 -9.252263434263734432e-01 -9.389061179303527516e-02 3.676149703793247792e-01
2.363290462682399867e-02 -1.526036882181890930e-01 -9.052284397351211265e-01 -9.322879033921811498e-01 -1.940882154957838113e-01 3.052360230940528441e-01
2.077474678957787202e-02 1.326551437610450079e-01 -6.994416290367971856e-01 -9.690823958780002689e-01 -1.860342878398853761e-01 -1.620819352897204524e-01
-4.822031353116645359e-03 8.362949298459555758e-02 -8.500211886211792578e-01 7.083243834913879322e-01 -3.209013823620682215e-01 6.287279781826626834e-01
-6.390377229140652669e-03 8.504609664941802094e-02 -8.540089125439934703e-01 9.707495874493672350e-01 1.028592597272229847e-01 -2.169451800691840626e-01
-1.430301712305449358e-03 -9.730325441407945697e-02 -9.503037433578955806e-01 -9.405267920660392855e-01 -1.464230588968801205e-01 3.065446806409238278e-01
-6.687751004831748308e-03 -5.175884057126208665e-02 -9.201153802023441797e-01 9.512940740994810795e-01 1.297454261801528064e-01 -2.796528365108091330e-01
2.417823959013821328e-02 -1.318311739688359241e-01 -8.646003423805891375e-01 9.416776499617968144e-01 1.932824746872011668e-01 -2.754724823666038769e-01
-1.624437025231209586e-02 -4.582858813611732918e-02 -9.731901221841124938e-01 -9.419497346240355284e-01 -1.201484260538192017e-01 3.135204190455521123e-01
1.090511063608689754e-02 1.123672066386648544e-01 -7.305478964565210731e-01 6.715139002711869587e-01 7.386989473006991824e-01 5.824900857025101797e-02
2.925803119339979649e-02 2.273510053738288586e-02 -7.167210771579639594e-01 9.704881664424821475e-01 1.692823036742182596e-01 -1.717446373481824329e-01
1.138779807081595485e-02 1.425457190987049483e-01 -7.653643335975311990e-01 -9.821366214210484058e-01 -1.103201165004505796e-01 1.524372945147453307e-01
4.371597310428814234e-03 1.660526485452674672e-01 -7.492819523836266038e-01 9.846953303532426371e-01 9.362480478646947879e-02 -1.470017085248118138e-01
-4.471698730401774298e-03 1.725315060453920524e-01 -8.444025080133986672e-01 -9.821976314266549490e-01 -6.885639367870513561e-02 1.747758846907424279e-01
1.896901700951948364e-02 -4.817203574145975664e-02 -8.547359015342688160e-01 -9.552814624033375557e-01 -1.643941151186665006e-01 2.457883286547418444e-01
2.071144417527254200e-02 -6.760680031252076783e-02 -8.179856504026484787e-01 9.353872027496498154e-01 2.790274155171614812e-01 -2.172429108670722031e-01
7.196613304243436142e-03 -1.025560438792928915e-02 -8.884779933384208128e-01 -9.770522194180721876e-01 -9.895669672725056210e-02 1.886174241766917781e-01
3.699149568928485066e-02 1.447132320660230072e-02 -7.004087815114186100e-01 -5.095272070520907581e-01 1.385402891088660104e-01 -8.492282458605150408e-01
-4.581687610288352058e-02 6.417103594678816303e-02 -1.013577737484797181e+00 9.589175399783022025e-01 4.278081534238722256e-02 -2.804406414209637544e-01
-2.675761288517409728e-02 -7.433954368797585088e-02 -1.013823758365677286e+00 -9.314932818297821937e-01 -1.224788565142911345e-01 3.425188981836381208e-01
-9.005117649159012985e-03 1.043264755023827622e-01 -8.913022093695457393e-01 -9.732053337973638474e-01 -7.332491366622100049e-02 2.179330982301746211e-01
-7.408580394777742294e-03 2.016854825849219157e-01 -8.508598073512108062e-01 -9.839363867930049912e-01 -5.824715037695665787e-02 1.687496850891578026e-01
8.746691274444998426e-04 1.091185620534840389e-01 -8.430020550014992731e-01 -9.787440272273635333e-01 -8.566259021175101629e-02 1.863385354803862581e-01
4.298870759662294649e-02 -3.763805342474019211e-02 -7.408247847292843691e-01 -9.660447799480014197e-01 -1.818720206922993798e-01 1.835212555114995314e-01
-1.156249014131462485e-02 2.040301636291613208e-01 -8.334445101116119137e-01 9.847834849571331928e-01 5.256417841998031748e-02 -1.656456908667294781e-01
-2.243385224929669158e-02 1.901977958332384255e-01 -8.965740414679005399e-01 9.805985709185828236e-01 3.304752040665374230e-02 -1.932208687161005856e-01
3.387723472363614319e-02 -3.101257858322866833e-03 -7.181840971598684176e-01 9.655397166700223632e-01 1.891820313614897553e-01 -1.787266475451071146e-01
-7.965304072710560970e-03 -1.692895025848533963e-01 -9.806950611270012219e-01 9.208545791569150429e-01 1.610801425298976353e-01 -3.550775010167339096e-01
-8.952866979333578071e-03 -1.261459292844885061e-01 -9.518145227302103883e-01 9.547148021403545348e-01 5.908158990478589584e-02 -2.915973461957880319e-01
9.609249989767443614e-03 1.394265647061878888e-01 -7.788532254564514146e-01 -9.821926957795168445e-01 -1.003201226998516327e-01 1.588501852024484240e-01
-2.729154624972717630e-02 1.226012399675873166e-01 -9.324773971842681419e-01 9.709408191948064593e-01 6.307421637086706168e-02 -2.308583306933477131e-01
-4.060564795048846000e-04 -2.194034168026945675e-01 -9.888801310145596268e-01 8.655930705442465012e-01 2.489556033359351106e-01 -4.344764018832595887e-01
1.176102162632130556e-02 -3.408652530459169161e-02 -8.731601798722182783e-01 -9.550118948957911913e-01 -1.534806577767528490e-01 2.537636071148999806e-01
-1.957043081587996058e-02 2.084951172653578544e-01 -8.783822903088409628e-01 9.835843972904001475e-01 2.759847317371541195e-02 -1.783257067429138976e-01
3.144409149197516240e-02 -3.500887233850578234e-02 -7.944509891042952354e-01 -9.613002261858882846e-01 -1.817720068775306452e-01 2.070285310064162998e-01
1.941008762444281985e-02 -5.794513828430947894e-02 -8.302814850107825828e-01 9.556352802113118328e-01 1.756288292656894012e-01 -2.364650619990412983e-01
-2.022300697471756531e-02 9.736508594487303103e-02 -9.398943020937918780e-01 -9.650583550039321112e-01 -7.510887207925451281e-02 2.510398947818581750e-01
-9.026654140856682496e-03 1.924676391226906313e-01 -8.625933817983951757e-01 -9.812747290792427357e-01 -5.613776509281016847e-02 1.842510716409619387e-01
3.252460471634957551e-02 -2.185290687068071058e-01 -9.148379728831779190e-01 -3.679159356480927179e-01 9.072313712656675522e-01 -2.038850246771570784e-01
-2.825694606635215794e-02 -1.096506334242837999e-01 -1.009011527938471486e+00 9.308726986971340711e-01 1.250898425821746485e-01 -3.432616350585676601e-01
3.582391089948708252e-02 -1.025638646430259704e-01 -8.296609541432442558e-01 -9.476095363579734032e-01 -1.992037918072910863e-01 2.497078611758625777e-01
-1.533106350131496765e-02 1.475780882077676881e-01 -9.064896693960992069e-01 -9.764324801602918269e-01 -5.467666951243702750e-02 2.087823591663071354e-01
2.564103868112199182e-03 -2.083372723784457023e-02 -8.714227635986603326e-01 9.562012250929885493e-01 1.398121413893321785e-01 -2.571610045298415304e-01
-1.781546639804831682e-03 -2.506632124357000557e-01 -1.001264330032188177e+00 4.632259387992933575e-01 4.065896792102478008e-01 -7.874684516748725605e-01
2.990440802949117030e-02 -8.688575015442978611e-02 -8.109646317304640695e-01 9.506849547194985428e-01 1.956316337497591706e-01 -2.406789993879497880e-01
3.534518207402812320e-03 1.359676714534252366e-02 -8.676451634858258766e-01 -7.114812489178720112e-01 3.165023448764659464e-01 -6.273919812413633057e-01
1.200104753565456317e-02 9.942093344364077989e-02 -7.483645604631961046e-01 9.771354587657021806e-01 1.305074742996516213e-01 -1.678514056380410457e-01
9.746903812650151502e-03 1.484377819320853720e-01 -7.240059209377721627e-01 9.829387694191257241e-01 1.182623595870699318e-01 -1.408736663742118367e-01
3.447682862156634109e-02 -1.613982417777873601e-01 -8.523545728670444133e-01 9.313651639698291573e-01 2.166036194106568946e-01 -2.926462085892391762e-01
-1.537492264975385929e-02 -1.776599282601452889e-01 -1.017297124717606582e+00 -8.730757476703399078e-01 -5.651400672724513075e-02 4.842983645166577533e-01
3.123683111394809711e-02 -1.535537029724731162e-01 -8.822415062139772335e-01 -9.342512132975289152e-01 -2.025270887742827708e-01 2.935258911317853991e-01
1.280869964235070539e-02 -9.703324562716494905e-02 -8.799458079574820069e-01 9.456606299214259659e-01 1.766132162252882221e-01 -2.730086901019291856e-01
-3.039755565558238670e-02 -4.710946443162002117e-02 -9.929425294030266302e-01 9.415463128763963407e-01 1.081533744841223638e-01 -3.190507613163775513e-01
-3.523596032091114855e-02 -6.650679879134764605e-02 -1.013365613712752689e+00 9.378763528913343084e-01 1.012775964390714711e-01 -3.318596015588121118e-01
-1.057394042801410722e-02 1.012211559923550247e-01 -8.662158448082395434e-01 9.735879644286589141e-01 8.489306407539427834e-02 -2.119425469120136962e-01
3.338649962229967016e-02 -1.131520082441356129e-01 -8.463954468457218772e-01 -9.448662090802810720e-01 -1.916673543382260148e-01 2.655023017211776137e-01
-1.060329845165159691e-02 1.740730436697034700e-01 -8.381156764733140863e-01 9.821432323842841372e-01 6.063150816364195478e-02 -1.780968593197307104e-01
1.436053889174917185e-02 7.465607950909558532e-02 -7.542778262917129162e-01 9.773041305919115684e-01 1.347448176239565421e-01 -1.634639729465615920e-01
1.152464010901613732e-02 -1.654544639544938966e-01 -9.251956246332743161e-01 9.290893356199272368e-01 1.936002596849999424e-01 -3.151379791253706153e-01
-4.280799236435066900e-03 6.346319311201056856e-02 -8.548147839593375208e-01 9.738405469601104647e-01 9.788503636131956620e-02 -2.050685464740405750e-01
1.057200846243413345e-02 1.060126203688490365e-01 -7.515584588781933917e-01 9.771354587657021806e-01 1.305074742996516213e-01 -1.678514056380410457e-01
1.326053263124829171e-02 -5.248683743949061897e-02 -8.498968217900279010e-01 9.545135782864613283e-01 1.623291960090472996e-01 -2.501060994654701330e-01
1.775518933984991362e-03 -1.946759249941581171e-01 -9.882688594841714247e-01 -9.056642473937508431e-01 -1.573456299794117053e-01 3.937189654043768416e-01
3.021058942940929928e-02 -1.561383628034772042e-01 -8.497062580258046838e-01 9.135791046080715683e-01 3.098743368455477709e-01 -2.633459986178755541e-01
2.418263921490555399e-02 -1.015229926499480045e-01 -8.705043358218129690e-01 -9.432668346005925741e-01 -1.801406034128759659e-01 2.789212106395335677e-01
2.866564751847737458e-02 -2.132490912119081872e-01 -9.333808182076860360e-01 -8.723589367445343523e-01 -3.525372373781623936e-01 3.386847822736046010e-01
5.030390489984231175e-03 1.693731694157816769e-01 -7.424708518622235021e-01 9.870319674737025872e-01 8.866847390240176208e-02 -1.338125439591160981e-01
-1.687708892662011587e-02 -7.744456427180647362e-02 -9.637647730674270274e-01 9.417052067834186246e-01 1.202570669409160492e-01 -3.142125735354437954e-01
-1.287021161369291712e-02 1.367803547622867821e-01 -8.633500642637828015e-01 9.779552118688071838e-01 6.425348979258517501e-02 -1.986833979679988871e-01
1.790849106400422761e-02 -1.924333369684862460e-01 -9.454576456028046527e-01 -9.189348038362751270e-01 -1.911899994682554893e-01 3.449713182305373937e-01
-2.122909185185552911e-02 1.992186890980265634e-01 -8.943093726691423440e-01 3.224916067846284040e-01 7.218459441488804806e-01 6.123214813064129514e-01
2.349219971885421060e-02 1.193643694694556806e-01 -7.238515924155096704e-01 -9.934685034432977346e-01 -9.926998875980003190e-02 -5.626546007777023101e-02
-3.828419172886063371e-02 -3.828160461399746691e-03 -1.003801823841000918e+00 9.473719385326961895e-01 8.395938370422051378e-02 -3.089291698250723472e-01
6.381904845933123772e-03 1.927623023694549909e-01 -7.877694531932770694e-01 -9.948785000914116550e-01 -4.836648631650595359e-02 8.875501708217942154e-02
-1.328059261903445035e-03 -8.055817243670244931e-02 -9.419621576749626080e-01 -9.454055145701547591e-01 -1.393182939628354045e-01 2.946164048175621830e-01
-2.684775340886067126e-03 -2.863813914040084230e-01 -1.020118847563003861e+00 4.645464199817196382e-01 4.005023818300996186e-01 -7.898066002703351129e-01
-1.427298652034326293e-02 1.480298092253467535e-01 -9.014229610029914630e-01 -9.764324801602918269e-01 -5.467666951243702750e-02 2.087823591663071354e-01
-3.264547642639371167e-02 -9.448150916101759333e-02 -1.015486259004751313e+00 9.329610655010915909e-01 1.114126966948497111e-01 -3.423022951635720235e-01
2.342735614446730952e-02 -4.852901698519412194e-02 -8.069496047936336458e-01 9.572121322066150517e-01 1.751379238100663482e-01 -2.303728317314460150e-01
5.894642309407198064e-03 7.565233923229199020e-02 -8.509909715576585709e-01 -9.567054324556620859e-01 -1.316352030004641904e-01 2.595898473377780125e-01
6.280714249485480627e-03 -8.483760086908771758e-02 -9.200479264503956811e-01 -9.384206309949346680e-01 -1.597160953151084417e-01 3.063616950931754568e-01
-6.113427449256761403e-03 -3.995147701686250219e-01 -1.083965525999015966e+00 8.537993121765132809e-01 4.423832513025817703e-01 -2.744518054119324257e-01
-7.283221713812251807e-03 -3.934987298040951709e-01 -1.081723040952635051e+00 8.723615805223372544e-01 2.274445313665328650e-01 -4.327288504133134373e-01
-2.116241921182193935e-03 8.872228696274642168e-02 -8.322790065043113028e-01 9.739374095865274139e-01 1.025812761381742211e-01 -2.022943498809295360e-01
-7.997223192691280819e-03 2.441970520584794135e-01 -8.003343781542265889e-01 9.911700981190573190e-01 9.774080051241708020e-03 -1.322357892320006612e-01
1.092154137282947204e-02 1.109565574892662221e-01 -7.891116110036070497e-01 -9.781634820502084215e-01 -1.176391200108905938e-01 1.713395454250844219e-01
3.887011324115521166e-02 -1.588760629221519782e-01 -8.248086968685440779e-01 9.401132713353786974e-01 1.360161635075569919e-01 -3.125486207356830137e-01
-7.477728308678580418e-03 -6.636240423295901303e-02 -9.176795358169825834e-01 9.623565972692725845e-01 1.196298179584719540e-01 -2.440460742309325526e-01
2.179225731990186432e-02 3.951213371207319691e-02 -7.814319211245324137e-01 -9.729599479946784424e-01 -1.434041576754827851e-01 1.810640415973795991e-01
1.287184930415335082e-03 1.587520614242435568e-01 -8.159648868748743400e-01 3.000383570906143271e-01 -4.382512492902452816e-01 8.472973662002638573e-01
1.242558147191395040e-02 -2.000045838145335653e-01 -9.653621095218348769e-01 -9.013146800306388595e-01 -2.802598670956733540e-01 3.302820831604136309e-01
2.583584132153601137e-02 -7.490867310244168908e-03 -7.625331390758348649e-01 9.635504170528698120e-01 1.783849082907013883e-01 -1.993725615308140908e-01
-1.409439909032938684e-02 -3.192139267058339940e-03 -9.449701341085454676e-01 -3.203266102819873340e-01 -7.494456274865335388e-01 -5.794153209801827797e-01
-2.204920453957773599e-02 -7.454174240196106971e-02 -1.000896106124946172e+00 -9.348976338255697849e-01 -1.201454334702290183e-01 3.339633049956256539e-01
-1.999574268052572296e-02 9.411985971807207418e-02 -9.399915853389680942e-01 -9.650583550039321112e-01 -7.510887207925451281e-02 2.510398947818581750e-01
-3.342894361294132533e-02 8.712024503209095383e-02 -9.649043503555275736e-01 9.642920670569741226e-01 5.404689919874074155e-02 -2.592677035382329742e-01
-6.612192207684365608e-03 -3.672519031504039577e-01 -1.077618626468449081e+00 7.212783879361122086e-01 -3.091364950548757817e-01 6.198323277479723670e-01
2.023964898356849645e-02 7.948540151331370818e-02 -7.146376582997983062e-01 9.756533204997780429e-01 1.492300292203998235e-01 -1.607202432073693010e-01
6.806102731613181134e-03 -3.864967527033362771e-01 -1.082473779683485571e+00 -8.830032578692970091e-01 -2.058879308569422362e-01 4.218001973916730707e-01
-2.074593351550099371e-02 1.983541976269386775e-01 -8.864354198275596897e-01 9.835843972904001475e-01 2.759847317371541195e-02 -1.783257067429138976e-01
-4.724661859927177868e-03 1.680017796745029712e-01 -8.476086734972719805e-01 -9.821976314266549490e-01 -6.885639367870513561e-02 1.747758846907424279e-01
-3.862721713685758444e-03 -1.333997317005763406e-01 -9.402442269702849797e-01 9.314741266212958060e-01 1.376083315596446366e-01 -3.367787085319748908e-01
1.937526447318666661e-02 4.817795046096130795e-02 -7.480702589470437092e-01 9.723181228006562149e-01 1.576248021925145126e-01 -1.724873612969322068e-01
3.486529298936134197e-02 -9.782542296695941053e-02 -8.005349711209391872e-01 9.475880268614319535e-01 2.005933167225277813e-01 -2.486749939883653171e-01
2.703540002270127945e-02 -2.119064246105523686e-01 -9.154077250280560074e-01 8.247462425277978237e-01 4.721209422801312394e-01 -3.112803419697425245e-01
-9.090046353060769052e-03 1.110049355270386201e-01 -8.548149721943949508e-01 9.778605805643928450e-01 7.721765757563026078e-02 -1.944893784678249915e-01
-4.829803188179454532e-02 -6.898112376398425616e-02 -1.050968796857451926e+00 9.454839220018991242e-01 9.420899803161440766e-02 -3.117447961486860541e-01
8.350974753614934937e-03 -3.022358498538200711e-01 -1.035573224878472143e+00 -9.999966262768392733e-01 -1.174794682178101823e-03 2.316741762450591578e-03
4.735456039930587002e-02 -1.031755946769860183e-01 -7.843582941229190197e-01 -9.542417333137542812e-01 -2.012233384913622858e-01 2.212055208369639869e-01
-3.892118322365481498e-02 9.049604273615968753e-02 -9.845859121142563897e-01 9.659405868048540622e-01 3.689465874924712646e-02 -2.561202196603582504e-01
-2.334375124098321888e-02 7.742983433386353004e-03 -9.742411544260545231e-01 7.928162509117899631e-03 7.307560684141813923e-01 6.825926403903557205e-01
1.915140312224589483e-02 -1.636269500400724386e-01 -9.016623988012754110e-01 9.293011636304975287e-01 2.057304319150957683e-01 -3.067154001008611797e-01
-1.391233021381988941e-02 -8.185890801787162885e-02 -9.568304537317759983e-01 9.401554262431359721e-01 1.382367021089978554e-01 -3.114456432439134947e-01
2.942999293603775629e-02 -6.907127784092366440e-02 -8.193817257609620208e-01 -3.528355161787484762e-01 8.943089371324087766e-01 2.751701718718394529e-01
-9.861617749788804867e-04 1.698030009094000925e-02 -8.945918040106205504e-01 -9.616830310860482456e-01 -1.169406472512685424e-01 2.479730484177764538e-01
-7.582393266385853252e-03 1.819904045545584770e-01 -8.177324305714772645e-01 9.823441720017294099e-01 7.041540990490255392e-02 -1.733251216129990668e-01
-8.649642767411773805e-03 1.328339167687967448e-01 -8.439339867063038181e-01 9.778605805643928450e-01 7.721765757563026078e-02 -1.944893784678249915e-01
1.185553620897653558e-02 8.649479150023246798e-02 -7.590695785922065841e-01 9.774599805524736285e-01 1.232111593733984656e-01 -1.714380256075667408e-01
2.142006637620136929e-03 -1.389494378856617196e-01 -9.652598724901659821e-01 -5.611465668349043812e-01 -3.611120458494227470e-01 7.447903200712562288e-01
-9.393357158610933164e-03 6.489451326310446966e-02 -8.608004580387813576e-01 9.652685562610868741e-01 2.878870520267911084e-02 -2.596686826446151786e-01
3.874202227616537798e-03 6.397715224031493009e-02 -8.659118522177278177e-01 -9.556878199021564546e-01 -7.659456002385763018e-02 2.842429669585777030e-01
3.193361926114835457e-03 1.016905469911223575e-01 -7.973651069996423590e-01 9.779839970344095246e-01 1.110733985300581678e-01 -1.766635267495317296e-01
3.025262134640728517e-02 -2.029872530760972738e-01 -8.963046170790394118e-01 9.180863878620111329e-01 2.628712167716032444e-01 -2.966750879590355217e-01
-2.754911832415134557e-02 1.869175733779440962e-01 -9.505385013560414542e-01 -9.632713931664035334e-01 -6.275306585123105463e-02 2.610943810837891843e-01
-2.664308142588972875e-02 -2.167671636094255314e-03 -9.906920129777557760e-01 -9.470148685135837408e-01 -9.761000806441554045e-02 3.059985704866352574e-01
1.888596537282065391e-02 5.157799502165719835e-02 -7.873374290184124158e-01 -9.705504637288103753e-01 -1.368471773662254531e-01 1.982539971922071542e-01
-7.674104001006489331e-03 -1.052070636553988220e-01 -9.822875097369627717e-01 -9.395250690675073235e-01 -1.909239859014557061e-01 2.843249482567368203e-01
-3.850394248809014403e-02 2.670693484077290430e-02 -9.909496427580253286e-01 8.187401639050108093e-01 5.386955784569736894e-01 1.986746530378309117e-01
-1.662799268551860138e-02 -5.202692390776565701e-02 -9.523965198453742120e-01 9.459973110839956512e-01 1.191191747162300002e-01 -3.014957870962278186e-01
8.578872400225387093e-03 1.037561292804520530e-01 -8.067708508126585354e-01 -9.780522254545573890e-01 -1.087347471963398121e-01 1.777374441009413053e-01
2.353531883401320177e-02 4.029811944135279489e-02 -7.887324847228112112e-01 -9.730513669691989165e-01 -4.531842392349336168e-02 2.260913038850977386e-01
-1.004823887401884094e-02 1.197553548808103608e-04 -9.076703325280749413e-01 9.558623507719884449e-01 1.228840395765834620e-01 -2.668832688536105224e-01
1.050541275150421693e-02 -6.933299713096771622e-02 -8.708416919230168585e-01 9.509964675668352019e-01 1.710625292968685762e-01 -2.575719894436485635e-01
6.261577452837752480e-03 -4.556208278615229978e-02 -9.111468465700013342e-01 -9.488309412057294168e-01 -1.428181544212953069e-01 2.816430715965584919e-01
2.468317858230916276e-03 -5.493799592794008230e-02 -8.980539208386462136e-01 -5.333457547934244286e-02 9.937685902974017216e-01 9.787447060777945684e-02
5.987952156441712394e-03 -1.212988626583147989e-01 -9.503489112059737565e-01 -9.117012017873445950e-01 -1.858146801295547101e-01 3.664339276156929892e-01
-8.247100271135942087e-03 3.600702186937292798e-03 -8.996166489962262869e-01 9.558623507719884449e-01 1.228840395765834620e-01 -2.668832688536105224e-01
4.507510271598902385e-03 -9.557114593105309197e-02 -9.311591052497237841e-01 -9.411239450201991374e-01 -1.528933525529772575e-01 3.015117623820466330e-01
-1.534136456475632473e-02 2.128571361720213162e-01 -8.906941152489730174e-01 -9.814159465053901021e-01 -4.596817807239467896e-02 1.863053046738974983e-01
-4.181415801283613898e-02 6.599871370919924152e-02 -9.993749253252672826e-01 9.623448074170097843e-01 4.497707332555073850e-02 -2.680849389887209333e-01
-1.269339719556772904e-02 -1.451278509895582991e-01 -9.817844167507465691e-01 9.274748548237852219e-01 1.526279664858945506e-01 -3.413137816086231902e-01
4.068597853694033012e-02 -6.030344700928252921e-02 -7.742412286177189351e-01 -9.581618291166893453e-01 -1.994612979825031718e-01 2.052829750147222576e-01
-5.228370299594879700e-03 -1.791399763865968164e-01 -9.986873800067042062e-01 -8.941440985972642919e-01 -7.464693740409636402e-02 4.415134943349689478e-01
2.862571927812726773e-03 -6.229532864101741674e-02 -8.934497441078926849e-01 9.458883273598858166e-01 1.529311105358125422e-01 -2.861945974238508383e-01
1.465692428654796590e-02 7.692287041458616831e-03 -8.364822299104451853e-01 -9.641839625324631902e-01 -1.477240562964663162e-01 2.202881966572785288e-01
-1.910430172063250220e-02 2.169785511612033480e-01 -8.745157047515260684e-01 9.835808667743811684e-01 2.700513721451747173e-02 -1.784359859428077677e-01
2.777012483207792412e-02 -1.501833542234033980e-01 -8.659049324222807265e-01 9.326910114229175486e-01 2.050644822164559011e-01 -2.967086708274496720e-01
5.281806003780972932e-03 1.817005215583563926e-01 -7.324272810661920374e-01 9.870739429114976371e-01 8.921004715244551520e-02 -1.331412735112885437e-01
-6.389904599529380204e-03 1.188090736512800866e-01 -8.194882699923168312e-01 9.625213510170846920e-01 1.226568417257832971e-01 -2.418841623879122993e-01
-1.154036302278125571e-02 -1.864530932633054194e-01 -1.011983775356510851e+00 -8.705398368153959288e-01 -9.101053271587901394e-02 4.836088041508295743e-01
2.869333170609705830e-02 -1.643893580954298717e-01 -8.728801439831099795e-01 9.313498285957534373e-01 2.135504491820980622e-01 -2.949299958105052744e-01
4.541138324913036699e-03 -1.670952625103955536e-01 -9.678806233937368164e-01 -9.223620317672176494e-01 -1.747218783744830806e-01 3.445584820774875712e-01
-4.274985855278426450e-02 -6.923216134033080560e-02 -1.035129854258592497e+00 9.347053940592279231e-01 1.028804687139826812e-01 -3.402079297632177313e-01
-4.833188569107864548e-03 1.085290870046823480e-01 -8.190990172476136921e-01 6.855576406579414472e-01 3.327188325056418261e-01 -6.475406549643035747e-01
1.065919756851465595e-02 3.599920294711538710e-02 -8.366042604115379033e-01 -9.686706453345486079e-01 -1.295072830450593182e-01 2.119081039163811520e-01
-9.539714677010216470e-03 1.024180221568288529e-01 -9.052968296490778721e-01 -8.136019770208805513e-01 -5.431992840097948916e-01 -2.073315239874548577e-01
6.102714943416182383e-03 1.537225087615982366e-01 -7.916712832698410418e-01 -9.825486729655956708e-01 -1.001121414198752890e-01 1.567662731389425912e-01
4.402326449000998343e-02 -5.172011825415594871e-02 -7.501113756008354061e-01 -9.618750438359611188e-01 -1.904862794740199428e-01 1.962431588048695330e-01
4.294173971676756504e-03 1.075422515197279882e-01 -8.269338381968212026e-01 -9.774138546096795555e-01 -9.775457637547464718e-02 1.873664847690203750e-01
-1.101534012068912730e-02 -2.409495775094025113e-02 -9.480364057550656476e-01 -9.500685303992416619e-01 -1.114360345993401918e-01 2.914649168215611708e-01
2.673520110160113733e-02 4.990812790639134744e-02 -7.044208250593297915e-01 9.707279423806313146e-01 1.669152802345400533e-01 -1.727036511070068059e-01
-2.510101385838158991e-03 -3.580037366867447890e-01 -1.056335024672338863e+00 4.645464199817196937e-01 4.005023818300995631e-01 -7.898066002703350019e-01
2.249362676010190423e-02 9.678601825353796984e-02 -7.292677155504074804e-01 -9.785789261726879351e-01 -1.360231620627667670e-01 1.545347360082996169e-01
