4.250481770921358399e-03 -1.426380054158763178e-01 -9.378368753164549876e-01 8.571796076704351064e-01 -2.279772464282337485e-01 4.618111034881678956e-01
3.950706578229075741e-03 -1.204138454163430558e-02 -8.595758039789093141e-01 -7.984938323794581461e-01 2.584776643477827429e-01 -5.436882348233045281e-01
5.368487158073868143e-03 -1.231433213195416987e-01 -9.085265050444736312e-01 -7.991804587777184832e-01 2.580861627873813346e-01 -5.428647408752208525e-01
4.253337826534592248e-02 2.013931250161945519e-01 -8.023726751585149586e-01 -7.219959800580924014e-01 3.231201481550347032e-01 -6.118130226108490222e-01
-8.385392112719856905e-02 1.136458226853608450e-01 -7.061080007868884012e-01 7.445018374315460763e-01 -2.410397969725672773e-01 6.225888132117982643e-01
8.353357768189191568e-02 9.402365972866794097e-02 -9.291370983754053681e-01 7.675193158379178815e-01 -3.478150018611017025e-01 5.384596775024625970e-01
-2.402937949118156072e-02 1.918909636152191234e-01 -7.315750465296161353e-01 -7.070362237362090019e-01 2.846680577338194795e-01 -6.473514310101555758e-01
-9.842879777053325022e-03 5.297515869247849084e-03 -8.491243933406833477e-01 9.975273406504368001e-01 -2.468131559646861289e-02 6.580301904392318879e-02
-2.127117022044940423e-02 -1.421184187598876214e-01 -8.718195105915779175e-01 -8.450835131842028281e-01 1.570184352093665914e-01 -5.110568136211934842e-01
2.677268647906759155e-02 -1.522320313156803016e-02 -9.001295539031486381e-01 -4.536275181664170542e-02 -6.844105355019003412e-01 -7.276842994332251013e-01
-7.731842277488154558e-02 -6.513551260120586939e-02 -7.774439114598421519e-01 8.012007694973477534e-01 -1.937619128351295295e-01 5.661569111927625686e-01
9.559438752667875905e-02 1.776651519848447547e-02 -9.850976291764451664e-01 -8.381459086952265380e-01 3.180160796434814974e-01 -4.431446815946727957e-01
3.334817757794189541e-02 1.233956322538078687e-01 -8.442299738056787684e-01 7.423528918572109836e-01 -3.168276859773902498e-01 5.903663280959106086e-01
-6.395465457622452610e-02 4.648558848491950168e-02 -7.395962534457226623e-01 -6.249806184119063301e-01 -4.868231588782803154e-01 -6.102478501307836423e-01
1.497460898776453546e-02 6.923165826234446707e-02 -8.328364290392321623e-01 -5.128673793185718477e-01 -2.818913800577955708e-01 -8.108663891665577328e-01
-4.209085797767601195e-02 -1.416988851240352232e-01 -8.583400544638772889e-01 8.338157452745699194e-01 -1.937177602182093838e-01 5.169378418226450167e-01
8.416697785290010170e-02 1.154503275358778093e-02 -9.836417657479776810e-01 7.960959370572546767e-01 -3.326869241617271267e-01 5.055201969187196331e-01
5.431628331328413467e-02 1.102991034066670845e-01 -8.664929705496179357e-01 -7.567425574269416311e-01 3.242478389062466437e-01 -5.676301971737943708e-01
-9.713869025418359060e-02 -5.261866194247347833e-02 -7.458441218970381925e-01 7.949060949488995220e-01 -1.729946456755638018e-01 5.815472059778786784e-01
-7.563561478518975034e-02 -1.475998186443261140e-01 -7.999130064477903979e-01 -1.089686752288905047e-01 -9.202532612693697933e-01 -3.758453976596619062e-01
3.187461863549650998e-02 1.869474896267684649e-01 -8.086376919165267907e-01 7.191798919348085795e-01 -3.234074845350069505e-01 6.149698220102970403e-01
3.929210472215362293e-02 9.859476522123414299e-02 -8.712561604045157004e-01 7.718541365141555755e-01 -3.871062230014801209e-01 5.043708596454752335e-01
3.100626791359491208e-02 -1.017323272752831687e-01 -9.462242847562489789e-01 -4.201057360482487318e-02 -7.238162552645094339e-01 -6.887126689122655687e-01
-9.263771708391230209e-02 -1.080969658588532417e-01 -7.686418315342374852e-01 8.427666473585709861e-01 -1.400216612328143984e-01 5.197483164817343626e-01
6.293098253323431424e-02 2.438977126184307953e-03 -9.556368232643518423e-01 8.018229403194747640e-01 -3.171854412185909355e-01 5.064319976624697128e-01
8.491826309665138905e-02 1.796203986037196443e-01 -8.664955903101618784e-01 -7.497534263772657193e-01 3.357478011010811003e-01 -5.702133054316944616e-01
-5.561647066123071720e-02 -1.971619761432314155e-01 -8.431859618795405353e-01 -6.205157665934462052e-01 4.341124644581532688e-01 -6.530746906832451959e-01
1.287840787990355207e-03 1.052792374563481792e-01 -8.142263603131301153e-01 -1.524955352898733629e-01 -4.251728919411736363e-01 8.921732587760260458e-01
-4.019451254379970487e-03 5.352310534071023918e-02 -8.122756846111253148e-01 -7.524828065360946727e-01 3.624784503847193196e-01 -5.498899879741898644e-01
5.148852627100210071e-03 1.372452945887402964e-01 -7.899513232102103322e-01 -7.364583986269039872e-01 2.904565364995155829e-01 -6.109533758778991075e-01
5.753518374582448219e-02 3.466855210809617616e-02 -9.278159694166084881e-01 7.903623524370146924e-01 -3.090392395020437610e-01 5.289821360861126642e-01
-1.041500558026232969e-03 -7.633183845334580442e-02 -8.966139811551948613e-01 8.281417597168516664e-01 -2.441882891538669498e-01 5.045327593458959203e-01
-3.920516813001113238e-02 -3.772216160788097877e-02 -8.215338161283826102e-01 8.022684298478022225e-01 -2.273556944738286956e-01 5.519735090200119654e-01
2.128926461445019777e-02 1.577183903486183980e-01 -7.971031552155867228e-01 -3.135026690301304653e-01 -4.812552511476119732e-01 -8.186021376430882013e-01
-5.024399386355218183e-02 -5.216718636730136027e-02 -8.112944325788539190e-01 7.979615923780010167e-01 -2.130175125132059422e-01 5.638092199070984245e-01
2.480273689110817914e-02 8.979548793084157765e-02 -8.382103277745033276e-01 -7.577338705912441963e-01 2.981881538280625743e-01 -5.804508646521454596e-01
-1.150455746901628100e-02 -9.590525865521365434e-02 -8.743928576718114076e-01 -8.259838414017361963e-01 2.337601910835394314e-01 -5.129394377583172959e-01
-5.171822383352398661e-02 -4.870453634701154416e-02 -8.054754048799008803e-01 6.450610847608267973e-02 -9.956747566161813223e-01 -6.686360001211338888e-02
9.112872264956821400e-02 3.499135013795608151e-02 -9.789140933237158171e-01 7.840383801131418640e-01 -3.419542961903592193e-01 5.180261362388161039e-01
-1.878647028597490998e-02 1.926976877800902210e-01 -7.369465927379473813e-01 -7.070362237362090019e-01 2.846680577338194795e-01 -6.473514310101555758e-01
-4.808035796104795367e-02 1.159831871189260094e-01 -7.472681242604890528e-01 7.447306411041163532e-01 -2.494514061166209218e-01 6.189913312697459258e-01
-1.163850963345513211e-02 -3.711297444642380761e-02 -8.617262807656311807e-01 8.036730976521225811e-01 -2.459233340767918996e-01 5.418775377027512663e-01
-1.429869836578976728e-03 1.609615861504219148e-01 -7.864112744586199133e-01 3.766565066073604418e-01 -3.977414784393149549e-01 8.366191441505789195e-01
-8.502266108041425796e-02 -1.408498100233731010e-01 -7.821405867757096342e-01 3.616212934663076695e-01 6.219089380819992074e-01 -6.945929116003664028e-01
-2.292955712189693671e-02 8.751119147380574670e-02 -7.780538626883866105e-01 -7.565658712098918270e-01 2.663268268640511804e-01 -5.972253375510312434e-01
4.716139638858368732e-02 2.051405368662210515e-01 -8.168589962860602904e-01 7.156753097107920736e-01 -3.451107562804039963e-01 6.072128267501680776e-01
3.129446314759123937e-02 1.731929438571307156e-01 -8.036323432276232248e-01 -7.297133289287492941e-01 3.144885672793175657e-01 -6.071370509484040889e-01
-3.246627910512298737e-02 -7.358580502091119357e-02 -8.461391517924033989e-01 8.087628503576033134e-01 -2.194651969168160410e-01 5.456534424190027099e-01
4.945482054892549016e-03 2.085121219102953338e-01 -7.559914547304129595e-01 -7.049518869259647769e-01 2.986673032877449896e-01 -6.433044994917630488e-01
-1.298562997736759685e-02 -1.910082800448420215e-01 -9.135263646816055294e-01 -8.601689192202175427e-01 2.057941813784552876e-01 -4.666456742736339036e-01
-4.135694200599753477e-03 1.150576253852248071e-01 -8.007899571754364398e-01 7.574550733946671111e-01 -2.803254873331672559e-01 5.896434795197023071e-01
-3.093484865700954142e-02 -6.857911763250056081e-02 -8.463953041592290338e-01 8.087628503576033134e-01 -2.194651969168160410e-01 5.456534424190027099e-01
-4.553390027891551090e-02 -1.132251614654829902e-02 -8.020765277424672934e-01 7.876183408340456937e-01 -2.353546533603193547e-01 5.694431809438662562e-01
6.944991575737360923e-02 1.257973245311740929e-01 -8.778114372815951638e-01 -7.554622127822230304e-01 3.364613716387446218e-01 -5.622015567864980801e-01
-6.213152026648862541e-02 -1.123409581339606111e-01 -8.159317713187399512e-01 8.226135427245170328e-01 -1.963411204863229897e-01 5.336263896514064076e-01
5.593526029403764720e-03 -1.178628479035050414e-01 -9.353984164840012383e-01 8.426505795821539468e-01 -2.732785747045926583e-01 4.639599350561275370e-01
9.428977072269782711e-02 3.551021835408782468e-02 -9.658550236682671430e-01 -6.476459818307193084e-01 7.559649717508254430e-01 9.524517680332875158e-02
-3.309948026219183825e-02 -2.190181676507602093e-02 -8.236478169014075368e-01 7.916804368918677337e-01 -2.287042659349683982e-01 5.665125281808414126e-01
8.022829882728333556e-03 -1.068602782055019240e-01 -9.266286448219790417e-01 8.361154784021771480e-01 -2.429738862903816077e-01 4.918074799728520130e-01
-1.659854698305416806e-02 7.942498959675069192e-02 -7.896676845544980949e-01 -7.567155224178566675e-01 2.738337695778133019e-01 -5.936300908568191703e-01
-3.139977819094705996e-02 -6.088632420439264725e-02 -8.426121003907871554e-01 8.087628503576033134e-01 -2.194651969168160410e-01 5.456534424190027099e-01
-5.986490151203662652e-02 7.527900128378609002e-02 -7.379577137375524787e-01 -7.504033489329735573e-01 2.293819253311039918e-01 -6.199022069984698735e-01
1.795346494437326246e-02 1.779112262864790128e-01 -7.968080242920208001e-01 7.172249236730506849e-01 -3.139886878537962445e-01 6.220928489880250822e-01
-1.986036753019086373e-02 4.683169551870398212e-02 -8.121423223373489542e-01 7.745254740298744833e-01 -2.537869806211097146e-01 5.793983591157458868e-01
9.956785199276205200e-02 3.543865337185471420e-02 -9.869927958473099228e-01 -3.629425370542514462e-01 -3.170989783809636808e-01 8.761968686924032079e-01
-2.658929043740461060e-02 -1.580076393018094161e-01 -8.757699004010999211e-01 -8.410842504997468883e-01 1.959162115532810666e-01 -5.041766769812833227e-01
6.608377839832317580e-02 6.417946524335356451e-02 -9.094594340061767923e-01 -7.853386439693023080e-01 3.119847532802128565e-01 -5.347043370023683018e-01
2.501538035915568895e-03 -1.284108010461852689e-01 -9.346566759454367768e-01 5.672796253026086699e-01 2.251760395450730923e-01 7.921423975090131631e-01
-2.967664142038257610e-02 -1.746063843262618265e-01 -8.923520457478731904e-01 8.513739050248091411e-01 -1.961922207841437504e-01 4.864885264285203625e-01
4.646269907766958224e-02 -4.322743632823768806e-02 -9.418289030456880040e-01 -8.159556108505552352e-01 2.963857807693902613e-01 -4.963586506541578514e-01
6.263737450214951208e-02 8.969905803318703463e-02 -8.896436845402740934e-01 -7.772984998072913765e-01 3.114245293812763493e-01 -5.466459591883807700e-01
-1.252371355691203614e-02 -1.259657317834582922e-02 -8.359532218966309047e-01 -7.951660121410213389e-01 2.425030206085147799e-01 -5.557906963340527584e-01
9.796812176581659593e-02 1.553831117242391591e-01 -9.091922558227045759e-01 7.166822956644681719e-01 -3.821898532740730103e-01 5.833501548259417691e-01
-3.191558388363070070e-02 -1.354692578281166959e-01 -8.752203006065220059e-01 3.627953696289376584e-02 -9.895899776409440296e-01 -1.392676249181911685e-01
4.768237979929890874e-02 2.286363337121277706e-01 -7.943973017015314442e-01 -7.273012814961100636e-01 3.022164058188387958e-01 -6.161964702820512674e-01
-7.575147447768409981e-02 -1.458013811568829587e-01 -7.937073081113154016e-01 -7.916328368553313677e-01 2.104656115473930444e-01 -5.736041125797148865e-01
-3.232720931830224131e-02 4.577706376540459365e-02 -7.928376969172357125e-01 2.013848960892297146e-01 9.266630104771461651e-01 3.173953191850228950e-01
-2.274581697682000626e-03 -1.564131493971984976e-01 -9.197935371149014161e-01 1.434634849888230534e-01 4.233426197360270482e-01 -8.945385708788075041e-01
1.038066862543962979e-02 -4.314018449336397276e-02 -8.983634318653970219e-01 8.134471267183677190e-01 -2.674215976683128049e-01 5.165166610421768612e-01
1.005362219993206074e-01 1.552143195458683123e-01 -9.120626751112823616e-01 6.511658467927239347e-01 -4.362527515621736351e-01 6.210205928350097659e-01
6.797500075888475435e-02 1.089669079917341549e-01 -8.799865354495520764e-01 -7.454137183564337743e-01 2.411656595731169750e-01 -6.214479166661505127e-01
-2.976499678935353929e-02 -8.670031499869366998e-02 -8.558427143975804174e-01 8.187641239323817377e-01 -2.153279426438702016e-01 5.322209940222177860e-01
8.277994020019729948e-02 6.443820763909693938e-02 -9.470305712685984645e-01 7.769703234783769119e-01 -3.413178226679900451e-01 5.289794517399414309e-01
-1.000495879285459855e-01 3.186632881462841266e-02 -7.055524596062462406e-01 -7.339691063768030155e-01 2.024260513674721595e-01 -6.483155440155748961e-01
1.807983582760978869e-02 1.686683176301890241e-01 -7.901745403068990425e-01 -7.299170077364749432e-01 3.049676783833377702e-01 -6.117318668816492666e-01
7.420859133482517189e-02 -4.436461385990199402e-02 -1.003949494344052784e+00 8.127597996899159627e-01 -3.116835658231649209e-01 4.922142448200423903e-01
-4.170897862151142638e-02 2.026091344295372909e-01 -7.172469964662760988e-01 7.186223721451555635e-01 -3.080565678137966446e-01 6.234444941446295463e-01
-4.022467597745302964e-03 -7.875049007020661074e-02 -8.928545344706622089e-01 8.279569608804762115e-01 -2.407830483864582261e-01 5.064689472606291876e-01
-3.010971078540219253e-02 2.162142130489763114e-01 -7.238719780057885078e-01 7.144725879060916940e-01 -3.078466725682548755e-01 6.282987723363985255e-01
-5.247227466089546960e-02 6.399873946980987049e-02 -7.628175118503157659e-01 7.564918617530642653e-01 -2.386805245428693933e-01 6.088938087263848775e-01
-4.170077115940366147e-02 4.302409038164029670e-02 -7.779424729945644268e-01 -6.803946418875725377e-02 9.918547166686118022e-01 1.076793960566938824e-01
6.048194706574230341e-03 -2.268125954039589831e-01 -9.582892034308237994e-01 -9.001161822179475358e-01 1.870518542425515240e-01 -3.934494406322240900e-01
7.058506920079153472e-03 5.036599825475988890e-02 -8.340054949546390484e-01 -7.680255766460865052e-01 2.777352813602319559e-01 -5.770613720439093930e-01
5.432949938701441515e-03 2.949193426636089257e-02 -8.547964949623370057e-01 7.818436062210344373e-01 -2.748059263510779782e-01 5.596447786351749221e-01
6.772052527162604474e-02 1.136541025380848335e-01 -8.815003146873116036e-01 -7.659685245580420687e-02 -7.017905996046324146e-01 -7.082533985096254314e-01
4.700887274247098069e-02 9.032325086265237390e-02 -8.734068181184679869e-01 -1.868222043041134206e-01 8.253912322879221053e-01 5.327539560070649882e-01
3.292207119616627920e-03 -1.238329525224707017e-01 -9.345693143227079558e-01 8.348173256736081127e-01 -2.251790065679085961e-01 5.023688363705043347e-01
6.416186195619029593e-03 -5.422627355932774923e-02 -8.976621126374360049e-01 8.193671269386463285e-01 -2.559140984926753237e-01 5.129770808574100061e-01
2.587993335654210220e-02 2.042077171011260628e-01 -7.816504291157146955e-01 -7.141415567608180304e-01 3.093193943060391637e-01 -6.279517093004686190e-01
-5.116721661704670687e-02 -4.412729863098126259e-02 -8.069501737436082234e-01 7.979615923780010167e-01 -2.130175125132059422e-01 5.638092199070984245e-01
-5.012863372334414036e-02 9.363499702454465556e-02 -7.423263347003428159e-01 -7.381083878707749291e-01 2.462556841389822726e-01 -6.281354517809414340e-01
4.533315036626685279e-02 -8.036236711615567241e-02 -9.691162590866756466e-01 2.117079037601246050e-01 -8.062268943880067651e-01 -5.524291431948207265e-01
3.107845416017660650e-02 -1.311077404642989885e-01 -9.644772638107463880e-01 -8.507537201890260636e-01 2.503440366704980380e-01 -4.621103449264609697e-01
-3.877543459434289880e-02 -4.684575417781876999e-02 -8.207887658306749490e-01 4.783182812250943994e-02 -9.958739459324119636e-01 -7.711809146669995618e-02
6.132321302635627101e-03 -3.375079227750560906e-01 -1.022990697409945859e+00 -5.925661495529018774e-01 -3.458610589818629233e-01 7.274926022194262432e-01
-5.287798456230429628e-02 7.652464486082954931e-02 -7.573749514758644219e-01 7.563943279745151127e-01 -2.409175473529645006e-01 6.081335017785273189e-01
-2.526519896297324194e-02 -2.623311161123613455e-02 -8.369057792319550826e-01 8.008319551587995688e-01 -2.392684850628488402e-01 5.490161852370691875e-01
1.047198783015249740e-01 1.489802518756461747e-01 -9.166264584444777652e-01 -3.619183817941848402e-01 -6.195876641611774982e-01 6.965100224252156469e-01
7.404105766839999547e-02 -1.154828868901649173e-02 -9.682466467067023519e-01 -8.124461355612953017e-01 3.193115890899007603e-01 -4.878231092152154336e-01
-6.328709466337044398e-02 -9.936585994736693572e-02 -8.095754883412558112e-01 8.138131313889427343e-01 -1.852115090459254265e-01 5.508220076357284167e-01
5.329168819465656542e-02 2.175174485799750701e-01 -8.065512546587962905e-01 -7.219080861424596041e-01 3.231817500770435281e-01 -6.118841978505984436e-01
1.491058151489701609e-03 -4.877197017558178999e-02 -8.671540135001851723e-01 -7.942715792519582374e-01 2.085624519634714513e-01 -5.706438136207075962e-01
-1.935336443686210342e-02 -1.808649533307193913e-01 -9.132277418346372855e-01 8.610624461140007346e-01 -2.010371885633491229e-01 4.670712073193103997e-01
-4.926440468579867255e-02 -1.093757579593927914e-01 -8.346970304727965306e-01 8.228887733709489005e-01 -2.123410350337501251e-01 5.270344879615099787e-01
4.392435458631113038e-02 1.803895403378254769e-01 -8.265876366375776163e-01 7.285440156394596967e-01 -3.275255523171156091e-01 6.016233288821996039e-01
-8.085106305670819449e-02 -9.235946815098609874e-02 -7.813946249868231053e-01 8.111312574109041940e-01 -1.894901441119208607e-01 5.533168789540482413e-01
3.191841750700610825e-02 -8.683818740950025039e-02 -9.570186137556540018e-01 8.317962295813629003e-01 -2.793044567077654361e-01 4.796916227300707658e-01
3.634908947522675488e-02 6.183592746856032135e-02 -8.814481889967420436e-01 7.760520935999075665e-01 -3.008171266003136779e-01 5.543033504888198459e-01
1.639378111723817366e-02 -1.291586729702078606e-01 -9.329651081819301250e-01 -7.670813581262430070e-01 6.386276323158394108e-01 6.116320182808876460e-02
4.386606832708687086e-03 -2.748438255529148111e-01 -9.946211721931056404e-01 -5.925661495529018774e-01 -3.458610589818628678e-01 7.274926022194261321e-01
1.814725277950266641e-02 -1.180392862667584419e-01 -9.500215857608155234e-01 8.441177772059893503e-01 -2.473274489237144713e-01 4.757040163943408451e-01
-5.443608922815860313e-02 8.660696705469965451e-02 -7.514427838586192898e-01 7.563943279745151127e-01 -2.409175473529645006e-01 6.081335017785273189e-01
-4.497744666808836667e-02 1.350879462271220854e-01 -7.483551759381954493e-01 7.323287999923311364e-01 -2.637958922247563565e-01 6.277788272529879476e-01
-8.110531545208966853e-02 -2.097495380184781228e-03 -7.392943246039648253e-01 -7.670472425314802667e-01 2.017315611409448706e-01 -6.090508229733293533e-01
-1.314155550556678383e-02 2.072423856585664526e-02 -8.329824393963457529e-01 7.874503014072561369e-01 -2.575142146587663938e-01 5.600075464333496011e-01
4.871660322288987738e-02 1.250814364237737633e-02 -9.274775188729541542e-01 7.982825813141777305e-01 -3.026298828325240109e-01 5.207303278926106449e-01
-8.583308637845618594e-02 6.563463696984847551e-02 -7.106935664982099166e-01 -7.263142399473350164e-01 2.244952150841736660e-01 -6.496687796516281699e-01
-2.563777687833530741e-03 9.556193987292847802e-02 -8.171503911749404825e-01 4.324671212648061869e-01 -3.871348042556161384e-01 8.143088065094820083e-01
-1.957295670439361968e-03 -9.628343212981631261e-02 -9.046551853558215672e-01 8.374692697595129687e-01 -2.346400584489177765e-01 4.935476321284061885e-01
-1.131958639675898588e-03 -9.862246250276406057e-02 -9.110578956554400420e-01 4.778645974786324691e-01 -3.798195798388940836e-01 7.920748154357580839e-01
-4.348718346282091224e-02 3.945298520105579992e-02 -7.722121695258343799e-01 -7.650643036679706244e-01 2.468887716033036084e-01 -5.947457824224186007e-01
-7.059732223721380817e-02 2.082180848217854430e-02 -7.446569647486336319e-01 -7.629973545168523552e-01 2.131238273573375641e-01 -6.102567256596558298e-01
1.304707817419945882e-02 1.096601902483428648e-01 -8.131141830025112593e-01 -7.426152773552445741e-01 2.946427952417181584e-01 -6.014217929629256387e-01
-8.977135271382151449e-02 8.699278845462436738e-02 -6.991695271990128191e-01 -6.945571623293871344e-01 2.128031280165378902e-01 -6.872446267256849817e-01
-3.043686968770185214e-02 7.927965174656893821e-02 -7.841619717037441317e-01 7.566680241647151250e-01 -2.639126141027661188e-01 5.981668942060488492e-01
2.030735209791309850e-02 4.184364209014618426e-03 -8.756478747443553479e-01 -7.946568756105667486e-01 2.782522811372701854e-01 -5.395332409469852930e-01
-2.954712174889477863e-03 1.369620092754742502e-01 -7.803387519712373654e-01 -7.330873324563388360e-01 2.877217203453715233e-01 -6.162784878880237516e-01
5.434154315675520514e-03 -3.566007090804806379e-01 -1.018587674287284806e+00 -9.001161822179475358e-01 1.870518542425514963e-01 -3.934494406322240345e-01
-5.034467007375394154e-02 4.748686682633036088e-02 -7.777287732556714683e-01 7.748142117845941979e-01 -1.547719724961345855e-01 6.129507106988894005e-01
9.015542219641199673e-02 -1.049809487204673812e-02 -9.952282466951558604e-01 -8.429564612539943713e-01 3.179131043998070227e-01 -4.339996111530752265e-01
9.814589600290847538e-02 3.736092900766158076e-02 -9.758326183525520836e-01 -8.246822654345771220e-01 3.227185986106017035e-01 -4.644909764338839842e-01
-1.540363803141450195e-02 1.059952233097251756e-01 -7.792399510755630976e-01 -7.444394189954089969e-01 2.716057344634409398e-01 -6.099510443079448896e-01
8.513205337741474796e-03 -6.554429071965767184e-02 -8.864674697441443652e-01 -8.584701242641989971e-01 2.202045189965026462e-01 -4.631835657267318607e-01
4.830688396158869247e-02 2.046334911272340851e-01 -8.074745938988739935e-01 -7.219959800580924014e-01 3.231201481550347032e-01 -6.118130226108490222e-01
-4.288236400028002868e-03 -1.674794817270378045e-01 -9.344267272499866550e-01 8.558277337421671405e-01 -2.220925883001523549e-01 4.671549768330477970e-01
-8.316217850524537658e-02 -5.399495954379230495e-02 -7.587542491808743073e-01 -1.989552044817172738e-01 -9.405890900271679511e-01 -2.751526673167138948e-01
-2.571584563525946415e-02 9.889163909670847796e-02 -7.814811096850287075e-01 7.566680241647151250e-01 -2.639126141027661188e-01 5.981668942060488492e-01
-2.734602053689828491e-02 -1.472232691746416799e-01 -8.641046003056117586e-01 -5.740481594524237119e-01 7.793925820197094012e-01 -2.510297068514710239e-01
-6.471218376005836992e-02 -3.220010420009708496e-02 -7.710864325132544828e-01 -7.823411290225106285e-01 2.039534721129593609e-01 -5.885111205855432237e-01
6.412527143922994166e-02 1.345083660461952324e-01 -8.780407425374768815e-01 7.529183612070980969e-01 -3.340325381941791072e-01 5.670416252664101098e-01
4.799532990574631452e-02 -7.970458572981513334e-02 -9.809411687300715332e-01 8.290488744422058742e-01 -2.926859956426457465e-01 4.764586778943003531e-01
-3.772181874832762627e-02 1.861555879394773960e-01 -7.290987375866926357e-01 7.107628604821665252e-01 -2.851570807688925679e-01 6.430408971803982521e-01
-3.476544269273781906e-02 2.002210589263015150e-01 -7.166087894837247507e-01 -6.986148665171176830e-01 2.717666244057567737e-01 -6.618762498687879026e-01
6.511239329165158934e-03 6.097420380350987434e-02 -8.227222730871325274e-01 -7.396853725522050116e-01 2.889408956791912342e-01 -6.077653399433142756e-01
-6.727004464044059051e-02 -6.964878219617955113e-02 -7.806733383982057406e-01 -8.039325791078728578e-01 1.910086547421392111e-01 -5.632123063841575350e-01
8.247897262451192590e-02 8.538785478969418072e-03 -9.829619216050855535e-01 7.960959370572546767e-01 -3.326869241617271267e-01 5.055201969187196331e-01
5.986316647331784736e-03 -4.104121112174916736e-02 -8.903942862543900993e-01 8.118737656161985061e-01 -2.576457455314811185e-01 5.239080630355876789e-01
-6.946117198309575969e-02 -1.007656011110696498e-01 -8.009176515941293095e-01 8.207888908896476821e-01 -1.793020278593378258e-01 5.423618528230680358e-01
-1.140544947342916719e-02 5.281119866365762555e-02 -8.082082741367700995e-01 -7.700116120356552685e-01 2.657104116197451793e-01 -5.800690428622417016e-01
8.063023999313866097e-02 -6.606982827763941551e-03 -9.900378810929255646e-01 8.069479820054957786e-01 -3.212357950800879824e-01 4.956233633481395562e-01
3.319938973887793382e-02 -1.045696308312425993e-01 -9.536456624427064321e-01 -8.405743120056249351e-01 2.637759546650570441e-01 -4.731353630165556212e-01
7.512064257648795595e-02 1.861965071564955776e-01 -8.615309910450088537e-01 7.393414904247376240e-01 -3.455504821143873251e-01 5.779005319663947926e-01
7.748029890109556228e-02 1.487434434877397613e-02 -9.569661936407944935e-01 -8.050552076431595205e-01 3.255449539592673580e-01 -4.958897010407535277e-01
1.632415910960547875e-02 -1.709024460816349344e-01 -9.584015747563197074e-01 -8.590775503329590723e-01 2.363994541976698616e-01 -4.539835465839770490e-01
1.100650538778539210e-02 -1.927936216373750122e-01 -9.615136460366452420e-01 -9.092002410245234589e-01 2.385793689692120023e-01 -3.412254480885050234e-01
6.020344108357108398e-03 -1.859448482061461516e-01 -9.635701363209212555e-01 8.713924681932203598e-01 -3.092677018255452492e-01 3.808262792713669187e-01
-1.285385322273378816e-02 -1.248304633640043709e-01 -8.997418457718114881e-01 8.346306846287814274e-01 -2.256093434863468972e-01 5.024858648835319741e-01
-8.942993337109539365e-02 3.544354548226365774e-03 -7.381994007535178648e-01 7.749416049749793256e-01 -1.947524850538076002e-01 6.012794512073146302e-01
-4.119002789670948850e-02 4.261450026907518535e-02 -7.738469394094010800e-01 -6.803946418875725377e-02 9.918547166686118022e-01 1.076793960566938824e-01
2.281781874559353843e-02 -1.378296729841028967e-01 -9.689820385636270794e-01 8.507637049232857906e-01 -2.503209248601409587e-01 4.621044827334702676e-01
1.034300119133538531e-01 6.206124604102176284e-02 -9.677800619728272880e-01 -8.114769761322834229e-01 3.295488678792080073e-01 -4.825998973132277214e-01
2.923741802078352187e-03 -1.320304132864786317e-01 -9.330360697378340396e-01 3.201528654965047488e-02 6.573939945561116938e-01 7.528666265340114849e-01
6.491208143113942619e-02 2.124110888612500692e-01 -8.231007106229571990e-01 -7.262910206772453803e-01 3.271745727098689382e-01 -6.045313492745598705e-01
-7.414510903887809590e-02 8.670508636164958594e-02 -7.276150716877681779e-01 7.455550056169397699e-01 -2.303102097496343426e-01 6.253838348443334638e-01
-4.251631880854905149e-02 8.420559713506057392e-03 -7.857142186584922250e-01 -7.777873517886790822e-01 2.214322478450061193e-01 -5.882300527955549585e-01
1.386102986739455502e-03 -2.697467631959957757e-01 -9.729081834452302235e-01 -5.103491824953665379e-01 3.599311794344763338e-01 -7.810206514537358924e-01
1.586290414607488194e-02 -1.807276933583250866e-01 -9.626636674875594935e-01 -8.571516853188817509e-01 2.400620884938265698e-01 -4.556985648682504442e-01
-2.060180314847996977e-02 5.934159267484797468e-02 -7.999187640879832362e-01 6.829257143457227730e-02 -9.917817318812711669e-01 -1.081902074748017917e-01
-5.370840287795340673e-02 1.584901805710560441e-02 -7.802390135203456367e-01 7.758375626383400281e-01 -2.400818095274170061e-01 5.834696231454048476e-01
7.740331659728252878e-02 -3.900387584488760467e-02 -9.917194895491470152e-01 -8.351586010830353013e-01 3.100183928177612236e-01 -4.543112447999935188e-01
9.359517114317594810e-02 2.831314677314545735e-03 -9.921394773959587576e-01 -8.383502253734566034e-01 3.217522203410835280e-01 -4.400504611085610529e-01
4.316148831522371998e-02 2.402505069460962039e-01 -7.888381666643324852e-01 -2.368639611881927787e-01 -9.515131315691528480e-01 1.962606031319134303e-01
2.154011590320896799e-02 -1.735779255205393001e-01 -9.934303900048838676e-01 8.914551078311130361e-01 -3.705598171637128346e-01 2.607550816866552879e-01
1.536462925999050426e-02 -9.325476823910631985e-02 -9.321538940354990865e-01 8.351893294890594399e-01 -2.523278671914692128e-01 4.886608551400650757e-01
-6.702626927515187294e-02 5.371129509516712336e-02 -7.372062294545036476e-01 -7.505316432008956040e-01 2.249833541462989417e-01 -6.213571782085121065e-01
-3.415350069812722600e-02 -2.013415942058921493e-01 -8.939018939776963713e-01 8.743331639480173001e-01 -8.350311323762528437e-02 4.780886408400367715e-01
-5.433453050027242659e-02 9.718961710221911410e-02 -7.473677292447605813e-01 7.448403994008017115e-01 -2.569315919741741450e-01 6.157913091836152431e-01
-7.851146820505128937e-03 1.244408796095289593e-01 -7.919255361541805982e-01 7.332003673888104478e-01 -2.898282567763467710e-01 6.151559174996996671e-01
3.179405220469653116e-03 2.171735624086381100e-01 -7.500353030511095476e-01 -7.039886934358107196e-01 2.990812277294205290e-01 -6.441663905656695999e-01
1.199689537688351793e-02 1.207977669092234058e-01 -8.063610381108468061e-01 -7.426152773552445741e-01 2.946427952417181584e-01 -6.014217929629256387e-01
-6.674526508775396882e-02 -2.397202248172241451e-02 -7.655322316455742682e-01 -7.823411290225106285e-01 2.039534721129593609e-01 -5.885111205855432237e-01
-5.508115457665746506e-02 -2.127399406583060926e-02 -7.927256653866787683e-01 7.896938650256678516e-01 -2.155077273468519183e-01 5.744040555172091889e-01
1.635634128558877479e-02 -7.629173395939138624e-02 -9.102177716434749488e-01 -8.281003004156969327e-01 2.489494067238717245e-01 -5.022689372669434382e-01
7.827782960972975990e-02 2.236320687736332441e-02 -9.534992304899939652e-01 -8.040672868437551690e-01 3.152476479642078444e-01 -5.040780878800003029e-01
9.759887085589149993e-04 2.326248449146245401e-01 -7.502258634096123924e-01 7.140138788995032959e-01 -3.145938201056713845e-01 6.254717492342924956e-01
1.761700482198158557e-02 -5.527384119162574716e-02 -9.161038747454495201e-01 8.184817986537892276e-01 -2.735419191569145037e-01 5.052349589412929998e-01
4.781954714627479480e-02 -1.232563935997736254e-01 -1.008467539641854094e+00 8.434528132638324793e-01 -4.391143755129031101e-01 3.094606873501698496e-01
-6.458342972026459572e-02 -4.724051507036227532e-02 -7.766414460641857254e-01 -7.915666345473735266e-01 1.998330861582089391e-01 -5.774850653894270103e-01
-6.511326494778512872e-03 -5.049432540486443327e-02 -8.827261949511302497e-01 7.902254337846655874e-01 -2.631204782436079581e-01 5.534540430141351441e-01
-4.665786544131181844e-03 4.476021399629289028e-03 -8.589287984069962079e-01 7.609874513819120390e-01 -2.785562162454695012e-01 5.859219514835313225e-01
1.634762365477509041e-02 -1.504008111118372848e-01 -9.479486061814340614e-01 -8.484393388977483630e-01 2.435892505940083497e-01 -4.699095287454823078e-01
-4.959505270600313154e-02 1.714323994334538415e-01 -7.222721121777899711e-01 7.178111178905438594e-01 -2.711426946488412204e-01 6.412712672272889991e-01
-3.279788087521490203e-02 -8.458091115281352046e-02 -8.365974372522981817e-01 -8.136689264855486714e-01 2.198784138192304005e-01 -5.381415810065174332e-01
8.588834065644107563e-02 1.647422389666753362e-01 -8.765476746116168671e-01 -7.457559304993068849e-01 3.395499295435076559e-01 -5.731962469103507596e-01
1.939768084116140403e-03 -1.724546978085232107e-01 -9.282436704031511443e-01 -5.090342430387242434e-01 3.678216374632481411e-01 -7.781975214737243407e-01
-8.537054197915602827e-02 1.182903612955956280e-01 -7.024962339081818330e-01 7.445018374315460763e-01 -2.410397969725672773e-01 6.225888132117982643e-01
-8.865306168742267956e-02 -1.879612578900978492e-03 -7.409574548711719277e-01 7.749416049749793256e-01 -1.947524850538076002e-01 6.012794512073146302e-01
6.284744191721970685e-02 -6.331080333908821467e-02 -9.968020868482073693e-01 8.256571539292437700e-01 -3.041206875833966650e-01 4.751850918844817140e-01
2.349020899163094950e-03 -1.063106818800998027e-01 -9.168137829386663329e-01 8.360268582240114599e-01 -2.389654193192564391e-01 4.939176254170940528e-01
8.014181321449694029e-02 1.644848170630144046e-01 -8.809474853353632673e-01 7.470098843818028245e-01 -3.452524469057978163e-01 5.681346500095243446e-01
6.844817773474150269e-02 -7.172512173382991629e-02 -9.972157596396756807e-01 -8.310629995661599212e-01 3.034707633881178479e-01 -4.660898910303997167e-01
-6.363623578081489818e-02 -1.342449328697919442e-01 -8.210921271130624532e-01 8.275339415541900223e-01 -1.794449226015636945e-01 5.319653140274328562e-01
-2.976050331635939072e-02 -7.329422388698837720e-02 -8.501917250894860389e-01 8.171478833121823548e-01 -2.293951535637344941e-01 5.288167927741049823e-01
-2.503393817685426251e-02 -1.110870917045811423e-02 -8.306516979784053234e-01 8.008319551587995688e-01 -2.392684850628488402e-01 5.490161852370691875e-01
-8.654394261398916377e-02 -4.461812714877651936e-02 -7.463646221043869211e-01 -7.780939646704160273e-01 1.941657272406222268e-01 -5.973855141435837623e-01
-1.474129543501363077e-02 1.426433593499965014e-01 -7.627539177518394276e-01 -1.515127778003955150e-01 -9.476358760257275193e-01 -2.811229706590336885e-01
8.292863468810654504e-02 1.026969197511859444e-01 -9.229236066519512782e-01 7.600363490544480571e-01 -3.456406850858743107e-01 5.503428612504684958e-01
-7.238087992044137109e-02 3.083252721394895771e-02 -7.504569341110844949e-01 7.672720282978302553e-01 -2.148264194506904479e-01 6.042708367096077948e-01
2.298384706811798517e-02 1.414129159058168106e-01 -8.215387389046157063e-01 7.432210108886039279e-01 -3.117860333879089452e-01 5.919560780648808196e-01
2.074213456562527466e-02 7.444962081983126645e-02 -8.533345112034982360e-01 7.659087556252548445e-01 -2.937586409055656933e-01 5.719175106165999001e-01
5.116731292196716185e-02 -8.423092405875393096e-02 -9.679638867343102193e-01 -5.644647761407319830e-01 -2.986802737516026096e-01 -7.695255749928401334e-01
6.356464859411289914e-02 1.989370607092618704e-01 -8.398437436398721312e-01 7.184874107909690055e-01 -3.482759131643285988e-01 6.020628944258584747e-01
-8.474066160673351944e-02 -1.451144563980638347e-01 -7.911298449726154036e-01 8.464579468471254975e-01 -1.349508083848899864e-01 5.150701151645410425e-01
-8.648370508301453374e-02 -7.338801949659308488e-02 -7.554664827001023042e-01 -7.865641411912429604e-01 1.840062325927715181e-01 -5.894561545688511428e-01
7.385000217721728044e-02 1.966923937888111762e-01 -8.413893804158979473e-01 -2.340949428321618953e-01 -8.578541670241915940e-01 -4.574776342725803691e-01
-7.300634203282369006e-02 -6.255093518489104887e-02 -7.826380250433874197e-01 7.957555798577338191e-01 -1.972162343907269411e-01 5.726070328052421665e-01
8.963125472996043286e-02 1.799603092028178308e-01 -8.829704634417429032e-01 7.146779443560749012e-01 -3.793669376139365834e-01 5.876360799818189928e-01
-4.810165112135090376e-02 -2.467566387910026873e-02 -7.909683018996332970e-01 -7.898157979979708587e-01 2.154587967455330599e-01 -5.742547449850071706e-01
4.363902895989660302e-02 1.748377734882645140e-01 -8.176569503479756973e-01 -7.318188290145778430e-01 3.223015368430905969e-01 -6.004689174705996058e-01
1.080931532867575040e-01 9.576360951836868085e-02 -9.542750204213267251e-01 -8.731216684328710897e-01 -2.328438198895561584e-01 4.283016549725668365e-01
8.077802409291739982e-02 1.675832490864566093e-01 -8.798627809056944749e-01 7.268061188324766997e-01 -3.607203723467120038e-01 5.844943785886407284e-01
3.090766403902056245e-02 -1.144840152744730499e-01 -9.708757381055578284e-01 8.418310092411651624e-01 -2.704330063899033632e-01 4.671044218747237298e-01
7.069790128730071149e-03 -3.719330953950876206e-01 -1.030298702291107871e+00 -9.501679945083428835e-01 1.402713008401693662e-01 -2.783967391558320736e-01
-8.389661078474297887e-03 -7.826498122566669102e-02 -8.714812759283973032e-01 -8.202674527919612268e-01 2.356704297493340539e-01 -5.211724805013711048e-01
2.250553354470930315e-02 -1.539055766162708838e-01 -9.771470869039385887e-01 8.576248432480034767e-01 -2.440725574315525392e-01 4.526678859303575053e-01
-6.851730440953832102e-02 -3.507563578883323568e-02 -7.792028146511151832e-01 7.943234773118773573e-01 -2.129031517726181488e-01 5.689661337517842865e-01
9.162582394640578221e-02 1.181375050407274495e-02 -9.949315264340737874e-01 6.918357648163948603e-01 -3.576924340340026376e-01 6.272315339296524739e-01
5.099721284770019486e-02 -3.118327019747074366e-02 -9.568627813316822328e-01 8.186354359498834166e-01 -2.917722515385985371e-01 4.946766380568634047e-01
3.769019765257894394e-02 -9.876041469087959435e-02 -9.523642205938535055e-01 -5.677897311609877429e-01 -3.019118972650133292e-01 -7.658093936992240724e-01
-1.871074570348767868e-02 -1.396207545659480520e-01 -8.753450518710023109e-01 -8.454896522648034374e-01 1.315010075422556879e-01 -5.175468412892820780e-01
9.819051181619997681e-02 3.513802611231999634e-02 -9.774686675381126788e-01 -8.251421957497808712e-01 3.301581064263816034e-01 -4.584059135244400451e-01
1.426362316248359387e-02 -5.279824655699551748e-03 -8.850709392281730370e-01 8.007405370743951867e-01 -2.671769713511774613e-01 5.361259723846824032e-01
-9.767784744705547070e-03 -2.221465921901646379e-01 -9.287866044563721779e-01 -8.924322353963717314e-01 1.594575256011674658e-01 -4.220639794564184921e-01
-1.577020585498684763e-02 -4.362496693716166885e-02 -8.509727764166854502e-01 -2.225325504653382636e-01 -9.397171349607182922e-01 -2.596362267569975457e-01
-1.863076087737990886e-03 2.284728405906296667e-01 -7.380540809958678894e-01 -3.155430123182179636e-01 1.294704894447805676e-01 -9.400372331668964687e-01
-4.345263894394865017e-02 -1.754886819253173857e-01 -8.688429826013043256e-01 8.467197877211903867e-01 -1.861152133754051252e-01 4.984242454291422653e-01
4.433738381153943912e-03 -1.239643796995338054e-01 -9.136964920228693998e-01 -8.376196818304434411e-01 2.377912963350161668e-01 -4.917810163045941985e-01
-2.610936685168882207e-02 1.021908939484582612e-01 -7.677456278470470297e-01 -7.431442096377782747e-01 2.600657761976521987e-01 -6.165245134887619161e-01
3.255941765602325677e-02 5.969615404896385681e-03 -9.065239383340752966e-01 7.914144595505819835e-01 -2.918589170503724795e-01 5.371047623624685130e-01
-2.419595264057780235e-02 1.470395835606479185e-01 -7.506722550648184944e-01 -7.292017817060775231e-01 2.669422606623297889e-01 -6.300845903759011435e-01
-6.637832389250641896e-02 1.337206061668576029e-01 -7.082722661607306902e-01 -7.172295898941262182e-01 2.438012615131064653e-01 -6.527960326663461155e-01
2.757088785935123132e-02 -1.086666966036313742e-01 -9.616121672647455210e-01 8.400964623795592612e-01 -2.607595108016689256e-01 4.756494627599451297e-01
-2.008749136203684393e-03 6.067396779030478221e-03 -8.427527681138127225e-01 1.480468691563969486e-01 4.233087824609322869e-01 -8.938074732426617430e-01
5.236563579025142051e-02 -3.899378501185064849e-02 -9.637342014548531122e-01 8.186354359498834166e-01 -2.917722515385985371e-01 4.946766380568634047e-01
4.335202142647093942e-02 5.902314803334534829e-03 -9.224852373581160503e-01 2.230495636013035965e-01 -7.938096039951912930e-01 -5.657872433894789443e-01
4.151328894247395887e-03 -8.850653114780894504e-02 -9.061904417409994972e-01 -1.480525110444460002e-01 -4.262461253490461011e-01 8.924094881826163395e-01
7.108704505142379726e-03 -2.125090822749511332e-01 -9.824781149463217567e-01 8.586413823128139500e-01 -7.917035984397392812e-02 5.064257405603667106e-01
5.175868132430921920e-02 -2.672114889576864168e-03 -9.298984236186024210e-01 -2.200998289498957983e-01 7.942195469654140805e-01 5.663668215161260511e-01
3.377048326589422722e-03 1.071045255461065410e-01 -8.142390643913871573e-01 7.659747764589278640e-01 -2.782483766566656858e-01 5.795347122620226887e-01
-7.926212502799476201e-02 -1.848306920303554798e-02 -7.472183012705398975e-01 -7.754696991158579467e-01 2.105610812116946728e-01 -5.952401001546543391e-01
8.753366628201308952e-02 1.227506553232418501e-01 -9.166184206619176766e-01 7.502000380934649160e-01 -3.567522892930179990e-01 5.567115114031274681e-01
1.456763353122081384e-02 -7.236933820639053494e-02 -9.200453459011819213e-01 8.205584646240676738e-01 -2.633592468134953735e-01 5.072728193503187599e-01
-2.475517039870753569e-02 -1.813398977364084341e-01 -8.884491899446268492e-01 -8.496542151953373478e-01 1.935310834641610911e-01 -4.905440187526325935e-01
-4.681373284668222806e-02 -1.676823703491165940e-01 -8.459479260707519765e-01 -8.366980675898966213e-01 1.879742278575348147e-01 -5.143948224396279745e-01
-3.694164689900325538e-02 -1.491653991929448864e-01 -8.654886795934038091e-01 2.024100948777988185e-01 9.394883109154801293e-01 2.763907870113232468e-01
-1.006753224609424971e-02 -5.269391823245859335e-02 -8.770143928621296769e-01 9.742986553256782756e-01 -6.496605982805239710e-02 2.156885284408815162e-01
3.770054774815983362e-02 1.146403914082063519e-01 -8.545719526357917761e-01 7.542719647555231610e-01 -3.211181700302092601e-01 5.726752343696140946e-01
-2.805102677590693219e-02 -9.756900031993738509e-02 -8.490691240403650530e-01 -8.164034046362989017e-01 2.170184806062903649e-01 -5.351527445258941196e-01
-3.958933206968914820e-02 9.344395035057360965e-02 -7.552089190567622401e-01 -7.422897564931447700e-01 2.603766671546431377e-01 -6.174219858466233335e-01
-5.173025328037661637e-03 -3.154477289017116326e-01 -1.012154821101518332e+00 9.001161822179475358e-01 -1.870518542425515240e-01 3.934494406322240900e-01
-1.819051963026421456e-02 1.151391767255316168e-01 -7.835326741705174181e-01 7.444798600141142586e-01 -2.692343835439315880e-01 6.109521951438457998e-01
-9.109977848227417130e-02 7.592729655556708368e-02 -7.111484819624194209e-01 7.516246400121683324e-01 -2.192552937433886739e-01 6.220832072095169307e-01
9.555480089877181615e-02 8.542198286425532749e-02 -9.520113143091175623e-01 7.629932361501499116e-01 -3.582364716073183630e-01 5.380594316610948225e-01
-7.260780761003249317e-02 -1.379310211305088962e-01 -7.956584670073324483e-01 -8.131964340125437118e-01 1.800869059928654758e-01 -5.534259354233402872e-01
-4.591649592394889123e-02 -5.564604285147830426e-02 -7.999445511446414692e-01 -8.088966880916833579e-01 1.031842065707794798e-01 -5.788256797246168484e-01
1.939039961229278505e-02 -1.206187834114452323e-01 -9.312210617366656340e-01 -8.304533759728643938e-01 2.005290850130626024e-01 -5.197453957459328144e-01
1.097662350046849609e-02 -6.623789303697144581e-02 -8.964617635593405964e-01 -8.199996337419078740e-01 2.493005130525996760e-01 -5.152182594346280675e-01
4.715679609077743500e-03 -3.507280417927984006e-02 -8.659718890536027835e-01 -7.783078909142108204e-01 2.616978517187074638e-01 -5.707460567945138452e-01
2.789649529727579111e-02 2.176113489154511138e-01 -7.773413516013588653e-01 -7.141415567608180304e-01 3.093193943060391637e-01 -6.279517093004686190e-01
5.440612200156095743e-03 -2.605572640748445856e-01 -9.729419323567218836e-01 -9.001161822179475358e-01 1.870518542425515240e-01 -3.934494406322240900e-01
-5.360806034506545269e-03 -3.863053067480120562e-01 -1.030357437243496044e+00 5.923301320050506913e-01 3.500973252589728024e-01 -7.256561703488727533e-01
-5.135718527995937824e-03 -1.352652066978600465e-01 -9.255863575664583509e-01 8.450613986224946306e-01 -2.295670744129042484e-01 4.828769935539414249e-01
-1.262962391768668660e-02 -1.694054051008479223e-01 -9.047494435982385008e-01 -8.523480855231976294e-01 2.109459382054408305e-01 -4.785442009465438185e-01
-4.920509161454915403e-02 1.045699413163302255e-01 -7.505144162478853964e-01 7.447306411041163532e-01 -2.494514061166209218e-01 6.189913312697459258e-01
-3.720937646536887772e-02 6.486951307231711428e-02 -7.697369450702810090e-01 -7.650643036679706244e-01 2.468887716033036084e-01 -5.947457824224186007e-01
-1.701991864020237569e-02 -4.739793240847690881e-02 -8.582714693550598239e-01 8.099132792287466742e-01 -2.421985332445349137e-01 5.342100248246322014e-01
-1.005560699173539407e-01 -3.179196896346687257e-02 -7.348352677562569601e-01 7.852688630703701378e-01 -1.816411701033954773e-01 5.919115626642528216e-01
1.795944109174048980e-02 1.598717986412390712e-01 -8.059844355487321144e-01 7.302460794340083217e-01 -3.091571346258247255e-01 6.092310970241173740e-01
-1.696624510157755672e-02 -6.854812320791187075e-02 -8.677899892553757599e-01 8.197462120601003432e-01 -2.396026728705189790e-01 5.201987187281603697e-01
3.929868738114879537e-03 -3.244504248762009047e-02 -8.636954258600245682e-01 -7.783078909142108204e-01 2.616978517187074638e-01 -5.707460567945138452e-01
3.149849575019063319e-02 8.813163094955360488e-02 -8.663329370470594926e-01 7.514408811635423513e-01 -2.370948343345211928e-01 6.157293574680721138e-01
4.111693973372679972e-02 1.621378130568405518e-01 -8.329534163426007831e-01 7.422600765718325722e-01 -3.243020696135874847e-01 5.864112433880518394e-01
-1.086761195921040479e-01 -9.859186508205325730e-03 -7.165794004663652572e-01 8.451628423392620881e-01 -1.486888863593861798e-01 5.134115162345166405e-01
1.472744600700398587e-02 1.311269671532278303e-01 -8.046316508995066119e-01 -7.448333510312853400e-01 3.014288863965210452e-01 -5.952847265277845246e-01
7.278618119515943563e-02 1.197506008480159895e-01 -8.983405051207640213e-01 7.469125769980892171e-01 -3.423354075673255004e-01 5.700246231942851516e-01
3.608584991340815090e-02 9.264136366975954384e-02 -8.574520224696740023e-01 -4.900986829664164685e-02 -7.142442926562347916e-01 -6.981784322202602144e-01
8.538871450530897272e-03 -2.580330552771191790e-02 -8.673087347149295301e-01 -8.355862349896611141e-01 2.358744258289012796e-01 -4.961440306359526931e-01
-7.342658924531515752e-02 -4.391053125311527444e-02 -7.635193154088650846e-01 -7.843991358750236342e-01 2.028216461086790601e-01 -5.861581488884052282e-01
7.460889318878868859e-02 1.020563743670314244e-01 -8.988943903470849595e-01 -7.654052388610006474e-01 3.372052206422370690e-01 -5.481308780717929485e-01
-7.008375609638706552e-03 4.859390678857294227e-02 -8.349067875192370813e-01 8.024356155459202444e-01 -2.562173768400621277e-01 5.389338908517794513e-01
-7.513398623012743083e-03 -7.917011614122555774e-02 -8.947020809354673254e-01 8.584094733181233394e-01 -2.202481029843592064e-01 4.632752413517189916e-01
-3.183459375409693377e-03 2.343009762625400394e-01 -7.409450428693026280e-01 1.622647963839820573e-01 -8.870845548102527234e-01 -4.321471143853218844e-01
-9.087637535641811259e-02 3.961306349387165582e-02 -7.293093073978993424e-01 7.712579566877417747e-01 -1.287184102895760351e-01 6.233720679484876515e-01
-4.450939665923673433e-02 2.046656167107021862e-01 -7.122844140807308433e-01 5.309923441561640312e-01 -6.438298489803074842e-01 -5.509358002612794181e-01
-1.152878491474710124e-02 1.169345170870305789e-01 -7.908967975166071307e-01 7.433056727097890892e-01 -2.778517501987859961e-01 6.085187604576535181e-01
-3.540356724866187271e-02 -2.128592715627316834e-01 -8.926097763747361524e-01 8.941813757524074147e-01 1.549893620923201501e-02 4.474365320734484119e-01
-7.423606267493445491e-04 -1.462212958649790860e-02 -8.673975589671019115e-01 7.987345413501046876e-01 -2.616694758732358017e-01 5.418045937886314389e-01
1.467018638540771962e-02 1.806581855442775941e-01 -7.803237100908125834e-01 -7.155226868349462421e-01 3.034143559753800790e-01 -6.292590986331025871e-01
-2.800518671518479469e-02 -1.875432902166518367e-01 -8.852673331994106443e-01 -8.496542151953373478e-01 1.935310834641610911e-01 -4.905440187526325935e-01
-4.339477277329523847e-02 -8.672972447102642035e-02 -8.349856912006122789e-01 8.154650699765927380e-01 -2.018932391946935689e-01 5.424535368264685742e-01
-6.395691245090291688e-02 9.221074370384879648e-02 -7.377447166341078999e-01 7.432174265058523188e-01 -2.448101864665841176e-01 6.226522541035357516e-01
3.641010328092778026e-02 1.623416850495205954e-01 -8.208460773231457397e-01 -2.021523744326324812e-01 8.352883009354251653e-01 5.113001778130527031e-01
