1.149136183913264109e-01 -1.167303317592765094e-01 -8.660561917414736355e-01 -2.780149344882070217e-01 5.077101026888017898e-01 -8.154373966340054958e-01
2.516543618559308540e-02 -1.554352072113806549e-01 -8.591906102503023002e-01 -2.660469620330741525e-01 4.534249798572509982e-01 -8.506613907039765055e-01
-4.739421183554778927e-02 4.119911407010581027e-03 -7.608774572830829808e-01 -1.698138099477315699e-01 4.281596309257698629e-01 -8.876049799300047560e-01
1.496879104591479492e-01 9.844295109578238279e-02 -7.493936882069560657e-01 6.161673598035635746e-02 -5.350878677441496256e-01 8.425463498467882228e-01
1.273072586356365898e-03 -2.068467773089396888e-01 -8.778234664143592658e-01 -4.139625864740517636e-01 4.227921329984302701e-01 -8.061524603165030056e-01
-2.757318741802005854e-02 -1.902331755693914273e-01 -8.674666966666435552e-01 3.742726495396920816e-01 -2.936995849307166839e-01 8.795797505730013066e-01
-2.152223955051651288e-02 -5.540615281396354258e-02 -8.034669740156664686e-01 2.172636191469579925e-01 -4.368648771987236334e-01 8.728949529383872585e-01
1.176024733968940028e-01 1.288363624173160249e-01 -7.194899512663404106e-01 -1.026838245536187272e-01 5.045021653283600083e-01 -8.572826822898254040e-01
5.312602935880862687e-02 1.094512369102258603e-01 -7.228582881028630114e-01 -9.757347975828881137e-02 4.805277046094915128e-01 -8.715345897614116266e-01
6.902241033030339680e-03 -3.925066946855941263e-01 -9.710075505154708297e-01 -4.909790600713069275e-01 3.996700927586422925e-01 -7.740822821417592259e-01
3.980631529248421230e-02 7.276486490676355168e-02 -7.448468490384509977e-01 2.194079891173247865e-01 -8.856294576184644551e-01 -4.092928024164563250e-01
-5.532988742207003985e-02 -1.207893527543641710e-01 -8.291849422275211490e-01 4.005319015925969811e-02 -8.981117488412355687e-01 4.379395261350629842e-01
8.416350510122991985e-03 -3.585018538923246956e-01 -9.634711475046254803e-01 -7.674769862055548231e-01 -2.868709551143023839e-01 5.733098034716017644e-01
9.659710600561674521e-02 -1.562279762900614134e-02 -8.009179170702899198e-01 -1.937920094178657571e-01 4.892711438530028545e-01 -8.503284100149541835e-01
-1.062079549998043160e-01 -1.572222777172055941e-01 -8.195063598175142960e-01 -2.315650262640128743e-01 3.972865820230733203e-01 -8.879983166401672623e-01
-7.745430741096370753e-02 9.102799496946659130e-02 -7.158743568919813116e-01 -1.149299868714073886e-01 4.111367225701973993e-01 -9.042995595885107152e-01
-7.981200679629762984e-02 -8.264357113440588820e-02 -7.938212320963694557e-01 -2.098797545749486460e-01 3.984324951730997544e-01 -8.928617112463144156e-01
3.357412310328340699e-02 6.160901870496190980e-02 -7.460126907683267694e-01 -1.191837727937921781e-01 4.685316233150090826e-01 -8.753704051751122206e-01
-7.946958804245426999e-02 -1.033822381671888890e-01 -8.114072982584941141e-01 2.319667730519292259e-01 -3.980403446394374933e-01 8.875558011974190586e-01
-1.569001883132966069e-01 4.047391369872239270e-02 -7.336986737318625940e-01 1.571368463571328200e-01 -3.652438144953338295e-01 9.175537954201010704e-01
4.970983938247906797e-02 -1.019012505038608130e-01 -8.464803410325363320e-01 2.421215065223121521e-01 -4.596790623323055436e-01 8.544427047688207821e-01
7.166967658523294704e-02 -1.778835434527480941e-01 -8.932957407547380546e-01 -6.870943935062105989e-01 6.173518832758121411e-01 3.831161007164023413e-01
-8.178483735042171854e-02 -1.203285862165179160e-01 -8.223646382669038690e-01 2.255607510832939866e-01 -4.596995474229825240e-01 8.589520787970916782e-01
-1.047350951615969999e-01 1.774738018304024278e-01 -6.753905612754367294e-01 1.221898723884213556e-01 2.570325577933584293e-01 -9.586469106610133739e-01
7.068619481989030229e-02 -1.672851572784223861e-01 -8.818251424265785010e-01 -3.129971584318760880e-01 5.388050260532250002e-01 -7.821265388115623551e-01
2.228494623566214944e-02 5.293804310432982663e-02 -7.487128005609363646e-01 -1.452868868507176670e-01 4.664414429880620050e-01 -8.725388820977786342e-01
4.436233432079730171e-02 -2.809260760537061682e-02 -8.047934694717098214e-01 1.980108640347939541e-01 -4.645927939650971172e-01 8.631020991284282795e-01
7.534531059390266183e-02 1.257839085095199816e-02 -7.802097627539253955e-01 -1.706139643323827948e-01 4.929609721067770289e-01 -8.531590444661121264e-01
9.499513534666255074e-03 -3.764103134456287525e-01 -9.666690456266618936e-01 -8.299195016839985284e-01 2.579633929704970297e-01 -4.946599929362919257e-01
9.587192813071682140e-02 -1.415324308861108937e-01 -8.829617244165868239e-01 2.726910863617137415e-01 -5.590081697336460875e-01 7.830385926567781096e-01
-1.391458200878531448e-01 4.206659990047537795e-02 -7.360667682229251607e-01 1.472621360804093615e-01 -3.874196444832738173e-01 9.100658670368253489e-01
-3.727509139735198096e-02 -3.460585129153848083e-02 -7.927728480035498571e-01 -3.628431174207456290e-03 -8.777433658130275873e-01 4.791173324546209034e-01
-4.517122503985945836e-02 1.643726249707012921e-01 -6.849783537740913308e-01 -7.754869374819464700e-02 4.287955460166730237e-01 -9.000669862928045717e-01
-1.312983148024000346e-01 9.217611713443142618e-02 -7.162335759142245406e-01 1.219585426793405869e-01 -3.945403124958847818e-01 9.107491727600860454e-01
1.181617263897628972e-01 1.583219161192225485e-02 -7.868962883317522916e-01 -1.666962958639687797e-01 5.075406492472109843e-01 -8.453489423350287746e-01
1.831019546790751702e-03 -1.270524630384444742e-01 -8.496039995010064017e-01 2.527446684854152692e-01 -4.444553425978169381e-01 8.594065283603881111e-01
-6.006712451003055897e-02 1.279981659183853648e-01 -7.008974861919345933e-01 -9.677220809231498744e-02 4.147667357859796677e-01 -9.047672046589558814e-01
-1.017749475794819253e-01 1.452107153621186586e-01 -6.965919130983811991e-01 8.949947428884984235e-02 -4.022705425692233439e-01 9.111356949889967138e-01
1.275815230421787905e-01 -8.578030874070574630e-02 -8.620850339024669351e-01 2.392542859945533118e-02 -5.589055578005174274e-01 8.288860906819615071e-01
-1.642472420628058802e-02 2.335918132989109608e-01 -6.533638072846467137e-01 -1.211989434278990495e-02 4.225181895743470584e-01 -9.062734066714833725e-01
3.588221499437638934e-02 -1.151894962256990312e-01 -8.534914342592984093e-01 2.670362140736700640e-01 -5.051678876227532200e-01 8.206686698588939732e-01
5.697055572754389230e-02 3.140962208904869712e-02 -7.662615864057035209e-01 -1.559377785524985183e-01 4.767449414713084144e-01 -8.650998034918458979e-01
1.833130499571938854e-02 -4.121780713343489722e-02 -7.972640622280663392e-01 -2.022967342111643974e-01 4.539717043035265132e-01 -8.677474995753365894e-01
-4.569082392085017930e-02 1.562294772946161148e-01 -6.966161853224318579e-01 7.772573248909034338e-02 -4.316119328951960599e-01 8.987045398191260137e-01
4.514922309811811307e-02 -1.311671492347964429e-01 -8.612716499888938282e-01 2.635991214388673232e-01 -4.609998224845904824e-01 8.473456596016960551e-01
-9.710198463259519033e-03 -1.304614358840994019e-02 -7.812054771403889042e-01 9.838414468521874401e-01 8.273477387020010398e-02 -1.587796103044765705e-01
-4.004726584096336001e-02 9.983445125540972576e-02 -7.162694652760934755e-01 -1.179780306046546018e-01 4.342451228063410329e-01 -8.930354738830663663e-01
-1.363338680776868608e-02 2.232737884147736329e-01 -6.583473525176393171e-01 -3.196047870687759862e-02 4.408331483815405849e-01 -8.970198788704997206e-01
4.601580005176593435e-02 6.905817264348070028e-02 -7.410297748050700406e-01 2.975795347674775257e-02 -1.715620501562406530e-01 -9.847237821597806251e-01
-7.445524021430356687e-02 1.240744435876659363e-01 -7.089712970388182267e-01 9.673149153129752265e-02 -4.174847172568070808e-01 9.035206303140699280e-01
7.118549305453866684e-04 -1.823065513126158332e-01 -8.773371758746567606e-01 2.264670376599050572e-01 -4.486541049365518341e-01 8.645358147451895903e-01
9.586535760601817835e-02 -1.070640525283743927e-01 -8.504383670101266501e-01 -3.336944916320782606e-01 9.147077984159154296e-01 -2.279421632158431243e-01
1.403783555627818869e-01 6.427571869580915587e-02 -7.695766991904510190e-01 1.223411781672325699e-01 -5.202058307663545156e-01 8.452328257713020987e-01
9.048282916739580628e-02 -1.539201775524237925e-01 -8.903030930345149363e-01 3.744957158568947841e-01 -6.456279458631043466e-01 6.655204837759842729e-01
-5.944276815999652991e-02 -7.515274827997422101e-03 -7.640150384888729773e-01 -1.805671056359899607e-01 4.168369108118470945e-01 -8.908661572576866972e-01
1.245713702403042494e-01 -6.905759230583523312e-02 -8.397814137175184657e-01 -2.243591413679585367e-01 5.074463731582424808e-01 -8.319622311458483299e-01
-6.131415128631733519e-02 -2.044771778678995764e-03 -7.693152770578675081e-01 1.812988546547424917e-01 -4.133987990512643651e-01 8.923184175191335443e-01
1.044085060409476323e-01 -6.642211763103899810e-03 -7.995651397761208701e-01 1.975450603963682106e-01 -6.800395716209238772e-01 -7.060609960496512238e-01
1.036954252790060760e-01 2.021307731028113442e-03 -7.921051682779439718e-01 -1.780988752118813634e-01 4.923736588895917254e-01 -8.519677051860232719e-01
-3.406127512440464133e-02 -4.716863363548454147e-02 -7.895418586181439657e-01 2.087096757321782736e-01 9.684106562493870474e-01 1.364590492360278629e-01
-9.051612311661409727e-02 7.374716529407597532e-02 -7.334094797633775586e-01 1.018342359926469043e-01 -4.946814213686360762e-01 8.630875272720025526e-01
6.697080202731164889e-02 3.909904059381964780e-02 -7.721556081174730801e-01 1.516853849244960140e-01 -4.948737399417008631e-01 8.556234718124680061e-01
4.631669959890307581e-02 1.423221244942840524e-01 -7.022004135552045723e-01 -2.067491786132104881e-01 9.237382233185859048e-01 -3.224321198686405654e-01
-8.972393140736407979e-02 7.239631320956539662e-02 -7.304982558224085709e-01 1.299328108015625205e-01 -4.067881398374887936e-01 9.042349661259295734e-01
1.242947967722600510e-03 -5.140531623193048821e-02 -8.103790472346702467e-01 1.437220643268397047e-01 -4.469428343006082716e-01 8.829417144370121928e-01
-5.624661737192054173e-02 1.865535407791024114e-01 -6.812611500615661786e-01 6.667997789888560622e-02 -4.267487066644324312e-01 9.019087104067896599e-01
-3.377519505884078038e-02 6.479041561243278902e-02 -7.457364119123907065e-01 1.149586257057613053e-01 -5.124371175564178538e-01 8.509951321401977298e-01
-1.077357430319761666e-01 1.713864163429805743e-01 -6.841101221967350599e-01 8.923759047491938712e-02 -4.178846555572323651e-01 9.041067785920222644e-01
8.779348374974914326e-02 -1.094397227388799326e-01 -8.491544703766079616e-01 -2.708481122625815973e-01 5.587623225767779367e-01 -7.838532815217402749e-01
-2.767861544636973474e-03 -5.612998312967134446e-02 -7.964278943418333645e-01 2.913992837231175748e-01 6.378135776282075620e-01 -7.129377936669935023e-01
1.310639984057420937e-01 -3.187786540062155765e-03 -7.976893690740740617e-01 9.864146598311734210e-03 -1.147154809951103083e-01 -9.933494133646768587e-01
1.015136678543531595e-01 -1.340029013688046333e-01 -8.720889596250329667e-01 -2.773884273530732303e-01 4.947194303974742913e-01 -8.235947702346021471e-01
-7.384056154239516945e-02 1.446620939226060665e-01 -6.899160885218993400e-01 6.618547554711759484e-02 8.802626371006464501e-01 -4.698480313369607364e-01
-9.999108504081034854e-02 1.204633346342253580e-01 -7.001646980146072341e-01 -9.527340272985869440e-02 4.034218378115699832e-01 -9.100405482773880061e-01
1.543416661629845761e-02 3.469471341394644165e-02 -7.571664297764595375e-01 -1.360970586357258816e-01 4.606067234518838593e-01 -8.771083382009450258e-01
-8.586267578854767102e-02 6.932175274707617907e-02 -7.324227647324116353e-01 1.189209000130341670e-01 -4.063680092863599658e-01 9.059375588685627534e-01
-5.570359795719067447e-02 9.096562818969761155e-02 -7.266046660273497437e-01 1.175133593348380995e-01 -4.365391767365990328e-01 8.919776665096349477e-01
4.937423303168762476e-03 1.128442250937208707e-01 -7.233862066188819773e-01 1.207467958451045181e-01 -4.527796573553140580e-01 8.834086218609964458e-01
-1.273919193278995610e-01 1.088650019846219841e-01 -7.023517378791859223e-01 -7.600561649852419221e-02 3.835247277684383227e-01 -9.203977017848450348e-01
6.192051452553032354e-02 -1.025784441291629628e-01 -8.416324629293565618e-01 -2.445060444882015682e-01 4.814943892069379894e-01 -8.416531039394860025e-01
2.897890254042831751e-02 -6.833143246533526782e-02 -8.140835085430015994e-01 -2.219082879761347937e-01 4.604076836514476856e-01 -8.595239825404576983e-01
2.163692445424697172e-02 2.285125913992130386e-01 -6.571390757839000729e-01 -4.708057088304572202e-02 4.311884702790986790e-01 -9.010326980435822142e-01
1.647587324931652775e-01 6.253838194493496760e-02 -7.733957758912864966e-01 -2.960710626016930039e-02 -5.445308923375824506e-01 8.382180662267636473e-01
-5.991893132829030633e-02 1.478924628166572164e-01 -6.877438389471725033e-01 -7.697144592028928867e-02 4.295634596373168468e-01 -8.997503157306249166e-01
-1.595924360997197713e-03 1.302900944594835853e-01 -7.171407160458994623e-01 3.604481659820853168e-02 -4.536136604064762157e-01 8.904692124318726032e-01
-7.874736167647945762e-02 1.084214308263137805e-01 -7.078078559426497218e-01 -9.513799282537348245e-02 4.095923235148001273e-01 -9.072942691535677007e-01
-3.908827511819763095e-02 -1.570688109762163887e-01 -8.480898685428159833e-01 2.726338228299752808e-01 -4.201768610027279416e-01 8.655184597263122503e-01
1.427152923475972224e-01 -5.837630660967056163e-03 -8.059242920436582303e-01 -2.682762408861785741e-01 8.607110395650305890e-01 4.326711972697807607e-01
-9.257157903767555818e-03 -6.318245578012167407e-02 -8.123232005036606918e-01 7.070586134823392266e-01 -3.209837267756887602e-01 6.301091685141724241e-01
3.193813985617489741e-03 1.139164768455201565e-01 -7.252089576472368071e-01 -3.036105476384738933e-01 -4.351156944476919364e-01 8.476408247648106187e-01
-7.076451969416009367e-03 -3.445924253400223791e-01 -9.449556432505458181e-01 7.673023316408752459e-01 2.910850314243616510e-01 -5.714163423801899011e-01
1.485136020003510748e-01 1.033956736766596940e-01 -7.389317181435034465e-01 -1.417653536380241441e-01 5.158665473274455238e-01 -8.448575559562371273e-01
2.902152406736350013e-02 1.304759368194839328e-02 -7.793992215258509493e-01 1.579992889119959387e-01 -4.672470553862352327e-01 8.698944843693376949e-01
5.320003163487677794e-02 -6.099340509321025949e-02 -8.248760130884241759e-01 2.138064751022746013e-01 -4.732453913297529069e-01 8.545908908884352062e-01
1.261058660276417054e-01 -3.506592654918118217e-03 -8.086023576276130109e-01 1.823977040895343738e-01 -5.056289555073648634e-01 8.432499255235055280e-01
-1.383568652103385199e-01 -5.192995013702407861e-03 -7.556506911821693206e-01 1.797899600173772372e-01 -3.845741781716384700e-01 9.054160765971404068e-01
-1.019506180383075999e-01 4.967989780599157273e-02 -7.308581515445531362e-01 -1.297176041369810517e-01 3.900021757866831140e-01 -9.116313103764122072e-01
-6.339605549964670572e-02 -9.780970728207843967e-02 -8.131551310703436508e-01 2.447966123352649792e-01 -4.108568476415787041e-01 8.782205129323742421e-01
-1.133277205499137186e-01 6.967556109780049167e-04 -7.580396075088088326e-01 1.671206730291495690e-01 -3.856221500844407291e-01 9.073953041594037261e-01
1.002804944561690691e-02 -1.848810566036179492e-01 -8.783432953014331801e-01 2.782825587592492877e-01 -4.464798716206441753e-01 8.504202147926740452e-01
1.210555179926069008e-01 8.741511475430789602e-02 -7.444901440384802394e-01 -1.173391802826513480e-01 5.056219020251448981e-01 -8.547385617620572029e-01
9.691447627715460422e-02 -1.139442541308866574e-01 -8.672843830794532138e-01 2.563354596030249510e-01 -4.855450413572695578e-01 8.357859444639359481e-01
2.945899351107240591e-02 -3.356376894832567570e-02 -8.078482976674506988e-01 1.674284731314842900e-01 -3.656958026694379638e-01 9.155513564485692202e-01
1.024728235214962535e-01 -3.698377724320950355e-02 -8.148025605351360001e-01 -2.076741044178538609e-01 4.889378466696929770e-01 -8.472374215343926318e-01
-3.525990511131901761e-02 1.713764903425885888e-01 -6.901405026463008907e-01 6.022790214416098159e-02 -4.408815628846401991e-01 8.955423202237348113e-01
-5.710980409372830302e-02 -1.899026068528599509e-01 -8.476068033797639067e-01 -3.900781099796689078e-01 2.378698862460980890e-01 -8.895262701752869594e-01
7.253851329417575211e-02 -6.945143435485660877e-02 -8.346489492521912412e-01 2.249144020273446121e-01 -4.727586577284847436e-01 8.520051427681897271e-01
7.605020142003597605e-02 -1.709433732292101882e-01 -8.944582087223832412e-01 -6.288915039452450673e-01 5.022735436258143338e-01 5.934785283723877924e-01
1.578767907229962006e-02 -8.812291959700745136e-02 -8.210420718953403973e-01 -2.170545715593223401e-01 4.510508619772611305e-01 -8.657022772724862758e-01
8.889189141823378160e-03 -3.955054656181105632e-01 -9.755753475249105966e-01 -8.370744673614426423e-01 2.519570197429749636e-01 -4.856171293249397225e-01
-8.146059991593852800e-03 -6.475521683057740285e-02 -8.143711663435649895e-01 7.070586134823392266e-01 -3.209837267756887602e-01 6.301091685141724241e-01
8.765156193637374527e-02 -3.214727811166610133e-02 -8.170140990614033205e-01 2.041312213961668232e-01 -4.890832748139848363e-01 8.480141477289970808e-01
-4.775951264480772507e-02 -1.555935261329083052e-01 -8.361785832313857192e-01 -2.740287401370991027e-01 4.117045218998953149e-01 -8.691418964852936080e-01
3.931432785849736655e-02 -1.690845097484436621e-01 -8.712301104318377343e-01 -2.816966858481571578e-01 4.618530236333781569e-01 -8.410343404064253292e-01
-5.506477574039126549e-02 2.951607524420264694e-02 -7.475589589015610992e-01 -1.528428270024718427e-01 4.339948586490090521e-01 -8.878555811054628100e-01
4.510854307178944339e-02 -1.987809413994761076e-01 -8.973528191695856471e-01 -5.114408619926498201e-01 6.229587298794412309e-01 5.919042705972042961e-01
-3.031173595741176036e-02 1.968589472647869210e-01 -6.704111488583148759e-01 -4.515411000935069807e-02 4.348359316936581953e-01 -8.993769058950600304e-01
-1.888784618817578248e-03 -3.041448010962059523e-01 -9.215656037231458875e-01 8.543980630405580146e-02 4.522488296631476667e-01 -8.877899726664176816e-01
-9.598686962695962555e-02 -1.584149115610099245e-01 -8.228851766384527311e-01 -2.574090716364866305e-01 3.884874522885287118e-01 -8.847700657535889635e-01
-6.461017525275118689e-02 -5.076513009264528586e-02 -7.828830257751886457e-01 -1.971464176632250764e-01 3.996577923676838395e-01 -8.952133483155545468e-01
-1.760656963503487481e-03 -1.850139088898810347e-01 -8.780944893776722049e-01 2.264670376599050572e-01 -4.486541049365518341e-01 8.645358147451895903e-01
-1.470061892904414858e-01 8.095033444631519193e-02 -7.117798850940055821e-01 -1.113286328107709056e-01 3.754022503181828063e-01 -9.201516646578045133e-01
8.506067470754266613e-02 1.458693255485733475e-01 -7.060993078194882644e-01 -8.727460890988772424e-02 4.898197902921043734e-01 -8.674443588368218050e-01
-1.355890339599426231e-01 -2.286406368057712982e-02 -7.559828870893727792e-01 -1.703424027957354259e-01 3.731707047830652435e-01 -9.119907296137860220e-01
-4.874061314238013753e-02 1.023455425366535422e-02 -7.576703090308020139e-01 -1.698138099477315699e-01 4.281596309257698629e-01 -8.876049799300047560e-01
-1.225294602432536184e-01 7.588948265193493081e-02 -7.281746361736857187e-01 1.502446607768766762e-01 -3.171421272193485907e-01 9.364013098297266913e-01
6.793069842466542552e-02 1.159032407175510787e-01 -7.291347611178023991e-01 9.641662783892372690e-02 -4.782704837963520084e-01 8.729038768417595184e-01
1.023054250385940604e-02 1.916117315993120240e-01 -6.791662452002240613e-01 -7.845677817792051645e-01 -2.827941878523012598e-01 5.517978281137166929e-01
-6.593871143138805777e-03 -7.309447985288984595e-02 -8.160672262141920319e-01 2.166364661407351733e-01 -4.396579776603772860e-01 8.716475802855424559e-01
5.750986574947352520e-02 -1.204633001902397083e-01 -8.472045882201293399e-01 -3.486099891506298509e-01 8.991329222335376903e-01 -2.646338293192630475e-01
1.549248308760740600e-01 4.736774084438325622e-02 -7.823045247389858181e-01 1.098642885162279120e-01 -5.298597549121187855e-01 8.409390454921762403e-01
-8.097280221220252983e-02 -4.697322724963527707e-02 -7.775867499582038711e-01 -1.971464176632250764e-01 3.996577923676838395e-01 -8.952133483155545468e-01
-4.041740913457698287e-02 -1.474034041198679472e-02 -7.712187652250501735e-01 -1.836027911224910325e-01 4.286113853249229333e-01 -8.846368155700289337e-01
-7.809003446793212622e-02 -4.596050166064373499e-02 -7.777694814387778877e-01 -1.971464176632250764e-01 3.996577923676838395e-01 -8.952133483155545468e-01
9.799289219885819191e-02 1.099645446819497302e-01 -7.280672976914833727e-01 -1.167475169599967028e-01 5.013263397507656816e-01 -8.573458569071031876e-01
-9.256559917179346675e-02 1.220145177170971623e-01 -7.002544414614721990e-01 -9.527340272985869440e-02 4.034218378115699832e-01 -9.100405482773880061e-01
-1.095704400292792369e-01 -2.420095656715608515e-02 -7.600594572809084015e-01 -3.023772001580694035e-01 -3.399263275524150307e-01 -8.905156487458796288e-01
-4.023648589396037339e-02 1.480449928987666031e-01 -7.010728912019232872e-01 7.829607408486401188e-02 -4.367325058640624813e-01 8.961776850070491962e-01
-1.668944443927930787e-01 1.309007279872500921e-02 -7.422429730763864253e-01 3.471993506385757655e-01 -3.407004129742105536e-01 8.737138201467078424e-01
-8.466275191095239128e-02 -1.886338803173988332e-01 -8.415915272955805104e-01 5.965942016576775142e-01 2.577542627681499443e-01 7.600250644375392550e-01
3.569107538213315417e-02 1.246936873320495659e-01 -7.125306950365503100e-01 -9.740528399749415200e-02 4.735677416881922674e-01 -8.753546736504654868e-01
1.612440750993275607e-01 7.501778392691409170e-02 -7.587363157581138440e-01 -1.639860171586727811e-01 5.239130573855674822e-01 -8.358371219785242223e-01
7.475693151648077350e-02 1.277343438309790080e-01 -7.234064041165253478e-01 9.641662783892372690e-02 -4.782704837963520084e-01 8.729038768417595184e-01
5.142343761141007080e-02 1.872509489170403330e-01 -6.804212770093176488e-01 -5.035819775816696015e-02 4.697951900778087886e-01 -8.813379211734309049e-01
-1.086769995130687227e-01 -3.108259780360367319e-02 -7.647062971338991488e-01 -1.751384966013390110e-01 3.857025250764136715e-01 -9.058477074861429612e-01
1.944610583081930397e-02 -1.650355776639633176e-01 -8.623841142531903925e-01 -2.765508795579616486e-01 4.460743565948474543e-01 -8.511975560374985816e-01
4.597522830560503426e-02 5.548553019242059847e-02 -7.512639244005964168e-01 -1.382111254277755830e-01 4.796494754161777507e-01 -8.665068179425786665e-01
-1.400225112451792542e-01 7.633353528631496576e-02 -7.124936299703225062e-01 8.834278604346011698e-02 2.224406882698871379e-01 -9.709354728075899610e-01
-5.147076568150530523e-03 -1.370144153462735381e-01 -8.487804178244455766e-01 2.662216713055621242e-01 -4.375278916575082722e-01 8.588919406706577719e-01
8.660556078412576589e-03 6.718335089175421493e-02 -7.474234152270461395e-01 1.451671469592583086e-01 -4.515379026994604805e-01 8.803635736838966164e-01
2.800298697363356321e-02 -2.329300668589189688e-02 -7.985050664663915221e-01 1.893403398234138335e-01 -4.652937601605948159e-01 8.646686952071116483e-01
8.758436070318444122e-02 4.724822558621730867e-02 -7.627118741713071470e-01 -1.338218510066755129e-01 4.947160232677940694e-01 -8.586895646945097438e-01
4.361197976202032395e-02 -1.886269137193923306e-01 -8.944973663306414746e-01 3.396128114159968625e-01 -5.160225682029798699e-01 7.863738598321562412e-01
-5.929884781042226577e-02 1.202147527120431686e-01 -7.123927694196509064e-01 9.655857182613512835e-02 -4.249126622805858844e-01 9.000698148702255263e-01
5.627027141902403440e-02 -1.680782090291702696e-02 -8.011918486590418054e-01 1.871466620057775920e-01 -4.771941219532410128e-01 8.586395616749618043e-01
1.137403215490499775e-01 -1.089402221436771290e-01 -8.691598294748358322e-01 2.343441643350807346e-01 -4.934494909047402733e-01 8.376099405856793911e-01
9.127064092900678827e-02 -6.912396258826102036e-02 -8.394048427633562515e-01 2.208772258827956247e-01 -4.983247055031856942e-01 8.383828117104283884e-01
5.256938300139660236e-02 -8.508304147605588730e-02 -8.293658088844771958e-01 -2.325597947269320009e-01 4.691752426857057068e-01 -8.519334090921520941e-01
-5.907466686897520219e-02 2.507456626050994647e-02 -7.489376450035698518e-01 -1.641719102050387957e-01 4.158356784019408559e-01 -8.944988946150944642e-01
-7.291869760887556562e-02 3.719008191496890603e-02 -7.410304079135647815e-01 -1.480807830062647878e-01 4.186331510404476264e-01 -8.960013206207886327e-01
7.641838634126542698e-03 6.305710772906356065e-02 -7.373237729777103455e-01 -1.844994052948706054e-01 4.461162024518661728e-01 -8.757512793914518090e-01
1.187701386066083442e-01 1.256252164877934563e-01 -7.293983557751216873e-01 9.331465740199798575e-02 -5.067118173612854548e-01 8.570504704277170926e-01
7.858125709794004654e-02 -8.613917025429063123e-02 -8.370880318949318610e-01 -2.279389752556176263e-01 4.840180521505285660e-01 -8.448493053508578932e-01
-1.460664372506082290e-02 -3.339642780587710053e-02 -7.857991036925213724e-01 -2.055461417817844583e-01 4.373045230428737606e-01 -8.755087308101885402e-01
-1.745792594291594151e-03 8.451443046684760374e-02 -7.369976765454795409e-01 1.347703418608691417e-01 -4.497675506662203726e-01 8.829190819788715894e-01
1.370456354447559533e-01 2.061446714142065387e-02 -7.959084627896226838e-01 1.521113107931788000e-01 -5.194031389595415993e-01 8.408819943177258116e-01
-1.120310863325569145e-01 -1.544079088418657542e-01 -8.167588670105609960e-01 -2.093468972062506317e-01 4.123392550674366830e-01 -8.866511238139535012e-01
-8.162754162904883523e-03 -3.583893920764105734e-01 -9.534489260537308830e-01 7.674769862055548231e-01 2.950942674881726346e-01 -5.691207683264224437e-01
8.383537102897194171e-02 1.894955002749286119e-02 -7.867297130897475954e-01 1.708091119804294455e-01 -4.929283340659840751e-01 8.531388543135229874e-01
-6.441724037980129693e-04 -1.776299191762303609e-01 -8.621399939683505043e-01 -2.839339040872569386e-01 4.277856504803794202e-01 -8.581264331978398774e-01
-1.249420016636254849e-01 8.852759779896740566e-02 -7.112419391721606088e-01 -1.049667678064641896e-01 3.930454872954012857e-01 -9.135081951318140270e-01
4.864648873955873531e-02 7.886416909760395055e-02 -7.472137502619278226e-01 1.195603754698133514e-01 -4.798622553920567912e-01 8.691590950266618876e-01
6.441856914601602757e-02 -1.116537615890855900e-01 -8.563228259224885397e-01 2.444845041194181889e-01 -4.814931276064338128e-01 8.416600829986274901e-01
5.838689302905057665e-02 7.692000830780956755e-02 -7.532953143930686268e-01 1.544777244796073368e-01 -5.625976416837881189e-01 8.121702569113463666e-01
-4.978418535428173752e-02 -1.888813349285322907e-01 -8.582360853603994144e-01 3.590984899268951369e-01 -2.664058435597535524e-01 8.944697876672187409e-01
8.736989827029532007e-04 1.986146163754111960e-01 -6.822031283074331265e-01 -8.563058295667103775e-03 -4.565599956366138135e-01 8.896514173635199363e-01
4.733105755130533748e-02 -8.140146839379699961e-02 -8.345531491730584506e-01 2.327029754440590181e-01 -4.691898914550338140e-01 8.518862429784244128e-01
-7.372332517586473177e-02 6.410513806250614510e-02 -7.285567614004682113e-01 -1.338822851262777558e-01 4.234940959711741004e-01 -8.959510502292655776e-01
4.772325980383400335e-03 1.498337349364364246e-01 -6.963691672395948551e-01 -7.178455613677292568e-02 4.527376106403270817e-01 -8.887494773061381803e-01
-4.006641513454526488e-02 -1.060489133487434524e-02 -7.692879648674952886e-01 -1.836027911224910325e-01 4.286113853249229333e-01 -8.846368155700289337e-01
1.404271652178961521e-02 -7.612974376577691556e-03 -7.871972228469440447e-01 1.869963674207463511e-01 -4.566532996435525016e-01 8.697701549812461019e-01
-4.225791958783552821e-02 3.303012459354422170e-02 -7.561832867088428278e-01 1.535057355716583083e-01 -4.310831858996806987e-01 8.891587462209351589e-01
2.554456557703141395e-02 2.349164536493938693e-01 -6.542936417847887709e-01 -9.934008282596255845e-02 3.330196276361618302e-01 -9.376723711154141272e-01
-7.099082857856296724e-02 -4.300236678398217799e-02 -7.861711791570070718e-01 1.969950980017957098e-01 -3.994958001477181275e-01 8.953189582643702460e-01
-6.316142981299018022e-02 -4.767136668238797226e-02 -7.818208971966932319e-01 -1.971464176632250764e-01 3.996577923676838395e-01 -8.952133483155545468e-01
-6.187399494963076278e-03 -3.902284575822722451e-02 -7.904861212527041214e-01 -2.006264659708937581e-01 4.412220276179536493e-01 -8.746840249465698269e-01
5.637315167737692867e-02 1.720527124880105174e-01 -6.890164580529581917e-01 -6.320681910475746401e-02 4.750241911920703997e-01 -8.776997868297438110e-01
-7.981801430437548972e-02 -1.661227127256040548e-01 -8.311812151293324069e-01 -2.626266113832659288e-01 3.983900989527745518e-01 -8.788131724375446430e-01
2.648245862993256830e-02 1.553172781562262017e-01 -7.034474117701174922e-01 7.724676082493510398e-02 -4.597045388034911029e-01 8.847059822028584541e-01
1.028611381525064844e-01 4.411246626377774045e-03 -7.905495593632024809e-01 -1.780988752118813634e-01 4.923736588895917254e-01 -8.519677051860232719e-01
1.357199229807151131e-01 6.656986511133528017e-02 -7.594379380479888697e-01 -1.338087196480211016e-01 5.181098474922720687e-01 -8.447824645893708961e-01
3.168684148023243052e-02 -9.827792552364093825e-02 -8.394239029590151446e-01 2.421215065223121521e-01 -4.596790623323055436e-01 8.544427047688207821e-01
1.091094229628521289e-01 1.188364343629353531e-01 -7.323602230690449133e-01 9.331465740199798575e-02 -5.067118173612854548e-01 8.570504704277170926e-01
4.396512886118591687e-03 2.290825794581748120e-01 -6.540966519219613140e-01 -1.183116291425627270e-01 -3.074177152054087189e-02 -9.925005299209725962e-01
-7.460762843769171149e-02 -1.305097161591820543e-01 -8.184612967605269240e-01 1.780378301624384318e-01 9.701402436589634526e-01 1.647132012450066574e-01
2.292958749660992113e-02 1.061346822297408315e-01 -7.209885028753375558e-01 -1.179662086379296704e-01 4.596873222093029732e-01 -8.802110766285736743e-01
6.954513767238412747e-02 -2.088073281806299489e-02 -7.960178030192074372e-01 1.251820542609873022e-02 -1.572184558013442757e-01 -9.874845070624402865e-01
1.080399187652420906e-01 -1.260144095191478575e-01 -8.694860532582681101e-01 -2.749000353201924707e-01 4.995401880942782480e-01 -8.215166285959706327e-01
8.639073740026260995e-02 1.513893187597672718e-01 -7.111098214786935046e-01 7.864942783532637149e-02 -4.914143444927016047e-01 8.673674016977949153e-01
5.423876008265540033e-02 1.530144189541254029e-01 -6.992145897996943082e-01 -7.743424015213123957e-02 4.760044078522037703e-01 -8.760272496659763375e-01
7.493068804835403829e-02 2.005087259639846409e-01 -6.749087481464985938e-01 -6.858088207299868622e-02 4.673150298895039634e-01 -8.814268690330816503e-01
-4.286473290026938075e-03 -1.492300614211315157e-01 -8.465153562864121684e-01 -2.818798403409907283e-01 4.355024978412377346e-01 -8.549159783179749450e-01
-1.598548974946701062e-01 -7.307585103743117518e-03 -7.520813984923789830e-01 2.110825228442864965e-01 -3.543326773848202160e-01 9.109843699465959288e-01
-5.430050708090697342e-02 9.195672684161615429e-02 -7.183144985754958967e-01 -9.659603506724620536e-02 4.224447446643050941e-01 -9.012267437858229036e-01
3.663704660504548544e-02 -3.880192467372961529e-02 -8.056235820988902896e-01 -2.096207067870250185e-01 6.946040115907078372e-01 6.881747062833709627e-01
1.039954054704350928e-01 -1.317714694622481586e-01 -8.715907061160400593e-01 -2.907712947334156195e-01 4.992403285391507906e-01 -8.162175865044650758e-01
8.350133550593899501e-03 -7.870154092969249005e-02 -8.202296476778716539e-01 -7.735093857752776136e-01 -2.884916071800776582e-01 5.643189016010435877e-01
4.628679025582889406e-02 -1.742638473962275806e-03 -7.908613649418864133e-01 1.835219497100287478e-01 -4.636022296149606148e-01 8.668290873469043367e-01
-4.533840849964063113e-02 1.747449435158575093e-01 -6.800225350173967342e-01 -7.754869374819464700e-02 4.287955460166730237e-01 -9.000669862928045717e-01
1.113067550095537261e-01 -8.014641318516514679e-02 -8.512807522795230453e-01 2.251550949500371324e-01 -4.986344825965783878e-01 8.370596370532281671e-01
1.237407586013216931e-01 -1.638749030552375321e-02 -8.074869495484667814e-01 -1.904311491823187930e-01 5.052042097690301325e-01 -8.417272027520265043e-01
-1.098606584364678063e-01 -5.042859972539000951e-02 -7.727685973934654839e-01 -1.915285959417321049e-01 3.829048373303257646e-01 -9.037149343048532790e-01
-6.998316820909390723e-02 7.766024693391856970e-02 -7.228410913019067685e-01 -1.155351683703597226e-01 4.063794250256864693e-01 -9.063704473257195859e-01
1.075911519846683706e-01 1.622017644935535574e-01 -7.023233793392453794e-01 -9.532808165624423458e-01 -7.496347072793105304e-02 -2.926365712457443813e-01
1.123839414643946627e-01 7.118634763694074719e-02 -7.528409986145324639e-01 -1.360637004698928010e-01 5.070108892699484171e-01 -8.511325558196767282e-01
1.551240003748573792e-01 4.428600498827218318e-02 -7.842722885496582474e-01 1.098642885162279120e-01 -5.298597549121187855e-01 8.409390454921762403e-01
9.307572011701865239e-03 -2.083660679628044632e-01 -8.844131052831696316e-01 -9.817529190336982126e-01 -8.316095586596210232e-02 1.710130444974069797e-01
-1.318754767580719023e-01 -6.270141889785221800e-02 -7.807666255294781754e-01 2.100918986155329293e-01 -3.720014779969656460e-01 9.041439567370860297e-01
1.370141069472163298e-01 1.175726066629569633e-01 -7.287010993014670923e-01 -1.217971524457185512e-01 5.124346150943832612e-01 -8.500448334700857478e-01
-9.443826269955261921e-02 -1.559496306556126533e-01 -8.302329556371456087e-01 2.781772029261343482e-01 -3.751632724868575464e-01 8.842341108265072691e-01
1.024421941836453215e-01 7.426461222917571381e-02 -7.494806598453990221e-01 -1.326502751483483178e-01 4.889892943074046761e-01 -8.621446366798403149e-01
6.054421147310846268e-02 9.973433646209717285e-02 -7.290578586551522688e-01 -1.002907992953922800e-01 4.802108249285436670e-01 -8.714007798930059057e-01
2.598472245715671702e-02 2.381521415738152014e-01 -6.581303957603122923e-01 -5.424860997859696360e-02 -5.980058942307020509e-01 7.996536992853395809e-01
-5.030027921762471321e-02 -1.622292842151577541e-01 -8.385208113002391439e-01 -2.740287401370991027e-01 4.117045218998953149e-01 -8.691418964852936080e-01
4.190698629536564017e-03 -4.800230683518993263e-02 -8.058564656744202637e-01 2.001794642259124568e-01 -4.482272724080703652e-01 8.712178225747265747e-01
-4.794108881723124077e-02 -1.140203438263018426e-01 -8.250384243208541690e-01 2.421745779748221417e-01 -4.209722770666607938e-01 8.741474793900783080e-01
4.118832066400923697e-02 1.350788325900191544e-02 -7.730488820697154484e-01 -1.688773808222358841e-01 4.632617114120261559e-01 -8.699821934880171970e-01
-1.221379228229211994e-01 1.100352932234417366e-02 -7.519964657459954349e-01 1.684368241275262246e-01 -3.735657100262522179e-01 9.121829293351277901e-01
-7.684871043161495448e-03 5.846923008730982307e-02 -7.528863708338671135e-01 1.501689215980617775e-01 -4.487614585988767280e-01 8.809440664777099528e-01
-9.675864292002223088e-02 6.683149944772394380e-02 -7.241191554835550992e-01 -1.266478955935781969e-01 4.068150759117150628e-01 -9.046887887846647436e-01
-1.704963880346390195e-02 9.704028507780509960e-02 -7.205489636032744727e-01 -1.181419279910117665e-01 4.417610646837384913e-01 -8.893197662146369309e-01
-6.873816779431268786e-02 1.398754678631811132e-01 -6.945252108342698794e-01 -9.677220809231498744e-02 4.147667357859796677e-01 -9.047672046589558814e-01
-2.888919040356818790e-02 -1.661491427744435645e-01 -8.471346561488057869e-01 -2.727340120013259095e-01 4.201571403659961068e-01 -8.654964679865129185e-01
-7.494824538612053499e-02 6.977049897365611431e-02 -7.235791625898748691e-01 -2.301543408551829095e-01 -2.885494757726144721e-01 -9.293912951049549953e-01
7.593645144441456274e-02 -1.031022299457344665e-01 -8.547851611388881388e-01 2.489130193361038801e-01 -4.817474428099208228e-01 8.402152760757723993e-01
1.063710367595478434e-01 -2.414028997698255963e-02 -8.166393286363020643e-01 1.910335504545504492e-01 -5.059079877851592189e-01 8.411678135163637160e-01
1.910072095567209383e-03 1.193765533190519271e-02 -7.779293450380260211e-01 -2.729291254750343954e-01 -4.387638265994405207e-01 8.561518538993236893e-01
9.669116229949356600e-03 -2.967484838724961799e-02 -7.932733477781596099e-01 -7.907331763925370405e-01 -2.792014954783575420e-01 5.447821295479666759e-01
-6.284276164659387785e-03 1.942116189373050417e-01 -6.713110234075037042e-01 3.326516467502465546e-01 4.237514424506228505e-01 -8.424829950422534353e-01
1.666244534279212944e-02 2.318365700867611456e-01 -6.552882249334192055e-01 -4.774514981731417529e-02 4.335648820643182577e-01 -8.998565961915687694e-01
9.650546625179241139e-03 -2.963884867948530788e-01 -9.259156504596088855e-01 -8.293280468340340494e-01 2.536268966938287628e-01 -4.978839101717430493e-01
1.822841754933973366e-02 1.607501201832497728e-01 -6.998839425985666773e-01 7.634260151916433257e-02 -4.688920737111602621e-01 8.799500158555222384e-01
-1.469246245806682567e-02 2.362690443415921826e-01 -6.521388083210988285e-01 -1.211989434278990495e-02 4.225181895743470584e-01 -9.062734066714833725e-01
-9.291688508054915183e-03 1.238571571476063254e-01 -7.182393337568739877e-01 6.266684040204302253e-01 -3.537246463816416941e-01 6.943814412444139217e-01
-1.342722602311420821e-01 -4.994844454548656026e-02 -7.673295533236725863e-01 -1.860939590882996486e-01 3.697789774309302446e-01 -9.102925607962407684e-01
-1.655110383086880882e-02 5.155240305937805467e-02 -7.513836744236681575e-01 1.468997161633297244e-01 -4.408571764609682808e-01 8.854746881498056776e-01
-1.475443055173552565e-01 -4.341327242026388894e-02 -7.692023875801903277e-01 2.019270428157828312e-01 -3.617511039312278909e-01 9.101437294099272712e-01
-9.348218558821087820e-02 1.421741597819721481e-01 -6.988223799235567801e-01 8.352566172150613366e-02 -4.159825966305840672e-01 9.055285435227655721e-01
6.429586377871922276e-02 1.340130485041975683e-01 -7.187121652048709119e-01 9.660603629010863780e-02 -4.880507756028866218e-01 8.674524276210973106e-01
-5.871443206865900599e-02 3.548792807432197410e-02 -7.441732121977580050e-01 -1.480807830062647878e-01 4.186331510404476264e-01 -8.960013206207886327e-01
1.313225868682156017e-01 -8.783021612743637310e-03 -8.128946001258304799e-01 1.823977040895343738e-01 -5.056289555073648634e-01 8.432499255235055280e-01
-1.362304827013550712e-01 8.194809503432720632e-02 -7.159097157517412269e-01 -9.895419785527991008e-02 -8.745749903971994366e-01 -4.746858465327956078e-01
-6.538380169008987247e-03 7.412338431853024434e-02 -7.334864269479662857e-01 -1.356392441883774169e-01 4.448300310578685579e-01 -8.852842701104890466e-01
-1.361116890658540246e-01 6.076558864138936755e-02 -7.213588703097693067e-01 -1.256881470995799277e-01 3.813933922584568093e-01 -9.158283518325149863e-01
7.050229184867241872e-02 1.681163400419768972e-01 -6.923020147383558420e-01 -7.654868579453073807e-02 4.826035671327390530e-01 -8.724873040301995841e-01
-2.770829151056697359e-02 -6.614146494433803536e-02 -7.988224971125781337e-01 -2.083792051176056315e-01 4.262611322736021835e-01 -8.802724316865667697e-01
7.612806253347316476e-02 1.608544932785032910e-01 -7.047461375787378302e-01 7.727257392756921306e-02 -5.009246325719490800e-01 8.620344899139859018e-01
-1.175880831217165912e-01 -5.356170628662539762e-02 -7.802731342273323545e-01 2.082504072775900883e-01 -3.800427920482012389e-01 9.012209740573760008e-01
6.968438831008262613e-02 -4.347531151215266315e-02 -8.106181353460438777e-01 -2.098896909040674497e-01 4.759398858055522430e-01 -8.540653035638391399e-01
3.082139739077372972e-02 -1.502268687230688682e-01 -8.581989723146831173e-01 -2.778788186422527784e-01 4.526947351722265811e-01 -8.472607856482757827e-01
-4.738072373084819405e-02 1.398837534802731541e-01 -6.952452234994250801e-01 1.853792185889328314e-01 9.690616042268943575e-01 1.629544492444273129e-01
-8.017898188194361175e-02 1.109620860060322456e-01 -7.143511693170735422e-01 1.182866348994645322e-01 -4.115223679021167702e-01 9.036911047035903755e-01
-9.131892687220213856e-02 -5.191715984842148329e-03 -7.648667645032904971e-01 1.782813930296889282e-01 -3.996657498556970278e-01 8.991568457681211601e-01
-1.513089595840048651e-01 -4.215279515045159547e-02 -7.608120962976104851e-01 -1.754480912845562957e-01 3.669217770161622427e-01 -9.135569915532951724e-01
5.284123068362860109e-02 -1.329909431244043205e-01 -8.647022868641278670e-01 2.692051990659556360e-01 -4.610073687169447543e-01 8.455771796734689039e-01
2.347251666296253786e-02 -1.112723032586327154e-01 -8.440178908401185787e-01 2.495359142545296449e-01 -4.469600501824687044e-01 8.590451332951261065e-01
-1.674653501528642063e-01 1.697733545084561049e-02 -7.370093343408580244e-01 9.030740923983984203e-01 1.699618463519189104e-01 -3.944238258820780274e-01
-8.768939440280661135e-02 1.770388422914381532e-01 -6.761736897247762057e-01 -5.577290513709912134e-02 4.064242645005358701e-01 -9.119806468767669427e-01
7.525202567971360501e-02 1.208958349463653686e-01 -7.272930750602810690e-01 1.181253118067114721e-01 -4.890981535020474391e-01 8.641929222988664616e-01
3.648737237715436732e-02 2.108382515000351010e-01 -6.743429519368047131e-01 3.832855564235828488e-02 -4.873403943065633404e-01 8.723704843124243657e-01
5.861340249188521853e-03 -3.721380175201521312e-01 -9.737452535356262429e-01 -7.738796083011536542e-01 -2.843897138560360638e-01 5.658911931710326471e-01
1.390791130541735310e-01 -7.070296863330842452e-02 -8.449798956512762915e-01 -2.225933677818713041e-01 5.198745621944055317e-01 -8.247318547277653344e-01
6.341034329544545378e-02 1.538895411713787353e-01 -7.106802731839360066e-01 -6.216086498346318906e-02 1.432327263960543329e-01 9.877349912570986268e-01
-1.826800323982484195e-02 1.358246045693063397e-01 -7.049863531411977302e-01 2.333397053150564338e-01 8.317170903686250671e-01 5.037849377583962784e-01
-6.948513698123377769e-02 -4.377810020799335206e-02 -7.786901680759760191e-01 -1.971464176632250764e-01 3.996577923676838395e-01 -8.952133483155545468e-01
8.202088323339086148e-03 -1.804293487224797043e-01 -8.667150860159356096e-01 -3.053228419081978617e-01 4.433814710908109413e-01 -8.427282084411615859e-01
-1.132058394842253013e-01 4.050390648693464463e-02 -7.409076512951743299e-01 1.505936839883335043e-01 -4.067578525460877614e-01 9.010380634218051465e-01
1.970813013268529409e-02 -6.435001270255809314e-02 -8.096623289313781280e-01 -2.188433651032820615e-01 4.490972717713201945e-01 -8.662674079277300487e-01
1.390401518924698487e-01 3.127109291573952621e-02 -7.816389050647059022e-01 -1.640084707810681997e-01 5.185705735915446812e-01 -8.391577811812219734e-01
-3.921277280485920697e-02 9.251111171719508808e-02 -7.199407374908709523e-01 -1.179780306046546018e-01 4.342451228063410329e-01 -8.930354738830663663e-01
-2.310001277418418861e-02 1.674797836160580866e-01 -6.930317854120675580e-01 7.783439730584283678e-02 -4.411146926455098982e-01 8.940691441540153939e-01
1.248786693180729684e-01 1.245203494139689032e-01 -7.307894632467192286e-01 7.537027151834650718e-02 -5.191874129279724359e-01 8.513305776420870830e-01
-1.497860252229176181e-01 -4.616677463064648712e-02 -7.697994566097922098e-01 2.019270428157828312e-01 -3.617511039312278909e-01 9.101437294099272712e-01
-1.510758541295894319e-01 7.944340678590244842e-02 -7.120868270528170063e-01 -6.291967518944345528e-02 3.671804319236957048e-01 -9.280192050202317189e-01
-1.365067373652203292e-02 4.289002561049530537e-02 -7.561776495400371889e-01 1.468997161633297244e-01 -4.408571764609682808e-01 8.854746881498056776e-01
5.699931725966866231e-02 -3.847607104153453333e-02 -8.047448571877543477e-01 -2.010602197847255745e-01 4.764841695830073776e-01 -8.558841184161027904e-01
9.555096110395497333e-02 -9.615723537695758383e-02 -8.477416735877383314e-01 -2.436627419708880526e-01 4.909136308579123420e-01 -8.364402400728516707e-01
-1.330534534827620685e-01 1.203321763075363426e-01 -7.040193607171978396e-01 1.122862959925504389e-01 -3.980264236966259417e-01 9.104761137841822505e-01
-1.074724774851617687e-01 1.265843572570325704e-01 -7.042558749957390507e-01 8.949947428884984235e-02 -4.022705425692233439e-01 9.111356949889967138e-01
-1.432913376619519277e-03 -1.418987365990760086e-01 -8.437252405079289641e-01 -2.829570488158316688e-01 4.353585481249095945e-01 -8.546333969018560239e-01
-5.916282833733963603e-02 -1.917924306203583895e-01 -8.472118654629545720e-01 -3.900781099796689078e-01 2.378698862460980890e-01 -8.895262701752869594e-01
1.550915739081744626e-01 1.232823078035508342e-02 -7.967660341021779447e-01 -1.824231111191304544e-01 5.275467012121545229e-01 -8.297085551986257412e-01
-1.865169128538811611e-03 -2.812079838394709319e-01 -9.272597129713615605e-01 3.706121981154151812e-01 -4.215847465663729032e-01 8.275946471979065411e-01
4.613585075317858802e-02 -1.098385665924380417e-01 -8.486924640819277776e-01 2.507111839266692455e-01 -8.699806702265736602e-01 -4.245910216740451659e-01
-1.028944096075477266e-01 -6.730827480340123570e-02 -7.815924521619195264e-01 -2.078296657950676751e-01 3.852493754101636303e-01 -8.991049709358686082e-01
-8.169962369226420329e-02 -1.870578104529705132e-01 -8.435331105280524655e-01 4.597395924227251629e-01 2.958900465281521196e-03 8.880488455411802429e-01
-2.532842162845225578e-02 1.735500980791737369e-01 -6.898428242702762114e-01 7.783439730584283678e-02 -4.411146926455098982e-01 8.940691441540153939e-01
1.046782391819748304e-01 9.152829150461807423e-03 -7.881891334050653564e-01 -1.780988752118813634e-01 4.923736588895917254e-01 -8.519677051860232719e-01
-1.054485484100411846e-01 -2.186616003823678780e-02 -7.688243720750975729e-01 -2.021544118080625396e-01 -9.699746671984922353e-01 -1.352136782271327331e-01
6.690918030585597809e-02 -1.659712015135901830e-01 -8.882393973205479076e-01 2.942695719104152507e-01 -5.215931339496719943e-01 8.008408216769551391e-01
1.456018614696107105e-01 2.312627902155092643e-03 -8.089535549855259022e-01 1.678843050102113710e-01 -5.216354180918412187e-01 8.364875078107193440e-01
-8.152279460714634274e-02 2.208631517058802854e-02 -7.464437780201879091e-01 -1.520360709531733689e-01 4.011540435475601796e-01 -9.033053008117266636e-01
1.212302247681039807e-01 -1.026993422793154309e-01 -8.674603732834524905e-01 2.207775551280124204e-01 -4.953500976244579190e-01 8.401699541968502549e-01
8.579066399893989225e-03 -1.379932328988134616e-01 -8.534958686627005520e-01 2.640112977443537789e-01 -4.410038668906268167e-01 8.577957939106813923e-01
1.945407608228561175e-03 1.254924338796561400e-01 -7.085405312470669514e-01 -7.178455613677292568e-02 4.527376106403270817e-01 -8.887494773061381803e-01
8.521410982713047144e-02 -1.095892884073319806e-01 -8.559025139227073309e-01 -2.531461696611951862e-01 8.722325718208565615e-01 4.184822068387611393e-01
8.830081671223441453e-02 2.039662734509553946e-02 -7.783202055464037983e-01 -1.663557357813205684e-01 4.758101685912904943e-01 -8.636726536354979444e-01
1.093813251340251258e-01 -1.002409679149945942e-01 -8.627811969533691894e-01 2.397225693624788767e-01 -4.937418584992779302e-01 8.359139111798119526e-01
-4.645153988661349098e-02 -6.062650808386543105e-02 -8.000638086290340345e-01 2.147993551610786478e-01 -4.255043092699831164e-01 8.790946023125494335e-01
1.225094462089759556e-01 -3.178878186785305537e-02 -8.165311525334821852e-01 -2.068216325345906270e-01 5.022697575751585708e-01 -8.396129482929132193e-01
6.542021400581143897e-02 5.844953142422316950e-02 -7.611111728492586659e-01 1.478827611092293770e-01 -4.787611475679489637e-01 8.654007467908327866e-01
4.915578403443172234e-02 6.720446464589527324e-02 -7.413971554374277906e-01 -1.126614477912787765e-01 3.874148051314935115e-01 -9.149957196328841746e-01
