1.442915067476755082e-02 -2.022260844571880170e-02 -6.916253893605283087e-01 -2.161600136522013604e-01 4.481657940285559416e-01 -8.674227744074016755e-01
1.321254646553274015e-01 5.266217681552012170e-02 -6.851663389308154661e-01 1.625068259314040586e-01 -5.187517468981334146e-01 8.393379275451784416e-01
-1.301617806265780060e-02 -2.259716478355732472e-01 -7.864146666458929902e-01 -4.223409347389444624e-01 4.434131289249225172e-01 -7.905775938773149658e-01
-1.246277993837823644e-01 6.394381198163243823e-04 -6.501540348114391854e-01 -1.923951031911564913e-01 3.885272457151386361e-01 -9.011274624630373209e-01
-4.341058439448784029e-02 -1.644683139437652097e-01 -7.464359045099359102e-01 -2.889435794778221767e-01 4.127462846541170571e-01 -8.638009680376411703e-01
2.858380756716275353e-03 1.015512459903115117e-01 -6.222685051202543338e-01 -9.173432196117917159e-02 4.537411336811340568e-01 -8.863993444154175672e-01
7.211128283490648994e-02 -5.937256337027271152e-02 -7.283105885376670585e-01 -2.384440741132046182e-01 4.869367407725615493e-01 -8.402600990205900677e-01
6.669072988381931355e-02 -1.551437071970181714e-01 -7.896864304236990151e-01 2.953361536292821721e-01 -4.664653252612344647e-01 8.337785417533795096e-01
-3.090859823294029099e-02 -9.100731246078519465e-02 -7.150435566416118993e-01 -2.512319650489687195e-01 4.229246395857536034e-01 -8.706418603357491959e-01
-1.342570976254734393e-02 1.598284119580666851e-01 -5.946887968922027756e-01 -8.839224685993167518e-02 4.458277488698705882e-01 -8.907437504875780343e-01
3.166942143354019301e-02 1.658993050771623845e-01 -5.965707114149967349e-01 -9.077426117921343074e-02 4.681002230182462198e-01 -8.790006909653916845e-01
1.059779132472691565e-01 -4.214956284585552604e-02 -7.365006076596087858e-01 2.325211477463795251e-01 -4.998125511805376897e-01 8.343388577389337923e-01
-1.060725284216595676e-01 -4.259286382259797749e-02 -6.728740794957008831e-01 -2.170200499705931263e-01 3.822536020261023681e-01 -8.982118244873150692e-01
5.051554318878912625e-03 -5.666181124108975176e-02 -7.038385611003336040e-01 -2.754115556828513611e-01 4.380403263726942442e-01 -8.557272623141414236e-01
2.290243609516091905e-02 1.908080587068910206e-01 -5.902878670597927480e-01 7.775955654502768322e-02 -4.724619250586545860e-01 8.779141078350383154e-01
-1.463983046951378500e-02 1.089264551445691398e-01 -6.279960701299793779e-01 1.224279169205349932e-01 -4.452120378528429678e-01 8.870161478290107260e-01
-1.295713911139636521e-01 -1.289506832245867485e-01 -7.033402188891669793e-01 -2.287112543230455930e-01 3.951630336981813429e-01 -8.896838421284435361e-01
-5.442565735869738658e-02 4.736593226613259461e-02 -6.432524107876840258e-01 -1.603992886833689180e-01 4.190321386760950673e-01 -8.936912973428839946e-01
2.943062977483643095e-02 1.801458500560391973e-01 -5.887430723533765287e-01 -1.024824496211674818e-01 4.670792265354556938e-01 -8.782564224978292033e-01
2.164964252891084240e-02 5.956958963783128697e-02 -6.598148566854981079e-01 -1.736323525833214088e-01 7.201942092167981091e-01 6.716934621886475609e-01
-1.409111129164855314e-01 1.252005146082474374e-01 -6.019739552435280361e-01 1.860377710101799309e-01 -4.104890373099893686e-01 8.926862259528161037e-01
-1.039723137654390422e-01 -1.204801472966517961e-01 -7.150696129009742608e-01 2.810321321245268789e-01 -3.784427189957454418e-01 8.819308641569644225e-01
1.461496996140171020e-02 5.941182853839201139e-02 -6.602744211609042901e-01 -2.495680183962014145e-03 1.515859793442434211e-01 9.884409251172607824e-01
7.305483700748031939e-02 -6.360458348096493728e-03 -6.984389173278864327e-01 -2.066360417771264946e-01 4.781598146364357538e-01 -8.536186138466822504e-01
-1.030195820276014890e-01 4.222948705848500461e-02 -6.364983895037533701e-01 -1.698158508764415209e-01 4.065674367538411049e-01 -8.977001148281767984e-01
-5.909848914230390882e-02 -3.985552480494966576e-02 -6.791445722907020199e-01 -1.887928561793632276e-01 5.074392212495278942e-01 -8.407512677322057648e-01
8.332640171997801604e-02 6.514614034416696398e-02 -6.598310687921383755e-01 -1.596105073853041345e-01 4.946606380356867727e-01 -8.543040086001781885e-01
-8.691303498606993416e-02 -3.149144098049179875e-03 -6.679537045704002640e-01 1.966005081803218202e-01 -3.998559166032512602e-01 8.952449308097829572e-01
-5.647728056691530413e-02 -9.551950647934126515e-02 -7.097784857652806867e-01 -2.536224657083587242e-01 3.976439183418942203e-01 -8.817907683196266611e-01
-9.989218179135377074e-02 -2.829591388371965541e-02 -6.680049265019180060e-01 -2.007182911180353246e-01 3.852499413560016572e-01 -9.007189629933705088e-01
1.196359079050188096e-01 -8.275885164383860182e-02 -7.657492987520335692e-01 2.494216796895656618e-01 -8.750241520701927955e-01 -4.148753535637852430e-01
1.361826013226182519e-01 -8.757420195076405511e-02 -7.719010716083499757e-01 4.445064191315591107e-02 -4.509295391760687055e-01 8.914520128038113667e-01
3.436306737529128130e-02 6.153705304759016226e-02 -6.609661572357483639e-01 1.640403979890252273e-01 -4.796393798980164158e-01 8.619958312420360480e-01
-7.965356741674103902e-03 2.908864047775126110e-02 -6.612446323762642963e-01 -1.814813265346190974e-01 4.453493573644627945e-01 -8.767716224960153681e-01
3.252260085451761512e-02 4.887934387754585414e-02 -6.591373816416489229e-01 -1.710587501470899607e-01 4.662770928395542080e-01 -8.679427266192218937e-01
1.204581053368099369e-01 3.055261716957020316e-03 -7.161359911764928476e-01 3.189749722543950838e-01 -9.170146398838098234e-01 2.394558775935027861e-01
-1.424606641122972382e-02 2.115056952381291766e-01 -5.761332301134503009e-01 8.888378167670532570e-02 -4.538142626552876813e-01 8.866522928214224386e-01
-1.060521940007665975e-01 6.733673673220041955e-02 -6.250302025316933907e-01 -1.399894965881620656e-01 3.941414196875426268e-01 -9.083256476240674226e-01
-1.006970077499198118e-01 1.533270581275354427e-01 -5.983638617386141112e-01 3.161330488665179406e-01 -3.585067598127626431e-01 8.783693975673981802e-01
-9.788183330965623263e-02 -1.757054693450992855e-01 -7.381877387177194771e-01 3.863076102339532136e-01 -1.342171058212033308e-01 9.125525731596575429e-01
1.867984173171927153e-03 -3.592075634283503072e-01 -8.749102668500744473e-01 -8.203718318633219930e-02 -4.493859473959483930e-01 8.895629100057501626e-01
-3.649248645032320687e-02 4.837390563645007496e-02 -6.542494427578785521e-01 1.792424218012287629e-01 -4.308540675960176314e-01 8.844415903058815420e-01
1.070363192790103751e-01 -1.098053827956971540e-01 -7.687704863135249589e-01 -2.834412485175941687e-01 5.013440078900176511e-01 -8.175055011384091408e-01
-1.095034339694337805e-01 8.778150474318534291e-02 -6.233719480485430120e-01 1.435758542150255834e-01 -3.944245024000159749e-01 9.076427083345769420e-01
4.606989381671186545e-02 -1.154110536071539794e-02 -7.032430984597148882e-01 2.127083756401601800e-01 -4.765056509197549417e-01 8.530518809392927393e-01
5.553200942193280837e-02 1.415374632219726023e-02 -6.828408332595213848e-01 -1.945440634081697373e-01 4.628123173053490524e-01 -8.648452846278869011e-01
-5.169644265769712810e-02 -1.373533952160050087e-01 -7.393225746435597712e-01 2.810200298037173194e-01 -4.057832675364770880e-01 8.696940166728396315e-01
1.611248420075409374e-03 -3.207732599800659501e-01 -8.376362322716006670e-01 -3.947304194366321739e-01 4.186612624817487860e-01 -8.178695759524061693e-01
-5.121772574608779091e-03 -2.147467267902885765e-02 -6.854420923576766134e-01 2.317403715073727555e-01 4.432582344514266470e-01 -8.659206301992286026e-01
7.469713608614558797e-02 -9.826692851302837317e-02 -7.623327906591320646e-01 3.505160504819515577e-01 -8.961830263556440634e-01 2.720192670135208601e-01
-4.299926093591996054e-03 1.705459328880312708e-01 -6.015893429408867288e-01 1.500037852402661409e-01 -4.505067983312807667e-01 8.800809559755801148e-01
9.651807052540182369e-03 -1.049734704841673444e-01 -7.319448158514348934e-01 -7.435002768233841541e-01 3.078773473505118097e-01 -5.936487828269871869e-01
-1.064850208146040228e-01 -3.555732389430306395e-02 -6.730738092759825930e-01 1.977439795986593862e-01 9.715473815238296895e-01 1.303572168568931655e-01
-3.028525074385078966e-02 -1.623399336948575800e-01 -7.499400202460774212e-01 -2.977502432496987872e-01 4.184673494044605646e-01 -8.580383849963534315e-01
5.913153555519268245e-02 1.752380317102623097e-01 -5.945108924639385117e-01 -8.922838391090379129e-02 4.758449562933464994e-01 -8.749913560000645019e-01
-4.901902790485185291e-02 1.401880827173337778e-02 -6.600341614148904634e-01 -1.826768079854636240e-01 4.160013838538049180e-01 -8.908266006670217951e-01
-1.423974465700919290e-01 -5.683398168771843645e-02 -6.774994227321123885e-01 2.415236759716808679e-01 -3.666747607638538575e-01 8.984519651956343056e-01
-1.231067325311245297e-01 7.848339224784685320e-02 -6.280420507679170816e-01 -4.923474533856143920e-03 -8.741770758396366636e-01 4.855823302746680170e-01
3.446111605915284492e-04 2.306547692103846359e-01 -5.706871275656085762e-01 -1.635454806355296498e-03 -4.718730858425869701e-01 8.816649681965202934e-01
-4.239780565154217112e-02 -2.099738512642407018e-01 -7.719207701587996739e-01 4.431556634119628302e-01 -2.477378649048480042e-01 8.615329409130509930e-01
4.543239120203073494e-02 5.059643692933080139e-02 -6.608331926181391092e-01 -1.640015938131974271e-01 4.795572862445733331e-01 -8.620488886579876775e-01
-1.704094706035491624e-02 -7.532639567342173936e-02 -7.113334928071940455e-01 -2.458178098610352136e-01 4.237441182426088804e-01 -8.717881202505101124e-01
-6.435069105523377221e-03 4.388907184722221078e-02 -6.527660472534759784e-01 7.655635575790913361e-01 2.992304390989239948e-01 -5.695380440528189370e-01
2.333594784695278840e-02 9.228268470754280584e-02 -6.425747726694379658e-01 1.435440631200156636e-01 -4.576728777934977455e-01 8.774569156803171399e-01
1.432187047196191998e-01 6.969443613777568346e-03 -7.158676732268448584e-01 1.934639043787148016e-01 -5.211322838268488411e-01 8.312598032239718604e-01
2.949474628824953065e-02 -1.028216649761381912e-01 -7.394331459303328247e-01 -2.623692624390143724e-01 4.554007470448999673e-01 -8.507482175815325176e-01
1.613523595432106161e-01 2.404939452376997355e-02 -7.086974799829593996e-01 1.362824493743038101e-01 -5.327316090562652651e-01 8.352389638330236510e-01
1.010397724891911111e-02 -7.696673927748692856e-02 -7.206858796335087192e-01 -9.776633939434441478e-01 -9.489100924590648800e-02 1.875366217763323740e-01
-1.310498890743723721e-01 2.889817103776438217e-02 -6.446334468903182069e-01 1.757129296940639629e-01 -3.737979142455210013e-01 9.107140526224613009e-01
6.035843461755144995e-02 -9.894870785572280891e-02 -7.470438838207350551e-01 -2.660622843258614312e-01 4.676171750555584983e-01 -8.429383360912966472e-01
9.188433676623221358e-02 -1.135107244253313885e-02 -7.145852202030454903e-01 2.124475905141824106e-01 -4.890172373633535630e-01 8.460071884128598230e-01
-1.186877122574416937e-01 2.513862819220065437e-02 -6.410039628346050344e-01 -1.755862374344548948e-01 3.860650626022992804e-01 -9.056065595287469128e-01
-4.645387343919576278e-02 9.592735819925878038e-02 -6.213914300696814497e-01 -1.438544576166554678e-01 4.344454517664042004e-01 -8.891361225725242790e-01
4.536305782884936938e-02 -9.336582693364806063e-02 -7.480308376643775015e-01 2.579972491312890193e-01 -4.679477734899518682e-01 8.452587182197439652e-01
-1.414557527688963534e-01 5.462861397534096025e-02 -6.319547032381368501e-01 1.799207077751061312e-01 -3.792214323595390901e-01 9.076451091439231567e-01
-1.154936574264021354e-01 -1.203370311266515336e-01 -6.999016310461222412e-01 -2.721739627761681213e-01 2.847248470549605948e-01 -9.191589065315345364e-01
-5.161346666418806239e-02 1.103535288561938860e-01 -6.138818842900275463e-01 -1.238167955320898933e-01 4.229376054955920616e-01 -8.976598370216969380e-01
-6.097924674575252307e-02 6.285060997073599331e-02 -6.309283774030780556e-01 -1.731043248406691215e-01 3.474307301759962940e-01 -9.215892688453083403e-01
-8.420958129665047365e-02 -1.287496459497359802e-01 -7.248983282943753936e-01 2.817764446894023278e-01 -3.960481314922034701e-01 8.739267204747401818e-01
-8.180428305886967844e-02 -1.834491651539007784e-01 -7.471656100330374972e-01 4.620479665803505775e-01 -1.598860638005190253e-03 8.868534942275547728e-01
1.090840617583309219e-01 -7.162448834879148532e-03 -7.198670450652618902e-01 5.059174187199836845e-03 1.352012892813196088e-01 9.908052362261781099e-01
-2.281024259191047690e-02 -4.751575342460044593e-02 -7.032837419302039317e-01 2.946775116879294387e-01 8.355577497334970571e-01 4.636899944636557191e-01
-5.550260013131183556e-02 -3.608407025132701756e-02 -6.790439735452813430e-01 -3.323250253234233953e-01 -2.998161659932223055e-01 -8.942428887907974966e-01
-7.728918436918877366e-02 1.047865843920121054e-01 -6.128105644025280130e-01 -1.407956470320093911e-01 4.113956026542410216e-01 -9.005166538679847399e-01
4.575519222421201709e-02 -6.325475833342822374e-02 -7.316122140330383328e-01 2.392181480438596020e-01 -4.722326928705442572e-01 8.483931644177128417e-01
3.812044707645890346e-02 -2.549355814804729267e-02 -7.120956903965410811e-01 3.419854106008816674e-01 -8.916179807301395366e-01 2.967547057332954874e-01
-9.836679686481520149e-03 -1.644354600998507998e-01 -7.664060945551156578e-01 9.776638512773171419e-01 9.688831620229464148e-02 -1.865101822665126974e-01
1.572138252230999159e-03 -3.895104375141382191e-01 -8.730428499905912298e-01 -4.141994376601902395e-01 4.210860027912337600e-01 -8.069234189780857269e-01
-1.191501091246725680e-01 -8.629091385558376737e-02 -6.960363931053396014e-01 2.508948232335330153e-01 -3.695591935283206175e-01 8.946942439477922893e-01
-7.538769176588035192e-02 -1.699067245753554667e-01 -7.461399059602895623e-01 3.120892628834803784e-01 -3.888358055729089768e-01 8.668373597724736701e-01
-1.014882204951279149e-01 9.539917429723321352e-02 -6.135120987323740005e-01 -1.394734966079218541e-01 3.986135838417927402e-01 -9.064515180199997912e-01
4.054148673773171757e-02 6.920138605028272605e-02 -6.476546587884948192e-01 8.876510965965303188e-03 -1.693927589508379405e-01 -9.855086507829824427e-01
-8.460071471997801518e-02 4.149543327751831212e-02 -6.403110326258143470e-01 -1.628297661087034220e-01 4.066703855876651064e-01 -8.989469754968668624e-01
4.101622053902795328e-02 1.868593778490598434e-01 -5.863714585856688588e-01 -9.055785888705919495e-02 4.688732396798035995e-01 -8.786109260110286368e-01
-1.035147577149849417e-02 1.326814779209456729e-01 -6.181060586097972820e-01 6.484463705630900687e-01 -3.371601765707846754e-01 6.825249591321279619e-01
5.500648547599568117e-02 2.105949060896674663e-01 -5.749928716869409095e-01 -7.422885585896896177e-02 4.659365602620335056e-01 -8.816990409255602845e-01
-1.498161321385653444e-01 -2.550094973142644304e-03 -6.464410333378380891e-01 -1.729716889718973805e-01 3.664132385271964831e-01 -9.142330848564937940e-01
4.150167951304125497e-02 6.406249330168095613e-02 -6.609317377744210464e-01 1.615452928822991296e-01 -4.670542027900223547e-01 8.693465879634825200e-01
1.302540872047848290e-02 -1.668858153871638772e-01 -7.764781574132046948e-01 3.091984834422095152e-01 -4.457124060787313602e-01 8.400813942140045176e-01
3.140077508193447192e-02 -4.077501658642688348e-02 -7.026455424625315249e-01 -2.554656339819537103e-01 5.450536374424670427e-01 -7.985323050227424169e-01
-4.851322896886255814e-02 -1.864950921850434262e-01 -7.627362454531226854e-01 3.759000156628224953e-01 -2.526429235902324377e-01 8.915552318193583625e-01
-7.692396396676293158e-02 -1.189636201027452489e-01 -7.144484325487994170e-01 -2.742905186623770253e-01 3.949833967053246186e-01 -8.767855083765062618e-01
-1.092152693518263773e-01 1.318734521352969147e-01 -6.039871005866153109e-01 1.154277527950246240e-01 -4.028450599040076519e-01 9.079605121345460939e-01
-1.158579711677393403e-01 1.698379776759277419e-03 -6.594557393573110549e-01 1.927382434433462244e-01 -3.852677723294889445e-01 9.024526099018420622e-01
-9.838367664673133839e-02 -1.371764911117136776e-01 -7.239925544592830109e-01 3.020726981073777462e-01 -3.763153020690349626e-01 8.758646462135688537e-01
-1.004692457201220995e-01 -1.252402159685612748e-01 -7.101096833957130094e-01 -2.706214606429845904e-01 3.824616090668606638e-01 -8.834518337914328834e-01
-1.221661635603269042e-01 -1.245299321092117883e-01 -7.093835685707240435e-01 2.571361752898116970e-01 8.619661994201245347e-01 4.369156193300411939e-01
2.256414682603514500e-03 2.237801920105136899e-01 -5.742926688545950675e-01 -3.245040847490766600e-01 -4.438471197578682803e-01 8.352824871046972133e-01
1.265285356901739156e-01 -7.555692939015759557e-02 -7.542840380997212213e-01 -2.734964508449726495e-01 5.085241863554650354e-01 -8.164574963013786491e-01
2.112892203420916118e-02 4.846793350658448740e-02 -6.571102861502826631e-01 -1.818150358739923089e-01 4.588624434968668897e-01 -8.697060139370220710e-01
-1.097259550909053388e-01 -1.375051298719464909e-01 -7.125679452649751333e-01 -2.712361523794654117e-01 3.803783002473718478e-01 -8.841624841302100357e-01
-1.427744257767034619e-01 1.109592253357125080e-01 -6.079716461311291953e-01 1.867803036211030665e-01 -3.920289557587921525e-01 9.007921047755023114e-01
-2.870067088201208594e-02 -3.979701982141651412e-02 -6.906687195229728182e-01 -2.152619251082272256e-01 4.251736509817267695e-01 -8.791414391948366713e-01
1.052017633358625498e-01 -1.215350571548477199e-01 -7.753277671146879824e-01 -2.834412485175941687e-01 5.013440078900176511e-01 -8.175055011384091408e-01
1.338652104553663957e-01 5.760026731868248678e-02 -6.824511959208600098e-01 1.625068259314040586e-01 -5.187517468981334146e-01 8.393379275451784416e-01
8.278113127950283145e-02 -9.927467011486339199e-02 -7.556798136247853126e-01 1.616319164879258807e-01 -6.983325832450149040e-01 -6.972852549357290153e-01
4.096478508186427586e-02 -2.434560397776226390e-02 -7.119244564527070773e-01 3.419854106008816674e-01 -8.916179807301395366e-01 2.967547057332954874e-01
7.504878335552753188e-02 -2.195699639233267275e-02 -7.078470130106484515e-01 -2.214624293079984763e-01 4.724061184460898177e-01 -8.531042443099782213e-01
-1.277405275511766525e-01 -8.976804376385716377e-02 -6.950636739962000599e-01 2.508948232335330153e-01 -3.695591935283206175e-01 8.946942439477922893e-01
2.630079225772939677e-02 9.741704350033127124e-02 -6.322243459309125901e-01 -1.438458054213976045e-01 4.598624693540842578e-01 -8.762618863914106715e-01
-1.468234526418797092e-01 4.082282582831647799e-02 -6.366588440445832831e-01 1.799207077751061312e-01 -3.792214323595390901e-01 9.076451091439231567e-01
8.337519594872803974e-02 -1.319870912434467081e-01 -7.736815655550633997e-01 -2.925450935885790527e-01 4.760995301046525019e-01 -8.293048930588668988e-01
9.502097833306831498e-02 8.435894669233012788e-02 -6.592646279755340899e-01 1.516434161622476628e-01 -4.901831895094352354e-01 8.583266948295389387e-01
7.354065409996585201e-02 1.919176687389211045e-01 -5.943562298654706533e-01 7.587459224145333414e-02 -4.906568310816731282e-01 8.680431558195039754e-01
1.231116368686652716e-02 -1.140625530683858496e-01 -7.486431496119586582e-01 2.667238864521372377e-01 -4.464307064516291335e-01 8.541416701771239461e-01
3.833262352287183927e-02 -5.210468782273380145e-02 -7.234527174619840295e-01 2.360342232003856400e-01 -4.603138631565645289e-01 8.558031273979256337e-01
6.792121512885180429e-03 2.209480673051853195e-01 -5.657166245207483346e-01 -6.784874890542155756e-02 4.500211423055957560e-01 -8.904367011472156257e-01
8.034074431709590375e-03 2.392686893643867496e-01 -5.630326736046399327e-01 4.597353454727210603e-02 -4.943718387582168305e-01 8.680339389471188882e-01
1.130662720365830792e-01 -6.921277499228956076e-02 -7.462738196095853871e-01 -2.600817016743717791e-01 4.979977286641482093e-01 -8.272579831585263888e-01
-1.101793755447305762e-01 -1.221679795519097361e-01 -7.058401358840643569e-01 -2.571890467314303930e-01 3.762812253523891148e-01 -8.900933848134604531e-01
1.141742036275850006e-03 -1.186256688070359694e-01 -7.344827587210434050e-01 -2.100918005251717346e-01 4.454927989139195743e-01 -8.702859308686620166e-01
-1.078610052527065738e-01 9.608254081182325546e-02 -6.122696285478469447e-01 -1.195323886435573635e-01 3.959401946221500213e-01 -9.104632723771670655e-01
4.348784128853493830e-02 -1.183086251838332964e-01 -7.631773668954456857e-01 1.019953966699253811e-01 4.202943444814626062e-02 9.938966071468972041e-01
-1.027084589452841729e-01 1.643097305612316039e-01 -5.831594792984167164e-01 -7.594728853554980064e-02 3.915444772913117544e-01 -9.170195917573252808e-01
-1.781391713110257180e-02 1.579031005972835258e-02 -6.741150273888519839e-01 2.003305077668508238e-01 -4.394320915453159837e-01 8.756523994017175738e-01
-8.418153659619917462e-02 1.793064678372491560e-01 -5.782120357298413671e-01 -8.178154467942831685e-02 4.074011831327212230e-01 -9.095801531101618265e-01
2.103430681360849569e-02 1.521689197099180269e-01 -6.136597918912268801e-01 2.385026091900790124e-01 -9.708172770059537715e-01 -2.510617605829272223e-02
5.065059633775221420e-02 8.877619972997072284e-02 -6.490584769790419539e-01 1.454214105827956460e-01 -4.799967450796601143e-01 8.651333643184974109e-01
1.291188935171602714e-01 1.402317692860548526e-01 -6.309037934761603239e-01 1.013157618407758559e-01 -5.217669415718303449e-01 8.470503970162587271e-01
4.604651996680139865e-03 -2.823880946303543027e-01 -8.196546150377115314e-01 -5.131048421320788533e-01 3.911068807639186962e-01 -7.640411172180019417e-01
-7.425662623800616605e-03 -1.991054134237442708e-01 -7.848330986680545074e-01 4.345432450454924656e-01 -3.762081117240632655e-01 8.183151134241304359e-01
9.910204209225442762e-02 1.338045717321023342e-01 -6.228723094208606925e-01 -1.243582303087627378e-01 4.954372634133606956e-01 -8.596958465503673485e-01
2.913382598157850112e-02 -2.250291351342551590e-03 -6.941594973903516541e-01 2.037943977954491948e-01 -4.634781024760388224e-01 8.623548526867582664e-01
-6.873358777900337446e-02 -1.963575686398854603e-01 -7.470632224575917135e-01 -4.500434430823160858e-01 9.088097226098700021e-02 -8.883701639629234537e-01
6.550326235345736367e-03 1.996741761332977705e-02 -6.649734268550099303e-01 -2.306385508856459710e-01 4.460851498824934258e-01 -8.647623360783485147e-01
-1.267078826814599379e-01 7.286694310592867208e-02 -6.269842516633290508e-01 1.628846408934533641e-01 -3.858226350427441109e-01 9.080801110307858970e-01
-5.256365117062158226e-02 1.620697699402118622e-02 -6.582854465930466636e-01 -1.826768079854636240e-01 4.160013838538049180e-01 -8.908266006670217951e-01
3.934250221393665453e-02 -1.259025529620041994e-01 -7.508391266898291061e-01 -2.945920188898365488e-01 4.863965183894801148e-01 -8.225776372507352940e-01
-4.151391135780688885e-02 1.921341816473959574e-01 -5.835203610922153894e-01 8.626001348206162322e-02 -4.417694994315559676e-01 8.929719589360390897e-01
-7.692724154689353777e-02 -2.334445799835733679e-02 -6.793819275280993386e-01 2.098021407165489571e-01 -4.006998861910968102e-01 8.918647111289893514e-01
1.503864741760619350e-01 -9.047284177832711285e-03 -7.275931664357139228e-01 1.938310559379425313e-01 -5.226251048979939640e-01 8.302364250527334288e-01
3.059945903736173770e-02 1.822763810124311545e-01 -5.955819035679541518e-01 8.479390509229661754e-02 -4.710469986307277424e-01 8.780231880424238522e-01
1.029347868512202162e-02 1.515011137268374442e-01 -6.016266025090615255e-01 -1.085431718464584666e-01 4.550802578167547630e-01 -8.838101259834865164e-01
9.801363531436499410e-02 1.316948446859333988e-01 -6.319754342570581551e-01 1.168722743348475507e-01 -4.977098714683869107e-01 8.594333920291449269e-01
1.855676276199006922e-02 -1.450778490035274648e-01 -7.582318539818058145e-01 -2.911145929951285960e-01 4.517851564448239210e-01 -8.432926337644641723e-01
1.668584507310658382e-01 4.997847608135600611e-02 -6.895288005122165442e-01 -8.914287020924520633e-01 -2.826403742017841170e-01 3.542164422451925532e-01
7.511393967291314644e-02 -1.523399384185858962e-01 -7.912406943279528537e-01 3.222464713879148457e-01 -5.128023423122041180e-01 7.957329761906031251e-01
1.947142661732340768e-02 1.703173586786860538e-01 -6.007629607181884657e-01 1.023393724943084254e-01 -4.695611614029292502e-01 8.769486692728392097e-01
-3.883541959478546690e-02 1.262803861558691176e-01 -6.080912269511362656e-01 -1.236638869301245752e-01 4.275841176641991814e-01 -8.954770043896501663e-01
-1.358832885098486438e-02 7.980866144143630714e-02 -6.346526702282269117e-01 -1.684068843860280773e-01 4.435634262044765297e-01 -8.802787105372574805e-01
5.990946062048835286e-02 -6.304643606937690610e-03 -7.037451894401384189e-01 2.067633835716974067e-01 -4.781473073188778344e-01 8.535947842610626113e-01
9.035318955098027571e-02 -7.293453296661293883e-02 -7.502830086108286389e-01 2.462066531893119248e-01 -4.971964138869023331e-01 8.319723612857112816e-01
8.996869553985839194e-03 -2.495544780255868900e-01 -8.124513387925473840e-01 -9.753457316146726397e-01 -9.770360521880858129e-02 1.978754895086459187e-01
1.707997169313683200e-02 -5.203220071262898080e-03 -6.844093690534364116e-01 -2.043270988142500411e-01 4.535137927583237638e-01 -8.675111967393344115e-01
4.426834702183788522e-02 -3.675074626988102805e-02 -7.111072970250934544e-01 -2.793702716373763772e-01 8.626691145703248020e-01 4.216091200290983387e-01
-7.235185105945003692e-02 -9.640667850385913062e-02 -7.056126799048888509e-01 -2.536224657083587242e-01 3.976439183418942203e-01 -8.817907683196266611e-01
7.261577121564292969e-02 7.055674518870354295e-02 -6.586647572787752702e-01 -2.155346572710405417e-01 8.824135048135929305e-01 4.181999737418050089e-01
8.634826389065976271e-02 -1.592502875124635342e-01 -7.995480033883453075e-01 -6.208244807527750764e-01 4.936703340245650606e-01 6.089881488191059011e-01
-3.482669149664612690e-02 -1.526877500951297206e-01 -7.523078828402215423e-01 2.976508333932247341e-01 -4.184883005609359441e-01 8.580626571958127613e-01
-6.441471293391251574e-02 -1.846781905069936058e-01 -7.471068639108177090e-01 -3.868625553396804473e-01 1.878362172039644284e-01 -9.028039204514776150e-01
1.066360278932027977e-01 -9.736137575544512313e-02 -7.569514465080887655e-01 -2.572087267731994475e-01 4.268385950367496462e-01 -8.669789413006311340e-01
1.128129894799525801e-01 3.377203028714093665e-03 -7.024694589682671797e-01 -2.070285072864069820e-01 5.050227933928007618e-01 -8.379088108645802446e-01
8.246801883328036542e-02 -1.129765945887584305e-01 -7.622710739168220284e-01 -2.781817786953182936e-01 4.804667196317569666e-01 -8.317250924002520529e-01
-8.652556172184773520e-02 1.558865118157953811e-01 -5.997146830623062419e-01 1.032927014463791704e-01 -4.482791644964576050e-01 8.879056304057697524e-01
3.805388470153023110e-03 -9.123656275942886029e-02 -7.362967378711693378e-01 -2.137668427810847926e-01 -4.503721818182749859e-01 8.668729057778041813e-01
-8.162578102566819815e-02 9.512557564179045799e-02 -6.244699801035595854e-01 1.441415683331835063e-01 -4.117401809546660796e-01 8.998295570083643113e-01
3.506837985826456033e-02 -1.176713578618115569e-01 -7.617653028122531866e-01 2.639874749043135682e-01 -4.062875639946440520e-01 8.747805601617713034e-01
1.013996004052338251e-01 1.100288339782285046e-01 -6.451911549230701093e-01 1.357344495557738506e-01 -5.031638300885418191e-01 8.534648904872538244e-01
9.052475783315769298e-02 -1.416858069143099308e-01 -7.904288277268305407e-01 2.894350883062059565e-01 -4.753776285701787896e-01 8.308089069769124535e-01
1.053845159547306919e-02 1.640141683292088426e-01 -5.972301818275118634e-01 -9.800331563076984942e-01 -8.976429786740812433e-02 1.774186669038557984e-01
-7.093406319242867401e-03 -2.626437306824664364e-01 -8.209502859425323873e-01 5.131048421320788533e-01 -3.911068807639186962e-01 7.640411172180019417e-01
-1.569905890520186670e-02 -1.874097942790795696e-02 -6.919473919933276651e-01 2.059871801191142104e-01 -4.392943766783680704e-01 8.744082183084395110e-01
2.614213088267242080e-02 1.510847568474798785e-01 -6.037509515918634273e-01 -1.034202951680865262e-01 4.581939499094563328e-01 -8.828151260675795031e-01
7.388594709681722827e-02 -4.685173892278658714e-02 -7.303140911416999836e-01 2.345794470798145959e-01 -4.716117543845098625e-01 8.500322559374399178e-01
2.266263122342746655e-02 -1.437075580984902567e-01 -7.589151294096528888e-01 -2.911145929951285960e-01 4.517851564448239210e-01 -8.432926337644641723e-01
-5.377418114133126689e-03 -1.027100374008756423e-01 -7.371701483679596878e-01 2.585467643678377447e-01 -4.368399706185727704e-01 8.615825037133044706e-01
1.201320009376023873e-01 4.339164368287180135e-02 -6.800843592634573387e-01 -1.870867101107965280e-01 5.074933222347576267e-01 -8.410999291327085903e-01
-5.718744819117852103e-04 -1.383723690920699856e-01 -7.606170669491091330e-01 2.304950361136236803e-01 -4.433930323552565667e-01 8.661839626694722849e-01
-1.275988521260922569e-02 -2.012620820879064687e-01 -7.746505797265345050e-01 -4.112349311164002486e-01 3.678086278460699354e-01 -8.340279639866284844e-01
-4.001045526886447962e-02 -1.143858043289736753e-01 -7.321736580380143744e-01 2.674120977505456409e-01 -4.196617502063116900e-01 8.673954031411673649e-01
9.021741306153867324e-02 7.860801623037069752e-02 -6.533959368091650788e-01 -1.584518401184831782e-01 4.889545847389551447e-01 -8.577974285493182860e-01
-5.024164370620087805e-02 1.241072911073916873e-01 -6.154614960340167862e-01 1.235327179447029966e-01 -4.275805162151071759e-01 8.954968284424110747e-01
1.079282111622415913e-01 2.151979879831490000e-02 -6.989426583654582137e-01 1.855890061130573143e-01 -5.076221540389211917e-01 8.413539502129014913e-01
-3.795615630195165596e-02 -6.727737735302575031e-03 -6.806618473694947546e-01 2.091190808160192371e-01 -4.280050073076867578e-01 8.792502054354098817e-01
-1.223903027563134210e-01 3.173625050328604535e-02 -6.451642271467582512e-01 1.907065410843319375e-01 -3.885421499565281933e-01 9.014799015478985877e-01
-2.056483420682514093e-02 6.171360677579616760e-02 -6.506480050362866141e-01 1.636641235819362716e-01 -4.414071747740308527e-01 8.822549295471037167e-01
-5.396807031761066860e-03 2.130428211934652372e-01 -5.665448377985992101e-01 3.232192214252631590e-01 4.179147903804885100e-01 -8.490444999424230366e-01
1.227519565505194588e-01 2.708378926978021947e-02 -6.905566997284717790e-01 -1.896151857737297663e-01 5.181186507029913457e-01 -8.340258659764129279e-01
3.804441306376219606e-02 -1.973051071603108553e-01 -7.969156608067002878e-01 -3.854389315254508896e-01 5.430320841205489302e-01 -7.460247889180438019e-01
-5.643801974888054684e-02 1.880415039420244294e-01 -5.766765692993732761e-01 -8.560103696382706517e-02 4.188009316314003083e-01 -9.040344253043623990e-01
8.947296903709588481e-03 -4.767206711943063058e-02 -7.044759465949610444e-01 -2.336650459515342837e-01 4.465021715115076173e-01 -8.637340199019462039e-01
-9.230305197708112142e-02 1.614339622153245640e-02 -6.581754753397486279e-01 1.893015584504384174e-01 -4.003420217866839326e-01 8.965997911889037608e-01
1.397581513269647857e-01 3.816734811683019507e-02 -6.956114196508543790e-01 1.665242156931545370e-01 -5.275729607900195850e-01 8.330284848857403279e-01
2.554027156565282387e-03 9.407264098367791594e-02 -6.260652487258541177e-01 -9.173432196117922710e-02 4.537411336811341123e-01 -8.863993444154176782e-01
9.609602127156768869e-02 -4.373705754251963618e-02 -7.259888245496017856e-01 -2.331027627398725988e-01 4.879834889286695510e-01 -8.411511258602950569e-01
7.402840824933744346e-02 -9.994138859544413056e-02 -7.575459904779816567e-01 2.564549009976577754e-01 -8.716322868371870758e-01 -4.177176561952550271e-01
6.438637552305849499e-02 -1.534218132431158510e-01 -7.791818588367386278e-01 -3.039060865674294565e-01 4.711852052353040499e-01 -8.280251161134151161e-01
-1.308449164491095607e-01 -1.065629949702068535e-01 -7.009680756029152970e-01 2.751890241646129387e-01 -3.602451850351253149e-01 8.913441577967157192e-01
1.053355983305327981e-01 -8.707800519128877648e-02 -7.546068719674591252e-01 -2.798824931311427178e-01 4.907219996655199368e-01 -8.251410237547091020e-01
1.398470870566225766e-01 1.867940920571313848e-02 -6.996642858542782006e-01 -1.896151857737297663e-01 5.181186507029913457e-01 -8.340258659764129279e-01
-2.011775194170761435e-02 1.377868059492069197e-01 -6.009326828487383532e-01 -7.780251729551745932e-02 5.336874211985427330e-01 -8.420953062195098981e-01
1.238432813264284255e-01 6.484296053404851878e-02 -6.679223994075907944e-01 -1.717794967496024672e-01 5.053150855300827526e-01 -8.456645131683002692e-01
-8.269969083373776564e-02 -4.538776224862383496e-02 -6.797936114171718724e-01 -2.226367140830098068e-01 3.989229581990900719e-01 -8.895467199444936357e-01
2.214844724125312678e-02 2.260778557364193364e-01 -5.641674792579357556e-01 -6.374673437014510835e-02 4.514634621975781026e-01 -8.900096045311636228e-01
1.572118483276431500e-01 2.341982696303033032e-02 -7.008919469202039565e-01 -2.337082793733155361e-01 5.213082884033750641e-01 -8.207424130592424483e-01
9.040764060581127359e-02 7.158528325556361149e-02 -6.658475790572586650e-01 1.555292357111809909e-01 -5.109042891995223545e-01 8.454510418212439760e-01
-6.903801933504292998e-02 -1.047191204114053670e-01 -7.103143101475066779e-01 -2.536224657083587242e-01 3.976439183418942203e-01 -8.817907683196266611e-01
-8.524713582952278199e-03 -1.057049925851093197e-01 -7.290340949209597188e-01 -2.599312419852581324e-01 4.328202329337349497e-01 -8.631931391080379656e-01
-3.260850535645314074e-02 1.673437867184311423e-01 -5.966449661419908068e-01 8.626094751190277465e-02 -4.417729003337952376e-01 8.929701862128519574e-01
4.870643322605493208e-02 2.203311333233274813e-02 -6.770680649422801123e-01 -1.816550657424662873e-01 4.764395398169000706e-01 -8.602364802710710245e-01
8.078074715885910639e-02 1.429616307408779485e-01 -6.150887236377989842e-01 -1.132247441366823204e-01 4.903344371037873795e-01 -8.641483073554532268e-01
-8.910003521222117917e-02 5.489592908339704230e-02 -6.334126354687245053e-01 -1.554983435540163161e-01 3.901001210890606696e-01 -9.075473324726691660e-01
7.335918518077348682e-02 -1.657740307214505826e-01 -7.905558037935778160e-01 -3.418732070510417942e-01 5.276713553861117623e-01 -7.776153618631895803e-01
-6.594041976532809615e-03 -3.340551350894556681e-01 -8.578406014709031302e-01 5.131048421320788533e-01 -3.911068807639186962e-01 7.640411172180019417e-01
-1.083944264041410421e-01 -1.485533708365226364e-02 -6.603416251202552933e-01 -1.973110930472859736e-01 3.998078198687692875e-01 -8.951100712941773008e-01
2.066831379715018333e-02 6.881820352716293276e-02 -6.545900456884891083e-01 1.638978358098800991e-01 -4.575716680896970145e-01 8.739368787151907680e-01
5.249974698713979170e-03 -5.120125239735634493e-02 -7.153694415440714494e-01 -2.159806447281435171e-01 -4.400859162217051757e-01 8.715943709353093372e-01
9.031346049181936120e-02 1.092149407869270894e-01 -6.357020006488438568e-01 -1.243386623663662732e-01 4.928025915895825060e-01 -8.612116480654067319e-01
5.157035804736118806e-02 2.019912172120475191e-01 -5.792926141370530191e-01 -7.640680539936579863e-02 4.707758206466962636e-01 -8.789380676606817211e-01
-4.376785117533076724e-02 5.947012764032092504e-05 -6.678812098739901337e-01 -1.981327583136248960e-01 4.170239704129456992e-01 -8.870368753237134474e-01
-3.317485122280792315e-02 1.110870058815453983e-02 -6.730459771165508975e-01 1.832651293775526269e-01 -4.287247606309215198e-01 8.846518931060896040e-01
-3.452081420857653488e-02 2.274779768281923187e-01 -5.599956830228407512e-01 -3.910329568003410167e-02 4.092421179632994566e-01 -9.115875279707774670e-01
-7.049636856496529699e-03 1.260562842982584086e-01 -6.237328624774839403e-01 1.905766019316008364e-01 -4.418017696834550812e-01 8.766366151951282548e-01
-1.320212659790252485e-01 -1.616828723461952513e-02 -6.633401394249400784e-01 2.082305809181506651e-01 -3.710765484950372950e-01 9.049542642186397812e-01
7.103603474067267387e-02 7.983597028995330358e-02 -6.576599596624832511e-01 1.567706649090032656e-01 -4.786168384933107700e-01 8.639148572253270153e-01
-9.469084811267446111e-02 -1.136909561991482909e-01 -7.149695520415623173e-01 2.662820478207780783e-01 -3.841475573007376298e-01 8.840387577636228400e-01
-5.037440425537803579e-02 3.193788942921334251e-02 -6.512680421890749694e-01 -1.785839274181851566e-01 4.337710284030552588e-01 -8.831480486226827020e-01
-8.976982066890926149e-02 1.471760883522663099e-01 -5.890657862399973910e-01 6.032908451114374349e-02 8.771562240686454626e-01 -4.764004199616994062e-01
-1.308427969931436410e-03 -4.565280302944740159e-02 -7.007187247891674131e-01 -2.418091149617992985e-01 4.421401145587549042e-01 -8.637363434633062997e-01
8.511402603210614648e-02 -1.367794458115721146e-01 -7.770808224132403907e-01 -2.965810834998667822e-01 4.854620142926932003e-01 -8.224149157140366873e-01
-9.456950786790482844e-02 1.878770106606903745e-01 -5.742833563575120426e-01 5.480401326884852820e-01 -3.415887350490212637e-01 -7.635241640252107276e-01
1.468898730369775363e-01 -1.259964888708861933e-02 -7.210609489116067694e-01 -2.266636048898515166e-01 5.226353471978579801e-01 -8.218734112244486800e-01
5.855372114386304949e-02 2.965500719925905429e-02 -6.749261401173568542e-01 -1.816550657424662873e-01 4.764395398169000706e-01 -8.602364802710710245e-01
1.585685247834747735e-01 3.675624244116552919e-02 -7.001385792775002281e-01 1.362824493743038101e-01 -5.327316090562652651e-01 8.352389638330236510e-01
7.615067638542104278e-02 -8.354945428042516442e-02 -7.520634250620673589e-01 2.532620849341714608e-01 -4.828008093270311774e-01 8.383088302337988740e-01
-6.780769201743035157e-02 4.466401435175393342e-02 -6.500187400542860594e-01 1.736372613618924199e-01 -4.183854799893076404e-01 8.915176339259131000e-01
-6.665769334371589305e-02 -9.160005015406008644e-02 -7.133830329593242592e-01 2.572479301666459883e-01 -3.968774425665405614e-01 8.810855792752589899e-01
-4.077460872713560558e-02 2.196872125983888036e-01 -5.631304203972616884e-01 -4.051973583822199299e-02 3.954883214119537249e-01 -9.175767753350975164e-01
1.526936740206042420e-01 1.343527829176133746e-02 -7.138586297381288581e-01 1.821363663345735850e-01 -5.280740333296689570e-01 8.294360490003878095e-01
1.167437230521949920e-01 1.579136983212801881e-01 -6.112294450694122361e-01 -1.264071189995657485e-01 4.956157534667827158e-01 -8.592940504750298247e-01
1.177449638603070975e-01 -9.053950037834748721e-02 -7.690957766155337438e-01 2.482400094188306483e-01 -5.006927261395706097e-01 8.292669604624700597e-01
4.970072556543213976e-02 1.592729885901078557e-01 -6.136235161547867190e-01 2.344972077015401446e-01 -9.713153250549155793e-01 -3.946642742439081947e-02
-2.535895379259057308e-02 3.813791735378533471e-02 -6.613857136008146620e-01 1.807050964240634883e-01 -4.400962042962586196e-01 8.795800128984262445e-01
1.754382579935955672e-02 1.287464582037070315e-01 -6.143375781280634440e-01 -1.034202951680865262e-01 4.581939499094563328e-01 -8.828151260675795031e-01
1.096059348451233068e-01 1.404031461721100826e-01 -6.204500921753118847e-01 -1.101778546018679361e-01 4.994160958151340757e-01 -8.593278789822301755e-01
-1.321255332156007489e-01 6.796463653514228653e-02 -6.222251331558551479e-01 1.678808227078739668e-01 9.775889835923493587e-01 1.270268023914827293e-01
8.758338257585387976e-02 -1.056347916716112029e-01 -7.597408015967591632e-01 -2.781817786953182936e-01 4.804667196317569666e-01 -8.317250924002520529e-01
-3.856125029277632926e-02 -1.744543291304992694e-01 -7.529191644603471234e-01 -2.998079923162303984e-01 4.129681617830556206e-01 -8.599839911863681463e-01
1.201461659061405507e-01 -9.833483690487709872e-02 -7.744998978460985173e-01 2.461133394217812353e-01 -4.942264789883618614e-01 8.337676004891444448e-01
7.626342275803073278e-02 3.635848880730266353e-02 -6.749237915479894268e-01 -1.772104642814643638e-01 4.946039576226994861e-01 -8.508603742407510051e-01
-1.481001823280844176e-01 -3.510339159854486413e-02 -6.672242149038909442e-01 2.273138421946883647e-01 -3.609894882859450704e-01 9.044418204029157637e-01
-3.437367062721282535e-02 8.144200755414773840e-02 -6.385396566944913088e-01 1.452605345887394150e-01 -4.328629089004976116e-01 8.896792001554231222e-01
-1.578506515929199161e-01 7.948974183901530433e-02 -6.133309646649187652e-01 5.326896842414239330e-01 1.664808499655596463e-01 -8.297745639012544805e-01
1.386569432223085964e-02 -1.280360076664621618e-03 -6.816030602370397595e-01 -2.034063188579238179e-01 4.491974160975062413e-01 -8.699698562708897409e-01
1.335433857219513465e-01 1.182753314092028635e-01 -6.373362135144605700e-01 -1.382151361838576675e-01 5.116841911771138340e-01 -8.479834105860213356e-01
2.157528378714200154e-02 -9.356110499071693121e-02 -7.320336717490770750e-01 -2.623692624390143724e-01 4.554007470448999673e-01 -8.507482175815325176e-01
6.442377291886157431e-02 1.290602432881783057e-01 -6.206048908988530677e-01 -1.263424533451098786e-01 4.876716389048281752e-01 -8.638367653038493410e-01
1.028623885121220383e-01 4.994557715751823945e-02 -6.809484091960020802e-01 1.730280674173821087e-01 -5.060817445686578431e-01 8.449512149823500406e-01
9.874632090117836658e-02 8.864834973136005714e-02 -6.492163329584108578e-01 -1.430866013139942550e-01 5.057711027683255978e-01 -8.507184117726158679e-01
-6.985304716422111038e-02 2.236906360464505777e-03 -6.692945199060197359e-01 1.966005081803218202e-01 -3.998559166032512602e-01 8.952449308097829572e-01
-3.407845521137182945e-03 -2.955306309059611558e-01 -8.236658608036644402e-01 5.940275356293573533e-02 4.548577706828961231e-01 -8.885807342715276169e-01
-7.677027746835544952e-02 5.482533465536090084e-02 -6.356991389546989835e-01 -1.628297661087034220e-01 4.066703855876651064e-01 -8.989469754968668624e-01
-1.044994968636324129e-01 -1.331536081405895189e-01 -7.122991937359398618e-01 -2.712361523794654117e-01 3.803783002473718478e-01 -8.841624841302100357e-01
5.338992755960241974e-04 -1.659386580579347639e-02 -6.982086858264785478e-01 1.500037852402659189e-01 -4.505067983312807112e-01 8.800809559755801148e-01
1.222536838370400225e-01 1.478972954482098146e-01 -6.253973866071916854e-01 8.265593199527705714e-02 -5.213728351236329717e-01 8.493164096502182625e-01
2.389682325755025649e-02 -1.148873716276884033e-01 -7.440735693839383158e-01 -2.698999175586391241e-01 4.493942182478858349e-01 -8.515860914242384672e-01
1.631855773958513708e-02 -3.960104051156117244e-02 -7.140722453559591454e-01 1.636789999048976832e-02 1.578497286175967185e-01 9.873274811455683420e-01
-1.218618846694037167e-01 1.549959568990148806e-01 -5.917608980073360003e-01 1.674217538210432121e-01 -4.261835971315923177e-01 8.890092788511618771e-01
-1.242431610856221946e-01 6.657709371967819589e-02 -6.300987693384879629e-01 1.628846408934533641e-01 -3.858226350427441109e-01 9.080801110307858970e-01
1.618438325395367694e-01 2.688818005511017448e-02 -7.069670391118786368e-01 1.362824493743038101e-01 -5.327316090562652651e-01 8.352389638330236510e-01
-1.592086494131609914e-03 2.091834581386525505e-01 -5.709610776159455003e-01 -8.188037762829354638e-02 4.483253762449077029e-01 -8.901123304248235169e-01
-1.566588498988112088e-01 -7.586220065191311146e-02 -6.801439409403499115e-01 9.724470399823524902e-01 1.564864585054620005e-01 1.727968250112808801e-01
-1.304396290279978901e-02 1.434397329936425713e-01 -6.144121274159665136e-01 1.289027135806580793e-01 -4.518609459801550821e-01 8.827263312768359738e-01
5.635818186054959711e-02 4.588321098910841389e-02 -6.738621435375733437e-01 1.640403979890252273e-01 -4.796393798980164158e-01 8.619958312420360480e-01
1.160965149900557991e-01 -4.263616049237981681e-02 -7.396291389002080940e-01 2.345955101399255505e-01 -4.998386568059234869e-01 8.337423245731490073e-01
5.947764771869752665e-02 8.216528497655859950e-03 -6.869970337171621422e-01 -1.986986960900579413e-01 4.789227709441993830e-01 -8.550741533008939799e-01
-1.120067236466566474e-01 -5.119791147674438575e-02 -6.830320370953568698e-01 2.237090736452471973e-01 -3.810351507567977247e-01 8.970877684243219186e-01
-2.798050777779323775e-02 2.195888315905897004e-01 -5.639198958239389770e-01 -6.094821175939078850e-02 4.353051641229522817e-01 -8.982175290937167711e-01
7.750608175534230704e-02 1.176453730008628490e-01 -6.289419513104702597e-01 -1.439790377409901900e-01 4.892262077540271981e-01 -8.601905337410964414e-01
-1.152871926069093528e-01 -9.074489909030213075e-02 -6.910585695680852014e-01 -2.417045958851453402e-01 3.728175170747058953e-01 -8.958716354982169117e-01
-9.510657073185897759e-02 -1.034757875066833338e-01 -7.103216424511126226e-01 2.633946221494305462e-01 -3.952755390419285808e-01 8.799889324632846899e-01
-1.299249341599779950e-02 -1.327204115441926457e-01 -7.369417668962524592e-01 -2.830777170637054363e-01 3.991335691544394271e-01 -8.721005676388698946e-01
1.145296155954689393e-01 1.316450603045115353e-01 -6.263405324333409796e-01 -1.285663196827087906e-01 5.048138616725347250e-01 -8.536004138392311313e-01
2.434065165839486775e-02 -1.823485827124482761e-01 -7.891564221860535300e-01 3.638025650298437608e-01 -5.130293703313593134e-01 7.774628987000700153e-01
-1.297891014862552483e-01 1.491530987486416326e-01 -5.926346854732696956e-01 4.136761408203605828e-01 -5.364951599068953358e-01 7.355576074737097958e-01
-6.366380133017003617e-02 1.802374054364687950e-01 -5.871169689982265183e-01 9.269144909097036533e-02 -4.275759805473569042e-01 8.992146996821074323e-01
1.373117792554653938e-01 9.884102260086884140e-02 -6.561436856994751210e-01 1.170702595740344687e-01 -9.127698239621376830e-01 -3.913384759864489970e-01
1.247010099795899107e-01 4.842562317516046350e-03 -7.045283060602013370e-01 -2.034286461483157671e-01 5.173972793575054574e-01 -8.312140766611901821e-01
2.352399464762628192e-02 -9.961578540770064938e-02 -7.446434596224247304e-01 2.577122155769332457e-01 -4.591053110837124973e-01 8.501804086646291836e-01
-1.275495736583358020e-01 8.005386815399401224e-02 -6.251404734440119126e-01 -9.453861162512072411e-03 -8.922739491208464546e-01 4.513954189282485818e-01
-1.272677029749849642e-01 -1.028022199383343965e-01 -6.928656182962483756e-01 -2.363718247956486662e-01 3.746879864009161065e-01 -8.965139559926560420e-01
-6.564950029014449129e-02 -1.112501429667177022e-01 -7.143375716055018199e-01 -2.634667631435038682e-01 4.074792044768915100e-01 -8.743831898187226503e-01
-1.655871281205185397e-01 3.991736257510506564e-02 -6.292856158172986936e-01 8.919813004568599712e-01 1.213537656303158574e-01 -4.354797621045450318e-01
-1.058436150403621739e-01 1.778163923842092931e-01 -5.833482364448344670e-01 1.707502418728167048e-01 -4.573881637676484035e-01 8.727201284178299767e-01
2.655609012003892766e-02 -1.485243585055211202e-01 -7.628397476204276106e-01 -2.911145929951285960e-01 4.517851564448239210e-01 -8.432926337644641723e-01
1.356526721054483464e-01 -1.765378857110315447e-02 -7.211157834885005835e-01 -2.184533898671110752e-01 5.148653969705205835e-01 -8.289702886460746933e-01
-3.415197326319167198e-02 -4.211366123576319037e-02 -6.904357499012706567e-01 -2.236148534199176863e-01 4.242419310047290670e-01 -8.775050890492700484e-01
6.224393448479299817e-02 6.874440496128186862e-02 -6.593365851572577929e-01 -1.638545522239290009e-01 7.050844777860986179e-01 6.899330147924509493e-01
1.355109976124962978e-02 -1.790366088248627752e-01 -7.744149764739040043e-01 -3.175534279866834564e-01 4.466655192589403800e-01 -8.364506765369057462e-01
1.085835154596780094e-01 1.387935402291557707e-01 -6.291901824893468831e-01 1.192312019378837240e-01 -5.083017590877617620e-01 8.528852456179170094e-01
-1.042981689201312179e-01 -7.347340574701730076e-02 -6.946667826207075791e-01 2.399228319007552790e-01 -3.827768483241398845e-01 8.921428804399889056e-01
2.709920551842470021e-02 1.617985334002172149e-01 -5.982285941102296611e-01 -1.024824496211674818e-01 4.670792265354556938e-01 -8.782564224978292033e-01
