-6.614707640980556358e-02 8.658187395547528586e-02 -8.209860905329853242e-01 1.295932134290914139e-01 4.426084361567439451e-01 -8.873011728133822773e-01
4.121430892621022815e-03 -3.737879629687530791e-02 -8.801390588913227120e-01 6.409887125639114613e-02 4.897786247239911406e-01 -8.694873394518936038e-01
-7.747969040478014380e-02 -2.161807727616707822e-02 -8.753688249549028688e-01 -1.493403312514358650e-01 -2.587254955347958463e-01 -9.543367243389440091e-01
1.412069209706136863e-01 -1.086963089670031912e-01 -9.224827645528609343e-01 -8.702621669803620730e-01 2.685742167662882873e-01 4.129305641521579529e-01
-3.334481388628914023e-02 2.133056509406553447e-01 -7.564103388505020176e-01 -1.936578292710002813e-01 -4.673870210398559100e-01 8.625810209629779512e-01
1.645281086787245967e-02 -3.030636889697439773e-02 -8.753583948590399899e-01 4.618466499249070101e-02 4.969990378293643873e-01 -8.665211671483955547e-01
-6.067218396269221520e-02 1.898152460722319357e-01 -7.673823664198917704e-01 1.882097631824777295e-01 4.439426391819020767e-01 -8.760662179076438294e-01
-5.704278293890500257e-02 -8.449880697414709207e-02 -9.161376850626784529e-01 -1.406320787344894629e-02 -4.597460421756313642e-01 8.879390761128551635e-01
1.429693563717375770e-01 -6.700277697659678955e-02 -9.001812861281713873e-01 -4.580903526801250597e-02 -5.536932992340412030e-01 8.314597180087178740e-01
1.523463544515431256e-01 -8.500077213034605561e-02 -9.076389848139697625e-01 -9.413299449389681550e-01 1.195079320107608062e-01 3.156196903675538290e-01
-5.008203270289151438e-02 4.670469837789893025e-02 -8.393871755043526006e-01 1.098344562624104098e-01 4.543403973458788325e-01 -8.840312186552744533e-01
-9.796160684539936825e-03 -2.001927806626532108e-02 -8.770145570975040883e-01 9.972048888834772473e-01 -3.493711702508686678e-02 6.604398111007123151e-02
-8.156347720564381676e-02 1.575522655631844404e-01 -7.957650933664048853e-01 -1.607657099164452597e-01 -4.419124847118480748e-01 8.825348391824892058e-01
8.802247737370505823e-03 -2.932455334088209242e-01 -1.023846634376048836e+00 -6.821034219227536388e-01 3.564248022483756939e-01 -6.385109882715224172e-01
-7.617184896084222556e-02 3.319304252384141715e-03 -8.642021469879392903e-01 7.683153595805505831e-02 4.399294179333514965e-01 -8.947396394030773248e-01
5.706898104016665469e-05 -1.699139508634441020e-02 -8.653965595642260089e-01 1.241104634610693397e-01 4.836462312277264308e-01 -8.664195957379399182e-01
-1.747418406006966130e-02 6.286526495404169690e-03 -8.576061540429175123e-01 7.237696611161463511e-02 4.792812179892014246e-01 -8.746719892961395404e-01
4.644319023988918022e-02 3.564117946573984452e-02 -8.428389179333410919e-01 -9.527481774661251956e-02 -4.993607371462123745e-01 8.611396886104724091e-01
1.194990767337392040e-01 1.099866361549707988e-01 -7.857401625453181992e-01 -1.540291121905780769e-01 -5.351366094699180342e-01 8.306045038421251414e-01
1.076228000506883054e-01 1.489908360540454502e-01 -7.550520487516741985e-01 1.529127998240037423e-01 5.210337267558673435e-01 -8.397270575805430015e-01
-9.015343770085537667e-02 1.648715674313640245e-01 -7.860231975738762866e-01 1.861456401186448728e-01 4.255200382924168023e-01 -8.855972547814499052e-01
9.986406729044697284e-02 -1.086151834938340749e-01 -9.165434728845107681e-01 1.633282118925755144e-01 -1.406159219244806358e-01 -9.764993895038043270e-01
8.521701555964281138e-03 4.913876486181810270e-03 -8.636431150222231290e-01 -9.077464244486008749e-01 -2.057567212697215264e-01 3.655962261199020014e-01
-5.786499253322251700e-03 4.909662136867166959e-02 -8.451489212420814079e-01 -4.207684920199684236e-02 -4.825124911255468940e-01 8.748778398548289204e-01
8.623278987984706045e-02 -5.599740589889991987e-02 -8.869471885117439225e-01 5.026383155831294636e-02 5.302056693775530904e-01 -8.463778679744518030e-01
7.465302601858861409e-02 -3.682847284912654784e-02 -8.842569595842344476e-01 -5.011210678372455402e-02 -5.300462255591559257e-01 8.464867249544963945e-01
-1.096260955138350507e-01 -5.417150089900898274e-03 -8.792129445404399668e-01 -6.578013679960884041e-02 -4.260849902023052804e-01 9.022885096946133832e-01
-3.692763739374910203e-02 1.398481419644189427e-01 -7.901858227025922998e-01 2.466538278339015511e-01 9.355153036601390193e-01 2.529288552786376210e-01
6.924084266562713363e-03 -2.061049155356065032e-01 -9.759848925936783770e-01 -1.738606945481176447e-01 5.128083641335827725e-01 -8.407140064052012196e-01
-5.817036972214425367e-02 -4.923293429320288461e-02 -8.980204935715555559e-01 -4.627651879628137677e-02 -4.550733460297068933e-01 8.892506584430646122e-01
-6.147207792166309304e-02 3.064655056049841661e-02 -8.571494605064581274e-01 -8.154576762363785480e-02 -4.576516525877489805e-01 8.853842401276261764e-01
-1.384589589244441810e-01 1.328758065107197017e-01 -8.108377801436205123e-01 2.134756064278267862e-01 3.836922307632567031e-01 -8.984477934260773901e-01
2.557562286495486392e-02 8.942072646714127604e-02 -8.141425710466166921e-01 -1.300961496627702219e-01 -4.920137854886533768e-01 8.608120739929522314e-01
-1.542566682948103354e-02 -1.736890123280371290e-01 -9.556942725748273082e-01 -4.209145861655289034e-02 4.763746558413712306e-01 -8.782343060843994520e-01
-9.201333133465314229e-03 -2.422472008639009466e-01 -1.002469104494980723e+00 9.986164739946153945e-01 -2.279489711436218438e-02 4.738702915469074350e-02
7.291123767551514756e-02 6.983429463769315337e-02 -8.189079714578491043e-01 -1.142538834966123767e-01 -5.096187150298686630e-01 8.527806373254778194e-01
-9.958126459239591277e-02 7.912500026380761553e-02 -8.399685346173014766e-01 6.397832162597667793e-02 3.006076551646547079e-01 9.515996069872723062e-01
6.017013415112487662e-02 -1.250338832408564305e-01 -9.385913287769116486e-01 8.949805616615322951e-03 -5.144644163062859210e-01 8.574650228050458844e-01
6.789854071868374474e-02 -3.012769095820347701e-02 -8.720293171685240541e-01 5.384065470584926960e-02 5.174840153564558287e-01 -8.539973523093645769e-01
3.987466693578137038e-03 1.213889387269374565e-01 -7.911577637625877291e-01 1.452252311856516986e-01 4.843327833259247206e-01 -8.627464211591010512e-01
9.938202298096346365e-03 1.082083203872249433e-01 -8.016643138211675401e-01 -9.972027014906592601e-01 3.737153756886332778e-02 -6.473129320097320560e-02
9.848654562203078278e-02 -1.080126490999242378e-01 -9.315772490938371009e-01 -1.585757642223769304e-01 1.136382758173505592e-01 9.807854348788775933e-01
-7.351727771119977162e-02 7.673337332633865804e-02 -8.390680770782830145e-01 -9.250141103320831670e-02 -3.738354807049238948e-01 9.228708047841712725e-01
1.160031893235769357e-01 9.845559027870560975e-02 -7.938444781232294467e-01 -1.422943413266061496e-01 -5.405838715994345511e-01 8.291691010843285081e-01
-4.636572398594713401e-02 1.212205683753015024e-02 -8.653668693875191664e-01 -7.908366096359326081e-02 -4.701834678500633746e-01 8.790183622252061291e-01
-1.497082152463961591e-01 1.028059508287998691e-01 -8.263184702553236782e-01 1.850481102681877377e-01 3.944004168644527630e-01 -9.001141639055119104e-01
-1.234433547187032965e-01 -4.591601133121520767e-02 -8.913658156197242777e-01 5.197130089434661565e-02 4.250570774600253010e-01 -9.036733175127455997e-01
7.093453109534794687e-02 -1.049763045517329851e-01 -9.177196665603807313e-01 1.452606205553432948e-03 5.155678547782157617e-01 -8.568475226401721656e-01
-1.436126055158519765e-01 6.463499400148005163e-03 -8.762245212958647000e-01 -4.701516233135199369e-02 -4.128750000327061076e-01 9.095734213679231850e-01
8.076491248376638232e-02 1.858209553607522990e-01 -7.382870236428610289e-01 1.350425488184342493e-01 4.659719771835618696e-01 -8.744333173480198784e-01
-5.800318814824225594e-02 1.733666578196443320e-01 -7.830764851267053572e-01 -1.845071436652092611e-01 -4.571737225692785733e-01 8.700283336355514319e-01
3.622629988910237853e-02 5.869009982742410397e-02 -8.184593488251363791e-01 1.399975479569090797e-01 4.206021008819401663e-01 -8.963785803441263189e-01
1.438183066082824868e-01 7.430080005344689986e-02 -8.064748428699470839e-01 -4.046252873282817908e-01 -9.080638792514104940e-02 9.099629535132154334e-01
1.059230576827644849e-01 2.684873061034908151e-02 -8.330627680322398865e-01 9.325750910130115034e-02 5.413435144444156411e-01 -8.356136884740399395e-01
-5.435944096086225974e-02 1.815217943417219981e-01 -7.702288373062134985e-01 1.882097631824777295e-01 4.439426391819020767e-01 -8.760662179076438294e-01
-1.034617110360111780e-01 -1.553996633651701931e-01 -9.500861619653842016e-01 3.081471800757252244e-01 -1.214646500585262745e-01 9.435526769595529162e-01
6.023977951265228198e-02 1.891587781282857983e-02 -8.513837451076744500e-01 -8.372258345672890789e-02 -5.163850968966091637e-01 8.522540470554601510e-01
-8.641168062401834160e-02 1.040955504158168066e-01 -8.233161655279034319e-01 -1.494835696151099180e-01 -4.410285940533081317e-01 8.849567456336422389e-01
5.599598441006901905e-02 -1.569529209981854467e-01 -9.491427872942774790e-01 -3.614606800839071515e-02 5.277564862429280357e-01 -8.486262740429680873e-01
-1.829898697735921065e-02 -9.653790145585153509e-04 -8.616481250693316385e-01 7.237696611161463511e-02 4.792812179892014246e-01 -8.746719892961395404e-01
8.268752727259688629e-02 9.167146339480039541e-02 -7.953403077557271716e-01 1.452385475543279680e-01 5.216013565455741574e-01 -8.407364564202781665e-01
7.415274135225809193e-02 6.332197625681952602e-02 -8.141967651296057040e-01 1.137146223410501339e-01 5.121875485024777186e-01 -8.513124572240525767e-01
3.910884142224245463e-02 -1.327006433249633688e-01 -9.428267572303841160e-01 1.821609007016936066e-02 -5.100387892390741973e-01 8.599584917506744031e-01
6.596588767870838199e-02 1.334423897902716205e-01 -7.726354376388291367e-01 1.663685359231896477e-01 5.056672949569800402e-01 -8.465353489758504768e-01
1.557020667414656390e-01 1.193292815789952568e-02 -8.379398054673601326e-01 7.388792441306299419e-02 5.630663489044850367e-01 -8.231019750658497003e-01
5.104803082342205742e-03 9.891442530746419326e-02 -8.118079759521689143e-01 -1.451845016353674744e-01 -4.843796013320318949e-01 8.627269917524963416e-01
9.784916285900284449e-02 1.474706163678377868e-01 -7.683483612362930204e-01 -3.497496515757017588e-01 -5.135666247888506231e-01 7.835333452544717137e-01
-5.884922387647685549e-03 -3.529865152721704535e-01 -1.053177435859887989e+00 3.495856233164806315e-01 4.612974330428414871e-01 -8.154719923078370680e-01
-1.472012271846949716e-01 6.723288120333806295e-02 -8.416586377704269317e-01 1.409042403892906969e-01 4.000226753290274662e-01 -9.056091067689880925e-01
-5.661467255291782047e-02 1.477756369030225336e-01 -7.958618809419398810e-01 1.941414275665031275e-01 7.940043792425647284e-01 5.760782514954627676e-01
5.969435577905072426e-02 -1.028490619612966867e-01 -9.251384900028097880e-01 -8.209639754876221773e-03 -5.182639423153433400e-01 8.551813187335499666e-01
-9.322427529293167772e-03 -3.354527922879543267e-01 -1.050299098552383015e+00 9.986111700848373518e-01 -2.567954533101060588e-02 4.600317307952343088e-02
-2.705230086682475221e-02 -2.172776489889065576e-01 -9.770846960933979863e-01 8.872208351191153766e-03 6.535267003148025333e-01 -7.568514622398634373e-01
-1.196603356824890718e-01 3.338678623225126846e-02 -8.616616955557516722e-01 -8.604965864687194599e-02 -4.246555594297320435e-01 9.012564075179595457e-01
-2.811772923883983349e-03 -1.645406812409606900e-01 -9.596906757807427413e-01 3.787477447443211159e-02 -4.870649998438326134e-01 8.725440890783906500e-01
8.325724229161734352e-03 -7.555397321909639030e-02 -9.093820551536492269e-01 -9.077382295123742617e-01 -2.060429379443086406e-01 3.654553521362329804e-01
-7.260182790118503704e-02 2.138045491927826891e-01 -7.643145582459152099e-01 -4.878003209745065960e-02 -6.223104988361080059e-01 7.812490969639109828e-01
5.008808115074066952e-02 -2.434909933697458964e-02 -8.697320431940612773e-01 6.044570427214333852e-02 5.171775619182942263e-01 -8.537409948475553900e-01
-6.371131086488780737e-02 6.573692501952068355e-03 -8.697106778447205588e-01 -6.663134986748543709e-02 -4.539808643459813942e-01 8.885165378441262085e-01
-6.030479075560424979e-02 2.160187412443175525e-01 -7.610425804546431250e-01 -1.862834846715013537e-01 -4.880516930404278364e-01 8.527039393945676782e-01
7.074165228533942085e-02 -1.239749447368578977e-01 -9.294132260574388127e-01 -1.002736959573585947e-02 5.177191713386537497e-01 -8.554918535482428643e-01
6.926341160970113028e-03 -3.728476877489596553e-01 -1.066493323648759928e+00 -6.768212430422455572e-01 3.641439677698217192e-01 -6.397750977520153537e-01
1.379500481694084513e-01 6.600267297613146567e-02 -8.035249805371413867e-01 1.182520514702166681e-01 5.454801797305360855e-01 -8.297396132789053302e-01
8.976759886685540049e-03 -1.551967018955815458e-01 -9.525770420438072206e-01 -9.057881531216267490e-01 -2.075455175419977649e-01 3.694220889615788539e-01
-1.386034757834679332e-01 8.246995779824931039e-02 -8.335550503317892268e-01 1.422520908932929096e-01 4.068339050047261041e-01 -9.023583081986290555e-01
5.465860662732911768e-02 -1.096054372083399009e-01 -9.205331616270922002e-01 8.799423578513634360e-04 5.166442736528780166e-01 -8.561996964512058605e-01
6.452078424320602246e-02 1.214589523281998061e-02 -8.550651606968099339e-01 -8.372258345672890789e-02 -5.163850968966091637e-01 8.522540470554601510e-01
8.223158106753226948e-02 5.259748220258669837e-02 -8.281755824871244176e-01 -1.109026353997704523e-01 -5.254299744175252584e-01 8.435780624488669055e-01
-7.181457397942535292e-02 -2.545649756802067024e-02 -8.752147212462332293e-01 -1.493403312514358650e-01 -2.587254955347958463e-01 -9.543367243389440091e-01
7.290270022978828646e-02 -1.194606224282265955e-01 -9.313025286246428003e-01 -2.419469901038815707e-01 6.914862009014002275e-01 6.806676780504719027e-01
8.211504862622424905e-02 -1.616778354871422629e-01 -9.636724445692953500e-01 1.641226331745401501e-01 -6.881334541026539187e-01 7.067786857458324690e-01
-1.882167410598542187e-02 1.517853358807362829e-01 -7.785985721676392801e-01 1.707247360424716254e-01 4.732197442930936582e-01 -8.642431012825080305e-01
6.258481528422286597e-03 -1.056968917846737716e-01 -9.270218619918580982e-01 7.471806045106214227e-04 -4.906833809000564761e-01 8.713376276906872331e-01
-6.093310604730624302e-02 -2.356080806245341996e-02 -8.767016601665963416e-01 5.394937407221109260e-02 4.553111530043702504e-01 -8.886963592741041751e-01
-1.319608807358677027e-01 -5.081606195366746709e-02 -8.941041041773630793e-01 5.024427807654027051e-02 4.184473848227985848e-01 -9.068502073967499300e-01
-1.167747146134379826e-01 8.187282233528472841e-02 -8.307322126649661076e-01 1.430466070231597164e-01 4.250961046942435817e-01 -8.937734444438045767e-01
4.733276359009837286e-02 -1.791330390966381358e-01 -9.723265790476628423e-01 1.255348498799009616e-01 -6.184543989634466721e-01 7.757287914396324702e-01
-1.002713141229150950e-01 -4.118462553694760692e-02 -8.959021781403991858e-01 -3.936101431914151155e-02 -4.417817495108273818e-01 8.962586659837221692e-01
-6.327333260320476549e-02 -1.642630696082228794e-02 -8.732074064330158647e-01 6.341602927360041886e-02 4.424146807004575854e-01 -8.945656250560282130e-01
-4.744426979390999055e-02 1.751552592653005669e-01 -7.720390894224324896e-01 1.860206925550818291e-01 4.515574072514438320e-01 -8.726352100950783841e-01
-2.653257251790592727e-02 2.073987057843793003e-02 -8.588523047331189098e-01 -9.078740789338600459e-02 -4.695947630157339403e-01 8.782018020456326957e-01
-1.335853753424298684e-01 5.845836868083826438e-02 -8.437881148576548140e-01 1.218914585455510707e-01 4.128219822283222817e-01 -9.026186810180238940e-01
-6.228098495563866299e-02 -9.728509617351366323e-02 -9.144738322316601220e-01 5.567977243342863217e-03 4.590609841622051435e-01 -8.883873088070569635e-01
1.384134496827568173e-01 -1.827370993735599053e-02 -8.552476598308748068e-01 6.965354145634247707e-02 4.862309110716789284e-01 -8.710498753119678694e-01
8.084175203821222788e-02 -1.465386002481344485e-01 -9.522081792610369577e-01 1.709182214592518817e-02 -5.252194384079733602e-01 8.507951640284195927e-01
-2.128220359279113169e-02 -2.630947841797450990e-02 -8.755384106864079197e-01 5.831219057405914036e-02 4.671525695780359144e-01 -8.822517583814117881e-01
-1.948276193670483297e-02 1.986934622460791999e-01 -7.534762277632909289e-01 2.054648800434706046e-01 4.637239289532849584e-01 -8.618261430154293690e-01
-6.671062989550621825e-02 -8.995741386168906728e-02 -9.190209725273100760e-01 -5.551946717193305056e-03 -4.590780563309814766e-01 8.883785871367104736e-01
1.065163377611013035e-03 -5.164390782419693571e-02 -9.008793254994594824e-01 -7.800900431948772085e-02 -4.859294020827226723e-01 8.705097422985053068e-01
9.186233692876014101e-02 -9.800110389491896098e-03 -8.576360626531669418e-01 6.926227377530840001e-02 5.309995540742862286e-01 -8.445366842265548124e-01
3.220081519022021527e-02 2.108901280243981602e-01 -7.419776634053090181e-01 -2.123227243984953938e-01 -4.952145459637149472e-01 8.424260289010260250e-01
7.226387225981845130e-02 -1.395540775596674776e-01 -9.477198143075269421e-01 1.739441657523035228e-02 -5.258738463691625675e-01 8.503846964620835891e-01
6.005359930312848503e-03 -2.159891321155874844e-01 -9.817826647455063505e-01 -1.656020581312706852e-01 5.102424311500033394e-01 -8.439363837380288169e-01
-4.799920830525748056e-02 1.491499909616222364e-01 -7.973136836293923668e-01 3.290234378391521802e-02 2.485529448571920930e-01 9.680593315372477692e-01
-3.371324396077271524e-02 -1.067754228245860887e-01 -9.191961203567087235e-01 4.285122093010580724e-03 4.682970254106626484e-01 -8.835607130922998875e-01
4.772805769391021830e-02 1.963361652390569756e-01 -7.469480816635315490e-01 -1.969073566617213500e-01 -5.038083524537727564e-01 8.410735026680538073e-01
2.687939744938507014e-02 -1.210039010910601287e-01 -9.358242930771705215e-01 3.669530428757428707e-03 -5.033801580237090567e-01 8.640572614442045829e-01
-3.535964612563694594e-03 -7.699907738492148268e-02 -9.151593545534753016e-01 4.288265786318666561e-02 -4.869663580280100268e-01 8.723673789198705952e-01
-5.870524721440681078e-04 1.351914081225342457e-01 -7.806308524401593951e-01 1.631552084627004018e-01 4.808835679208003366e-01 -8.614704707970285424e-01
-5.607368822124551150e-02 3.714429312565652175e-02 -8.532372936260840257e-01 -9.476998399655520156e-02 -4.681719548808334075e-01 8.785406483460805882e-01
2.838937387488943073e-02 -1.149807639135420195e-01 -9.237452626437383518e-01 -6.863319302809238291e-03 4.946995493167971603e-01 -8.690369674265334687e-01
1.222196410994670808e-02 1.501747007600319206e-01 -7.733927935202491444e-01 1.798912954391757024e-01 4.815211704764044698e-01 -8.577741452202023442e-01
-1.160502764797569780e-02 -5.007026902245097916e-02 -8.963997746602879735e-01 -3.853329708118961167e-02 -4.810145879949994097e-01 8.758653727326216609e-01
-1.276775070564325765e-01 1.306893518340400684e-01 -8.168426159127338826e-01 -1.352672887472922136e-01 -4.214385409085863454e-01 8.967119475237288473e-01
-5.088149415433459305e-02 1.034499814223164421e-01 -8.099707565989442415e-01 1.503727994279949742e-01 4.555985156974037276e-01 -8.773927362854737622e-01
5.444853986768547621e-02 -1.169469942800840656e-01 -9.336796138339348294e-01 8.949805616615322951e-03 -5.144644163062859210e-01 8.574650228050458844e-01
1.211455023678673637e-01 -1.109113629955559401e-03 -8.580278376287394648e-01 -8.073036160220829760e-02 -5.413449619229161458e-01 8.369159103017778101e-01
-7.641442578502186111e-02 1.168136721486815188e-01 -8.153830054557356100e-01 -1.298918460535597175e-01 -4.448107941858374659e-01 8.861554410511529589e-01
-1.224197350376887150e-01 1.020572981111324620e-02 -8.727984113800562049e-01 -7.215975077837845364e-02 -4.251320406615994862e-01 9.022503634637708547e-01
1.376896427994113714e-01 6.107594879434213170e-02 -8.068073158361366293e-01 1.091169452555349473e-01 5.510662140369441131e-01 -8.272965127480532699e-01
4.357238556085375920e-03 1.301242590536833554e-01 -7.944204117301770784e-01 -1.762026512613419083e-01 -4.839294580095029330e-01 8.571842890295545692e-01
9.919406402863209515e-02 9.829094580071698339e-02 -7.884703191515264331e-01 1.310243434500438786e-01 5.299209876501359551e-01 -8.378641705380350801e-01
-2.567956640874495197e-02 -8.016888087801160231e-03 -8.659899359178313549e-01 6.966130564364415856e-02 4.690018457126249873e-01 -8.804456662475963480e-01
-8.762589267241580049e-02 -1.172487628943928439e-01 -9.212988529833626705e-01 1.535904075946318559e-01 8.990298891749152199e-01 -4.100673664961093645e-01
5.378639373021665976e-02 -1.181563939864698071e-01 -9.376220533722333661e-01 -1.579147329042847880e-01 1.135753235823634827e-01 9.808993745562946120e-01
-9.848494321573723898e-02 -1.255538099522781337e-01 -9.286511407592068501e-01 -1.069374797812299230e-02 4.401777139197017297e-01 -8.978469936033677268e-01
9.713969207282121404e-03 -7.667929016563237998e-02 -9.064959377977896970e-01 -9.976296448683985574e-01 3.527871520768882663e-02 -5.908048690598072944e-02
-9.697336477010914946e-02 -1.320520598489008900e-02 -8.855687108733897306e-01 -2.149681446862450884e-01 -8.931673530253522175e-01 3.950199694443808918e-01
-3.206584979398380275e-02 2.190008981424193812e-01 -7.457849219159891074e-01 2.152540430648971492e-01 4.519569657383546990e-01 -8.656792697441676454e-01
-1.600271592222459252e-02 1.432020097646325707e-01 -7.951044041444431665e-01 -1.621601192964015059e-01 -4.906405805030032985e-01 8.561401266576943447e-01
-1.021045848718595273e-01 1.739542593711140006e-01 -7.914383824366115761e-01 -1.706436295014364390e-01 -4.382554597681378450e-01 8.825037697902454736e-01
-2.648026012510492494e-02 -1.824728204666760667e-01 -9.599327961701477063e-01 -4.649139173332104275e-02 4.741745790617237222e-01 -8.792024903663183677e-01
-8.045244768486602138e-02 1.543101661368077859e-01 -7.971903660663680613e-01 -1.605843292560632241e-01 -4.433430713181683025e-01 8.818500974154019900e-01
-8.125903011623154815e-02 -8.070955854290969012e-02 -9.146977108269499501e-01 -1.864632812127516026e-02 -4.450360327868201349e-01 8.953185153725808920e-01
-8.712777210286369589e-02 9.525642142505236221e-02 -8.197660877146577540e-01 1.373749018525159959e-01 4.262655692812527541e-01 -8.941061462635974122e-01
-5.646131943265551845e-02 1.154515869535890499e-01 -8.047005560331174090e-01 1.516309993464351191e-01 4.554119490096025236e-01 -8.772730457140904825e-01
3.845293455300982655e-02 7.939845910012532926e-02 -8.181068615089533980e-01 -1.286673648514566337e-01 -5.095052239187918275e-01 8.507932392900428020e-01
1.328408951723117348e-01 1.791715777637412771e-02 -8.443025676812929703e-01 -9.487571565728954159e-02 -5.544431756560508351e-01 8.267958415152745211e-01
-1.443021817062969392e-01 2.485023619247102213e-03 -8.706583371029806839e-01 9.054114218662946689e-02 4.028918200044784848e-01 -9.107581912588101902e-01
-1.268617096844591730e-01 4.386005596242127658e-02 -8.574144509206675924e-01 -8.604965864687194599e-02 -4.246555594297320435e-01 9.012564075179595457e-01
-5.344909018373339427e-02 8.240993750280390176e-03 -8.598137271025715345e-01 8.220868275635961897e-02 4.669516120961255679e-01 -8.804532494347974136e-01
1.023919897151021607e-01 6.368768431714925959e-02 -8.131087204132624313e-01 -2.029758647501253566e-01 8.942697233623380093e-01 3.988514262308542335e-01
3.592644102888672281e-02 1.034340071861835353e-01 -7.960035078806129150e-01 1.307048702627788828e-01 4.970536511917603151e-01 -8.578192727646833937e-01
7.422068375117249484e-02 3.196675093817638591e-02 -8.333468008638410529e-01 1.001549805984628949e-01 5.142007329454623132e-01 -8.518019641323156810e-01
-5.120935457051603579e-02 -3.111032152653534638e-02 -8.799231931656450456e-01 6.044551871411551341e-02 4.552545741056088224e-01 -8.883071608533292807e-01
1.403504224958461444e-01 7.324708531269363831e-02 -7.952415789193222340e-01 -1.126294872477937165e-01 3.890891870548177089e-01 -9.142889057181654566e-01
7.597517061584688203e-02 1.934911283930352555e-01 -7.415870835346102252e-01 -2.387138427111654415e-01 -5.515365280801124426e-01 7.992641362474638411e-01
-1.344001025019386786e-01 1.451579113960055067e-01 -8.109056089959540969e-01 -1.173578582532239650e-01 -4.345536335182490495e-01 8.929671173690012509e-01
-6.957059000172344590e-03 2.150665734021118825e-01 -7.400214648456934219e-01 5.564177079041175977e-01 3.873581963744973655e-01 -7.350870438473423585e-01
1.133979165326556016e-01 -2.466045154964806654e-02 -8.655410565636213471e-01 6.553692581709839871e-02 5.444045605032529211e-01 -8.362586835768609506e-01
-1.079196125665006674e-02 3.148138582366299260e-02 -8.431289921414023558e-01 9.290812305643252056e-02 4.798994569852581549e-01 -8.723901603384721648e-01
-1.030306342035179207e-01 -1.149568767373549405e-01 -9.315624170132900117e-01 9.192063644250422424e-03 -4.333749390004293378e-01 9.011668370575641740e-01
2.128385178974390515e-02 -1.262286739843195005e-01 -9.388178507989457522e-01 2.067715179639454184e-02 -4.933817997983777071e-01 8.695670503309693711e-01
8.481226734198385464e-02 3.762074033786974581e-02 -8.371471080371214457e-01 -9.996043070206746262e-02 -5.141042675689467822e-01 8.518830403061526946e-01
-7.784478777964183582e-03 1.523258976592442582e-01 -7.751118411642514694e-01 5.407211349878348061e-01 4.001784366593264530e-01 -7.399174771623964197e-01
-1.522687608988848584e-01 6.795818968009820216e-02 -8.491124127172268166e-01 -1.095542988179353111e-01 -4.058341548256884090e-01 9.073568726732771372e-01
-1.454436755953026905e-01 1.552107518978209158e-02 -8.648765401284422838e-01 9.308702098560725502e-02 4.128371369900810106e-01 -9.060354876305113381e-01
6.029994969286145423e-02 -2.503435707725995552e-02 -8.779665360774595584e-01 -5.369396040497106254e-02 -5.174905631085607860e-01 8.540026204348639682e-01
-1.140975608508021794e-01 -8.299688292449509952e-02 -9.162997040184361897e-01 -1.127667652149376767e-02 -4.283805082989852187e-01 9.035280718805215328e-01
-2.819797318020586183e-02 2.124229843643846150e-01 -7.557330933710723064e-01 -1.936578292710002813e-01 -4.673870210398559100e-01 8.625810209629779512e-01
3.748837619090335249e-02 -7.641576060137385273e-02 -9.011035963985769559e-01 1.669906518737102052e-02 5.050665689900144528e-01 -8.629188270692226270e-01
-4.952359057485530153e-02 1.536871265913273554e-01 -7.956153291312411113e-01 -1.680535801040338173e-01 -4.586766673221368551e-01 8.725673091908011658e-01
-7.292057661034308247e-02 -1.336786379274425285e-01 -9.411457334879577141e-01 1.706154394705146349e-02 -4.477621395307239682e-01 8.939899161181917853e-01
8.733224661552742296e-02 -1.494339398145168307e-01 -9.541508268478976484e-01 2.720609344731455409e-02 -5.284149977643871621e-01 8.485501862689083241e-01
-1.457090000080576431e-01 -1.993882339003267765e-02 -8.808821015752245076e-01 7.880513246723083731e-02 4.081628534907165706e-01 -9.095014217290362524e-01
8.946394293653640861e-02 -1.294344568582453670e-01 -9.417143240476357757e-01 5.554331672972053109e-03 -5.350695551047992549e-01 8.447897493457285911e-01
-4.437012377489139153e-02 -1.278861535681876382e-01 -9.386981911835248216e-01 1.564265250575736996e-02 -4.705867232045317650e-01 8.822150777254974541e-01
-2.350517950332681877e-02 2.689875195398302998e-03 -8.600760085655295706e-01 7.237696611161463511e-02 4.792812179892014246e-01 -8.746719892961395404e-01
-3.206940825675674150e-02 -1.189962935346073475e-01 -9.341725983496915742e-01 -4.296800430379696243e-05 -4.714785706213483474e-01 8.818775173450114080e-01
-7.063781087658140001e-02 1.539227008889084043e-02 -8.576971134826938403e-01 8.141528918017280902e-02 4.576589153110031116e-01 -8.853924937134179940e-01
-1.183840927408904009e-01 1.019285976216934703e-01 -8.290648617680170807e-01 -1.304242202756626112e-01 -4.276625502461487982e-01 8.944798856779541119e-01
3.219280916602733356e-02 2.003989151691902004e-01 -7.482210719714789127e-01 -2.022680090757810467e-01 -4.953727856382472150e-01 8.448037971940722812e-01
5.040383336373248369e-02 1.884685826181050072e-01 -7.432184237898513679e-01 1.952703793703819413e-01 4.906629792230958742e-01 -8.491874467751292510e-01
5.008281069491581083e-02 -1.918248814543612457e-01 -9.831459036232490512e-01 1.630679152465423776e-01 -5.910813746610849018e-01 7.899567478956736055e-01
-5.185489447047783931e-03 1.691230584023536987e-01 -7.784132201938345208e-01 -1.438501595959688628e-01 -4.795424797847965270e-01 8.656478161851173247e-01
-1.404040140028625649e-01 1.044323358030085497e-01 -8.310019738458134242e-01 -1.255494530176859136e-01 -4.182273551158032787e-01 8.996239293614860522e-01
-2.741834791792584214e-02 -1.901868400607461818e-01 -9.712383022119801534e-01 1.138298590632386836e-01 -3.764745453377942863e-01 9.194072437708681322e-01
-7.662691164023455181e-02 1.696955527548633380e-01 -7.809389199378504731e-01 1.872502930726310244e-01 4.401705414708254049e-01 -8.781726607937042628e-01
1.311095659736510009e-02 5.298533103895823604e-02 -8.283512571911960665e-01 1.022886309288490309e-01 4.872601253926825970e-01 -8.672454128936106788e-01
-1.514601051376605334e-01 2.088733581288131427e-02 -8.630960096206337084e-01 1.063730222931664887e-01 4.040372110045117315e-01 -9.085365772779394611e-01
1.282170569096757577e-03 7.896982395019419565e-02 -8.235956612350854300e-01 -1.291321281293823509e-01 -4.880793283257542914e-01 8.631937573603376546e-01
1.136420525163885260e-02 1.371952116717063686e-01 -7.923250613770240758e-01 -2.671098169898187824e-01 1.410046024872310955e-01 9.532943132868691993e-01
-4.910679341725748825e-02 -1.478647332242322421e-01 -9.490330012384472491e-01 3.013034078423599063e-02 -4.592754579256225766e-01 8.877827528801377488e-01
-4.042890747384903644e-02 1.497222062873118376e-01 -7.920315535379460758e-01 -1.694168427147839662e-01 -4.671394655390332940e-01 8.678010446758291918e-01
-5.016543543502545964e-03 6.193708902751637185e-02 -8.231996509728706224e-01 5.149090692131899072e-01 4.118790167194228413e-01 -7.518140235645035530e-01
3.051956954302911199e-03 2.114769466186174895e-01 -7.528648643146553798e-01 -2.546247181536827608e-01 -4.713353036455391054e-01 8.443987709859158697e-01
-1.296576316952278152e-01 1.333850236088754415e-01 -8.158647895391933913e-01 -1.354343398018436617e-01 -4.275110034299002826e-01 8.938075192952891213e-01
-4.623356202202388854e-03 -2.560273382910616680e-01 -1.014222878843221931e+00 2.607459525670110523e-01 -4.705538059163717479e-01 8.429653990274689201e-01
-1.987568892425946310e-02 1.418881332319576194e-01 -7.842260375197946942e-01 1.707247360424716254e-01 4.732197442930936582e-01 -8.642431012825080305e-01
1.493594926448654214e-01 -8.369751094758033638e-02 -9.037808334963187695e-01 -4.502127030839647021e-02 5.744428073137661794e-01 -8.173056627390377082e-01
9.285447147601386120e-02 -5.488468035156288810e-02 -8.945798726875707763e-01 -3.900120596636649783e-02 -5.426301983845659427e-01 8.390657743790386203e-01
-7.713365971281825606e-02 6.624603738155870891e-02 -8.328635735180475175e-01 1.171683685914865769e-01 4.555192525437680717e-01 -8.824816054533808352e-01
6.645171985631098677e-02 -3.846340136695413497e-02 -8.771715985394975545e-01 5.384065470584926960e-02 5.174840153564558287e-01 -8.539973523093645769e-01
-2.441640167758507909e-02 -1.596479989752899176e-01 -9.476635819598041577e-01 -3.710970262952634213e-02 4.804726206468112326e-01 -8.762242468566673326e-01
-2.730035981610640788e-02 -1.564505232746707733e-02 -8.785907637539684956e-01 -6.168082276224048921e-02 -4.791423679157826854e-01 8.755672831778436027e-01
-1.092626503843295571e-01 -6.231771221779765224e-02 -9.063679845394472245e-01 -3.511326279126721767e-02 -4.254925793001628764e-01 9.042804452915290669e-01
7.326496696300343822e-03 4.589176228757740894e-02 -8.301975597656962025e-01 -4.722214652986761463e-01 6.542989590227540342e-01 -5.906773738115520533e-01
-1.447336729085627743e-02 1.043071718180577506e-01 -8.037172206457656731e-01 1.305798672805574545e-01 4.766133725174448998e-01 -8.693610247754033349e-01
-6.999775714783960934e-02 1.699034507491783419e-01 -7.794211982485321766e-01 1.872502930726310244e-01 4.401705414708254049e-01 -8.781726607937042628e-01
1.084795578330870897e-01 -3.443443226061505130e-02 -8.806684885272040297e-01 -5.554967302430774412e-02 -5.457619514659944882e-01 8.360969597833267652e-01
5.446873364567243747e-02 -4.984121319925736981e-02 -8.933345864982762397e-01 -4.596945957410393524e-02 -5.180940007399289504e-01 8.540874751357494521e-01
-1.016153735872793590e-01 1.458121248899968136e-01 -7.975265410404320798e-01 1.738025201503547723e-01 4.303971386533243515e-01 -8.857488284092824848e-01
-4.368635058636646806e-03 1.374953876454143575e-01 -7.919151297467328376e-01 -1.608284376453784081e-01 -4.789936401473436356e-01 8.629596203432370327e-01
3.469870268012429509e-02 -1.406867372902044777e-01 -9.474661390690668483e-01 2.737687795828632614e-02 -5.032815261472063373e-01 8.636887240158899193e-01
-1.294962349029972482e-01 1.466853820522544538e-01 -8.027450366426008843e-01 2.387987986460365919e-01 3.759205332128288113e-01 -8.953540564906110610e-01
-1.254233962848751854e-02 -3.240939844758337039e-03 -8.623924206044020213e-01 7.864866369207280938e-02 4.752897073182029142e-01 -8.763070705048705555e-01
9.308362495627395261e-02 1.718380675674489322e-01 -7.513903290182919470e-01 -2.185966174566761344e-01 -5.391251101932083012e-01 8.133631626743744736e-01
1.288840688827124492e-01 6.506061887364586460e-02 -8.136415124538022292e-01 -1.218510816057429835e-01 -5.486084191864519788e-01 8.271524141953844333e-01
-1.319930883615966222e-01 8.701834183884614438e-02 -8.402488697290952935e-01 6.239443194376600305e-02 2.738843780914983483e-01 9.597365692208711385e-01
-1.851338312756060922e-02 1.460136429731089813e-01 -7.940144935027894091e-01 -1.497071884784997864e-01 -4.642795906693006347e-01 8.729445683465872907e-01
-5.808221994612929040e-02 -4.656846758895859424e-03 -8.750033351419171934e-01 -7.471668325113960119e-02 -4.536872747528167826e-01 8.880232395446141513e-01
1.913021899667505590e-02 1.129398574841933706e-01 -8.016349782320364437e-01 -1.481305643184632481e-01 -4.986177719850050094e-01 8.540712226596813839e-01
7.699488248896393938e-02 5.941737645580632242e-03 -8.577140847895756703e-01 -7.983722264925759149e-02 -5.305751738896580250e-01 8.438696598003818661e-01
7.572229105082831091e-03 6.760789617576555555e-02 -8.207888717667898293e-01 1.022886309288490309e-01 4.872601253926825970e-01 -8.672454128936106788e-01
-1.298313334192895963e-01 -1.052011356109623097e-01 -9.159321374879549893e-01 2.658669054662267661e-01 5.487832168796981103e-01 -7.925602623453832374e-01
-7.490345628704297987e-02 7.290409628891307559e-02 -8.397762502247545502e-01 5.201179795350166501e-02 2.317632591122854302e-01 9.713807516104567830e-01
-1.209846589786318372e-01 1.509459974440113816e-01 -7.989345839844567143e-01 1.902598559959988445e-01 4.097122524046931114e-01 -8.921530459656880074e-01
2.014002288523499343e-02 1.939426023680750066e-01 -7.469173965376775248e-01 2.082156114353631293e-01 4.771772240146034960e-01 -8.537846075189661210e-01
7.467662230057403594e-02 -8.094073823500476383e-03 -8.665800250206824318e-01 -6.714718911285026681e-02 -5.148204036583234888e-01 8.546643826504788377e-01
5.750888309649134639e-02 -1.179803550989956124e-01 -9.370431537876932060e-01 -1.579147329042847880e-01 1.135753235823634827e-01 9.808993745562946120e-01
2.206845836223486276e-02 1.433870787635768418e-01 -7.877327532939080168e-01 -1.665095497073771358e-01 -5.086450232292439866e-01 8.447217353663681871e-01
6.630252076680383938e-03 -3.727953775765757705e-01 -1.079515631235151041e+00 -3.292570690033803094e-01 -4.555775877986134592e-01 8.270664084624040902e-01
-1.578202180982951341e-01 8.512170107254421469e-02 -8.355495507191109672e-01 1.587244181882622174e-01 3.955499371583772739e-01 -9.046252297414668631e-01
-5.747104069860966419e-02 2.207275980547926397e-01 -7.530190117344189860e-01 5.654920950288813142e-01 -6.582619407368527353e-01 -4.969002996952195939e-01
9.140040842388671982e-02 3.309198271250324286e-02 -8.392450221555524115e-01 -8.746451729504890749e-02 -5.305513096477503243e-01 8.431282619183165794e-01
2.023878571169255777e-02 -4.049422825342997162e-02 -8.931081033539668423e-01 -2.154533998285179663e-01 1.439561006171597712e-01 9.658449531873297689e-01
-2.149314493528530282e-02 -2.074068099651835140e-01 -9.719020776901131642e-01 -1.243470888330459601e-01 4.500769106649825102e-01 -8.842898710179892818e-01
-4.438024266544169164e-03 -9.441792587931034653e-02 -9.247842644625817732e-01 4.329744602147485993e-02 -4.836517762648216423e-01 8.741889329452189328e-01
-1.435149345244126351e-01 -3.158910767419592733e-03 -8.805872923350223092e-01 -4.701516233135199369e-02 -4.128750000327061076e-01 9.095734213679231850e-01
1.429550825999791885e-01 -2.737257667624572177e-02 -8.735834530973469736e-01 -6.356912638925711623e-02 -5.575570324700388491e-01 8.277011065072409357e-01
-2.177385941286420767e-02 1.351423826146054274e-01 -7.868340449341321152e-01 2.584463629654369932e-01 8.881681697315163548e-01 -3.799510228249244337e-01
-5.291234042222628386e-02 2.181323208935923574e-01 -7.516107880207112402e-01 2.339022831467542640e-01 4.044117459736080722e-01 -8.841611061663556814e-01
-1.231319081249664937e-01 1.307139900047110392e-01 -8.086804969380788632e-01 1.718022045379374863e-01 4.101121411301167918e-01 -8.957075606544672164e-01
-6.526059266743935994e-02 -1.584291904115466276e-01 -9.456443246852896944e-01 -2.707989580173371727e-02 4.556307790766222499e-01 -8.897568613960767925e-01
8.079353379234453791e-02 3.252283715605449460e-02 -8.322382760553477254e-01 1.001549805984628949e-01 5.142007329454623132e-01 -8.518019641323156810e-01
1.847290791261515727e-02 -1.719484456542258455e-01 -9.649342172151871289e-01 3.916715978917593294e-02 -5.016912848172468964e-01 8.641595849913770166e-01
-7.720903280043753258e-02 5.786489262593692839e-02 -8.450675236655345035e-01 -1.140972731426799641e-01 -4.390172980056898933e-01 8.912045917258215599e-01
7.621503516106753473e-02 1.452817415594867267e-01 -7.597161153443543480e-01 1.899614546654398994e-01 3.877154973926458248e-01 -9.019929815818766849e-01
1.486744755722685940e-01 5.544105469275493331e-02 -8.170863415289530973e-01 -1.351747105074226629e-01 -5.579138931958960157e-01 8.188161487282923368e-01
-1.304703451116732416e-01 -4.181426011618699645e-02 -8.976096697592821361e-01 -4.000436142236583892e-02 -4.279341320451017783e-01 9.029241550086000156e-01
-3.302169860244141830e-02 -1.300277605895742150e-01 -9.289102025436321020e-01 1.368824664292533633e-01 8.476480872651047660e-01 -5.125972205738670295e-01
-6.702765030472720986e-02 1.716362092055397776e-02 -8.646304141374554497e-01 -8.154576762363785480e-02 -4.576516525877489805e-01 8.853842401276261764e-01
-1.230842736506578862e-02 1.627294065642554688e-01 -7.713330956225663559e-01 1.658866868539642103e-01 4.730328325029427572e-01 -8.652869734942609803e-01
7.151651405942063139e-03 2.334168954089688719e-01 -7.351060575005846642e-01 -2.204420742350154394e-01 -5.053399558018880633e-01 8.342882121767692949e-01
-1.544136084179503488e-01 -7.484273905659069581e-02 -9.072493731220842017e-01 7.892069022489562879e-01 4.383020667923026026e-01 -4.301671345979403149e-01
1.275500086713409476e-01 6.597182414242193371e-02 -8.016371384826233015e-01 -6.239835292718311222e-02 9.606344401916588893e-01 -2.707174133106929892e-01
4.847766878054671214e-02 2.953009247381050556e-02 -8.377731897343018153e-01 9.459281233056646143e-02 5.021464204015182453e-01 -8.595936088253193219e-01
1.017120681944230637e-01 1.051365135619009572e-01 -7.837469642083040311e-01 1.310243434500438786e-01 5.299209876501359551e-01 -8.378641705380350801e-01
-1.077944214917655602e-01 8.643757112111656593e-02 -8.349267286496260265e-01 -1.305083227379150168e-01 -4.276455984210627559e-01 8.944757234532569878e-01
4.261037877192768580e-02 1.470627385684548649e-01 -7.735459847825429947e-01 2.188764228552093072e-01 -8.635584997657042017e-01 -4.542684547715307164e-01
-7.762099028824170910e-02 -2.906946718983193303e-02 -8.769385006423752182e-01 8.401231224768068717e-02 5.190024344314130289e-01 -8.506341190224298021e-01
7.929629595525930497e-02 -2.853959951412238585e-02 -8.788962063143347381e-01 -5.369396040497106254e-02 -5.174905631085607860e-01 8.540026204348639682e-01
-3.439414346484142432e-02 2.955640880381277605e-02 -8.549506177605569190e-01 -9.078740789338600459e-02 -4.695947630157339403e-01 8.782018020456326957e-01
9.257148539453488589e-02 -1.575706618471979514e-02 -8.613630843234614254e-01 5.334965117731609724e-02 5.297660697773564076e-01 -8.464642497069275739e-01
-2.544598987592537956e-02 1.095636993007409049e-01 -8.108150569676404462e-01 -1.487233782514979508e-01 -4.651684673047655760e-01 8.726394752627210094e-01
-9.691420700493436763e-03 -1.200949562753171607e-01 -9.358542063220766094e-01 -9.729217760607705712e-02 -9.048815750103631483e-01 -4.143954239412310225e-01
1.938360769782552021e-02 3.577529080598004091e-02 -8.457788894706544935e-01 -9.313275009829581619e-02 -4.931685157510340423e-01 8.649341627725491977e-01
9.059364872853010661e-03 -3.103192101591188967e-01 -1.039973481711535142e+00 -9.016288543743730122e-01 -2.108120286432392798e-01 3.776555276159450636e-01
2.653265871139939142e-02 1.989028123439300355e-01 -7.504535382481948291e-01 -2.022680090757810467e-01 -4.953727856382472150e-01 8.448037971940722812e-01
3.660577121510738899e-03 4.785357769499549649e-03 -8.649384017314624140e-01 -6.434071899138577022e-02 -4.864047946537843337e-01 8.713613760188602120e-01
4.565614521652301000e-02 -1.200921292171093363e-01 -9.387068071144579751e-01 -1.579147329042847880e-01 1.135753235823634827e-01 9.808993745562946120e-01
-1.529917123774971743e-01 -6.849322896925788551e-02 -9.100431210927433234e-01 2.200760095953794432e-02 -3.946517295012164084e-01 9.185671874728079667e-01
-9.663648819048996363e-02 1.308148041947270190e-01 -8.117327343733111711e-01 -1.494243373962724220e-01 -4.383104885780532145e-01 8.863161303937513447e-01
1.123364083711076433e-01 -1.253416823680145176e-01 -9.392956984216209726e-01 -1.134730726500467711e-02 -5.384458960177346265e-01 8.425836787402735117e-01
-3.458711588033944878e-02 8.276069857022166909e-02 -8.266145366081807389e-01 -1.124777365950078989e-01 -4.670944846498391034e-01 8.770242306687799916e-01
6.145072175778337059e-02 1.167953947303474738e-01 -7.835735123975858807e-01 1.512494302127903312e-01 5.147314432180133403e-01 -8.439047050603566413e-01
4.088966557888773674e-03 1.774136408183330793e-01 -7.562996923086193757e-01 1.241104634610691732e-01 4.836462312277264308e-01 -8.664195957379399182e-01
6.471203875931999527e-02 -1.568831682149626483e-01 -9.494706567204359571e-01 -3.614606800839071515e-02 5.277564862429280357e-01 -8.486262740429680873e-01
1.205255249255972466e-01 7.658345765232221769e-02 -7.990139636423690961e-01 1.258209002519996844e-01 5.365997982439372205e-01 -8.344038336347350260e-01
9.122279272579689180e-02 1.620245662067325287e-01 -7.580575178474356912e-01 -1.848094441624197892e-01 -5.276576199813383106e-01 8.291097065069298333e-01
-5.992011326541817062e-02 -1.318017135929558936e-01 -9.320986575020520082e-01 -1.122836942360011178e-02 4.524807972276013168e-01 -8.917034551129437991e-01
-1.511072879372808708e-01 3.666365788164408293e-03 -8.708122626956538159e-01 9.054114218662946689e-02 4.028918200044784848e-01 -9.107581912588101902e-01
1.399320584352859165e-01 -8.395968871154736723e-02 -9.116324415814612836e-01 -3.557851131097664044e-02 -5.512020477749219882e-01 8.336129030081212976e-01
-3.149228149467381277e-02 -1.124209510191383765e-01 -9.306571919269747140e-01 -4.296800430379696243e-05 -4.714785706213483474e-01 8.818775173450114080e-01
4.168016928996901710e-02 1.973619056215297485e-01 -7.400911460615817727e-01 1.911445442144183438e-01 4.835884359747037453e-01 -8.541697652156755582e-01
-6.880909622866180665e-03 -3.912103684148696137e-01 -1.085951763764206435e+00 5.558204421755225111e-01 -2.522412198617357548e-01 7.921098428011547066e-01
9.481219424142059080e-03 -1.425294321207444537e-01 -9.413829311898895824e-01 -9.980010742458425010e-01 3.189418101319428656e-02 -5.455838177257636701e-02
-3.090514751139648852e-02 -4.809734148461753539e-02 -8.961869019108479328e-01 -4.302168096161062411e-02 -4.697059040745145686e-01 8.817740632638161324e-01
-7.276755532758959200e-02 6.084113287930210945e-02 -8.349883151191349606e-01 1.137486844939935154e-01 4.390574982333054210e-01 -8.912293475985837432e-01
4.502198112414128144e-03 -1.342510876598054237e-01 -9.463161025101858304e-01 -4.562814473851107833e-01 -4.337189303872856505e-01 7.769782044535467058e-01
2.874985040537042513e-03 -2.635595023735318732e-01 -1.020056338985892763e+00 1.303986102166465044e-01 -4.832530054237286765e-01 8.657151582376856336e-01
1.425400549846917927e-02 -2.829140082217433336e-02 -8.743429073734526602e-01 5.589539403102043030e-02 4.967323215635822131e-01 -8.661020180326167717e-01
-9.693417301455145574e-02 -4.992217020773078578e-02 -8.919283666268618127e-01 4.298147189096051396e-02 4.419091917725597174e-01 -8.960294968922674075e-01
-1.327491913411397439e-01 4.562409349072864273e-02 -8.572410567069959075e-01 -9.796781195075145166e-02 -4.115650639108489051e-01 9.060996115161076281e-01
7.865170449101220596e-02 6.266324261627367886e-02 -8.224242704432700446e-01 -1.142538834966123767e-01 -5.096187150298686630e-01 8.527806373254778194e-01
-8.001346292247508638e-03 -2.815410174450166947e-01 -1.026013223601138780e+00 6.661293297278003678e-01 -3.635315707114118444e-01 6.512422845396984572e-01
-9.070795380782983863e-02 8.199520325407752899e-03 -8.711550041286241219e-01 -6.944732553728297231e-02 -4.401601621462756242e-01 8.952296356997367921e-01
-4.869140936699004746e-02 -1.492239027186870737e-01 -9.413479089857331727e-01 -2.376140745681367197e-02 4.635547478167372781e-01 -8.857496211075861492e-01
-4.085881941090210856e-02 1.466497630964527787e-01 -7.969144276582369457e-01 3.290234378391521802e-02 2.485529448571920930e-01 9.680593315372477692e-01
-5.868106908527389491e-04 -8.886719295321850176e-02 -9.218209658695012410e-01 -6.329222604018909515e-02 -4.864374747375155850e-01 8.714199201842168785e-01
-5.605610446345037773e-03 9.472311240280760491e-02 -8.054565711662156069e-01 5.289643749473555978e-01 4.110810762944282493e-01 -7.424345349922563120e-01
-1.119277854445969583e-01 1.182364645790604935e-01 -8.126576611767211133e-01 1.543377436691176219e-01 4.260531432717888922e-01 -8.914362456100574095e-01
-5.771836792888644652e-02 1.549440810572128846e-01 -7.845429310400821032e-01 1.718599477627323624e-01 4.441206315401323712e-01 -8.793298715472965821e-01
-5.434797143420957294e-02 3.899635274830514503e-02 -8.520641794072695285e-01 -9.476998399655520156e-02 -4.681719548808334075e-01 8.785406483460805882e-01
-7.079267602567196338e-02 7.923601669786962953e-02 -8.296306339800387786e-01 -2.366744923883551954e-01 -9.383356239961150314e-01 -2.520147642352253414e-01
-1.532505314038425971e-02 2.343554982788348673e-01 -7.402889931096492404e-01 -1.997199825701570786e-01 -4.967922998181994454e-01 8.445764260287642600e-01
-4.333889165892683415e-02 9.879518567136399976e-02 -8.193890896630972032e-01 -1.304702181808580219e-01 -4.670259474789983378e-01 8.745651985696568653e-01
1.537473802459339220e-02 7.070716693935824582e-02 -8.263423769407804986e-01 -1.055875358810933889e-01 -4.901558960020004907e-01 8.652158516122060439e-01
2.673337365211980038e-02 -8.680829295804884382e-02 -9.160252329711111585e-01 -1.348615311484713253e-02 -4.953830525749989833e-01 8.685699481881921091e-01
-1.464079118861096387e-02 -1.065260172322424898e-01 -9.189763093670664240e-01 -3.312750675509041221e-03 4.801172643209232760e-01 -8.771980609782233929e-01
-1.133742028769289117e-01 5.392419534295012779e-02 -8.512443530921769419e-01 -1.116405037424839236e-01 -4.261808359493419185e-01 8.977228375136975247e-01
-7.211381015741454015e-02 9.776937438323676788e-02 -8.243120194234616616e-01 -1.298918460535597175e-01 -4.448107941858374659e-01 8.861554410511529589e-01
