-1.780510844468833741e-03 2.179839836644549469e-03 -7.403687026631989854e-01 9.973372533386581917e-01 -4.493320294622352162e-02 5.744049421701118152e-02
-5.865126434846904165e-03 -7.025486355662173554e-02 -7.037761371391910714e-01 9.976792639031853982e-01 3.229711247571847264e-03 6.801217054950679797e-02
7.072203523305858712e-03 -4.562130515034679840e-02 -7.416362123074552448e-01 -9.988058263921066882e-01 2.389213924930510755e-02 -4.261557047925512015e-02
-2.222604953734098627e-03 -5.433626054756974383e-02 -7.310826651501831641e-01 8.129181557100531585e-02 9.862682754026498300e-01 1.437585811541423619e-01
7.074187349434557688e-03 -1.196341743781131617e-01 -7.840040273640306312e-01 -9.985835365327725421e-01 -2.601955359195557912e-02 4.641016479798847766e-02
-2.130365641789378536e-03 5.189347271127948621e-03 -7.319399793809840959e-01 9.973372533386581917e-01 -4.493320294622352162e-02 5.744049421701118152e-02
3.711789938655738700e-03 -9.428490569399722299e-02 -7.645498599533281370e-01 -9.996799129684088570e-01 1.237229541187500302e-02 -2.206802922137910197e-02
2.261404739433021255e-02 2.122763467871234266e-01 -7.114245214662205941e-01 -9.825771073301133862e-01 1.261276255171391303e-01 -1.365065940978501535e-01
8.972312632096345400e-03 7.374619548582464490e-02 -8.326805471852302132e-01 9.910217896530615356e-01 -1.227377480293580375e-01 5.302129422717755114e-02
-4.097900910744712091e-03 -1.393994715082904068e-01 -8.212803198382073733e-01 9.997540217707603372e-01 -9.736287249829523108e-03 -1.992738477017786183e-02
-7.419588476550044616e-03 -6.787875622426498001e-02 -6.022084917050604114e-01 -9.921346113225950614e-01 -2.927691239776042398e-02 -1.217036376457870106e-01
2.750456540409350163e-03 -1.739883303073158916e-01 -8.372481723743512294e-01 -9.882516081316480294e-01 7.937017273354159130e-02 1.306106224832402352e-01
-4.544350770843010902e-03 -6.170255323097679351e-02 -7.271037893349016068e-01 9.991856807843069177e-01 -1.336369405163454968e-02 3.807081555332288147e-02
-4.785868746655321426e-04 4.398741297117087293e-03 -6.646797619418609582e-01 -9.941254370033173471e-01 2.252388797573839571e-02 -1.058644887269558216e-01
1.456030927281384141e-02 2.168020438879096345e-01 -6.970182002217808481e-01 9.789537553359746180e-01 -1.452685310675760066e-01 1.433408483128989497e-01
-4.590765950632594468e-03 -1.529380880937978859e-01 -6.991845682288110320e-01 9.988042889728639961e-01 4.040568993012817051e-02 2.752040244404365885e-02
-1.432218193359027433e-02 1.760464805365094809e-01 -5.572572345496339397e-01 9.777733808994177878e-01 -8.521649478173184966e-02 1.915655622016576021e-01
-7.402893796402428180e-03 1.172719885661000355e-01 -6.476389881636547274e-01 9.954420771745448038e-01 -4.663790636536229578e-02 8.318639720701458129e-02
-4.044771000388513316e-05 -1.799076916279984673e-01 -8.523242817832320517e-01 -9.825054586460196804e-01 5.857972019365075000e-02 1.767807685038390586e-01
-3.803813551904959740e-03 -1.669977259098599232e-01 -7.064663072838643920e-01 9.983684666728834811e-01 4.897288141667379552e-02 2.936088620910436500e-02
3.889111735150926029e-03 -1.642363013988425158e-01 -8.041849589695670986e-01 -9.996492455266789978e-01 -1.295133451026854454e-02 2.310084094452993092e-02
-2.489158473648951653e-03 -5.874254843138899951e-02 -8.760631181155050795e-01 9.979987000981092038e-01 -5.998795955702360128e-02 -2.000098274258443887e-02
-7.759145360144933251e-03 1.068747990785478968e-01 -6.474823243959070274e-01 9.024915120103569333e-01 2.140109518413709222e-01 -3.737758462517474234e-01
4.652021867381801040e-04 3.296577330158098618e-02 -6.641210642519517204e-01 -9.926238914517120371e-01 4.134729558559418344e-02 -1.139658337705534985e-01
1.466507134010482626e-02 1.027381227486311027e-01 -7.309664652772671634e-01 -7.804752606400539028e-01 -3.881401201778630350e-01 -4.901077581891086776e-01
9.807054206858055369e-04 1.490847968026678683e-01 -6.149823082828682619e-01 -9.829609629623844436e-01 7.340021580491942754e-02 -1.685234512222358594e-01
-1.068951760220520145e-02 -6.031437132788905475e-02 -5.777309824093780355e-01 -9.912111943670743885e-01 -1.967763371620730173e-02 -1.308172729142781932e-01
3.116474204715034575e-03 1.043838237816473447e-01 -6.520848184678305071e-01 -9.876613901603720214e-01 7.444106294363736498e-02 -1.377806464431884370e-01
6.380208436029976941e-03 -2.099070134947960201e-02 -7.805338139583556378e-01 -9.979941036685786582e-01 5.487679333579571772e-02 -3.156432473427304292e-02
-2.492107433793325222e-02 4.220787549317965570e-02 -5.329933510257883755e-01 9.880129181139842842e-01 -5.371349772821539491e-03 1.542777438307538496e-01
-5.379722243740975296e-03 -3.497995075820113930e-01 -9.031815843011949951e-01 7.534419348253847959e-01 3.215446593354082117e-01 -5.735279268697008881e-01
-1.318866351433465797e-02 8.939441970905818990e-02 -5.546422795119380078e-01 -9.844155851539532209e-01 3.738307074546295961e-02 -1.718384756905140531e-01
1.141650499777196494e-02 1.217655661377463061e-01 -7.802579697751721444e-01 9.900224177509472367e-01 -1.183465009033652093e-01 7.648344967703055164e-02
9.693401020987037556e-03 3.011835578761852192e-02 -7.824785387911437073e-01 -9.962921974803002900e-01 7.004796268557877958e-02 -4.995137799374400195e-02
-8.225910535820224467e-03 -6.796984448770999887e-02 -6.698070118228579561e-01 9.975076609439387232e-01 -3.079615218833856374e-03 7.049100884691693325e-02
5.097951834191819659e-03 -2.949030415393490978e-01 -8.881359338676673154e-01 -7.390459292843503114e-01 -3.294379020579827899e-01 5.876068269649917797e-01
-3.769434081806713206e-03 -5.469400134938959962e-02 -6.375385396835194785e-01 -9.941675001109825383e-01 -1.771320371430414736e-02 -1.063824428054518240e-01
6.888166629616926558e-03 -2.198375010717092404e-01 -8.112290455351879315e-01 -9.939781878163794770e-01 -8.285803798160870648e-02 7.170709649054636536e-02
-1.054780154128649554e-02 1.274865315086128326e-01 -6.201794284150288217e-01 9.831780344935444615e-01 3.269494601777084286e-02 1.796997300896854277e-01
-1.477199130452215396e-02 7.388627354527174673e-02 -5.918413454493700598e-01 9.890141222311913394e-01 -3.111434373458984645e-02 1.445093894569911275e-01
-3.630409528725519336e-03 2.622202328110428970e-02 -6.310101834162296086e-01 -9.931810054646420527e-01 2.509498477616699946e-02 -1.138496030881383514e-01
-1.871357121997357931e-02 3.189267993311576538e-02 -5.326943255397563748e-01 -9.692361781539864385e-01 2.241072846832515078e-02 -2.451101593303973980e-01
3.088119760440770530e-03 -1.387647563784375482e-01 -7.240721023195049177e-01 -9.988090409043567375e-01 -3.458397585466833207e-02 -3.441581644829413977e-02
-1.713327938766733352e-02 8.034018604740416139e-03 -5.861049610161446211e-01 9.902435875913857544e-01 -3.087979962909294211e-03 1.393129628350866511e-01
-8.492211887713624341e-03 1.899883826924981395e-02 -5.962019165807295185e-01 -9.891677709386968997e-01 2.557766737378699713e-03 -1.467670901990177079e-01
-2.405591953079625096e-03 1.116813666155277718e-01 -6.608725987436462335e-01 9.917909802218990434e-01 -6.467019362935864935e-02 1.103105507484459374e-01
1.155622031255204053e-02 1.063776242459341936e-01 -8.073494174283510905e-01 9.891912095968636853e-01 -1.314732488072164196e-01 6.492715690964093178e-02
-7.411503101931553317e-03 3.605020288474750090e-02 -6.575200832978151944e-01 9.932551807837537439e-01 -3.881985975126851091e-02 1.092573308072488786e-01
2.962784285822939526e-03 1.885907479352938731e-01 -6.061466944527086342e-01 -9.790932801530701779e-01 9.078503425188116926e-02 -1.820286414688257470e-01
-5.513512058550289327e-04 6.347520873266043751e-02 -6.438965793298506712e-01 -9.898894154042415794e-01 5.108838905104888528e-02 -1.323212823956054773e-01
-2.949778948488492730e-03 -1.712290306431525633e-01 -7.475578515016622072e-01 9.993236940322152151e-01 3.676365142710097400e-02 -7.671242104052697006e-04
-2.438133218039355982e-03 -1.998030218260616331e-01 -8.133019303930917321e-01 9.960045432970968671e-01 8.525138350920809238e-02 -2.659231733616854165e-02
2.542250792993788928e-03 1.054548338068518783e-02 -6.946412611975129048e-01 -9.945420454708089331e-01 4.401988648748784982e-02 -9.459582117814797908e-02
-7.874605847705540979e-03 -3.522755259300492381e-01 -9.156860571471081567e-01 9.929460808738304056e-01 6.209033245048712485e-02 -1.010092624143374973e-01
3.346245392826961360e-03 -1.272914541104331887e-01 -8.254152627404122144e-01 -9.997048234819058132e-01 8.389801972798221000e-03 2.280081423697684351e-02
-1.624475885162249278e-02 1.264858391489591671e-01 -5.319914897453408287e-01 -9.714773092111705921e-01 4.025110697657161701e-02 -2.336914334651236103e-01
-3.671958966275384482e-04 5.554757613128452620e-02 -6.627627795377135644e-01 -1.274312319848759367e-01 -9.448069322579032425e-01 -3.018296570455372696e-01
-9.987744295148379484e-03 4.258049606666542385e-03 -6.436517343627600196e-01 9.931684364734626458e-01 -2.524338731210047995e-02 1.139264156807754114e-01
-1.436435252527034495e-02 -7.542162896969557828e-02 -6.343775143442931252e-01 7.110774328405528033e-01 6.661451879958816269e-01 2.249877174754671694e-01
-8.898404634089095849e-03 -1.767033045094899835e-01 -8.621732012522086430e-01 9.798280111620033539e-01 -3.972358906150185581e-02 -1.958548059517209450e-01
5.774999893604231688e-03 -4.952605886610295799e-02 -8.300625031642696605e-01 -9.984999836096217773e-01 5.474447262503605999e-02 9.085420143138786715e-04
-6.798611305592719943e-03 1.349525397893183432e-01 -6.418190156813415870e-01 9.858953441369024961e-01 -8.184561671923962223e-02 1.459851548378323649e-01
-4.692885214186820128e-03 -1.516223379206384503e-01 -8.406548594274579900e-01 9.994819245953364684e-01 1.915466877652907381e-03 -3.212807796683005146e-02
2.565491151022399486e-03 3.518185260772911660e-02 -7.797791717583577586e-01 9.963613730336572383e-01 -6.718010576288573066e-02 5.244852444228476074e-02
-1.008613155657431823e-03 -3.885388753491566399e-02 -8.670933101747611005e-01 9.971724457541363273e-01 -7.415541308216437588e-02 -1.216914702548341741e-02
-3.602693499430119784e-03 -1.486676988735901594e-01 -7.978052054351925104e-01 9.996492455266789978e-01 1.295133451026855842e-02 -2.310084094452995868e-02
1.766835390267256954e-04 2.012563940199103840e-01 -6.212304771695558170e-01 9.763416316642791193e-01 -1.146895241768418339e-01 1.833121145020777110e-01
-5.393362947966767219e-03 5.064553833636152580e-02 -6.696676048770959788e-01 9.903515490692079704e-01 -6.204615801793477575e-02 1.239115956294391668e-01
2.373412416024602446e-03 -1.707385250978687707e-01 -6.740065271735166119e-01 -9.970846337507991430e-01 -4.207031346746855499e-02 -6.365784996984776012e-02
-5.267335517598188861e-03 1.049996723848113378e-01 -5.959653006879301884e-01 -9.828668125914217235e-01 6.341320257160046325e-02 -1.730652895470146391e-01
7.249497343845954893e-03 2.229580265637109981e-01 -5.941172666943709268e-01 -9.847376119129395144e-01 6.780234269525596547e-02 -1.602955957256347597e-01
-3.277447060376032038e-03 1.946430204963618960e-01 -5.717087558468373354e-01 -9.747395114962029705e-01 7.422797654463933470e-02 -2.106492160589068241e-01
1.573316505023263437e-02 1.548548388461317704e-01 -7.794540380214848296e-01 9.881680240488390776e-01 -1.314893494634884752e-01 7.895889579446681295e-02
-7.689169063310105461e-03 6.849416166995164756e-02 -5.921217687842578181e-01 -9.890136952314506624e-01 3.109951316354244572e-02 -1.445155041011926267e-01
-7.486082708217269358e-03 -1.129828964017587783e-01 -6.682574281359655588e-01 9.981199008068688538e-01 2.915683545020009843e-02 5.391235999115853023e-02
5.453255422515187502e-03 -5.378163310053996754e-02 -8.506018423974943676e-01 -9.980104836087326792e-01 6.112615774038469146e-02 1.544886555579700997e-02
-4.641811510897358301e-03 -1.106556929270007122e-01 -8.610084851064574440e-01 9.990194620627076416e-01 -3.556218915049917662e-02 -2.637129353601066345e-02
2.354987106312652484e-03 -1.294532945388809086e-01 -7.082061876504756048e-01 -9.993367760019249424e-01 -1.972523824703640433e-02 -3.060919969838940199e-02
-3.670211402377750957e-03 -1.907815879354951560e-01 -8.220251299690919389e-01 9.976890984755125702e-01 1.280844401417420564e-02 -6.672635570038890074e-02
4.722693581760171316e-03 1.511013049443043210e-01 -6.241066022946618608e-01 -8.344524924382392683e-01 2.598806385702587263e-01 -4.859537957048227774e-01
1.845573876395636970e-02 1.474399992170079832e-01 -7.450755984405637022e-01 -9.883185970159796829e-01 1.170187244025196055e-01 -9.763692401736540072e-02
9.861989896222776372e-03 1.110108237163922318e-01 -7.771734244310940509e-01 9.893789543399895692e-01 -1.210831329730887307e-01 8.042486940325174749e-02
-8.406653741985141773e-03 -1.561060755336338979e-01 -6.849430905889065668e-01 9.995393786701993744e-01 -2.604403957508711134e-02 1.558006707953729642e-02
3.039566915169230818e-03 -1.041014175905356359e-01 -7.400464101548714924e-01 -9.994413438012366147e-01 -5.957005356804655725e-03 -3.288638605802465115e-02
-2.081471070170861498e-02 -4.259302515110099246e-02 -5.529511188569600222e-01 9.943456094604925521e-01 4.346581797857914514e-02 9.688927502099836664e-02
7.098016176499464744e-03 -2.367632264565525113e-02 -7.303502310922707075e-01 -9.999332072709228303e-01 5.652080512393158583e-03 -1.008141769629609941e-02
1.669569363109405305e-02 1.472940951049454550e-01 -8.017520060637084445e-01 9.855770793436515742e-01 -1.446152368339506666e-01 8.788773491163472118e-02
-6.519914911971673444e-03 1.563241615062644085e-01 -6.090931474964194070e-01 9.789404527000106215e-01 -9.409614786701706035e-02 1.811670638501561570e-01
-6.069659099333660907e-03 -7.191746399091886177e-02 -6.588288484037485571e-01 9.440923554305744037e-02 9.645756293374682100e-01 2.463346332378023584e-01
9.528549441453832564e-03 8.587657826760704272e-02 -8.149968395210539507e-01 9.910217896530615356e-01 -1.227377480293580375e-01 5.302129422717755114e-02
-1.311094270148965846e-02 7.071145451170009200e-02 -6.035409723948654825e-01 9.867300820584925525e-01 -4.958916729061987883e-02 1.546113179824283590e-01
9.721102151088314514e-04 -2.115185907483032590e-01 -7.247254887068788065e-01 8.865689216816017293e-01 4.543653640314503361e-01 -8.687728746277305347e-02
-1.022453174138400304e-02 -6.032370838243224925e-02 -6.459105859083463796e-01 9.959408214843721296e-01 6.647116558847981568e-03 8.976466978988509315e-02
-5.864033178158641751e-03 -3.102122464044882455e-01 -8.816234845773558426e-01 7.534419348253847959e-01 3.215446593354082117e-01 -5.735279268697008881e-01
-3.750603146100829274e-03 1.337407397793690944e-01 -6.383322968053339874e-01 9.822784315164853064e-01 -9.165779515821391443e-02 1.634867932410699054e-01
2.350247057484310120e-02 1.790783620629097517e-01 -7.555366218725625416e-01 -9.883989455143057379e-01 1.246446425546311465e-01 -8.678270328029880076e-02
-6.237856511546984416e-03 -8.540365279569737955e-02 -7.685391806240430279e-01 8.763618180205957620e-01 -2.381031460961429702e-01 4.186846733936588905e-01
-3.494496420503858010e-03 -1.508771918617474173e-01 -7.596379829555282015e-01 9.998089104445446740e-01 1.869332111552264239e-02 5.718596100823202487e-03
1.023288760312165459e-02 1.864050506746246505e-01 -6.961267456826983890e-01 9.822013292997163747e-01 -1.329949438797116690e-01 1.326382057489554900e-01
-2.221252848771787872e-02 1.247739664371565367e-02 -5.612145242877136786e-01 6.849961426769671791e-01 6.615644638108455489e-01 3.051438099328651621e-01
-1.487554023548718490e-02 -4.615274390464257220e-02 -6.017252777439063838e-01 9.941391638805437969e-01 1.892240101169707575e-02 1.064390228198566768e-01
-3.548437769035958384e-03 -1.029933093964240237e-01 -8.154309376534234488e-01 9.998073078302199823e-01 -1.450251181709707148e-02 -1.322967725542502707e-02
-7.130697780227919676e-03 1.759906990383701686e-01 -5.602930206326016682e-01 -9.740324855833294437e-01 5.882966587507618139e-02 -2.186316249799832023e-01
2.034972265763604002e-02 1.225857560680386760e-01 -8.059869608292681287e-01 -9.896494047165766972e-01 1.269100073200013779e-01 -6.699183372742383014e-02
5.228941803803238350e-03 -1.946429588676540090e-01 -7.331595367066569002e-01 -9.990257072919259684e-01 -4.084021902233082174e-02 -1.672461300224570985e-02
-7.392005430831852936e-03 -1.362946636891652630e-01 -7.667534881074835607e-01 9.989586763190708707e-01 -4.390646138845009927e-02 -1.240103444048661248e-02
1.376932446935668318e-02 5.106114086293177950e-02 -8.460627422032467315e-01 -9.937515190584902403e-01 1.085698643719358453e-01 -2.589407112067148437e-02
-1.194398332162917558e-03 1.979962275541896077e-01 -6.159167697085135007e-01 9.773796920169811608e-01 -1.123053996431846030e-01 1.792105879789910317e-01
1.034923839910852246e-02 5.652480637946997316e-02 -7.586974406487511091e-01 -9.951769620455589438e-01 7.313411562848244618e-02 -6.537748347108350566e-02
-2.491266398268000837e-03 1.660323780165288143e-01 -5.876452264852062291e-01 -9.795696954056037908e-01 8.112990046248949594e-02 -1.840139970054422425e-01
-1.004964805157683265e-03 9.452891877095939005e-03 -7.461761612643578179e-01 9.964425025481392639e-01 -5.719648281643531507e-02 6.189427654501310910e-02
-3.737294138971676127e-03 -1.723675657647161241e-01 -6.997714941660206911e-01 9.983684666728834811e-01 4.897288141667379552e-02 2.936088620910436500e-02
4.266144500711390244e-03 -8.874423812892026642e-02 -8.027961068120682553e-01 -9.996414505472699386e-01 2.659495194580410379e-02 -3.111089640394224237e-03
-3.584574037291223588e-03 -7.179220209165917965e-02 -7.550701419736639552e-01 9.996799129684089680e-01 -1.237229541187502037e-02 2.206802922137914014e-02
3.855790018705729238e-03 -5.520863865966271072e-02 -7.208708699414750898e-01 -7.712756215110689872e-01 6.281423846259307497e-01 1.028156617406283252e-01
-1.189180743995895545e-02 -1.194949588608861940e-01 -6.046443174100097906e-01 9.952724720354025889e-01 8.876062561020582609e-02 3.942407576372339295e-02
6.823339263530612576e-03 2.071751129324331600e-02 -7.444685383110730692e-01 -9.969375158150007854e-01 5.415745727452814240e-02 -5.641417713813576262e-02
1.009851713674414855e-02 1.141350406193907818e-01 -7.753795154341245333e-01 9.893789543399895692e-01 -1.210831329730887307e-01 8.042486940325174749e-02
1.617157189126468969e-02 1.373834131830294625e-01 -8.129553675217519038e-01 9.852830814930508829e-01 -1.484502771723047732e-01 8.473349120049362970e-02
1.764214368640682276e-02 1.727870287577217556e-01 -7.717654356171731456e-01 9.844261392266040467e-01 -1.469250228793345936e-01 9.653089691549433804e-02
3.408145327159642704e-03 -1.390955570398298147e-01 -8.170817497974729449e-01 -9.997551883056420285e-01 9.771959727222220143e-03 1.985125333675262158e-02
-1.690939473602664708e-02 9.591453346261204216e-02 -5.721922561448706812e-01 9.841870209796310665e-01 -4.681033623595332038e-02 1.708353012603545384e-01
1.702240017318507395e-02 1.704444431955994543e-01 -7.695174689561249393e-01 9.802573604294975151e-01 -1.555831217015855583e-01 1.220221273596882594e-01
-8.159887926728589050e-03 1.240990670533574924e-01 -5.729441777365067434e-01 -9.822359728892710029e-01 5.397756448540996788e-02 -1.797189920250244211e-01
-2.206784389624047264e-03 -1.887201118354250862e-01 -7.389937884632211684e-01 9.986473189432454323e-01 5.188435893226929496e-02 -3.397891354259640392e-03
-4.705591036593765632e-03 8.843653810142380889e-02 -6.051362681515072284e-01 -9.861757867728323523e-01 5.358084244102619131e-02 -1.568005449808611007e-01
-5.064877219033533245e-03 -3.492927335550409778e-03 -6.973948501506669340e-01 9.959888598243838986e-01 -3.672287320559403101e-02 8.159425034430818624e-02
1.525977117771182593e-04 -2.082028745543640647e-01 -7.151373611547967579e-01 9.627060171031176505e-01 2.698134720509934303e-01 1.994529852470644862e-02
1.942799047390068867e-02 2.242669386501077167e-01 -7.181911842068728902e-01 9.067340449470320252e-01 -3.596574460124920547e-01 2.201815007255719936e-01
-1.034759549673774058e-02 -1.135946179365602687e-01 -6.283919803228888989e-01 9.954021656395518614e-01 4.924269167939882702e-02 8.215647239419331116e-02
3.277725858587020921e-03 -1.484018774891659176e-01 -7.198906039965152770e-01 -9.988090409043567375e-01 -3.458397585466833207e-02 -3.441581644829413977e-02
-6.554701971760112933e-03 2.223117602006744187e-01 -5.830372361839016859e-01 8.290270075636921865e-01 -3.056754247449537942e-01 -4.682699599984840866e-01
9.149550408414641733e-03 6.469326737555801399e-02 -8.617909770789754509e-01 9.894272081456699786e-01 -1.329637521616479634e-01 5.791753095705137744e-02
3.932075301315407674e-03 -6.124950982933955596e-02 -7.536544385036443305e-01 -9.991030425196880671e-01 2.070806491125886523e-02 -3.693624880159734891e-02
-3.905591889931124810e-03 -1.712336348227756766e-01 -8.707154632306175479e-01 -9.211283438385032829e-01 1.088505769113261301e-01 3.737300176376089911e-01
4.570937118340271353e-03 -2.081749997826057574e-01 -7.100248346059573334e-01 -1.429994233697789718e-01 9.242291953804937510e-01 -3.540502214689828508e-01
4.049286824806516520e-03 6.789463855777309875e-02 -7.068820899938296209e-01 -1.067719693864721264e-01 7.416330664998651567e-01 6.622538344376275310e-01
8.773167241302325461e-03 2.202278776056306731e-01 -6.576030777175220221e-01 9.776367589308059269e-01 -1.279267952668825814e-01 1.669164540721322643e-01
1.384839004034060621e-02 1.798561871785912814e-01 -6.774191087823450141e-01 -9.834465294386560696e-01 1.161191267318670700e-01 -1.391016611766053568e-01
-2.136145177646452467e-02 3.006414332206874124e-02 -5.562854038102211796e-01 9.879184300130722240e-01 -1.476861872069409366e-02 1.542694510964155996e-01
1.069293567549826169e-03 2.360836464483969874e-02 -7.665916978512420377e-01 9.956819744841973741e-01 -7.119862880830013507e-02 5.956644141685644295e-02
1.040875172640628316e-02 1.971793612056866873e-01 -6.431782557470641093e-01 -9.799516592441372964e-01 1.091077245994354211e-01 -1.667040790664586491e-01
1.630768005050671834e-02 8.372050370938151354e-02 -8.154551571182617753e-01 -9.926132621893543062e-01 1.149024491627391731e-01 -3.894019648399536099e-02
-6.969704997143152947e-03 -2.620639998255940850e-01 -8.688631646879740877e-01 9.407594817337620041e-01 -1.658178510414647366e-01 2.957634828778127334e-01
-2.393515824200923795e-03 -6.263910040981658656e-02 -7.979744716632328760e-01 9.992673004816139404e-01 -3.354670991336897862e-02 1.842499503869589328e-02
-6.400868513610648465e-03 -7.066778773766653476e-02 -6.958976591502423759e-01 9.976792639031853982e-01 3.229711247571847264e-03 6.801217054950679797e-02
7.148309639022676180e-03 9.052226465243941311e-02 -6.666379864077472961e-01 -9.972018056102913697e-01 3.655829351203467026e-02 -6.520774542232427029e-02
-6.264473546066602963e-03 -1.123628155713581184e-01 -7.837419250095803980e-01 8.851620597492105835e-01 -2.333747160577373803e-01 4.025225085451809015e-01
-1.282931273021828238e-02 7.510894538585087543e-02 -6.039279094886444987e-01 9.867300820584925525e-01 -4.958916729061987883e-02 1.546113179824283590e-01
-5.392309074825206439e-03 -1.341970503998343445e-01 -6.069216130953724031e-01 -9.670125640317314142e-01 7.677508968553721502e-02 -2.428832777458225511e-01
1.950768092020554664e-02 2.374173609231063908e-01 -6.716215998678678467e-01 -9.858260090892616567e-01 6.476080010928918218e-02 -1.547679507273506949e-01
6.731838963397414333e-03 -3.276813772151587756e-02 -8.349438062515694980e-01 -9.978352633985080322e-01 6.565450006461814869e-02 -3.778060308520144080e-03
1.505087126432584806e-02 2.213070517785553915e-01 -6.958294020037995020e-01 9.778450470689586949e-01 -1.443775936567031348e-01 1.515723403943001757e-01
-2.354866140961582588e-02 4.439140894782253599e-02 -5.414148300251867552e-01 9.867781437317831861e-01 -1.144136194537080306e-02 1.616724784559551154e-01
4.241007177645539535e-03 5.334139565124041554e-02 -7.807662452751266136e-01 9.944691312316805698e-01 -8.996455731187666394e-02 5.419894330136641042e-02
1.821352401618084316e-02 1.508795928558495647e-01 -8.114549960377541726e-01 9.808517669385965476e-01 -1.678360207608026455e-01 9.879717318128414250e-02
-2.315698302389451041e-02 -1.652312810770308407e-02 -5.411132378417562450e-01 9.916762466301407564e-01 3.004939251227163946e-02 1.252008621344100070e-01
1.123119545987934058e-02 2.700381336900152529e-02 -8.309362715977955949e-01 -9.957614557944916012e-01 9.010936482816304938e-02 -1.842350466929853700e-02
-4.726070473221083597e-03 -1.318895127006709522e-01 -8.484032824341944945e-01 9.990910703140755134e-01 -2.219216553540199338e-02 -3.639424415376798366e-02
-2.317603101657228840e-02 1.132646951548626491e-01 -5.478640231583561393e-01 5.369012400076028646e-01 -8.283828344917650854e-01 -1.597464803921744836e-01
7.291956063197167597e-03 5.120051550479028102e-02 -7.243561364835232608e-01 -9.925915907348287215e-01 7.584327243567730303e-02 -9.491960824165825150e-02
4.172501976573285247e-03 1.274472833123371784e-01 -6.468989541895406870e-01 -9.876615254682680201e-01 7.865963972679308747e-02 -1.354155537142792132e-01
2.620868644201447117e-03 2.941003962338777783e-02 -7.882241567523218251e-01 9.963613730336572383e-01 -6.718010576288573066e-02 5.244852444228476074e-02
-1.672806329050582479e-05 -1.271190751238783223e-01 -6.649051193325913323e-01 -9.972918822670064909e-01 -3.721382985580686670e-02 -6.343526173820286662e-02
4.223258800853754540e-03 -7.395647453216781797e-02 -8.604116112828693597e-01 -9.989563297435127831e-01 4.010389225028259536e-02 2.186158941495038727e-02
2.392394154533912520e-02 1.878944710041831334e-01 -7.488239122895160582e-01 -9.869147164295193342e-01 1.244369900902072279e-01 -1.025415915232994468e-01
4.340878132778860227e-03 -5.409800153559865543e-02 -7.596370532996876701e-01 -9.988719718562351080e-01 2.900509119389185417e-02 -3.759638978506375101e-02
-1.850010213340190154e-02 8.796344599451584589e-02 -5.282152023814370434e-01 -9.762242296113006201e-01 2.919260018050334748e-02 -2.147883740208580972e-01
-2.917885272758264162e-03 3.911219088749037093e-02 -7.000474926289814714e-01 9.945919522802817436e-01 -5.345738452950681008e-02 8.904581123535453002e-02
-4.568452320111082363e-03 -1.235973319646266749e-01 -7.256858514473849553e-01 9.991816792652210566e-01 1.485907360067449320e-02 3.761887494945236748e-02
1.330331459896569660e-02 1.922729144031733173e-01 -6.644183271735651930e-01 -9.812714960551975896e-01 1.147019625783758379e-01 -1.547569410729712769e-01
-5.981801227033148489e-03 -9.837306906886961189e-02 -7.003022778988039487e-01 9.988461660761198679e-01 1.377910574406387804e-02 4.600513840790568243e-02
-2.949193804180592904e-03 8.588502779653540975e-02 -6.713086193623953868e-01 9.900388980244065884e-01 -6.885262071264368344e-02 1.228100037440735814e-01
1.523316304813707514e-03 -2.512815230304984992e-02 -6.956514986206737694e-01 -9.965112888551478365e-01 2.255231590832395411e-02 -8.035324655185407949e-02
3.429744996122556597e-03 -7.375137982267038206e-02 -8.820695468417211194e-01 -9.972472213210670233e-01 6.377844086913223021e-02 3.781917566147112442e-02
-2.583835431311308755e-03 1.701677404253719994e-01 -5.854549280395645594e-01 -9.788189973581283843e-01 7.346414424435299129e-02 -1.910926213156144138e-01
4.023228071837254248e-03 -1.667317940176403779e-01 -7.256664909563272925e-01 -9.992180959072478608e-01 -3.436197040111458462e-02 -1.955637496181614893e-02
-6.881972115189048493e-03 -1.823903310069328043e-01 -8.495117252534274410e-01 9.850260292514793070e-01 -4.485214806550750360e-02 -1.664692359295665558e-01
4.612643898554997374e-03 -9.592636715808781694e-04 -7.936301763453930125e-01 -1.158917581458102503e-01 7.050831242756558925e-01 6.995905146981001854e-01
-2.590176098200440424e-03 -1.591955806128990750e-02 -7.405659272748599253e-01 9.960080189205606782e-01 -5.295841184744800451e-02 7.185703069663024189e-02
-6.837779155253405176e-03 -9.015514136616144258e-02 -8.273044462442753488e-01 9.902875577416223596e-01 -1.118856848207229471e-01 -8.253572871387844512e-02
3.733738030495689642e-03 2.985520766628078915e-02 -6.982318357223198380e-01 -9.957241243922673180e-01 4.517506480991821671e-02 -8.057717805106046072e-02
-8.129665616631160524e-03 -6.740264248439707673e-02 -5.965344380737319652e-01 -9.921346113225950614e-01 -2.927691239776042398e-02 -1.217036376457870106e-01
-2.245159556641246161e-03 -5.357625517548521982e-02 -8.926944487473206236e-01 9.974447715644763068e-01 -7.077389980355718035e-02 9.745911208593669578e-03
4.345100600135911630e-03 4.990481888821678841e-02 -7.883805598253186275e-01 9.944691312316805698e-01 -8.996455731187666394e-02 5.419894330136641042e-02
1.250695155708039449e-02 1.997434681136733003e-01 -6.538340869965596491e-01 -9.799516592441372964e-01 1.091077245994354211e-01 -1.667040790664586491e-01
1.290222748045156444e-02 2.317337969650345164e-01 -6.721375769265808264e-01 9.747389610670494919e-01 -1.544697345061975258e-01 1.613166417314521872e-01
1.303129456372698579e-02 1.061970133786698661e-01 -7.369901232374965749e-01 -9.916164189261700290e-01 8.934764865427731462e-02 -9.334814082771061838e-02
1.210417693705866105e-02 3.279724038315121742e-02 -8.616442937763543197e-01 -9.956837908570408402e-01 9.270845127295372634e-02 4.351055862998776981e-03
2.225165165068669626e-02 1.528567689965694698e-01 -7.790857132966632070e-01 -9.900515425715334938e-01 1.209474346466148098e-01 -7.190035538250101610e-02
-1.736550498702282147e-02 -4.972464594503271489e-03 -5.847425885041636073e-01 9.902435875913857544e-01 -3.087979962909294211e-03 1.393129628350866511e-01
6.633024097571547581e-03 -7.483030457725825535e-02 -7.535258317211268597e-01 -9.933443371308641190e-01 5.312355724365331461e-02 -1.022003696462222139e-01
1.649446373954756859e-04 5.275361513402904851e-02 -7.245799632012791536e-01 9.941570418458798297e-01 -6.639621962496000673e-02 8.510768571500300361e-02
1.977562126584798269e-02 1.479434329918766777e-01 -7.578325882461582896e-01 -9.883185970159796829e-01 1.170187244025196055e-01 -9.763692401736540072e-02
1.150254346489102244e-03 -8.918049847226842963e-02 -6.982241434717542106e-01 -9.977070810999770778e-01 -2.185503867295021316e-02 -6.405417712817487730e-02
3.794691623799373911e-03 -1.285928854760647333e-01 -7.820223162982304910e-01 -9.999635864830738186e-01 6.601253267522727130e-04 -8.508227927183351080e-03
-3.717242687155603627e-03 -1.401348982811219945e-01 -7.558093232004363671e-01 9.998089104445446740e-01 1.869332111552264239e-02 5.718596100823202487e-03
1.074918807721044617e-02 2.044353239216387119e-01 -6.404303074758362913e-01 -9.799514224707702725e-01 1.091115118831546549e-01 -1.667029920909821883e-01
3.714899428861870301e-03 -1.860641996337343562e-01 -8.201522162550227701e-01 -9.980699928100456031e-01 -2.667299566956813847e-02 5.607887975135255471e-02
2.313459097019230726e-04 -1.089578233224109960e-01 -7.871431179490507857e-01 -7.475666450273690811e-02 -4.876621575177073620e-01 8.698258798389478796e-01
1.560274863353941846e-02 1.089526234516288994e-01 -7.373802804964783020e-01 -7.803753791370990900e-01 -3.828673543343461549e-01 -4.943954455915295920e-01
1.758195541674770950e-03 -2.472378706173343765e-01 -8.430596858724447307e-01 -4.178414588942079289e-01 4.413306306760448883e-01 -7.941258021599879591e-01
5.818548067953137684e-03 5.362510362748607040e-02 -6.748061567893482993e-01 -9.924765035823585047e-01 1.558546021217718238e-04 -1.224351483287356573e-01
3.286803087624018318e-03 -4.364205475356788821e-02 -7.298366865404199988e-01 -9.986803516533304670e-01 2.511520804680812680e-02 -4.479711537973881524e-02
6.096724878684997573e-03 -2.070112025387337851e-01 -8.051397917689002703e-01 -9.926885120143338348e-01 -1.203672328307853617e-01 9.013732602386782811e-03
1.591701490030206570e-02 1.888778744390930131e-01 -7.070320777699492520e-01 -8.682778443127499302e-02 7.492113533343608411e-01 6.566150195401041501e-01
4.600614750508585232e-03 -5.461963986607586835e-02 -8.591440898497255674e-01 -2.661366754231381804e-01 -6.952458823384822795e-01 -6.676858790524961007e-01
-7.580768893573596942e-03 -2.179693266124188289e-01 -8.412432285072554139e-01 9.411745644300365532e-01 -1.700854942441749618e-01 2.919954861254634992e-01
-4.505863351813991710e-03 2.096988400763189278e-02 -6.926658169990559388e-01 9.954981319438287457e-01 -4.362984773001215427e-02 8.414217541401868006e-02
-3.454682250492166224e-03 1.890267528070290349e-03 -7.153273954687323632e-01 9.971227133173998780e-01 -3.707062795665477806e-02 6.612157839499512024e-02
-3.858678410870651238e-03 -9.416945734497926546e-02 -8.540482547638263977e-01 9.989835018448980364e-01 -3.608693364482463972e-02 -2.701289066017702190e-02
7.246573604385889503e-03 8.856504276781677898e-02 -6.957217354925974151e-01 -9.899199386836796677e-01 8.607537318076831367e-02 -1.124701966224451177e-01
7.255558805568527309e-03 -9.167778154193352569e-02 -8.329649371613969677e-01 -9.960356159566579048e-01 7.013762364881552525e-02 5.471531316494444158e-02
-3.158847863801497128e-03 3.068295743909995113e-02 -7.024517307520853349e-01 9.957241243922673180e-01 -4.517506480991821671e-02 8.057717805106046072e-02
-9.383100881978957003e-03 1.675529948565413207e-01 -5.876552951909430611e-01 9.808063523785741644e-01 -8.093575902871036343e-02 1.773930721428612911e-01
-1.508204544688724301e-02 4.465274951031813350e-02 -5.515096193500141908e-01 -9.857377465797220184e-01 1.602417664147156098e-02 -1.675240900016914947e-01
-1.602943846140635542e-03 -5.078638084889562643e-02 -8.455302450719203167e-01 9.985323925642610732e-01 -5.406288408231343934e-02 -3.203991977988741423e-03
-4.420768010104028124e-03 -2.061223591046338344e-01 -8.370794671101509099e-01 9.890682597805530163e-01 7.979975482879562987e-02 -1.239999057416280026e-01
1.690398140519491733e-03 -1.712107610304665073e-01 -6.629962565975298094e-01 -9.970846337507991430e-01 -4.207031346746855499e-02 -6.365784996984776012e-02
-1.976917911992373544e-02 8.360861502719843519e-02 -5.237100708180679742e-01 -9.619474684578246393e-01 2.559604948475698027e-02 -2.720329211296975136e-01
1.759329705647511358e-02 1.240254995282442652e-01 -7.659054163592053932e-01 -9.904284742232637440e-01 1.051359549009912714e-01 -8.943080249463632170e-02
-3.691312333028685336e-03 -1.386392142949788853e-01 -7.960176294607265168e-01 9.996492455266788868e-01 1.295133451026854801e-02 -2.310084094452994133e-02
5.068506243626685198e-03 -1.959947699628697693e-01 -7.195531319169533591e-01 -9.989776931688184591e-01 -4.253048065291702845e-02 -1.532079523189759304e-02
-5.731112083284155626e-03 8.283808684035381953e-02 -6.509681727537119933e-01 9.867409210927827745e-01 -7.019218763977029540e-02 1.463400541045064285e-01
-1.046687956622097647e-02 -5.829913988148821558e-02 -6.884661948347218230e-01 9.948489021198495541e-01 -8.771130835373265600e-02 5.081720513572514364e-02
-6.848723950803807352e-03 4.093115080546377849e-02 -6.035651931034274886e-01 -9.889445163935528527e-01 2.880338946822636262e-02 -1.454617071612440971e-01
7.006126502921166191e-03 5.667450359587380276e-02 -6.840003615091476696e-01 -9.916433457594713285e-01 6.308963300009304276e-02 -1.125307647662401045e-01
-1.401116176450653734e-02 -7.289441097393987989e-02 -6.403813410792055238e-01 9.877794411614154724e-01 1.117561633224470052e-01 1.086385547505508281e-01
6.288692240498371458e-03 1.618080755255285608e-01 -6.404571205576480297e-01 -9.815340442236495377e-01 9.671887472012641318e-02 -1.650344791334209249e-01
4.611123956050077605e-03 -3.127648673667366430e-01 -8.812221387587282351e-01 -4.221208185269375579e-01 4.433255597515944335e-01 -7.907442460347616775e-01
1.357505795971286015e-03 2.288782663809799389e-01 -6.095661314751124049e-01 9.739249885262297735e-01 -1.232509961073481874e-01 1.904712804669768944e-01
4.983396421529994900e-04 -6.843471914174734105e-02 -6.636515364162101083e-01 -7.818335097094082364e-01 6.172048442968388615e-01 8.828671061934159625e-02
6.230372375042451602e-03 1.156279135063955216e-01 -6.474853953059576117e-01 -9.731835696871729002e-01 1.092404664034750256e-01 -2.024358174604553029e-01
8.718043009372669280e-03 -3.863856683527766567e-02 -8.872817047208650942e-01 -9.240427300642072295e-01 8.947639734387934085e-02 3.716705629100142128e-01
2.246840101195745308e-03 -1.420774651492563712e-01 -8.541522207073638517e-01 -9.987656478607679356e-01 1.383225737321269570e-02 4.770586241984965670e-02
-4.897307334198854403e-03 -4.630142360592161971e-02 -6.268362324659706442e-01 -9.947856617967961723e-01 -2.426031479068416815e-03 -1.019588223488917811e-01
1.143937813938035106e-02 3.076580305253925202e-02 -8.270422175698092238e-01 -9.966445441469583555e-01 7.530334759915038867e-02 -3.207894110569739499e-02
4.140552305382678815e-03 -8.297389291129138311e-02 -7.768808375756793838e-01 -9.996923289181841588e-01 1.538660500413896112e-02 -1.945507359491421145e-02
1.544765385461666432e-02 6.575448166262184979e-02 -8.610964647093911628e-01 -9.954488747438904328e-01 9.237999886309222752e-02 2.339815337109671725e-02
-1.384815298428975069e-03 -1.914169355113493898e-01 -8.569680925770241098e-01 -9.809739412829552307e-01 5.823515307587003205e-03 1.940520888659723608e-01
3.038316960730397687e-03 -1.073104969970803402e-01 -7.394271338584953446e-01 -9.994413438012366147e-01 -5.957005356804655725e-03 -3.288638605802465115e-02
-4.798795074511441952e-03 -9.481869841954773670e-02 -7.271890759007140215e-01 9.993918140160212848e-01 3.971782029060402612e-03 3.464429282407310157e-02
5.194930134172147732e-03 -2.920382001068047573e-02 -7.598181072630351141e-01 -9.982687566262757883e-01 3.832443310362419059e-02 -4.461756796504376399e-02
-1.344601099111326914e-02 -8.742940207183465262e-02 -6.049722670695040216e-01 9.953503022278682444e-01 2.608115330962992515e-02 9.272297070807673791e-02
-1.546031226080914688e-04 -2.672731697959992991e-02 -8.320990910800395435e-01 9.978996848239866102e-01 -6.404541180809152079e-02 9.716185183504392683e-03
6.236128076805918033e-03 -5.766361499252850575e-02 -8.566263773353895994e-01 -2.661366754231381804e-01 -6.952458823384822795e-01 -6.676858790524961007e-01
-2.533853604894027608e-05 -6.198302930313315945e-02 -7.388360584387199115e-01 -4.091438070048150633e-01 4.444786516285670341e-01 -7.968940164388595981e-01
2.296351865193924612e-03 -1.380298034637774673e-01 -7.015155206054540793e-01 -9.984040432512059082e-01 -2.695457319788036044e-02 -4.962678111024636241e-02
-2.779946549813544238e-03 -9.738910097088747386e-02 -6.400460736327990841e-01 -9.953324362573692241e-01 -2.715682817824238010e-02 -9.260587463691280496e-02
-8.193879938791613290e-03 -1.544926209756526114e-01 -6.958965043200218137e-01 9.995393786701993744e-01 -2.604403957508711134e-02 1.558006707953729642e-02
7.101738112737464997e-03 4.560662992029915208e-02 -8.710294482774356695e-01 9.917811975890787890e-01 -1.215158214911326445e-01 4.004948484197574932e-02
3.481896530602005425e-03 3.588169948854182112e-02 -7.958189691975572355e-01 9.944691312316805698e-01 -8.996455731187666394e-02 5.419894330136641042e-02
-8.953237822756601738e-03 -8.935958727038931237e-02 -6.561377769812234417e-01 9.973994245184129026e-01 1.971627360028184103e-02 6.932284274074278219e-02
7.669468903743254309e-03 -2.144490392371395382e-01 -7.746267926547226734e-01 -9.841024274159445584e-01 -1.776014386844338155e-01 -3.759405073195147486e-04
4.882741646595306281e-03 9.279804182602249818e-02 -7.404453389225011950e-01 9.913498603299181200e-01 -1.013451628877477528e-01 8.339431865005896005e-02
1.691793585349907897e-02 8.033123388999696690e-02 -8.459979712013192543e-01 -9.941325115815483615e-01 1.057811615941392919e-01 -2.260299246464999787e-02
-1.437322019479739948e-02 1.467450293910984790e-02 -5.576822382671606793e-01 -9.880844272234688974e-01 -7.670202849004844822e-04 -1.539109364481673070e-01
-1.236490622906623489e-02 1.311645524056544998e-01 -5.865240749057301084e-01 9.831135661909916612e-01 -6.839878757852968505e-02 1.697330899648560876e-01
5.301123468490391913e-03 -5.711231090501580482e-02 -8.042871344147092261e-01 -9.993943191432392847e-01 3.158653743322189372e-02 -1.460429790167132140e-02
-4.818029994155534519e-03 -1.388448515002968231e-01 -8.489243282409909552e-01 9.991968810262639167e-01 -7.860422136378369257e-03 -3.929130579688504266e-02
7.107237983156717252e-03 1.033182386859204660e-01 -6.587873372178503217e-01 -9.954527311498225783e-01 4.658349164693603023e-02 -8.308933958299835609e-02
-5.590770867273694815e-03 -1.119083841375826394e-01 -7.047381875627344305e-01 9.988461660761198679e-01 1.377910574406387804e-02 4.600513840790568243e-02
-1.255576431788497059e-02 1.854143810573005979e-01 -5.619110663202345757e-01 9.787014729195157026e-01 -8.945965883032812316e-02 1.847711999937538818e-01
8.899043757006692285e-03 1.978661183003997404e-01 -6.769423405744584565e-01 9.824626452943080457e-01 -1.220190672095004536e-01 1.409911268081587288e-01
2.874965090700718363e-04 9.734878593601499486e-02 -6.349182207674386458e-01 -9.869462009344113218e-01 6.386456826374178886e-02 -1.478462491293518200e-01
-2.558852683119486673e-03 -7.390543330569630115e-03 -6.472520082650763396e-01 -9.951670089452714363e-01 1.755082396546073578e-02 -9.661569688748951334e-02
-1.794847895437304405e-03 -2.906856431188536028e-03 -7.440988704414387422e-01 9.973372533386581917e-01 -4.493320294622352162e-02 5.744049421701118152e-02
-1.855913030338481734e-02 1.029475255162019542e-01 -5.607609826211419346e-01 9.841870209796310665e-01 -4.681033623595332038e-02 1.708353012603545384e-01
-1.103635773617396565e-02 -6.921616592036527668e-03 -6.357162275192560497e-01 9.927888764034387137e-01 -6.832527736799513460e-03 1.196810906297380711e-01
-5.360936842286595679e-03 -9.073603690562524748e-02 -6.151782421765269460e-01 -9.941024975565444510e-01 -3.359615151023670476e-02 -1.031092767676208277e-01
3.641169190651671189e-03 1.589309350655078792e-02 -8.679516124021819934e-01 9.953487370940098389e-01 -9.554617715191565663e-02 1.232150952661925994e-02
2.206553955351523138e-03 -1.001104197597755402e-01 -8.805102959238537697e-01 -9.975531616959473213e-01 4.040963190882391337e-02 5.705042716240162765e-02
-1.474180687713254334e-02 1.255158897444609845e-01 -5.841857789168792836e-01 5.430751348474297524e-01 -8.260728873498079938e-01 -1.505755049667683310e-01
7.318067733575880744e-03 -2.413703693518495785e-02 -8.537404660113431243e-01 -9.973800060261058809e-01 7.229883584266323659e-02 2.449880642075903062e-03
1.304448336074574138e-03 6.589776806620277483e-02 -6.572211464952648630e-01 -9.925447388863345433e-01 5.150997749970783607e-02 -1.104611403482590459e-01
-1.014373424926235962e-03 -8.420030129958670784e-02 -6.656541585287328866e-01 -9.968092078613735030e-01 -1.370889545578265513e-02 -7.863503867973557770e-02
-1.277928736266976213e-04 -2.617621685442132751e-02 -8.697188302945653149e-01 9.975020773108924654e-01 -7.015779622277060201e-02 -8.215192609940309698e-03
-7.210422166814963937e-03 -2.954891311724361924e-01 -8.782312391102816695e-01 9.683401081580829128e-01 1.220789496413887953e-01 -2.177479391104483741e-01
9.405296547346394392e-03 1.876243788092202269e-01 -6.435332849731076887e-01 -9.799516592441372964e-01 1.091077245994354211e-01 -1.667040790664586491e-01
8.974261853608009668e-03 1.755674198800978858e-01 -6.487193691522490369e-01 -9.833183963501223035e-01 9.987144118131295600e-02 -1.520217965812514227e-01
6.959133841795428661e-03 -3.142315802055967722e-01 -8.933016086145225687e-01 -9.683401081580829128e-01 -1.220789496413887953e-01 2.177479391104483741e-01
-1.289976044271613949e-02 -3.808410877786142651e-02 -6.201720051488274210e-01 9.933827484434460953e-01 1.470752611294696630e-02 1.139052403122092633e-01
1.979292862366506880e-02 1.505493386673381340e-01 -7.807599163386002017e-01 -2.680144878885650783e-01 -7.005080305962003706e-01 -6.614051204459056033e-01
-2.615396065648193779e-03 -1.813810758726191741e-01 -7.334481865501433218e-01 9.988878593212308088e-01 4.528724061888809993e-02 1.311908296246144454e-02
-8.312678316997535637e-04 -2.048054218881954214e-01 -8.543632031105017344e-01 -9.698354733696726848e-01 -1.749963748764841662e-02 2.431314814696440285e-01
-1.056049569360139641e-02 1.318315840467833566e-01 -5.579411909607446818e-01 -9.791235316965952729e-01 5.897037587246468232e-02 -1.945240459363486996e-01
7.469351886514647224e-03 -2.909104562436988783e-01 -8.737147649266162608e-01 -9.332064306267969789e-01 1.757285968209059690e-01 -3.134409323878243891e-01
-6.731836550916828373e-03 -1.851813239121682941e-01 -8.115695723933448180e-01 8.229710997642177839e-01 2.880456310866159608e-01 -4.896409739439573916e-01
-3.251447799363087632e-03 1.299467361557192224e-01 -6.438816798375319728e-01 9.876643459050583607e-01 -7.657528374086192136e-02 1.365846468236439903e-01
2.078922147607468595e-04 -2.141205876867454116e-01 -7.997079711012582415e-01 9.828912926215487289e-01 1.817386048655658115e-01 -2.992969078120205281e-02
3.722335498366504541e-03 -4.265053962849411733e-03 -7.169049168390714266e-01 -9.971399498184275734e-01 3.370825520842220951e-02 -6.764372851127990749e-02
1.956238288337032970e-03 -2.096111407290675906e-03 -8.715232594949585687e-01 9.952922614016945779e-01 -9.621105064709081778e-02 1.169393549169109141e-02
4.158856392022998970e-03 -1.587082504532403848e-01 -7.750945704764644617e-01 -9.997896887181952907e-01 -1.976505376551564164e-02 5.470007533877370952e-03
7.498353922642884105e-03 7.671226478183680586e-02 -7.069688403631181339e-01 -9.925158956746646943e-01 6.748198489345859363e-02 -1.017761197332514439e-01
5.088882436497763366e-04 1.173792265985709043e-01 -6.797806885494758200e-01 9.870159643574135666e-01 -9.464519573846856548e-02 1.297758568734252993e-01
9.275074616290115634e-03 1.367926742037813559e-01 -7.376982216203877840e-01 9.876359220831932850e-01 -1.219558262365221663e-01 9.849904495906387780e-02
4.741131488482144482e-03 1.712673767791751123e-01 -6.842650720891847449e-01 7.488249368389000571e-01 3.861498948345020166e-01 5.386552447414955092e-01
1.035916547057641295e-02 1.791328425799021407e-01 -6.546982045166372943e-01 -9.799516592441372964e-01 1.091077245994354211e-01 -1.667040790664586491e-01
-4.461542159027338805e-03 -6.786364058357864659e-02 -7.314398158470259981e-01 9.991856807843069177e-01 -1.336369405163454968e-02 3.807081555332288147e-02
7.327117726705935190e-03 -3.825787459896062281e-01 -9.262485770515129779e-01 -9.929632699696006037e-01 -5.156968501349763756e-02 1.066044655672857000e-01
-4.707638961381642364e-04 -2.867013803830513810e-02 -8.195989218117234465e-01 9.975539852978186905e-01 -6.759522596923157878e-02 1.780257966160968264e-02
1.007840291334573301e-03 -2.276414518365371120e-01 -8.175783902262389047e-01 9.315954567391296903e-01 3.425804181007834903e-01 -1.215259730136110106e-01
2.084798662869285710e-02 1.261729334908247846e-01 -8.069898471159669961e-01 -9.916090483959424384e-01 1.174392703100734930e-01 -5.403251732365275256e-02
-1.601251413475989491e-03 -1.324862263607616275e-01 -7.559425295748012363e-01 1.919654940060859238e-01 -9.453025577151258352e-01 -2.637277450103435728e-01
-4.905055824363162981e-03 2.347637764381807837e-02 -6.216993713606495664e-01 -9.908256713917511505e-01 1.669037794813939615e-02 -1.341115960498340254e-01
-1.422076029640577952e-03 -2.037758790836748379e-01 -8.184253973952949623e-01 6.903949770481791759e-02 4.909344101232280821e-01 -8.684566498758727882e-01
1.195849123378126162e-02 3.111789022765302365e-02 -8.592005056285881848e-01 -9.956837908570408402e-01 9.270845127295372634e-02 4.351055862998776981e-03
-6.988471420823590824e-03 -1.340734580762218686e-01 -6.639444856480296586e-01 9.974479883316714757e-01 4.223211646553986370e-02 5.756699498795188330e-02
1.652126544628971768e-03 4.267144290689169756e-02 -6.563809855600181153e-01 -7.698859054287070514e-01 6.318428463132619299e-01 8.972352080127070362e-02
-4.154043770461475493e-03 -9.369973005307260031e-03 -7.754639546604961131e-01 9.886717490396684793e-01 -1.441326532056527165e-01 -4.188019735796291027e-02
6.152487460142254914e-03 1.520507190585050905e-01 -6.961653617601116784e-01 9.858487976492901206e-01 -1.153310314762447247e-01 1.216589550837684497e-01
-2.930585116401087861e-03 1.889678062593454222e-01 -5.755746207160418182e-01 -9.767124400194125977e-01 8.623412884590216099e-02 -1.964598802135275046e-01
