6.465221844136006916e-03 -1.784633873213993249e-01 -7.967825556248961938e-01 -9.953751884677052297e-01 -6.395084600864472946e-02 7.168349515515250181e-02
1.319310147559977012e-04 -1.278658035733356291e-01 -7.035798220450839580e-01 9.973359208663418185e-01 6.843269986463930421e-02 -2.525918721816177923e-02
4.939111477016380758e-03 9.231632682248348820e-02 -7.136010166876013416e-01 -9.972460427277175521e-01 4.992515454884203369e-02 -5.484349740107270083e-02
4.496445215644073734e-03 -1.469973342806942251e-01 -7.160154237762842433e-01 2.605314807341919114e-01 -9.397758724694436072e-01 -2.212343939597669340e-01
-2.555547643891754612e-03 2.439033393869944333e-01 -6.187627711231270533e-01 9.842026277849633686e-01 -1.046743509156381480e-01 1.427881918141785111e-01
1.134945496388656359e-03 -1.270469948636097635e-01 -7.923463237235359724e-01 -4.753455404635277826e-01 3.921500091993059822e-01 -7.875690366224543659e-01
-5.923745931763003784e-03 1.256919852820048422e-01 -6.810165556486337257e-01 8.695460196078279580e-01 -2.155377551162422634e-01 4.443345540284187045e-01
-5.626626075283922999e-04 1.782314814607579428e-02 -6.372793495192815572e-01 -9.971083809774073936e-01 -2.040552868443156267e-02 -7.320171434961170176e-02
9.845159297642529575e-03 -1.590501975766544229e-01 -6.937409687083326837e-01 -9.968505835077831057e-01 -7.706147156862205860e-02 1.872014315839064941e-02
-6.927072711672011517e-03 -3.371501195347912927e-01 -9.047073636032693100e-01 9.487553096761544014e-01 1.415160841679845571e-01 -2.825536414259496865e-01
-3.769221059597674135e-03 -2.477303935084353842e-02 -7.195031731014803755e-01 9.996562531161229392e-01 9.749663223800551434e-03 2.433761847133355041e-02
-6.317815848334850347e-03 -1.882933776571142290e-02 -8.644833281403381253e-01 9.977226981303681796e-01 -4.964431101265434632e-02 -4.566026740544729123e-02
5.924157805697188861e-03 2.215104712792321517e-01 -6.393941289613425116e-01 -9.080800745601924628e-01 -2.009297927531113193e-01 3.674476786849348864e-01
-3.454124408762243494e-03 -7.084911167225226881e-03 -7.316796505837936948e-01 1.118690145766937545e-02 4.485263938469211675e-01 -8.936995732674672954e-01
-2.194422991349350826e-03 -1.029642276293740444e-01 -8.006608323516289927e-01 4.752659847664227333e-01 -3.948198815772391845e-01 7.862820771423809640e-01
2.610330418755515622e-03 -2.151281683824439739e-01 -8.055381482491429379e-01 9.725848133478345314e-01 2.104650681219543407e-01 -9.891024186391665640e-02
-1.152090772718864994e-02 8.997401483858626092e-02 -5.485252980266788203e-01 -9.769213455863046125e-01 -1.718091774712401237e-02 -2.129072582210627118e-01
-1.995070141383271239e-03 -1.000594507040354075e-01 -6.445449647603845866e-01 9.976355268819445676e-01 6.727937065506051084e-02 1.403003161948586722e-02
-2.335886055935336349e-03 -9.314332875792070976e-02 -6.534759686827370517e-01 9.976355268819445676e-01 6.727937065506051084e-02 1.403003161948586722e-02
3.143286930593809387e-03 -1.252019699884998442e-02 -8.123311725675602668e-01 -9.993645747075924346e-01 2.237562918498481671e-02 2.774487408673573588e-02
-1.100968178264708115e-02 1.195247834743186181e-02 -5.911509709844950944e-01 9.953439213901578153e-01 4.469657120349853491e-02 8.539727556727974567e-02
9.315381582596708038e-03 2.239075083332269234e-01 -7.354978388712433146e-01 9.841857261704989313e-01 -1.395161838406512311e-01 1.091498550103902621e-01
4.298322137993083360e-03 8.110402026123961217e-02 -7.097763612833692948e-01 -9.975439649367251471e-01 3.935819909606251554e-02 -5.793936642933074366e-02
-5.257161335869138703e-03 1.630945543388925834e-01 -5.859235988149552599e-01 -9.891973074646328579e-01 2.613644273465671325e-02 -1.442413715474803459e-01
2.687109457721419386e-03 -3.233346536003245952e-01 -8.910625466099741931e-01 -4.838103968250095921e-01 3.919192018624756413e-01 -7.825131558865364712e-01
-5.516846925929877639e-03 -5.977662577832693752e-02 -8.249462605480473165e-01 9.991205668627366476e-01 -1.665565798922146248e-03 -4.189652446746514047e-02
7.476352904041171261e-03 -1.701632479310656587e-01 -6.643406000841368675e-01 -2.355636808175722574e-01 7.245100546831796384e-01 -6.477614784337311082e-01
7.731755852657235493e-03 1.871622233011543401e-01 -7.652885781718028468e-01 9.920411156421059529e-01 -1.018497526145215049e-01 7.403413245204211457e-02
4.396308400361209276e-03 7.297455036214829660e-02 -7.169857411100430955e-01 -9.975439649367251471e-01 3.935819909606251554e-02 -5.793936642933074366e-02
2.560777655174031105e-03 -1.843803026798314371e-02 -6.857134451598377867e-01 -9.991060874241091128e-01 -2.341265189878833503e-02 -3.519763917018628452e-02
5.720871393644163909e-03 -1.009544180319384282e-01 -7.221411934720556314e-01 -9.987628477259989923e-01 -4.689319650542966150e-02 1.654696720719493405e-02
2.572908303983414014e-03 -1.457612682309117336e-01 -7.812573706367452742e-01 -1.896781918522714161e-01 9.593566983139263371e-01 2.089423579264269026e-01
4.036091847283180579e-03 -5.927860904684446874e-02 -6.979197879534068116e-01 -9.993592334321295123e-01 -3.349424410813300890e-02 -1.261975299167915864e-02
1.549070703708479643e-02 1.825090032089789760e-01 -8.174698287014142695e-01 -3.187594932706739326e-01 -6.838206693670318970e-01 6.563396053844745559e-01
-4.680724639146953067e-03 -3.702222751985215776e-01 -9.163181811952384459e-01 7.053854764470476324e-01 3.221793387549434229e-01 -6.313729510336970607e-01
-1.564704477524033865e-03 -9.933292451100918241e-02 -7.032184831844678907e-01 9.984374586847573063e-01 5.586319627177317726e-02 1.394416517652409754e-03
-6.782432598234882336e-03 1.245350765071979449e-01 -5.843684869961774941e-01 1.122272554216795400e-03 -9.663104676876183019e-01 -2.573768065340197864e-01
-1.162529577617237020e-02 7.881709230263387114e-03 -5.818450878307576124e-01 9.953439213901578153e-01 4.469657120349853491e-02 8.539727556727974567e-02
-1.840922080343119355e-03 -1.244706014529769200e-01 -7.655827436468426450e-01 9.986796207577649520e-01 3.743861335637724969e-02 -3.517620379003524866e-02
3.084464832272473898e-03 -1.565988558895430871e-01 -6.610286962965936652e-01 9.944161061839754678e-01 1.041767214164793370e-01 -1.684691297578237712e-02
-3.249918579065524341e-03 -7.391829227966092986e-02 -6.650401598701866090e-01 9.987411668907809625e-01 4.653539057514403943e-02 1.872268628322594497e-02
5.907299042859298112e-03 3.498695800877380663e-02 -8.600351404487338591e-01 -6.850855246855787062e-01 5.536311070732170547e-01 4.734452673194328720e-01
1.370852075353394366e-02 1.542842217213309108e-01 -8.399847194075001910e-01 -9.971909896456185862e-01 7.198353061818772713e-02 2.070027751823515227e-02
-9.869568053841436955e-03 -8.139778391030801086e-02 -8.582202004296516362e-01 7.109837562085522533e-01 -5.132994530874841477e-01 -4.806514016079299623e-01
-6.893966873745524353e-03 8.680779813174936688e-02 -6.970614851949137325e-01 9.921462181861152585e-01 -5.601479259699165825e-02 1.118401750235816783e-01
-7.256428532664963016e-03 3.370894668523666260e-02 -7.181331000689100685e-01 9.998758711734422322e-01 9.644630529477232414e-03 -1.245886620441392575e-02
6.241422761901294601e-03 -1.261654585812057860e-01 -6.299928173017322885e-01 -9.967111231340476385e-01 -5.996014115914469894e-02 -5.451347074843588408e-02
3.706507419087229274e-03 -5.481319503020121164e-02 -7.693631748845525253e-01 -9.999385415265312771e-01 -1.141862183602064323e-03 1.102766160829421992e-02
7.067119447096210927e-03 -1.785661911314874173e-01 -8.280726219631946439e-01 -9.993401711603470128e-01 -1.626528597744085133e-02 3.247557200851434317e-02
-1.056707267205474806e-03 -6.959797551551352712e-02 -6.140159579038489968e-01 -6.698431749248399958e-02 -9.741572571144859749e-01 -2.157098505429169977e-01
6.329538741430155123e-03 -2.629538093619941397e-01 -8.631184247762690998e-01 -4.839811875647356265e-01 3.890146573881719805e-01 -7.838557306166687999e-01
-1.565514758277362917e-02 2.526746332622250776e-02 -5.764525646716193163e-01 8.090445004313845390e-01 -5.798071096413552894e-01 -9.628453630292155285e-02
-8.687940451205387188e-03 7.497875349347198071e-02 -5.639629906089038691e-01 -9.880484856355276069e-01 -9.163773982449736205e-03 -1.538707746121374398e-01
6.190687254061910672e-03 -1.523567390473935246e-01 -8.228699524566415180e-01 -7.678072097579261568e-01 -2.849353089240542203e-01 5.738326919687496419e-01
-1.251473500286690368e-02 1.192183717918541136e-01 -5.898521991380709650e-01 9.936311719586793378e-01 -6.792822485378389834e-03 1.124764494225495293e-01
5.567823755622216229e-03 -2.237644938165895825e-01 -8.414515482487802123e-01 -9.726111394119840714e-01 -9.612884876256193312e-02 2.116289581491778704e-01
6.126486943019669729e-03 1.371467688553495157e-01 -6.998084698468430842e-01 -9.957156532971727092e-01 5.560876345975848678e-02 -7.387829996325641357e-02
-1.001753273877866975e-03 -4.923245252133544997e-02 -9.097599231336488401e-01 -5.791117586004167483e-01 4.747699572595829864e-01 6.627390578006295829e-01
-3.084978036507282813e-03 -6.398600298080873994e-02 -7.419444803308188341e-01 9.996989997585390419e-01 2.414972104995882773e-02 -4.324448518088924026e-03
-7.479433087593880675e-03 -2.552856154861301435e-02 -7.843016190958643774e-01 9.950837502267155799e-01 -7.254446674278224039e-02 -6.742129025568031897e-02
8.367777254577032919e-03 -2.001906357772679224e-01 -7.911838297247530960e-01 -9.853139345472660127e-01 -1.571847179051955312e-01 6.670393424716443420e-02
-1.597637747968909741e-02 8.183266428524610392e-02 -5.590213004232709171e-01 9.939528873650400609e-01 1.430173868588237480e-02 1.088720256505793654e-01
-4.391245765866426051e-03 2.789066121855710706e-02 -8.841632840386578485e-01 9.964968417449912019e-01 -7.730292961045819033e-02 -3.191083618300617764e-02
6.078837102384278268e-03 -3.623212284070378986e-01 -9.255417988102611071e-01 -9.484803693411747449e-01 -1.354557859777238971e-01 2.864205282789374918e-01
1.295116771787403580e-02 2.105522023653030039e-01 -7.485159664652627498e-01 -1.604727745750243739e-01 -9.093417157845434806e-01 -3.838569167726642029e-01
2.992471901062832874e-03 -1.517118544539060136e-02 -7.001403743966805315e-01 -9.991060874241091128e-01 -2.341265189878833503e-02 -3.519763917018628452e-02
2.284361581549221917e-03 -2.069307012593738504e-01 -7.899378882599713547e-01 9.803707562779165885e-01 1.851544325119104106e-01 -6.775703916389819170e-02
-1.524340708040626460e-03 -8.514273491098452856e-03 -9.081152467637652048e-01 -9.893864114821643296e-01 4.649048692359081941e-02 1.376704884862861855e-01
5.980548817187679098e-03 -1.199285393785348014e-01 -6.326490568860215769e-01 -9.967020006596178927e-01 -6.904624434384358522e-02 -4.263493899520969660e-02
5.581940185100916878e-03 7.035038105708930900e-02 -7.477318246241275723e-01 -9.991250294361323503e-01 3.399171293305978947e-02 -2.436676027140272788e-02
-1.144422620018778133e-02 4.905546231283693104e-02 -5.978992816415762412e-01 9.956134337276509871e-01 1.842069933930005551e-02 9.173095669885508729e-02
-1.812582418982972964e-04 -1.420098895586338617e-01 -8.595995683886243910e-01 -9.953432017618947247e-01 -1.063134961118023317e-02 9.580649827556032838e-02
-8.118261780930767849e-03 -1.637374243795621312e-02 -6.152811770111451528e-01 9.968692380273952436e-01 4.428490654695656920e-02 6.550243756386006644e-02
4.321001603777977797e-03 -1.317161033107969725e-01 -7.968914760118915863e-01 -9.971060839396017617e-01 -3.722056958091781581e-02 6.628790667009734627e-02
1.636532142409235363e-02 2.093751434735491856e-01 -7.622400150266092078e-01 -9.943624772172459103e-01 8.367913764888393335e-02 -6.512346600666463203e-02
4.641358554456900473e-03 -1.577946389266054461e-01 -6.713027891089373700e-01 2.650572016846044487e-01 -9.003213473382912779e-01 -3.452045065784783984e-01
-1.297680032449492760e-02 2.558117434064398951e-03 -5.611235980096949127e-01 9.958384275349740911e-01 6.667237740938655732e-02 6.213389039204246511e-02
-9.835210942213930621e-04 6.227930352421629651e-02 -8.488046996439717606e-01 9.976308283537714816e-01 -6.829850377902810243e-02 -8.248921124239014246e-03
-5.836352986996188284e-03 -7.626020739674158055e-02 -8.284429163874904578e-01 9.985734408143146501e-01 -1.304639042849107915e-02 -5.177716675377027483e-02
-6.800311266357644997e-03 -2.751750616213438638e-02 -6.288055038349670278e-01 9.982748816665824032e-01 3.462458096578261563e-02 4.741728615720798568e-02
-7.212083265318017765e-03 -6.816953109762577401e-02 -7.751607468535159917e-01 9.996627437609812983e-01 -1.480045445944112512e-02 2.133882105601648399e-02
-8.477033442686374674e-04 -1.360494925527851728e-01 -8.180518928067074258e-01 -5.220940939518146744e-03 -4.441087227867152043e-01 8.959576910325948162e-01
-6.733273510525016048e-03 6.244744048397078695e-02 -6.549616975280726505e-01 9.969019586859447779e-01 -2.274056123992787819e-03 7.862132940157978700e-02
5.818591153981905913e-03 -4.590004850108921064e-02 -7.400260585804058211e-01 -7.292543803427857796e-01 -6.720724494284163741e-01 -1.284782918245269689e-01
1.709240708249665621e-03 1.293445894786950934e-01 -7.472757139455662445e-01 9.961518612193426270e-01 -7.336594858869802116e-02 4.794691832558108102e-02
3.865118016049596834e-03 -3.827801139753862769e-02 -7.318485357368037514e-01 -9.997551542011836601e-01 -1.949399585394870696e-02 -1.046975519358382331e-02
-1.552423319996354542e-03 -1.525163072580463797e-01 -7.846531950375424946e-01 9.971736344292226883e-01 3.966351658042367723e-02 -6.380868476696018032e-02
-2.653738833800721713e-03 1.366540990990777471e-01 -6.314741917017707706e-01 -3.457798732540233455e-02 -9.685726763146970120e-01 -2.463155161355234379e-01
6.169439334277926172e-03 -2.801949806456395242e-01 -8.716092266510145903e-01 -4.838103968250095921e-01 3.919192018624756413e-01 -7.825131558865364712e-01
-2.074030406069782111e-03 6.461222232546451338e-02 -7.417366639037059617e-01 9.987979480123191367e-01 -3.539294720799017469e-02 3.391162535640378228e-02
3.810935470197506034e-03 -5.898127275349395598e-02 -7.660996248014060317e-01 -9.999384381907536756e-01 -8.167175358658441964e-03 7.511130094515614496e-03
3.021426591425354670e-03 -1.873746441336289915e-03 -8.313063525606781967e-01 -9.987007644049659127e-01 4.178424141389653484e-02 2.916951056157457770e-02
-3.562346786993347315e-03 1.181303193102862664e-01 -6.082904802324067273e-01 -2.493225940413221209e-01 9.450748186727722100e-01 2.113571177205370022e-01
-7.498217599504821383e-03 1.820792553379492751e-01 -6.144625963864129847e-01 9.906973383819394074e-01 -5.205712412947546136e-02 1.257332078263707631e-01
6.788262007101333179e-03 1.615831339041543802e-01 -7.062656776916302892e-01 -9.992136169233981069e-02 7.779165806029056940e-01 6.203720779505083049e-01
1.637897554519458440e-02 2.077900982484010561e-01 -7.647799672971448137e-01 -9.957369450623895224e-01 7.590792645216802581e-02 -5.240155474365206650e-02
6.185929538243812968e-03 -1.079225497670129458e-01 -8.008786528714133546e-01 -7.981416041766774550e-01 -2.666176614368565567e-01 5.402638265627465186e-01
6.987551018073010801e-03 -1.403015298037891823e-01 -8.111802240940920727e-01 -9.998827900903316523e-01 -6.856257939291100778e-03 1.368933191369744139e-02
-1.957450796595785331e-03 -9.850025487733095331e-02 -7.378259287845967407e-01 9.989542814566566564e-01 3.656786354190126598e-02 -2.744330365308889075e-02
3.955978201274024109e-03 2.179523852110327314e-02 -8.334623742823366044e-01 -9.987401934790148816e-01 4.278656459969722853e-02 2.621709021336037643e-02
2.997606749042167149e-03 -9.496556923632018532e-02 -8.049553649836993507e-01 -9.978796864371115571e-01 -2.141531685209063091e-02 6.146149689274269662e-02
5.341226804249735519e-03 1.445036910836961508e-01 -7.986638876740902449e-01 9.942524694421484011e-01 -9.589659991278595697e-02 4.760114634498804204e-02
-2.688226850452460782e-03 4.142588037136087781e-02 -6.142284904929545819e-01 -9.968742638548575563e-01 -1.143401003499099934e-02 -7.817266452127127896e-02
7.931652251556748495e-03 1.938632892956351494e-01 -7.587483993221618706e-01 9.920411156421059529e-01 -1.018497526145215049e-01 7.403413245204211457e-02
-6.623232131270532369e-03 -3.856874980116170581e-02 -6.223630763335110672e-01 9.975399004132008418e-01 5.474708019874911097e-02 4.378246559220937140e-02
-4.271636678875457248e-03 1.642805243322827402e-01 -6.493064070437658541e-01 9.928809301110042007e-01 -5.098985425406303562e-02 1.076452199823867140e-01
-5.563777669202605441e-03 1.940285180492190287e-01 -6.243369211820146703e-01 9.893947374129887784e-01 -6.043237585171951781e-02 1.320832371211403677e-01
-3.232107590194895682e-03 8.929243460896353971e-03 -7.925509337399312404e-01 9.997862868810094561e-01 -2.045496876436616110e-02 -2.995799982086392189e-03
-4.857508503135802951e-03 2.583785538575338395e-02 -9.068281373522822930e-01 9.848086973828794610e-01 -1.219883478166614021e-01 1.235745627384432221e-01
-6.189263416611414173e-03 1.246977074400529815e-02 -9.030142252888458954e-01 9.964101715147219984e-01 -8.271611179620211307e-02 -1.802262331960361591e-02
1.202432431203794699e-03 1.641336763262109533e-01 -7.050517233521849114e-01 9.935029067398826186e-01 -6.611186158210256847e-02 9.263474541203624291e-02
-1.440746436767552721e-02 -1.338250976845622997e-01 -9.076950617326414728e-01 2.406429473253849927e-01 3.263438715477685603e-01 9.141064759675239237e-01
-7.663117426924683645e-03 -7.325219244596975487e-02 -6.356207098367764319e-01 9.884848256524760846e-01 1.423956167889217084e-01 5.119802509957099845e-02
-1.383419369498959306e-03 -1.838898304559495323e-01 -8.646880649414503406e-01 -9.714688132800081144e-01 3.646364826155638894e-02 2.343474923693232015e-01
3.151952760016279911e-03 1.584424626853949553e-02 -7.102179569055725450e-01 -9.992422091384240979e-01 -4.678217293033089252e-03 -3.864093372475543159e-02
3.324769361092883447e-03 -3.709791154866130813e-02 -7.881679379406388852e-01 -9.997164679143555333e-01 1.151683176261730085e-02 2.084097807197736810e-02
-8.281822107560198043e-03 -1.995404104781517696e-01 -8.780309276772267912e-01 1.338302362338816553e-01 5.280169431484241782e-01 8.386224273281612795e-01
3.029648681247410283e-03 -6.616721025646166154e-02 -6.467793827266929974e-01 -9.976056547241624051e-01 -5.353801879418981780e-02 -4.377942674325629308e-02
-3.290349698925135787e-03 9.698384249727788620e-02 -7.546813591506084107e-01 9.903625562899568413e-01 -1.361894455174654517e-01 -2.518813269115521142e-02
7.673910945955033855e-03 -1.317800661820015262e-01 -6.620931559160541102e-01 -9.969259552700781013e-01 -7.715982696110139372e-02 -1.360150036485393427e-02
4.528576032794224236e-03 1.830494456459681174e-01 -6.561926437728926587e-01 -9.917270691752225753e-01 5.979462674642841563e-02 -1.135870717880281267e-01
-1.072212720484633404e-02 5.491453477596402316e-02 -6.069132470710240090e-01 9.956134337276509871e-01 1.842069933930005551e-02 9.173095669885508729e-02
4.847211163819702302e-03 1.030073679321061031e-01 -7.048334122118242728e-01 -9.955039617161541843e-01 4.931027214421091626e-02 -8.087248771062738317e-02
5.355019704795798904e-03 1.360946888053712889e-01 -6.554518449068186259e-01 -9.949769107900058307e-01 2.950234750382664528e-02 -9.565855155991295766e-02
6.106445445767395494e-03 -6.886932041974566654e-02 -6.668990223564673636e-01 -7.955109796661304911e-01 5.961936341656638438e-01 1.082378483293696958e-01
-1.668272867105047915e-04 1.709263556447313259e-01 -6.974414968848338114e-01 7.062913002023597960e-03 -7.739657209947933270e-01 -6.331881063198642190e-01
5.825481790194774606e-03 -1.151123939322042933e-01 -7.480092342748854151e-01 -9.985483306841037576e-01 -4.766937114393184766e-02 2.507712788043900756e-02
-6.966624190852124289e-03 7.343612210055233680e-02 -6.507315084758421575e-01 9.971562637233633009e-01 -1.619194997346499673e-02 7.360167439208749329e-02
2.226755766899276255e-03 1.270439499618894186e-01 -7.616707464239829140e-01 9.959584546891805390e-01 -7.770379280692525648e-02 4.504305847250809208e-02
-7.806181356199779452e-03 -3.981159143794958319e-03 -6.284090513352693641e-01 9.968692380273952436e-01 4.428490654695656920e-02 6.550243756386006644e-02
7.630388602475574739e-03 8.231872176627766380e-02 -8.409550090435020664e-01 -9.975798051590664128e-01 6.919956488139472617e-02 6.778831685818058513e-03
5.733717640558655751e-03 2.285526101355547235e-01 -6.430039285663844417e-01 -9.884195977174079495e-01 6.666548206977905566e-02 -1.363173222615564339e-01
4.491357878989321074e-03 1.805519720721277532e-01 -7.302519970620412471e-01 9.947285403338490539e-01 -7.882260955268240166e-02 6.559060350839278353e-02
2.422634436266106039e-03 -8.404796498877917243e-02 -8.581181589174921021e-01 -7.911227349220050220e-01 -4.837371751362371519e-01 -3.743302868867819932e-01
-7.254033100369054222e-03 8.495492018345507726e-03 -8.218120423602908176e-01 9.990908655692504192e-01 1.311343751228450857e-02 4.056451765641236329e-02
-7.541464594981840165e-03 -2.891393988059562936e-01 -8.833624255214236332e-01 9.822866127450895490e-01 8.391444824437223338e-02 -1.675451455507472320e-01
5.190257288490369818e-03 -1.350886714665626154e-01 -6.284897250699569282e-01 -2.746845133008283812e-01 6.452193526547721492e-01 -7.129098155534427939e-01
2.627649855429440521e-03 1.919360600637912140e-01 -6.360647663929737128e-01 -9.917410869406589891e-01 4.383143399093392123e-02 -1.205339033967566531e-01
1.384007502657611747e-03 -1.890478918552578394e-02 -6.537973634013720670e-01 -9.978695632831486861e-01 -2.971952192147744171e-02 -5.807826348864913307e-02
4.860845647089437511e-03 -2.207882486163002256e-01 -7.952098212916658415e-01 9.731731342579117428e-01 2.088128405749115901e-01 -9.659838699309944432e-02
-3.016473464208407809e-03 -1.880404639289191271e-01 -8.703095600281325339e-01 -9.620004297542221749e-01 6.050657235592823285e-02 2.662595122327626185e-01
1.703245910586598244e-02 2.193009682363733781e-01 -7.629221004462265476e-01 -9.981974037893568408e-01 4.932206471863602448e-02 -3.419469257177597948e-02
-4.834822680258745072e-03 8.750201080878597382e-02 -6.756579475200772400e-01 9.972918513397696083e-01 -2.362287647090435469e-02 6.964856752679876584e-02
-8.156588492892438008e-03 1.102097676198016650e-02 -6.290300097051363393e-01 9.978314416429204803e-01 2.571264295160183289e-02 6.059103944688597199e-02
2.941819836787745029e-03 -3.371268433677070825e-02 -8.041647133781818502e-01 -9.994807951507133081e-01 6.424968068885247852e-03 3.157308838570833942e-02
8.419690153086007919e-03 2.283544076949173274e-01 -6.636123828460716023e-01 -9.909372492808606880e-01 6.538859896886990708e-02 -1.173358389946119462e-01
-1.012275255559906377e-02 -8.038284766561907407e-03 -5.912132329136114972e-01 9.969416518438167785e-01 3.786418001059394661e-02 6.836407456440050934e-02
-7.547775517772735768e-03 1.560902946335969710e-01 -6.531768414683281065e-01 8.969993035189847141e-01 1.965379675913648261e-01 -3.959356977862845128e-01
1.389191533958639320e-02 -2.213891739118793722e-01 -7.668266031170647423e-01 -9.739480602225498718e-01 2.229059942190907140e-01 -4.169045130399768456e-02
7.697374069609492532e-04 6.505736789395280550e-02 -6.592937676587994345e-01 -9.969170561681544029e-01 2.304269587665867206e-03 -7.842877955628443920e-02
-3.088806512091617738e-04 -1.971215133986307655e-01 -8.592891482409805715e-01 -9.746373269006985973e-01 -3.368294764697153665e-02 2.212409095300231221e-01
-2.283272805694032143e-03 -5.594211463233587922e-02 -7.473931538978482170e-01 7.981640451324707730e-02 9.807981621565555752e-01 1.779446730894195250e-01
5.341459247006364805e-03 1.853368319244492746e-01 -6.575930375468844735e-01 -2.319006908799363734e-02 -4.459926419722070046e-01 8.947361532889709368e-01
7.776760503687471689e-03 -1.456455194223962024e-01 -7.388545789629001881e-01 -9.973237052739626352e-01 -6.710177570605296848e-02 2.903064924710919634e-02
4.807863808846304064e-03 3.234482671732306219e-02 -7.770805108644777137e-01 -9.994691586315862519e-01 3.013411099176238270e-02 -1.238290349656464943e-02
-2.408088693094384038e-03 -1.125884745780679902e-01 -7.690386988298799631e-01 9.986796207577649520e-01 3.743861335637724969e-02 -3.517620379003524866e-02
2.256433723207685541e-03 1.869338661787925682e-01 -6.568594358088630791e-01 -1.715058934350887146e-02 -4.469120480420534780e-01 8.944134830155612281e-01
-3.007516008704422174e-03 2.148587945713902395e-02 -8.159062937694131490e-01 9.987477111125323548e-01 -4.690686542244160845e-02 -1.739987137073682744e-02
-1.245449670444491626e-02 3.775590155301961071e-02 -5.843513193591598487e-01 9.953592237238009233e-01 2.319308577749639583e-02 9.339216519639149949e-02
-1.152285461981363869e-02 1.772339706242403168e-01 -5.850609276530237546e-01 9.898713437294938133e-01 -4.568117848721830326e-02 1.344170852056576215e-01
-6.552573046566435725e-04 -7.359154931493301632e-02 -6.580027641247312431e-01 7.641908905399956431e-02 9.776629634838345240e-01 1.957939035316552390e-01
2.865081703817561748e-03 5.651347500070551255e-02 -6.942783198094729658e-01 -9.985742246927794552e-01 1.542977136685978572e-02 -5.110224980155755881e-02
-3.537575097612694671e-03 -2.028837994169609971e-01 -8.724597134863397718e-01 -9.671145802759310017e-01 -1.533842495985580229e-02 2.538781623879068916e-01
-4.743040672221123834e-03 -8.301446299087160072e-03 -6.875596630304534607e-01 9.996098229153221881e-01 6.397414793062697683e-03 2.718961226577878629e-02
-3.566829538819591035e-03 8.876065680016065329e-02 -6.933089324145518262e-01 9.973996964628821793e-01 -3.227358601007565553e-02 6.443804110772215210e-02
4.766399443853983238e-03 1.002656895404419185e-01 -7.539274417954550112e-01 -2.325579176450236485e-01 -7.414892076024659495e-01 -6.293731563624853642e-01
-2.817663227727518465e-03 1.185577204571019172e-01 -5.849067116895279028e-01 -9.907323110256449628e-01 -1.070443003822080241e-02 -1.354064365801758985e-01
5.110080304818646370e-03 5.723814792200625223e-02 -7.478706141286298736e-01 -9.985063838249781387e-01 4.046171467924669640e-02 -3.671309175185957785e-02
-1.335225792645740707e-03 -1.036752538509190386e-01 -6.935683671183374699e-01 9.984374586847573063e-01 5.586319627177317726e-02 1.394416517652409754e-03
-5.303849026828920399e-03 6.381548082540861033e-02 -7.250218570147431985e-01 7.713838479842775042e-01 4.589558764876162100e-01 4.408247526018165274e-01
2.356916623307585366e-03 -1.290969065478931622e-02 -8.382491518044714596e-01 -9.987007644049659127e-01 4.178424141389653484e-02 2.916951056157457770e-02
1.334760308752320872e-02 1.200609925738416461e-01 -7.937432320246723405e-01 -9.910224594012264632e-01 1.331864575834727227e-01 1.165557715045023764e-02
4.287657085853970040e-03 4.527671712993671521e-02 -6.670726762565808432e-01 -9.936320124044409896e-01 1.072688944784085940e-01 -3.447909805202090117e-02
1.141318560250804276e-02 1.572505797447892595e-01 -7.562275264862985402e-01 -9.950758238022285873e-01 8.022152025971958367e-02 -5.821179065735273411e-02
5.927361403009662882e-03 1.285379955586461453e-01 -7.884305593527245470e-01 6.517198815229072184e-02 -7.790538316699463506e-01 -6.235605338061834813e-01
-5.157225817057179383e-03 -7.159694119100122600e-02 -8.159003465001926081e-01 9.991205668627366476e-01 -1.665565798922146248e-03 -4.189652446746514047e-02
-5.358445027668703141e-03 -7.093254744262078582e-02 -7.823875929361497894e-01 9.004447217559538030e-01 -1.999692185223018448e-01 3.862791926902390816e-01
9.774659984533905568e-03 1.338595143253945574e-01 -7.588423493969793654e-01 -9.964292201880587951e-01 7.130473501045588025e-02 -4.521552742704276762e-02
-5.344453433046607782e-04 -1.459749673560145448e-02 -6.234884866895384903e-01 -9.969319146656087094e-01 -3.933853955936487262e-02 -6.767005856728169899e-02
-4.306687836911436869e-03 -2.125560336212797552e-01 -8.704219330891231898e-01 1.205252470684911315e-01 5.784211958389848807e-01 8.067853401142572878e-01
5.967339741470693328e-03 -2.423015590883376702e-01 -8.659826588683707804e-01 -9.487553096761545124e-01 -1.415160841679845849e-01 2.825536414259497420e-01
1.225954873518524287e-02 1.639853661851054245e-01 -7.614141163714148730e-01 -9.950758238022285873e-01 8.022152025971958367e-02 -5.821179065735273411e-02
7.932752680912511650e-03 2.476958057884034725e-01 -6.525778187979449640e-01 -9.850022006436817135e-01 -1.192288288791668455e-01 -1.247202914172616389e-01
9.212107343443182508e-03 1.210480824023915103e-01 -8.676191707649517637e-01 2.512031668208745128e-01 -5.131306009181835215e-01 8.207276986799628693e-01
4.656579393623069135e-03 -1.106878656779626963e-01 -6.198258604341142508e-01 -9.951719734767806580e-01 -5.134939544220985808e-02 -8.364199181062832722e-02
8.923612528804120755e-04 -5.903870749231913267e-02 -7.314757496825887717e-01 -2.526536456889750815e-01 9.502034133289580797e-01 1.824269953106364417e-01
3.438793749158431789e-03 1.479640046627122285e-01 -6.628327668851969889e-01 -9.928689955146577928e-01 4.910750069034958837e-02 -1.086260149396160585e-01
-2.711803642817682807e-03 -7.518140725656539958e-02 -6.963360618979549388e-01 9.986626742127974188e-01 4.997007181959635391e-02 1.326103527213036426e-02
-2.818001386038602226e-03 4.668275196640399999e-02 -8.827937838961462669e-01 9.960453289778505859e-01 -8.473620119014764474e-02 -2.671102448930268852e-02
-3.365237338128685297e-03 2.505692906275658674e-02 -7.341438038115826181e-01 9.993949514612556762e-01 -2.222856226228808740e-02 2.675111237885127724e-02
-2.269734549674789874e-03 4.145999272593842849e-02 -6.195701818351706525e-01 -9.968742638548575563e-01 -1.143401003499099934e-02 -7.817266452127127896e-02
1.899973008005971216e-03 -1.994317557056261014e-01 -8.492784227990083368e-01 -9.723668430918313010e-01 -6.918307284354535680e-02 2.229718028979227884e-01
-5.292495627017335981e-03 -1.601655258895722522e-01 -8.866023319711591189e-01 -8.986736558655763485e-01 1.244540550236955395e-01 4.205910703300280162e-01
-5.839159354339751133e-03 -1.585862008699496783e-01 -8.101961249420517319e-01 7.980536459223896983e-01 2.738833407055879521e-01 -5.367478867344778193e-01
-8.821997677684496886e-04 -1.141577518570257438e-01 -6.464523703950466604e-01 9.963093705164255409e-01 8.390243638588990027e-02 1.811130557622724763e-02
-5.225213195101859618e-04 2.281981906402697456e-03 -6.325103481402745143e-01 -9.976697347096307178e-01 -2.439807135431534130e-02 -6.371683104646957974e-02
1.022626417488847229e-02 1.153487165342520077e-01 -8.220320577954460806e-01 -9.967703767225976064e-01 7.990777495676876230e-02 -7.972677702585672863e-03
1.084674567841631757e-02 1.338102847856869615e-01 -7.848386746997448871e-01 -9.953940507428715723e-01 8.842672863106479375e-02 -3.703238325176838597e-02
1.001980828996398842e-02 1.786535887648341425e-01 -8.157395697124399936e-01 9.873804911090565684e-01 -1.415155376661282605e-01 7.108528945080394568e-02
-7.598977000982522906e-03 -6.706533951535684213e-03 -5.583613349220787336e-01 -6.488303594393259877e-01 1.804813689170670921e-01 -7.392196156377728311e-01
6.891376732568367351e-03 -6.697542578703180594e-02 -6.627384300078336121e-01 -9.999303552896964264e-01 5.285112240159385230e-03 -1.055235323660635126e-02
1.066020294163587401e-02 1.893907622231393306e-01 -7.114351376183520870e-01 -9.934109991467046097e-01 7.885406088335171482e-02 -8.316624228946774278e-02
6.391381955308536068e-03 -2.232262732411951500e-01 -7.860934960823063866e-01 9.531921566285141978e-01 2.852519177982366649e-01 -1.002798879851287822e-01
1.782402424113096410e-03 -3.097303554574732179e-02 -6.540953376347216075e-01 -9.984725264113732957e-01 -3.808420451797884382e-02 -4.002758258903611061e-02
1.986931949990310749e-03 -7.441802814764918172e-02 -8.218061463039874059e-01 -9.985492274963163606e-01 8.451373956060144119e-03 5.317907995409892896e-02
5.629393632579020312e-03 -1.312614198392951792e-01 -8.185477254500281852e-01 -9.646173159710177414e-01 5.492857746170065614e-02 2.578687361951884083e-01
1.954844415365300763e-04 -5.808310907215503971e-02 -8.556416117659461085e-01 -9.979056804403071412e-01 2.377264249699029275e-02 6.015907590445276898e-02
7.448262097367326640e-03 2.122146168765964847e-01 -7.295582377945872832e-01 9.899316652311855869e-01 -1.047054341340178107e-01 9.524741589890371729e-02
5.804214584007957693e-03 5.178864465692930436e-02 -8.060613812637382747e-01 -9.992116547953010519e-01 3.908221810606707369e-02 -6.974894203192744460e-03
4.213164599535107468e-03 3.151964779270843148e-02 -7.422720457080442813e-01 -9.998479973955028965e-01 1.398396444038623072e-02 -1.041301314377843061e-02
-5.663538305538580626e-03 1.553603935924418311e-01 -5.845381186810769680e-01 -9.891973074646328579e-01 2.613644273465671325e-02 -1.442413715474803459e-01
3.913344677010383542e-03 -7.742334169356000773e-02 -6.561328506508349312e-01 -9.976172437554750028e-01 -6.234712248477973506e-02 -2.954101013162982459e-02
-9.418627588634143760e-03 -8.407362043499998217e-02 -8.812042277732314854e-01 9.964626774117099073e-01 -2.129347417878276957e-02 -8.129403719144423501e-02
-5.736819451511674176e-03 2.124604367107381098e-01 -6.145330152552416214e-01 9.882376114047668469e-01 -7.174724131280647843e-02 1.350509413851047613e-01
-7.115564858859677391e-03 6.543463124094643646e-02 -7.060702057794379094e-01 9.944090699768799446e-01 -5.478723313416528073e-02 9.027159372260490366e-02
7.645472301762384557e-03 -2.668121343872581486e-01 -8.709653365904717059e-01 -9.822866127450895490e-01 -8.391444824437223338e-02 1.675451455507472320e-01
-2.840329414416965965e-03 -1.470354473246079097e-01 -7.347564621530510154e-01 9.983544744571940521e-01 -2.098336705189658355e-02 -5.336704637194578799e-02
-6.831391850003374136e-03 9.703116744675439886e-02 -6.924962532596444786e-01 9.921462181861152585e-01 -5.601479259699165825e-02 1.118401750235816783e-01
-2.356115776801346109e-03 1.426989668784767740e-01 -6.557068856137829860e-01 1.303315127301201137e-01 -9.573465291995947313e-01 -2.578784981710722235e-01
1.802839483676159328e-03 -1.558061523209530452e-01 -8.412445146049745137e-01 -9.951460629397631541e-01 -3.714174657018560338e-02 9.113069777635339486e-02
1.018588244450961602e-03 2.339319045630047084e-02 -6.635119455345651618e-01 -9.980445227443303091e-01 -7.116827183502073828e-03 -6.210057480315336192e-02
-8.601433655563799768e-03 -1.210480238142033899e-01 -8.257633423662059657e-01 8.243966365381671935e-01 4.151329957451527775e-01 3.847528836905735328e-01
8.381836080646765455e-03 -1.369193876722907821e-01 -7.857782947617292235e-01 -9.929229588906622883e-01 -1.091956674434385460e-01 4.669372462541557245e-02
-2.536736313750440931e-03 -1.173599092567935154e-01 -8.818544268553931698e-01 -9.941593943885576046e-01 1.306409020911743907e-02 1.071280920019785088e-01
-1.483905503756334510e-02 1.576052339499396382e-01 -5.600941958286809186e-01 9.828418994387611018e-01 -1.225504420741652944e-01 -1.378520578556399478e-01
3.981800058665159285e-03 1.783274721483605885e-01 -7.255383760109385127e-01 9.931143932790517104e-01 -7.699909330356040360e-02 8.828896585876730430e-02
6.970837621708806525e-03 -1.126677864828886516e-01 -7.951416642825039904e-01 -9.999842830163289120e-01 2.510733417404891702e-03 -5.012976962360415033e-03
-5.899562186493921556e-03 7.123623491142246078e-02 -6.656268373588823950e-01 9.972298723169046308e-01 -1.405122631683283253e-02 7.304207553049925361e-02
1.451712583980437933e-02 1.713582278093108702e-01 -7.935157565545661873e-01 -9.954835177922294331e-01 8.970133856606495038e-02 -3.108433147847576919e-02
2.063139778372677802e-03 -8.703688335690980271e-02 -6.041457710513012946e-01 -9.940831111555810118e-01 -5.434681523406952042e-02 -9.404887978681353289e-02
2.788596777496534450e-04 6.302306300864249020e-03 -6.461823665611264866e-01 -9.985199432237086281e-01 -1.112352923569050363e-02 -5.323711188507863901e-02
-3.476643124572071589e-04 7.032507497680215436e-02 -8.385201818666294660e-01 9.976308283537714816e-01 -6.829850377902810243e-02 -8.248921124239014246e-03
3.665995957072290361e-03 2.500966250945512726e-01 -6.468559420362245405e-01 1.338362601045205713e-01 -9.878135674740960992e-01 7.944942665201942811e-02
-4.364125372180636953e-03 2.144343956152839833e-02 -8.693588147595178173e-01 9.975140755952411897e-01 -5.771016881968042689e-02 -4.043767308062354293e-02
-6.158192616617586684e-03 -3.345455974255446413e-02 -6.367473525988892602e-01 9.973782953523028239e-01 5.087075380878096353e-02 5.146554543634956208e-02
-1.659168254002129370e-03 -1.223745818991601314e-01 -7.590882950202534341e-01 9.982146835595127055e-01 4.169691523650684989e-02 -4.276462072719865865e-02
-8.874470634834985550e-03 1.101180107256862356e-01 -6.240260191206600249e-01 9.932019629412957018e-01 -2.705824875298759938e-02 1.132153345796338140e-01
1.419687892630371560e-02 1.952541729272648796e-01 -7.488044435828493661e-01 -9.933508133516709693e-01 8.530378761871666715e-02 -7.731381138887477578e-02
-9.954142370394875386e-03 1.626962046928261407e-01 -6.015619839284536141e-01 9.911846242994586387e-01 -3.070491673477325142e-02 1.288807535695361550e-01
-2.659006604065479278e-04 1.337761596565718580e-01 -6.210130176497175025e-01 -4.277390851997605603e-01 -8.634195305456441316e-01 -2.674808203681362517e-01
6.189590267152618626e-03 -2.260628432031659696e-01 -8.390778426936236212e-01 -9.809991694462361078e-01 -1.853956221360800183e-02 1.931240901045821190e-01
6.418437694473595745e-03 2.230137344839757396e-01 -7.078926973247890997e-01 9.892173408247261213e-01 -9.963565437011046022e-02 1.073395965610892261e-01
-2.820596827156586148e-03 5.828985887013490158e-02 -7.258316691940227550e-01 9.984720704843609296e-01 -3.260932075076308778e-02 4.461117195105991640e-02
-5.018344392704671836e-03 9.679085289105478218e-02 -5.957146415132663630e-01 -9.927243640001378600e-01 1.067075393500916888e-02 -1.199352830945926290e-01
5.725493046231787397e-03 1.306317002220553636e-01 -8.100916068764371092e-01 2.659608079494165112e-01 7.335293727680879394e-01 6.254594374708474236e-01
1.615367941374123983e-03 1.602049236946398170e-01 -6.702149346758258242e-01 -2.316977083503875615e-02 -4.457282299278949589e-01 8.948684298626237155e-01
5.449467274592049992e-03 2.341710423645257111e-01 -6.881321495589129977e-01 9.878001642426534890e-01 -1.096456221724900620e-01 1.105833308441837443e-01
3.798507250060234684e-03 -2.245312300798134597e-01 -8.120011513321659935e-01 9.773943119404245872e-01 1.594559306810821309e-01 -1.388314271234493413e-01
1.923246689837870838e-03 -2.381709262948219011e-02 -8.413409266902588390e-01 -9.981998168000347782e-01 3.762531489934025503e-02 4.670611757684917098e-02
1.158403898231256078e-02 -1.492484823539736438e-01 -7.329432926549057647e-01 -9.988299565722512652e-01 -1.113325896319268451e-03 4.834747521146461752e-02
-3.665690827495668436e-03 -2.794385579379181708e-02 -7.662824099276329681e-01 9.999697664817168707e-01 -6.452354540337294428e-03 -4.339728492211506090e-03
-7.133708888687921752e-03 -2.610152354023249077e-01 -8.768937485214778338e-01 9.622896818433458455e-01 -1.267692881611764688e-01 2.406826038519211952e-01
3.456396235978194485e-03 2.507148155141089574e-01 -6.309506613522741780e-01 1.205170714337484711e-01 -9.925106903567779693e-01 1.995407278088208447e-02
8.774035435163404784e-03 1.987423380758647495e-01 -6.848906266361339812e-01 -9.913526005143382669e-01 7.064911822884749337e-02 -1.105835591168281701e-01
2.919614426884680012e-03 1.160496590354061497e-01 -8.029172174414327401e-01 9.959571487173677351e-01 -8.641767083836923713e-02 2.452231811314301360e-02
-3.340235757440065088e-03 6.806988102816403929e-02 -7.089778346835814427e-01 9.974110272242646680e-01 -3.697777031822219174e-02 6.167566192372667122e-02
1.481008420059660297e-02 1.317635842568036231e-01 -8.056102246153953317e-01 -9.890572892866237309e-01 1.445577838105590596e-01 2.947415221470346680e-02
2.215877902831549316e-03 8.452022672138406745e-02 -6.750097548536914127e-01 -9.972912958643714854e-01 2.599078962972137599e-02 -6.880806673338578372e-02
-1.070132753134389603e-02 1.182553913321859745e-01 -6.060547687434174602e-01 9.932019629412957018e-01 -2.705824875298759938e-02 1.132153345796338140e-01
-7.260001697027564874e-04 -5.701690563026784453e-02 -7.567157422535100153e-01 -1.532789717562347415e-02 4.495848322743783432e-01 -8.931061158434605574e-01
-9.880610309844229874e-03 -1.924383673399662209e-01 -8.689200304504153261e-01 9.759107963054205470e-01 5.106794802308833869e-02 -2.121088926453364443e-01
-4.619406842850163307e-03 4.578033250035006690e-02 -6.408140475798509428e-01 2.505665587618415846e-01 -9.420899361354813095e-01 -2.228967291426537101e-01
-6.786023129495733115e-03 -5.192500710329184255e-02 -8.529012990209680067e-01 9.980781490068177941e-01 -2.512960072232518077e-02 -5.664372553655683956e-02
3.126213992625766821e-03 -5.559433821417737037e-02 -7.943115511410663299e-01 -9.995881905495901387e-01 -6.256929579829286631e-03 2.800535923763556104e-02
-4.072509128712654448e-03 1.459852220510247933e-01 -5.980528708402089721e-01 -9.911518612010191687e-01 3.002988729575566118e-02 -1.292911207576133981e-01
-1.394096940445543106e-03 6.981820179702534490e-02 -7.573692321954685891e-01 9.978429248884658209e-01 -5.568411517052632848e-02 3.476746421163056516e-02
-7.734269886655599849e-03 -9.274438357725785231e-02 -8.566150863076938959e-01 9.972894940621543913e-01 1.861925140248210783e-03 -7.355404997703596237e-02
6.756104495634792512e-03 -1.901576770416583614e-02 -7.551424590120728864e-01 -9.983380143118210093e-01 -2.580779055252879414e-02 5.152831383547382127e-02
-6.935132331949082039e-03 -5.060880662107201944e-02 -7.363411757578293138e-01 9.959819096665258886e-01 -8.708104276602265936e-02 -2.090281339442634848e-02
-1.530811827099707451e-02 3.794944166532240176e-02 -5.532488306198969363e-01 9.965318132073549551e-01 3.767407528526497268e-02 7.419574999325344311e-02
-6.780194746966999994e-04 1.687646708982069588e-01 -6.436775731745114637e-01 -4.634033968113598356e-01 3.954270631588804319e-01 -7.930288327326038278e-01
4.093137465283742255e-03 -8.919560027719476702e-02 -7.753724443581252457e-01 -9.986507825962228635e-01 -2.666899033482766912e-02 4.455759614782202338e-02
1.719358336014690722e-03 1.238763834347790943e-01 -7.559159234425347762e-01 9.959584546891805390e-01 -7.770379280692525648e-02 4.504305847250809208e-02
-8.376670577080249161e-03 3.958181742351062765e-02 -5.605270116077667453e-01 -9.922574435655020508e-01 -2.880901735399542946e-02 -1.208106212547202241e-01
7.053957299091007625e-03 1.389448402492456935e-01 -6.724201641666542884e-01 -9.951099769747450141e-01 4.423250984803356323e-02 -8.831545050480217596e-02
-1.641022539570850466e-02 1.198297496490950964e-01 -5.849573900871967158e-01 9.943546756466088432e-01 -3.343176425151611619e-02 1.007030096807350339e-01
-9.702053176629844844e-03 -1.078910828730932359e-01 -8.343238560788556191e-01 9.963904282688011982e-01 -1.130297914714430488e-02 -8.413297282703113833e-02
1.293867739828334423e-03 -2.048347881773757706e-01 -7.978078483917789843e-01 9.780474766378902673e-01 1.930239486156641315e-01 -7.851680522711548815e-02
-8.467260597368610198e-03 -1.174042079754406970e-01 -8.650139457450535252e-01 9.958782660848649604e-01 1.394838568981653960e-02 -8.962098903968268582e-02
1.891257561712614494e-03 9.652538986806834254e-02 -8.456706836305677433e-01 9.951863081390485144e-01 -9.753410012245122829e-02 9.555700177062587120e-03
1.010802362469001049e-02 -1.952928497082075943e-01 -7.593561833275459527e-01 -9.959590204090830179e-01 -6.854638432239294754e-02 5.802605330458575350e-02
1.247463687714738326e-03 -1.443463753921387926e-01 -7.894092804188597157e-01 5.013705567841739152e-02 9.822423867949146015e-01 1.807931669929158658e-01
-3.173172596667383182e-03 -3.222638805503758724e-02 -5.800833334103554506e-01 -9.937961541381499231e-01 -5.062281018310620800e-02 -9.902795115212402466e-02
-1.730500858573266569e-03 -3.938601620070757980e-01 -9.461125343253126152e-01 2.234554401972662502e-02 -2.884152960484140937e-01 9.572446362700436362e-01
-1.186825525789582912e-02 2.173947714156811151e-02 -5.855890614256122895e-01 9.958005815423750517e-01 3.790274206125524709e-02 8.333417032709716787e-02
-5.715855100132236424e-03 1.195794972737869097e-02 -6.695831888324954573e-01 9.980457490009077004e-01 7.011954797112062918e-03 6.209279661233280123e-02
-3.458757509608295904e-03 9.264921787783685081e-02 -6.093887952514910333e-01 -9.947116846296230053e-01 5.366756615062790933e-03 -1.025663803823270576e-01
-6.387575595120994522e-03 -5.794780106574583950e-02 -8.432085717172170813e-01 9.980781490068177941e-01 -2.512960072232518077e-02 -5.664372553655683956e-02
1.560998339774465797e-03 1.013558254481983049e-02 -8.798061946311994674e-01 -9.966569337094215442e-01 6.111985271247302731e-02 5.421549680063276339e-02
-1.474758940839411428e-03 -1.492843307123167540e-01 -7.809785804124016462e-01 9.981720715660474808e-01 4.205013579835786830e-02 -4.340854322463194581e-02
-2.241015942068388857e-03 3.833920324076163511e-02 -8.153662127484949673e-01 9.984003841924914413e-01 -5.643922657777401125e-02 -3.359545741347001822e-03
-1.246144686366340744e-02 6.584397026586497059e-02 -5.902300876684547504e-01 9.956134337276509871e-01 1.842069933930005551e-02 9.173095669885508729e-02
-5.242424482708840650e-03 1.015172960158440413e-01 -5.934393771426333952e-01 -9.927243640001378600e-01 1.067075393500916888e-02 -1.199352830945926290e-01
4.019941475887570635e-03 1.865549793574923232e-01 -6.497418252534530314e-01 -9.909669810939573109e-01 5.775925298077538156e-02 -1.210302072898793713e-01
6.857780851723058353e-03 7.769916775498150914e-03 -8.189068469172218201e-01 -9.995733246390003934e-01 -1.066158752076356610e-02 -2.719373497099124640e-02
-5.688348681737554619e-03 1.737909658480824016e-01 -5.815193292141604964e-01 -9.865169426472152336e-01 1.886392055875526011e-02 -1.625683682982153322e-01
2.656036746939845986e-03 -1.688044546383791755e-01 -7.201107333105596364e-01 9.960925376671659892e-01 8.121336147928800986e-02 -3.469937061417517621e-02
2.115552194535724913e-03 -2.259963417995911328e-01 -8.421884244615674975e-01 -4.796778186418357848e-01 3.898991688674270373e-01 -7.860584128546045379e-01
1.879348811948706273e-03 1.922436098668185017e-02 -8.838195847954952722e-01 -9.966685183669214965e-01 6.861131587988311686e-02 4.409480501732968016e-02
2.865926423331722084e-03 8.849448733435069658e-02 -6.824936928877038955e-01 -9.975391155811621502e-01 2.917711672533800094e-02 -6.375271559038747649e-02
7.098825573294221571e-03 -3.830972385853361195e-01 -9.256556989424854498e-01 -9.578937387368254841e-01 1.340255363145696765e-01 -2.539227065553183449e-01
1.430608143591272259e-02 1.600461908950490675e-01 -8.270336879901921678e-01 -9.967256449987199618e-01 8.084058505611536882e-02 1.669853188246179935e-03
4.973468283827186566e-03 -3.875743962146375177e-01 -9.248087159116600287e-01 -4.747434823908376345e-01 3.972253044631231522e-01 -7.853856908688874316e-01
-8.652730162073532516e-03 8.541305895408465854e-02 -5.648373923515341843e-01 -9.932191684366362683e-01 -1.356870464094687631e-02 -1.154624341697470524e-01
2.100664281092048426e-03 -7.268642083558496392e-02 -8.743224788430312699e-01 -9.991827153060709454e-01 -3.120838130670812449e-02 2.568926565323105884e-02
2.478188515366849549e-03 2.247802847037287111e-01 -6.709268377203198019e-01 9.891488601070559383e-01 -8.370658338528609577e-02 1.207383139143247269e-01
-8.998795815967385644e-04 2.226825417286507069e-01 -6.015885351131282643e-01 -9.827756046694960945e-01 2.223243098957204678e-02 -1.834607039090388747e-01
7.400932408774895483e-04 -3.272256612712557203e-03 -6.507333763256711867e-01 -9.978695632831486861e-01 -2.971952192147744171e-02 -5.807826348864913307e-02
6.099534624681189794e-03 -1.474129802541049583e-01 -7.780545506776727072e-01 -9.971200296030917620e-01 -4.995173595252327958e-02 5.706549429960749292e-02
-2.270465707973969970e-03 -1.363357054047546930e-02 -9.117486131385709180e-01 -9.893864114821643296e-01 4.649048692359081941e-02 1.376704884862861855e-01
5.743898813414646289e-03 7.468247606801738103e-02 -7.458852251389764820e-01 -9.980586837103443409e-01 5.387616668984823026e-02 -3.124456005743098466e-02
-7.312460524479663486e-03 -6.600078148903163779e-03 -8.071517678390787154e-01 9.972836434623209012e-01 4.932508817590921385e-02 5.470256080803958393e-02
