-2.802491426015183210e-02 2.252431439416715808e-01 -7.772459221468075441e-01 -6.138300506821608993e-01 -3.707036995572773330e-01 6.969874001831624089e-01
2.899496635081862117e-02 1.746864413709323105e-01 -7.441095034638245398e-01 6.073992887684946940e-01 3.931599439585244937e-01 -6.902835377365281744e-01
-2.627401894928965698e-02 6.484626908751950358e-02 -8.440296913024532000e-01 5.634572914516037256e-01 4.371464749514308856e-01 -7.010127246687901659e-01
7.973217114781952497e-02 -1.426596204955966340e-01 -9.063597376788017357e-01 -4.475004718981619445e-01 -4.700819538641815565e-01 7.607669053673116188e-01
6.378757730371242829e-02 -4.694042869169553350e-02 -8.577815370240199355e-01 -4.988141710769067871e-01 -4.436713816664741850e-01 7.445402123613071854e-01
-1.384469939963856588e-01 2.622980146202210511e-02 -9.441047607581368739e-01 5.403566485064890124e-01 3.214207202953108244e-01 -7.776267825761138397e-01
-1.331067250450690131e-01 9.008794521512762665e-02 -9.142526333642411185e-01 5.652977831912971984e-01 3.083869199224462121e-01 -7.650724958719613555e-01
-1.209832453159886273e-01 3.120011247715493569e-02 -9.408868078674982316e-01 -5.480288122694129127e-01 -7.922459291918345636e-01 2.683482971839827869e-01
3.818432532376902621e-03 -3.490970754356532701e-01 -1.049167884742035373e+00 -2.574880660614020100e-01 4.601307133024375995e-01 -8.496938404576964698e-01
1.318426966313155368e-01 -6.087304790698388340e-02 -8.195617637963402702e-01 -5.188163763297847231e-01 -4.813989602103733167e-01 7.064592053051632625e-01
8.022621641001871640e-02 1.322820838650322905e-01 -7.276523346472566489e-01 2.217270992042856548e-02 -7.875145935788754326e-01 -6.158970172318449787e-01
6.804314550965660791e-02 -4.111642881874422173e-02 -8.429836706180413586e-01 3.575096314507170137e-01 -7.657495257723583304e-01 -5.346162429251295478e-01
-5.113845928257376022e-02 1.384456135754153216e-01 -8.308892117873625249e-01 5.809312685408115629e-01 3.509541751371401119e-01 -7.344045398725237428e-01
-8.607147008286017420e-02 2.010616714537490080e-02 -9.122508775003411730e-01 5.174627189136151717e-01 3.610169866352186396e-01 -7.758215451348046132e-01
-3.891394210411686094e-02 9.261882896854126135e-02 -8.439890428296316083e-01 5.624609095086412491e-01 3.669076432960705625e-01 -7.409564808851027973e-01
-4.320241388492390699e-02 8.250515306491756906e-02 -8.619139970463659539e-01 -5.623338945705074199e-01 -3.642826630471057148e-01 7.423467736984344922e-01
-6.382708330401133667e-02 1.129003809386689150e-01 -8.530719106322006695e-01 5.658927312629514761e-01 3.532408823784052299e-01 -7.449740235204734828e-01
1.977791245413720519e-02 5.122998974035198466e-02 -8.168852245623781094e-01 5.595923067504552373e-01 3.146569823080892503e-01 -7.667120931030575459e-01
-8.038348034435120748e-02 -1.603217054686066900e-01 -9.934448652070027030e-01 5.865469837141349396e-01 4.813514536737840133e-01 6.513550598114560275e-01
5.863288335109882732e-02 -6.807707128364749727e-02 -8.641049184067095545e-01 4.842539424740115450e-01 4.482918279384160987e-01 -7.513538155902386162e-01
-2.247879445517714583e-02 2.223075353518975950e-01 -7.739106459616258427e-01 -6.173710058416066460e-01 -3.758668274960918487e-01 6.910695834242354119e-01
-1.328147988269112734e-01 1.014325071617670077e-01 -9.093911099030979051e-01 5.663954537722846183e-01 3.127557324528353888e-01 -7.624828140777853980e-01
1.067178389952492673e-01 1.090124493636446396e-01 -7.185339386519178362e-01 -8.185605430275976202e-01 -3.553127364284056622e-01 -4.513441001388222018e-01
3.606868349156011622e-02 -4.159088345869910858e-02 -8.633090799973045515e-01 4.951936854279648803e-01 4.330925843041695256e-01 -7.531361280226873678e-01
-4.462706920473928640e-02 1.704140676846386260e-01 -8.098989295264440447e-01 5.975033615974320034e-01 3.484594599045794383e-01 -7.221950828431176195e-01
-4.896993594438367459e-02 1.745208260190061478e-01 -8.115104590319803801e-01 5.975033615974320034e-01 3.484594599045794383e-01 -7.221950828431176195e-01
6.135881504113112339e-02 1.325704547241459696e-01 -7.552794861831716444e-01 -6.029387644031800608e-01 -3.405865436605844399e-01 7.214330548687825084e-01
-1.366436620008110690e-02 1.442295534634795429e-01 -7.925604782937870629e-01 5.554858394099194685e-01 2.332891328400287234e-01 -7.981301038764324618e-01
-5.285046094750581874e-02 1.345590214274277052e-01 -8.438553859738364693e-01 -5.813681989923347171e-01 -3.608625233621426398e-01 7.292388198890104034e-01
-2.385435929446810301e-03 8.659986069957777144e-02 -8.329541872177886885e-01 -1.183269234379030407e-02 -4.727322624152080488e-01 8.811266625540827846e-01
-6.655097830540626647e-02 1.850476964862645401e-01 -8.349486673010565463e-01 -6.092429782714711139e-01 -4.577551398731468102e-01 6.475208300484422974e-01
4.932336349387688584e-02 1.074274561357165952e-01 -7.759486918299614011e-01 -5.810663294641903454e-01 -4.232222415135960536e-01 6.951581511075165531e-01
-1.130750601156361307e-01 1.582418362003100709e-01 -8.708875516565456332e-01 5.964114695372356723e-01 3.136433688300569456e-01 -7.388648023781945184e-01
9.430217487053163539e-02 1.042545912180413842e-01 -7.297356354229773689e-01 5.779442466910035270e-01 4.416153839670806658e-01 -6.862625593461852969e-01
-5.573144348678110704e-02 2.293949064976731067e-01 -7.989013532472947210e-01 -4.510910211917292800e-01 -5.991943954630832847e-01 6.614249519377336517e-01
-7.996970619534274349e-02 1.661799063025458101e-01 -8.501523478074104467e-01 -5.864126529339283023e-01 -3.363448940404129561e-01 7.368801210047234429e-01
-8.065583286010033492e-02 1.975623725927864449e-01 -8.272203235849738823e-01 6.079963886551970065e-01 3.273174748029504810e-01 -7.233281842088408187e-01
-6.011638427117799166e-02 7.004304172620878788e-02 -8.707810834164282365e-01 5.472712935590231531e-01 3.560294139492012344e-01 -7.574544129181781660e-01
-7.949876891844302740e-02 5.274543529007631737e-02 -8.927327718945006207e-01 5.273095892922213812e-01 3.578385979583675880e-01 -7.706465693504767067e-01
-1.093270791338814621e-02 1.644858104066363458e-01 -7.845567204339731759e-01 5.947168219960801139e-01 3.751022308715369347e-01 -7.110627384627037362e-01
1.084300077903875698e-01 3.883263498967919752e-02 -7.705008671875038795e-01 -5.562153107159288901e-01 -4.608481526671986406e-01 6.915515225262779397e-01
3.946835987738449292e-03 2.025203151047223205e-01 -7.607411323847749207e-01 -6.144308483487187500e-01 -3.843113606594574794e-01 6.890424592618006328e-01
-1.113024340733640705e-01 3.804665616590059002e-02 -9.298675346978682033e-01 -5.097498953514807418e-01 -3.483203940330761306e-01 7.866561811171367546e-01
-3.999195134245185808e-03 -7.262602126894665555e-02 -9.062106702128357449e-01 4.639028129879590456e-01 4.218474757077637638e-01 -7.789986439916610772e-01
-1.201163149038847744e-01 -5.309608067476536547e-02 -9.743169544809715532e-01 -4.458236547441430386e-01 -3.496455376908992330e-01 8.240080502297396636e-01
-2.997043317786232675e-02 6.545614106592706483e-02 -8.607973398335467818e-01 -5.463910220354089020e-01 -3.684327336722942325e-01 7.521397289053822766e-01
7.868590606132286336e-02 1.688472046934312229e-02 -8.078804343700410895e-01 -5.378921926973966317e-01 -4.577967024958275455e-01 7.078800521409920332e-01
-6.879756801697924085e-02 -1.577990608493102243e-01 -9.839972817828318563e-01 3.171972879522865774e-01 2.216617140085833382e-01 -9.220910828429540462e-01
-6.290433405246827203e-02 -1.470441646591721940e-01 -9.774856680779709928e-01 4.287013043270981316e-01 3.988048252551636974e-01 -8.106601649405521526e-01
6.365156415424268188e-02 9.032824683010338973e-02 -7.642338480485725283e-01 5.632572339832380148e-01 4.311956240158279496e-01 -7.048486519779640913e-01
4.283044895653480982e-02 3.969817156112204898e-02 -8.210875408715169188e-01 -5.466219277552991640e-01 -4.284670526736978902e-01 7.194584441579620071e-01
3.034894329174249450e-02 -3.766529661671835782e-02 -8.648124425858274567e-01 4.951936854279648803e-01 4.330925843041695256e-01 -7.531361280226873678e-01
1.163026688395374514e-01 -8.933956560092767840e-02 -8.494583056869158266e-01 -4.945525744183783545e-01 -4.796544382642500826e-01 7.248098861008736016e-01
1.937715827345074665e-02 2.031711334317098244e-02 -8.395528778908869505e-01 5.317762566923841527e-01 4.139314536606404360e-01 -7.388333807352134297e-01
1.609581004112412353e-02 4.646733759195615515e-02 -8.371473264102609058e-01 -5.323505574793857553e-01 -4.110302662553461106e-01 7.400385153310919950e-01
8.919246905143959903e-02 5.259549462989059065e-02 -7.819518024849247961e-01 -5.349341783500976000e-01 -5.164600002674799573e-01 6.686662044373268277e-01
-1.247526057915171044e-01 6.968641350037521609e-02 -9.251663971599335401e-01 -5.166586280615496074e-01 -3.346307974030326982e-01 7.880901544106285739e-01
-6.652254540597436760e-02 1.490580844198136079e-01 -8.380599143478504320e-01 5.952234666701424759e-01 3.432895638915254843e-01 -7.265406389516997354e-01
5.239737991965990466e-02 -1.344095832821836367e-01 -9.028099452410253134e-01 4.587112713210534376e-01 3.844936089721791017e-01 -8.010921508931241330e-01
-1.039419729936064962e-01 1.845387092350246616e-02 -9.275915697472376653e-01 -2.078464711489029226e-01 -7.697200086296432930e-01 -6.035983372625625121e-01
-2.857095132877307195e-02 -6.307071506587934306e-02 -9.256724429817999589e-01 -4.751163171560692788e-01 -4.012745072599269158e-01 7.830984963562096501e-01
-1.567072395635394494e-02 1.772810959169014988e-01 -7.818949458301038824e-01 6.091957465326481858e-01 3.696664023071751237e-01 -7.015891200779836856e-01
8.532015176153361427e-03 -2.474613654884858793e-01 -1.006384787647626622e+00 -7.333176592158303642e-01 -3.293769327193438179e-01 5.947739460287516655e-01
2.919864628063582532e-02 9.321447995939179110e-02 -8.006468609072379117e-01 -5.642894419419458574e-01 -4.070359967268849521e-01 7.182611802689875535e-01
-7.504647253468511858e-02 -1.226135253736045441e-02 -9.201232489565303041e-01 4.985924343595052322e-01 3.811197445383982529e-01 -7.785584915229226688e-01
-3.702356593282075253e-02 -2.563652849205318857e-02 -9.118293253318169311e-01 -4.923789506691045315e-01 -3.982265097560065970e-01 7.739370877956042172e-01
5.693859521177608435e-02 1.383353445946557125e-01 -7.515236361748012239e-01 1.655584275650979764e-01 -9.239246129680807051e-01 -3.448966752723992002e-01
-1.189722832651799872e-01 1.057377960974712622e-01 -9.059861738255462482e-01 -5.314661616162026370e-01 -3.348977125434526303e-01 7.780663475501966575e-01
-3.830010297962031102e-02 2.201391508401955577e-01 -7.799946162960279539e-01 6.284037181308154141e-01 3.418495316696230635e-01 -6.987472108972073714e-01
2.143165367765271622e-03 -1.110193355440995122e-01 -9.189221180506328412e-01 4.125674120140644940e-01 4.370936447454779605e-01 -7.992104080072601757e-01
2.097021427701585561e-02 1.905335781052202582e-01 -7.423366145302396912e-01 6.150395591409834051e-01 3.840255129212581386e-01 -6.886586571860037198e-01
2.765006888284810265e-03 -1.227722935207194027e-01 -9.429842896231600546e-01 -4.689853759275358080e-01 -4.205712146972854226e-01 7.766418547401098271e-01
-1.149040098390161913e-01 -3.073487790235369596e-02 -9.531520489821109221e-01 4.903106178111886204e-01 3.452998612652559696e-01 -8.002271576694992561e-01
2.061907260547783671e-02 1.310368178697915442e-01 -7.852012116429567534e-01 -3.181706916907905414e-01 7.934442423489216356e-01 5.188580203026160742e-01
-1.104118341875594961e-01 1.205624006450740221e-02 -9.317819995191433113e-01 5.072352653932450384e-01 3.494979913908915492e-01 -7.877585540983841339e-01
-1.238903219419488777e-01 -3.770094291179190704e-02 -9.699116712014151931e-01 -4.569554695823719315e-01 -3.432717311252530545e-01 8.205828522635760791e-01
-8.213748140535348519e-02 1.008727483215590137e-01 -8.723608696655712480e-01 5.560019936633657789e-01 3.527887113210108061e-01 -7.525967766386084667e-01
-7.056639378863881207e-02 -9.120909259745232922e-02 -9.548197960556890074e-01 4.558750042369089650e-01 3.825515100766331278e-01 -8.036369345980098888e-01
9.500397500701833475e-02 -5.846074875149093186e-02 -8.339494654912573690e-01 4.945823674458661445e-01 4.703985764902154365e-01 -7.308306650980247454e-01
8.121636269294000079e-03 -7.026851168002683223e-02 -9.070082306524808180e-01 -4.698873363952559834e-01 -4.238241285178662721e-01 7.743248666944919645e-01
1.073455843853607546e-02 -1.369852336194146980e-01 -9.392657916137792107e-01 -2.783915035803185001e-01 8.681633850280967568e-01 4.108412194885592283e-01
1.056770298749312199e-02 9.108308536605917716e-02 -8.066778390638528196e-01 5.808352550512819734e-01 3.966861051959122975e-01 -7.108238462755803733e-01
-1.091696278230915168e-01 -7.543447113303422547e-02 -9.674060813707389128e-01 1.907097734847818804e-01 -2.771025250809863172e-01 -9.417239366667520262e-01
1.947439074041017182e-02 -2.184201971135055764e-01 -9.767229525454306227e-01 2.574696017711977647e-01 5.331464734126354355e-01 -8.058934433605047243e-01
3.605885127161574666e-02 1.350048038656662397e-01 -7.708577978858722757e-01 -5.963543451762840508e-01 -3.976574791684963639e-01 6.973019605957829770e-01
3.192142632788831647e-02 6.476748673030342796e-02 -8.148137935182255820e-01 -5.490058734180361943e-01 -4.151498256054395597e-01 7.254262011068201010e-01
-1.515815051977149538e-02 2.181933143512103934e-01 -7.694964657589470347e-01 -6.274978201771499453e-01 -3.703194637249337395e-01 6.849160389853656827e-01
-9.592933751968851785e-02 1.888918021228670474e-01 -8.522212631519364701e-01 -5.701125458170337446e-01 -3.516005235338340862e-01 7.425286236588826139e-01
-1.447473764219789176e-02 -8.447849836919107958e-02 -9.188337425211281495e-01 4.635967672690826658e-01 4.138109312314515176e-01 -7.834784940067053283e-01
9.092397329727802679e-02 -1.238269825619358611e-01 -8.783212914657785308e-01 4.529502176396591473e-01 4.744370439586368948e-01 -7.548149386836326968e-01
-1.355632195438944143e-01 9.952226295092056474e-02 -9.122162658104939759e-01 5.663954537722846183e-01 3.127557324528353888e-01 -7.624828140777853980e-01
1.163289599205798025e-01 -4.730100612266193577e-02 -8.120067597277070837e-01 5.107286955743802759e-01 4.794790027126326626e-01 -7.136218084353865843e-01
6.268817863769020338e-02 1.642694215890910248e-01 -7.200972621206723767e-01 6.042063444468737110e-01 3.932012399544246861e-01 -6.930566197854608479e-01
7.891132032311237721e-02 -8.229341668449072222e-02 -8.694808039626995555e-01 -4.765267096190791696e-01 -4.626734687655047473e-01 7.475664226810280200e-01
1.141078444670345499e-01 3.069042660048143176e-02 -7.714026730698712031e-01 -5.555697765972168467e-01 -4.640170818481705872e-01 6.899495424194634907e-01
-9.681468711696822327e-02 1.653184782678526754e-01 -8.547067712949468765e-01 5.826880348914410535e-01 3.295623547766717842e-01 -7.428750287285245113e-01
1.393615644809965415e-01 -6.294824348580511930e-02 -8.152672803813292290e-01 -5.522993637054592897e-01 -4.697537133496288431e-01 6.886921385094938453e-01
2.854833682678552774e-03 -2.139792320428741679e-01 -9.752179062564554357e-01 -2.589120133065043738e-01 4.656430938134122344e-01 -8.462511911657475405e-01
-5.500771667312892230e-03 -3.200821312863317281e-01 -1.035568584663113301e+00 3.314256734667726523e-01 4.492735788645627060e-01 -8.296446674940568533e-01
-1.054816671920248000e-01 1.878103461700772747e-01 -8.551528497340499246e-01 7.957619422576825974e-01 -6.055813942330472432e-01 -5.840052486031256131e-03
1.367002669550624050e-01 -8.578211374345875995e-02 -8.244122759011721646e-01 4.620110388417673075e-01 5.077590137427225869e-01 -7.271358772274745252e-01
4.721064390834673469e-02 6.776727027579834868e-03 -8.272833060879316580e-01 5.316096163537662456e-01 4.312854124789349264e-01 -7.289609789166198173e-01
-8.842355090417799643e-03 1.542610263843771368e-01 -7.981302017425287998e-01 -6.047561170229756033e-01 -3.771649719133640111e-01 7.014389659014422795e-01
-1.079848446854690322e-02 -2.016249894721880431e-01 -9.780898807845382903e-01 3.743679221636621590e-01 3.964033847063438976e-01 -8.382797954431543408e-01
3.192055234187876622e-02 1.278287887170486137e-01 -7.784893390883586006e-01 -5.963543451762840508e-01 -3.976574791684963639e-01 6.973019605957829770e-01
-4.274063429804179221e-02 -2.451177261705324295e-02 -9.054182480203529781e-01 4.950304644318819780e-01 3.940854323972050599e-01 -7.743652311775517383e-01
-3.051248739540053309e-02 5.795336423638873524e-02 -8.650199250970890263e-01 -5.339098193083685606e-01 -3.853985682239913224e-01 7.526009888759136457e-01
2.526647690375496275e-02 -8.525714060854484855e-02 -8.952507831236651281e-01 4.737609289288673975e-01 4.369214458420854208e-01 -7.646242426079089549e-01
3.989081710146686471e-02 1.236398955281376721e-01 -7.641436038834015232e-01 5.807713760426715943e-01 4.091380183172880214e-01 -7.037831276301701466e-01
-8.524963924516158059e-03 -5.314476344643513650e-02 -8.963597416422253161e-01 8.296609670349414101e-01 2.706819033064070124e-01 -4.882560670396906555e-01
-9.480482835047628065e-02 1.249098497212380171e-01 -8.803083184550291040e-01 -5.594224728371701705e-01 -3.392222931626165394e-01 7.562901114692971438e-01
-9.279307366336810026e-02 1.538671701915953760e-01 -8.566324976408193903e-01 5.826880348914410535e-01 3.295623547766717842e-01 -7.428750287285245113e-01
1.272970664966590060e-01 -1.779606479987449683e-02 -7.936516699491387161e-01 -5.421240181952274861e-01 -4.770121967990960665e-01 6.917809718406261466e-01
-6.394140838210846112e-02 -8.289881228919078471e-02 -9.561799431188680032e-01 -4.526809053185539278e-01 -3.957075053093290773e-01 7.990591769085954033e-01
1.301165615641377560e-01 2.351533963945803222e-03 -7.776861392630785019e-01 -5.561908699577953197e-01 -4.722279098126824781e-01 6.838512392103532900e-01
7.513103181404241770e-02 7.318576375698385150e-02 -7.755004026696706854e-01 -5.695720186400993201e-01 -4.422701234853100849e-01 6.928093918636865078e-01
-9.580530414767382541e-02 1.520703325793239247e-01 -8.597948207686824107e-01 5.827697312594153356e-01 3.309384976291687708e-01 -7.421988622429823712e-01
-3.186609291818439521e-02 8.512126988683754725e-02 -8.424445811187336597e-01 5.522289166696643381e-01 3.795215414246074226e-01 -7.422982036813366991e-01
5.618790410964055737e-02 -9.948208707316419375e-02 -8.844917578885874709e-01 4.676660767731344870e-01 4.623201323864339352e-01 -7.533581723362502425e-01
-1.037067236705237205e-01 6.394449984526228738e-03 -9.389176345584788752e-01 -4.962184282701486704e-01 -3.521042681986434331e-01 7.935930038510932150e-01
-8.732875817212581993e-02 1.698230719186606952e-01 -8.543458128658067974e-01 -5.864126529339283023e-01 -3.363448940404129561e-01 7.368801210047234429e-01
-1.423248858031516406e-01 -1.139269475604197564e-02 -9.647538318018692438e-01 9.542000649157118541e-01 3.314230046399186530e-02 2.973278056872681874e-01
-3.638020645165851441e-02 6.531774119724267913e-02 -8.655215067343102753e-01 -5.463910220354089020e-01 -3.684327336722942325e-01 7.521397289053822766e-01
-8.887820594733154833e-02 -8.689019144691369212e-02 -9.758007558913441848e-01 -1.544797886759322614e-01 3.004011682186843446e-01 9.412200237051320251e-01
4.293757374684071572e-04 -3.191380027070712666e-01 -1.033087948986898486e+00 2.033620035560904371e-01 4.662364500489909469e-01 -8.609689124209813915e-01
7.570027880086804828e-02 -6.558806143870349326e-02 -8.513463015087234798e-01 4.925803777233397907e-01 4.582188985148677451e-01 -7.398648609886496752e-01
-3.116050207443334108e-02 -1.118416137732536758e-01 -9.520122127354261332e-01 -4.373785388628328996e-01 -4.113213215376907983e-01 7.996966826182919652e-01
-4.993086904937967321e-03 -3.779299694758864736e-01 -1.066842039366765693e+00 3.319198039673569300e-01 4.533731894200144774e-01 -8.272133913624677426e-01
6.907110996323273392e-04 -4.747700920386989376e-02 -8.897153516627898107e-01 4.936493066710569422e-01 4.141213233075022870e-01 -7.647312544974399495e-01
1.868561052377905318e-02 5.603083314556885075e-02 -8.339409494276065482e-01 -5.632928212260321921e-01 -3.107934346194811681e-01 7.655773236928088421e-01
-3.914626025903901463e-02 -8.449137417903142266e-02 -9.333794089625586654e-01 4.666541876856726279e-01 3.901848694320996791e-01 -7.937188650786124455e-01
2.359177829002621213e-02 1.494439076108396158e-02 -8.395618599807103122e-01 5.306871136488455765e-01 4.193485287166798803e-01 -7.365582114607189812e-01
2.773813013915048774e-03 -1.156663189995767033e-01 -9.255768296561350805e-01 4.486983924674636248e-01 4.255603783502789339e-01 -7.858550228734824117e-01
6.814244872625549454e-02 -1.371670879224721473e-01 -8.957606735910135232e-01 1.551001258276064332e-01 9.520427949604050033e-01 -2.637393932127723994e-01
1.364106539624082293e-01 -2.209700676767426333e-02 -7.894541485409675152e-01 -5.580314548529673457e-01 -4.719257771304731230e-01 6.825591229149896577e-01
-3.112025201230287155e-02 1.951448716252980053e-01 -7.860058149760350554e-01 6.136696225341042865e-01 3.499091142364387785e-01 -7.077946073213057243e-01
1.450183211424659613e-01 -6.009964938450086669e-02 -8.058841558927152260e-01 -9.621148417387083152e-01 2.019574108898436748e-01 -1.831617741035806157e-01
-2.701451711626141200e-02 -1.459189146125266789e-01 -9.672767442089496015e-01 -4.270464889372662110e-01 -4.142525144535847414e-01 8.037575197503513680e-01
-2.402738278013579615e-02 -5.472419217505707090e-02 -9.185527003928406486e-01 -4.780678467740251403e-01 -4.121242160636888197e-01 7.756318485046479472e-01
-1.156676435530266112e-01 1.079801171497800499e-01 -8.939764591547547656e-01 5.556233870701010602e-01 3.273562057362458533e-01 -7.642778070222355780e-01
-2.778407748483982531e-02 6.483855157814112646e-02 -8.526990056097147885e-01 3.132804630029417670e-01 8.702257606455228167e-01 3.802137254355554274e-01
1.700025637041414212e-02 -1.268747413470800445e-01 -9.236314696974827765e-01 4.515883688546672436e-01 4.407465282331879397e-01 -7.757644249162066741e-01
-1.915294254148195980e-04 1.307888229547644610e-01 -7.935826755714993075e-01 6.017065223900225357e-01 3.803388045546250984e-01 -7.023472464979585439e-01
-5.294250668956392014e-02 1.722485291369955651e-01 -8.155800115592619637e-01 -1.817468991501696718e-01 -8.012379785203044280e-01 -5.700752287426587017e-01
1.055460475356505834e-01 -6.517885018975706768e-02 -8.409228321725987776e-01 -4.962956280671322329e-01 -4.730365670661881849e-01 7.279608889079733913e-01
1.250282715486351285e-03 -3.317657924694315114e-02 -8.953573102679843743e-01 -4.479372015362413362e-01 -4.257421728676211714e-01 7.861907311345242011e-01
8.798481842740779602e-02 -8.282037375863789130e-02 -8.541394201367523697e-01 4.815900340337960772e-01 4.769032636620220145e-01 -7.352783936903349860e-01
-3.123438895733166975e-03 -1.691702504226556547e-01 -9.704026017226969891e-01 1.682639829361029238e-01 -4.674567485524621646e-01 8.678544925730576898e-01
1.222197331078430094e-01 7.223083973297618476e-02 -7.358895452920748426e-01 -6.063327027701915783e-01 -4.621792713709298450e-01 6.471097083697873176e-01
4.520609368848369641e-02 8.730071353920761112e-02 -7.810996031719864563e-01 5.782634004549274120e-01 4.166425330006511829e-01 -7.014416863782091394e-01
9.206539307800597205e-02 1.071867247160731944e-02 -7.916399634679073261e-01 5.342695801888542873e-01 4.617998551511124927e-01 -7.080232407677287121e-01
7.563902735880351225e-02 6.719954715670044265e-02 -7.789277334719043600e-01 -5.689866685041768957e-01 -4.463425121571267806e-01 6.906754179104562796e-01
-1.846706293117238423e-03 2.159749393133918172e-01 -7.586071820947293265e-01 -6.252543795261300552e-01 -3.773072970055968423e-01 6.831516409332004658e-01
3.546081169152394321e-03 3.948575310900142438e-02 -8.403572493533872922e-01 5.497703266944021783e-01 4.004573320298276951e-01 -7.330665134282720041e-01
5.561792774160140979e-02 1.857317098285239665e-01 -7.226133426480398914e-01 -6.383933971767101756e-01 -4.316205903069295080e-01 6.373049007063079641e-01
-7.196735826756386900e-02 1.896076345024455267e-01 -8.235463637640205725e-01 5.956665448587856737e-01 3.367402619189312496e-01 -7.292375218944551207e-01
2.080574483691604096e-03 1.849546829853249419e-01 -7.573959926102731277e-01 6.850599347742063194e-02 4.779641387796444429e-01 -8.757038374349541687e-01
2.340712112475749635e-03 1.193694074364994306e-01 -8.076537090695227183e-01 -5.764064036213054631e-01 -3.912720736818308120e-01 7.173993464041300561e-01
-5.963753334493222119e-02 2.013030774140408263e-01 -8.076670191797712395e-01 6.184987083375220740e-01 3.376020272782708220e-01 -7.095662188706693962e-01
1.219674604470987467e-01 4.428041443650748699e-02 -7.578473544914933191e-01 -7.288457925170754859e-01 1.085367295738804971e-01 6.760204058041169306e-01
7.007664066653251922e-02 1.286079325932177886e-01 -7.453310890887649975e-01 -5.963013379351576049e-01 -4.297833434581219691e-01 6.780199053587580016e-01
2.950828171516431744e-02 -1.201192631706307912e-01 -9.221640146180110076e-01 -4.461463874632024540e-01 -4.423672631397789212e-01 7.779875355400983628e-01
-1.316200987013694257e-01 -1.534950346886875330e-02 -9.569420336380669578e-01 5.054813885110502891e-01 3.341819126831124254e-01 -7.954941955189851477e-01
1.198668973262730642e-01 8.086598046587333000e-02 -7.318352525240179318e-01 -7.128264131830915895e-01 -4.566654256818030722e-01 5.322923948877966716e-01
-7.472292933822760608e-02 -1.211551688300351731e-01 -9.712754786018527042e-01 4.355854958019506618e-01 3.888142316821768252e-01 -8.118428228963828763e-01
-1.123166395694005226e-01 -5.523570615704393588e-02 -9.623296444551240336e-01 4.769207997293749557e-01 3.498223406961172288e-01 -8.063317435989875159e-01
-3.850832491584303642e-04 2.105615892208814177e-01 -7.455334828839178529e-01 5.900458370650756290e-01 3.671881264790062827e-01 -7.190401865925238889e-01
1.387526488375095679e-01 -6.844611636095922214e-02 -8.110959554296067742e-01 4.721627615548390500e-01 5.015717431750799093e-01 -7.249055890591685758e-01
3.105653046839407586e-02 -3.978708463655421246e-02 -8.697360439322084913e-01 3.509569379086258101e-01 -7.780058480500526841e-01 -5.210912857971427004e-01
-1.581070924368328801e-02 -4.196927858768041003e-02 -8.924807758751576170e-01 5.145903417137001057e-01 4.601625006721524747e-01 -7.234965467713916354e-01
7.492637300813616286e-02 -7.742756747076423585e-02 -8.690250629187358244e-01 -4.808756222918653123e-01 -4.611337201876040681e-01 7.457307342408197037e-01
-3.596906642186719488e-02 6.249290654198750433e-02 -8.666065688600914640e-01 -5.463910220354089020e-01 -3.684327336722942325e-01 7.521397289053822766e-01
-1.317498434343335745e-01 2.768216813318827643e-02 -9.360091166596958834e-01 7.812159832727815223e-01 1.532876065093970175e-01 -6.051483265859385341e-01
-6.603045443771282663e-02 1.709107172138854824e-01 -8.228119415665906544e-01 6.279898205122348420e-01 4.171370327932454880e-01 -6.569821011302042768e-01
5.010186839011082638e-02 -4.929693566442674285e-02 -8.584505607750778644e-01 5.019043708002999260e-01 4.394331884950063993e-01 -7.449768287810485390e-01
-9.595229032673319169e-02 -2.487361549646517622e-02 -9.390281394275336035e-01 4.885228988924569249e-01 3.702089054406881852e-01 -7.901207145684248090e-01
6.377262301338259762e-03 9.099649693514258453e-02 -8.233434609032315166e-01 -8.552124567619250328e-01 -2.493692634348985138e-01 4.543419684039426421e-01
-4.292465148254515084e-02 2.053672716688226541e-01 -7.912510948020720081e-01 6.182582084579821835e-01 3.476548483707892490e-01 -7.049063016306563734e-01
-9.959703566225618088e-02 1.160133475820640386e-01 -8.923793067827778813e-01 -5.738870297123532804e-01 -4.326075365598731071e-01 6.953448039926168889e-01
-1.067141385635576728e-01 1.012714579027080286e-01 -8.993253134493749412e-01 -5.449008000112731676e-01 -3.290199151794466204e-01 7.712515890177372713e-01
-1.117624279866365616e-01 -6.429600802929202885e-02 -9.745850505369239025e-01 -4.303563740197911547e-01 -3.554714082485783133e-01 8.297189097871100483e-01
-3.414577737936768526e-02 1.339663654426360151e-01 -8.292524126997251610e-01 -5.804696640687648790e-01 -3.612495646221833834e-01 7.297627841676898042e-01
5.128140740402806902e-02 -1.990075817984678780e-02 -8.500871529131175386e-01 -5.200460994731366249e-01 -4.386223984287179190e-01 7.329136688720001569e-01
5.261941035377949022e-02 3.805870838257451039e-02 -8.146646679263526147e-01 -5.384568039655719396e-01 -4.306477030237767512e-01 7.242974707559919345e-01
-1.151828700287470530e-01 -8.886129472364122373e-02 -9.789562458836181813e-01 4.732741852961928619e-01 3.657437360348660960e-01 -8.014006894703069594e-01
1.212459769211498700e-01 2.429657725650177444e-02 -7.699363568875635666e-01 -5.582547367393810855e-01 -4.634762042264740090e-01 6.881434857817548822e-01
4.045372842007480957e-02 6.293025632654365709e-02 -8.093680048607531097e-01 -5.623271491524324261e-01 -4.225238097906413026e-01 7.108177034135407801e-01
-2.362377883163541831e-02 -7.455673245741988031e-02 -9.285565802933933854e-01 -4.751163171560692788e-01 -4.012745072599269158e-01 7.830984963562096501e-01
-8.049105211678156402e-02 1.078583030206083926e-01 -8.815905504630292544e-01 -5.664860289813883343e-01 -7.788084499307114106e-01 2.693528861650096862e-01
-3.038543277702769607e-02 7.688437427924979528e-02 -8.553176297398222827e-01 -5.488928161192155875e-01 -3.807344575765476136e-01 7.441491444775096831e-01
6.898004278356872909e-02 -1.676583000890858044e-01 -9.183401319655981609e-01 4.270117177470719172e-01 4.801891816374687649e-01 -7.662110301640359111e-01
1.071063968264408806e-01 -8.215756820632645618e-02 -8.412212002843546532e-01 4.820089560241572202e-01 4.884365529574711817e-01 -7.273906103652464372e-01
1.432967875955022327e-02 -1.754369996792633224e-01 -9.522113891323226165e-01 4.212860966022823339e-01 4.474745314861693357e-01 -7.888501559110234762e-01
7.937718658364331659e-02 -1.896643565723943048e-01 -9.379958562844071812e-01 -3.627194202581288107e-01 -5.557712823277382030e-01 7.480326890633781645e-01
1.522253471864555216e-02 -2.102402283656868986e-01 -9.816428749223373718e-01 -3.184958143862280933e-01 -4.501865168588897181e-01 8.342017239594475830e-01
-3.127579505802585008e-02 1.591246072577963411e-01 -8.186927411403255306e-01 -5.712124548146805258e-01 -2.731533051695868020e-01 7.740178314092753808e-01
8.946996696259361392e-02 -3.602915311915358410e-02 -8.334132386560159089e-01 -5.142621403918655743e-01 -4.664614788233765741e-01 7.196861397397382731e-01
5.561552196664994174e-02 -1.370014047257602785e-01 -9.073080410674767560e-01 4.397175146693230174e-01 4.553349425258328420e-01 -7.741567008093583890e-01
-1.459073602208437251e-02 3.213279207412726018e-02 -8.670271454352983520e-01 -5.304188609280865441e-01 -3.846698426900254653e-01 7.554369226458174102e-01
5.396288343436817653e-02 -1.327722653038178324e-01 -9.057592837599333091e-01 4.397175146693230174e-01 4.553349425258328420e-01 -7.741567008093583890e-01
2.579052797437884209e-02 1.159649482991548242e-01 -7.803075596992357088e-01 5.961989632200516143e-01 3.954992090182974929e-01 -6.986609849714214837e-01
8.549523286479110418e-02 -4.059612132718109362e-02 -8.434985641776473475e-01 -4.722789535865413724e-01 -5.497602976539623931e-01 6.889965203995072063e-01
1.253533688636483123e-01 4.530735155026724414e-02 -7.520542723292005238e-01 -5.723148750836852816e-01 -4.627879083330506127e-01 6.769660520725289121e-01
6.670175682131440631e-02 1.020348628391530565e-01 -7.646709850662986030e-01 -5.853695841774970710e-01 -4.305204837027484799e-01 6.870186045750259485e-01
1.294560648004395298e-01 4.125030010612606990e-02 -7.511829649499975892e-01 -5.854216466612562897e-01 -4.673853085379207073e-01 6.624443138735031100e-01
8.674945879558436379e-03 -2.047209203362684027e-01 -9.821015117178261145e-01 -7.969074941273368573e-01 -2.966595533097180493e-01 5.262428671571403038e-01
-1.154613112030215966e-01 -5.875384050146363613e-02 -9.657160445331569587e-01 4.818099521003995078e-01 3.498092081818736099e-01 -8.034255957636534662e-01
3.150860055620571809e-02 3.211022270135632795e-02 -8.338569058890213936e-01 -5.339918202444073891e-01 -4.195802511768289556e-01 7.340334793008107539e-01
-1.442977320580848266e-01 1.306433045558152983e-02 -9.573299741965490828e-01 9.594038992051662218e-01 -4.684499635012764895e-02 2.781181484673017623e-01
6.779741388923052337e-02 -5.459797534412502013e-02 -8.498118961740261934e-01 4.967678208319496469e-01 4.409484300835125326e-01 -7.475200426696009259e-01
1.734955757122644271e-02 -5.384621816316157578e-02 -8.921987932060090332e-01 -4.757829080524469401e-01 -4.284157213514446227e-01 7.681735442620232224e-01
-1.390749571898119430e-01 -3.085035980347780246e-02 -9.686159575556250179e-01 5.970231485452143216e-01 3.373969065358040642e-01 -7.278232529682112650e-01
1.076673254468869939e-01 -7.610611981221667918e-03 -7.919586391304592743e-01 5.256591327628820087e-01 4.640003883909448179e-01 -7.130120025048860555e-01
7.005632914248903498e-02 -1.532445176689505029e-01 -9.088896136482760291e-01 4.312462187107286016e-01 4.694533731435362456e-01 -7.704805184375880245e-01
4.659643160639374143e-02 -2.082783464387659780e-02 -8.440522755553593326e-01 5.167200294232654478e-01 4.395775649810432228e-01 -7.346917554717465881e-01
-7.110341439756725015e-03 -1.368846676582584354e-01 -9.509683036094952469e-01 8.620087299046854667e-01 -2.377083025558108242e-01 4.477004718158628105e-01
3.795044540491927104e-02 4.214506418349067002e-02 -8.133621676609240625e-01 5.466571383188106870e-01 4.283724687919676088e-01 -7.194880131775399645e-01
-1.023246863224342492e-03 7.543661195589103190e-03 -8.561562627826996286e-01 4.706118816882992606e-01 4.201590262524266817e-01 -7.758806928081217746e-01
-1.192326799849078717e-01 2.096575011717414366e-02 -9.422589429756994539e-01 -5.064950992413072006e-01 -3.365857604193737140e-01 7.938342020393494014e-01
-1.216974691287672772e-01 8.687189134141051761e-02 -9.159267465768564653e-01 -5.281601742500132701e-01 -3.219695448916901626e-01 7.857368786676832695e-01
-8.075414922071454116e-02 1.652968120237984784e-01 -8.418620792859730084e-01 5.817642043977429012e-01 3.393292249334061150e-01 -7.391928622406706006e-01
-4.869753906508965391e-02 1.236258170741496264e-02 -8.910137262006059267e-01 5.173036140698751284e-01 3.782233549862671351e-01 -7.676874784788260131e-01
-1.128735410332531441e-01 -1.304499591387963189e-02 -9.530005322917642907e-01 -4.844959178204426009e-01 -3.532758095136520060e-01 8.002873908964212024e-01
7.154507065085055628e-02 -1.724234517176703035e-02 -8.343422475841020258e-01 -5.182270029989533011e-01 -4.522075560427832874e-01 7.259125977833255083e-01
-3.362495978945792552e-02 4.444861212901021763e-02 -8.645285007399742261e-01 5.345147911819816411e-01 3.880501411332645811e-01 -7.508069165731867667e-01
-1.180462847632393064e-01 2.287634420227776383e-02 -9.406918876317371669e-01 -5.064950992413072006e-01 -3.365857604193737140e-01 7.938342020393494014e-01
1.007379329088736314e-01 -1.562575131814273877e-01 -9.025020661921423493e-01 -4.614135032126597258e-01 -4.738265103206952267e-01 7.500573425881073009e-01
9.760895285941008359e-02 1.289129008483562433e-01 -7.175397200801093556e-01 -8.175773302926906405e-01 -3.568856660618862642e-01 -4.518848640428674290e-01
3.792425753088942558e-02 4.726491904678316314e-02 -8.152725458116096835e-01 -3.188544834697039088e-01 7.785206646815470144e-01 5.405898565780445919e-01
5.848680983844738168e-02 6.959257066709975681e-02 -7.911827042954202582e-01 -5.629578037762319465e-01 -4.334108899122202652e-01 7.037282939266681359e-01
-2.672347444065363911e-02 -1.737299541775004785e-01 -9.723182423646721251e-01 4.151252655288117377e-01 4.208196443823709054e-01 -8.065865364742512700e-01
1.353441615201585180e-01 1.003935572490461531e-02 -7.594023178565999510e-01 5.140778810077710759e-01 4.794262819813587262e-01 -7.112484603878527212e-01
8.535157279705111316e-04 1.328869222344793433e-01 -8.058221185576274204e-01 -5.368872832638774684e-01 -4.017370902178983849e-01 7.418620865179655910e-01
-2.779619385613699492e-02 -2.152448104739298693e-02 -9.038270999098451108e-01 -4.987783322534321551e-01 -3.965445584744390906e-01 7.706961712755536764e-01
8.532566286896166308e-02 -2.084013360250213179e-02 -8.168653902093704344e-01 5.118827716402853945e-01 4.540579917459791615e-01 -7.292512380719474718e-01
-1.585506685288165388e-03 -3.586399951632416871e-01 -1.054973136383612786e+00 2.028429329725690289e-01 4.704702657188643555e-01 -8.587854642560662777e-01
-3.935931130311669593e-03 -3.513110561856633285e-02 -8.859714946529232416e-01 4.932951720546886465e-01 4.108044377999315877e-01 -7.667461034210851789e-01
-5.017966671025839154e-02 -1.812554069667164369e-01 -9.919949263963180330e-01 -2.587046445800221250e-01 -1.895152084050250596e-01 9.471831357535481777e-01
-2.607917378592963450e-02 -2.351372816619621414e-02 -8.941927189354772487e-01 5.024520018818894318e-01 3.921258688137616577e-01 -7.705707552275354866e-01
3.139722817926938331e-02 -1.885803112635560039e-02 -8.533194117787435973e-01 5.044947520241953587e-01 4.283074191380746853e-01 -7.496918032707358126e-01
1.314520316621398677e-01 4.821473118967149057e-02 -7.394988536324699213e-01 -9.301557670297548874e-01 -1.058762573991457734e-01 -3.515685810484751039e-01
5.920404349547174483e-02 1.594939630169170831e-03 -8.217627576728887551e-01 5.226449893153513049e-01 4.337758632114615542e-01 -7.339487145834563409e-01
2.943446922063749221e-02 -4.532115003896011046e-02 -8.833301950847589623e-01 -5.355657108885706341e-01 2.421553734675500058e-01 8.090303729905394814e-01
1.176521615433004792e-01 -5.157823919704219301e-02 -8.181088312675678376e-01 -1.911364821054186702e-01 9.337077020723697496e-01 3.027486949585415088e-01
5.866563144155284570e-02 -1.394524364791665805e-01 -9.070172134417879839e-01 4.397175146693230174e-01 4.553349425258328420e-01 -7.741567008093583890e-01
5.410146845729203041e-02 -1.728954473203163367e-01 -9.390044980929497243e-01 -4.270077620860661671e-01 -4.617660819052897270e-01 7.774551155662215995e-01
-4.627036544668137324e-02 -1.560250620680905809e-02 -9.126581649800491469e-01 -5.044443237309345074e-01 -3.796340504008622330e-01 7.755088084811647686e-01
2.678310912823980358e-02 1.023604649215891227e-01 -7.873281251945589698e-01 5.640928922408905422e-01 4.093471085689115441e-01 -7.171012157496171602e-01
-5.522576249281185498e-03 1.124679211029596948e-01 -8.030689070344039227e-01 6.212993717906287738e-01 3.698337820173330792e-01 -6.908039260827387729e-01
1.029602566447276185e-02 2.355967592230099328e-01 -7.356699429341905239e-01 -6.632799511875642207e-01 -4.891116512609482436e-01 5.664181308480608079e-01
1.233746568207906430e-01 1.647519450151429740e-02 -7.734773032228172696e-01 -5.582547367393810855e-01 -4.634762042264740090e-01 6.881434857817548822e-01
4.583447653899334201e-02 1.220192750957583422e-01 -7.599915639359970942e-01 5.969400593081546358e-01 4.051379406018297824e-01 -6.924780246896541369e-01
-9.144816983026495330e-03 -3.865453379115389998e-01 -1.077184620988669517e+00 9.994936022831036881e-01 -1.202201788586522262e-02 2.946201081217765180e-02
6.101815013478072841e-02 -1.888244043993965449e-01 -9.456117500190838188e-01 -4.031197186444591130e-01 -5.221445139347992148e-01 7.515714197651510720e-01
1.378504735125996861e-01 -6.409196617636726823e-02 -8.172456247155794884e-01 -5.447055080291679507e-01 -4.706755367896178210e-01 6.940896545767638592e-01
3.850164995781459737e-02 7.821760681439896001e-02 -8.018367908080293871e-01 -5.642894419419458574e-01 -4.070359967268849521e-01 7.182611802689875535e-01
1.044242878278412584e-01 -6.396185570042442481e-02 -8.311721090669964562e-01 4.859565204655140191e-01 4.733978694117915720e-01 -7.346704822254852552e-01
-1.296602576408754370e-01 2.948185360712333655e-02 -9.451073788765995687e-01 -5.007156994243382453e-01 -3.308414811014062651e-01 7.998923069592703827e-01
3.500999897641414449e-02 1.288970360315838393e-01 -7.602343665634146985e-01 5.662684051801392116e-01 4.908956179204668202e-01 -6.620888049206277159e-01
-7.322188712103876174e-02 2.128876507800126772e-01 -8.140731276726401733e-01 6.344563248119331478e-01 3.010304543498515950e-01 -7.119310622946979361e-01
-1.289578580244698791e-01 2.545598863352407232e-02 -9.340027841186788748e-01 4.995258090162414955e-01 2.415185768608069661e-01 -8.319511663299716808e-01
-4.229494116942842871e-03 -2.509142492747293840e-01 -9.976045777259451297e-01 3.314256734667726523e-01 4.492735788645627060e-01 -8.296446674940568533e-01
-5.873908472282179938e-02 -1.774770165927470056e-01 -9.861250141913526779e-01 2.173534278072026260e-01 2.420742105165419600e-01 -9.455990503502276212e-01
-7.492607748395400946e-02 1.328565052124433266e-01 -8.522945297517885432e-01 5.820988306350090014e-01 3.453447230329418915e-01 -7.361371975703009385e-01
1.352228223957359886e-02 -1.660370306547339081e-01 -9.566276270976459273e-01 -4.181909606533582568e-01 -4.391729811648936166e-01 7.951373548278070080e-01
-4.672370556320404322e-02 1.964404315462816852e-01 -8.084079974918167988e-01 -6.045414842827752100e-01 -3.577110382012356760e-01 7.117390019734574080e-01
-6.714292019789246113e-02 9.150070990674340210e-02 -8.655796090564250589e-01 5.652302200681608157e-01 3.487635543914583414e-01 -7.475819563432059001e-01
-5.652695873873380544e-02 -1.211188697464805203e-01 -9.614288461735391866e-01 4.396637508654204218e-01 3.887779527493634424e-01 -8.096588723845146163e-01
1.237975348731077674e-01 -1.301814281430387354e-01 -8.711429433426145508e-01 -5.153081211305945430e-01 -4.566404523079672373e-01 7.252151664249941732e-01
1.001037108400261305e-01 -1.320884962667383533e-01 -8.736462878278286048e-01 4.595903198485316588e-01 4.106860730995828823e-01 -7.874729755766662898e-01
1.840071886923965241e-02 2.139577264822356828e-01 -7.409335030092660812e-01 -6.283384581452354789e-01 -3.939901889972268756e-01 6.707924515001624233e-01
-8.187507034157709765e-03 -3.376425717119397023e-03 -8.694421566230273735e-01 8.466787956992194442e-01 2.492943185333582612e-01 -4.700929266222879654e-01
4.556425164469506822e-02 1.164318424457825157e-01 -7.634934642635612390e-01 5.969400593081546358e-01 4.051379406018297824e-01 -6.924780246896541369e-01
5.061586560663625112e-02 -1.985739233741871668e-01 -9.488689443390992961e-01 3.304825063153009057e-01 6.136639271069961321e-01 -7.170759357189283589e-01
1.052762743019527575e-01 -1.318410348367707596e-01 -8.842314540598057437e-01 -4.683434106877579217e-01 -4.800990046569703629e-01 7.417273052765043229e-01
4.833712394878833529e-02 4.927779248315634214e-02 -8.012309813519338242e-01 5.529773128294142026e-01 4.250357651751782706e-01 -7.166314881568566220e-01
-1.479400682835957555e-02 2.150935666848418915e-01 -7.708388164538757525e-01 -6.274978201771499453e-01 -3.703194637249337395e-01 6.849160389853656827e-01
-3.979966616953893588e-02 -1.540924498390703863e-03 -9.014943221899461845e-01 -5.079122864003695614e-01 -3.928045279874338713e-01 7.666353188551376929e-01
1.243035427505610468e-01 3.259555516116530161e-02 -7.523178081039424425e-01 5.467864627099482400e-01 4.651112451729890740e-01 -6.962011877401348414e-01
6.642834907615151330e-02 -1.513322650319774421e-01 -9.097550985222979669e-01 4.312462187107286016e-01 4.694533731435362456e-01 -7.704805184375880245e-01
-5.313199062517913462e-02 6.049713387743472365e-02 -8.704676340071323404e-01 5.382904881409434905e-01 3.713738268438424583e-01 -7.565215338061070938e-01
6.942453666148371005e-02 9.034436161737433024e-02 -7.696087181410156131e-01 -5.855448658696602582e-01 -4.269486200555313582e-01 6.890951210728163412e-01
-3.811698295098074618e-02 -1.131789872969301142e-01 -9.472806916790398324e-01 4.487548815241119149e-01 3.984112027015716540e-01 -7.999297280825159451e-01
-1.383417866349224701e-01 6.086022739987357461e-02 -9.374611669985374318e-01 -4.924680584113083071e-01 -3.291067949467309517e-01 8.057070987427669140e-01
-1.227232011108511656e-01 8.374900614420330291e-02 -9.178958850379511647e-01 -5.281601742500132701e-01 -3.219695448916901626e-01 7.857368786676832695e-01
5.132646046710213905e-02 -2.004505696283966076e-01 -9.592902764718954645e-01 -3.566835480894029464e-01 -5.750782730384493835e-01 7.362484814255779719e-01
3.137548487044646006e-02 1.588701927519872437e-01 -7.510092621966695248e-01 6.072364300123089809e-01 3.924665967600585725e-01 -6.908211696911753519e-01
-9.405621819404309802e-02 1.947114598800821494e-01 -8.479823517149538414e-01 -5.439221011716375287e-01 -3.767813804630590346e-01 7.497896633012371970e-01
-1.055043390039116236e-02 1.486438710642509209e-01 -8.068985170038400767e-01 -5.981405576039316996e-01 -3.816121055911009807e-01 7.046985697555973038e-01
-1.331704725910857479e-01 2.663317362195573995e-02 -9.384698364992493103e-01 8.104592483595923769e-01 2.744759221404620697e-01 -5.175121012242590579e-01
6.977796856217131916e-02 6.898627719665981380e-03 -8.207849084038371101e-01 -5.346722459283274054e-01 -4.478638824579253552e-01 7.166195170546726390e-01
-6.374929042467337471e-03 3.226588584297047230e-02 -8.471202845471407228e-01 8.469730321219005598e-01 2.511124965624227379e-01 -4.685927836922175183e-01
-6.368967795515587116e-02 1.083599953134623123e-01 -8.646680285314062298e-01 -5.624221781516300922e-01 -3.498471728861073937e-01 7.491917305648631009e-01
7.216373165090179953e-02 -1.928032472452198831e-01 -9.345890063874876530e-01 2.355635111716565255e-01 6.955534620543436519e-01 -6.787600560055796484e-01
4.761817511461217955e-02 1.778029778058285160e-01 -7.352591497940434984e-01 -6.185208441901640652e-01 -4.002749155485486043e-01 6.761745020960856500e-01
-4.324538515940495875e-02 -8.104194343139271839e-02 -9.434436687491599693e-01 -4.637789272391195650e-01 -3.940277265639491322e-01 7.935056756871857742e-01
1.759027285694917406e-03 -1.392336263899873472e-01 -9.342294572575660094e-01 3.979697511449063474e-01 5.052000168928532098e-01 -7.657630312995804545e-01
1.185910951957567377e-01 -1.254697258816552807e-01 -8.685243494175844958e-01 6.761104851170349206e-02 -9.213054453559551549e-01 -3.829164693201552727e-01
-1.801945547572934500e-02 -9.673446864578939819e-02 -9.367795540506583807e-01 -4.454745112538156526e-01 -4.189439256613534668e-01 7.912259139933606189e-01
1.441175543641847606e-02 -1.287991874729468578e-01 -9.230619016857581904e-01 4.029301039814116581e-01 -5.142060646908194199e-01 -7.571257850190481475e-01
5.387062303660312274e-02 -1.071267327277577591e-01 -9.001619687029978056e-01 -4.563514683192720911e-01 -4.517264021567854448e-01 7.666071973033716791e-01
-1.102792693057929457e-01 5.445620075441891944e-02 -9.221012501303169628e-01 -5.189830933668089230e-01 -3.338099169005657174e-01 7.869100890052533881e-01
8.646934390711495666e-02 1.106628636796380405e-01 -7.323213557174718114e-01 5.907596826829731862e-01 4.299799594268553515e-01 -6.827299845528924660e-01
-1.511491778230266564e-02 9.167852614758259522e-02 -8.263029339120711025e-01 5.638361997216443378e-01 3.844192861636052672e-01 -7.309654932409043182e-01
-1.098252143802549846e-01 -8.253871331432584280e-02 -9.729648785452371662e-01 4.709567503235345676e-01 3.592690199766348513e-01 -8.056832569997495197e-01
8.842034543629354038e-02 1.091017802663118430e-01 -7.415157568558080614e-01 -5.991014924057314062e-01 -4.295094211169248055e-01 6.757211399453398881e-01
-1.237913459043798459e-01 2.094224881575643127e-02 -9.366407522370401306e-01 5.140059898114265335e-01 3.348320727271882347e-01 -7.897375041817318309e-01
7.211725433381838135e-02 -1.494006386347915272e-01 -9.053758567773174670e-01 4.421124008323554788e-01 4.764442048822986053e-01 -7.599589098525821873e-01
5.907020044449846907e-02 1.755134251399917966e-01 -7.259156133522405296e-01 -6.278792245812507833e-01 -4.269274404732619765e-01 6.507692677978860196e-01
1.050511009823229119e-01 -9.829770020867950597e-02 -8.531333343655725931e-01 4.706907256584627608e-01 4.811565240287565270e-01 -7.395530002397899816e-01
3.530344228804788848e-03 -9.661398616170937051e-03 -8.636415811972256718e-01 -6.859004922550121508e-02 4.776553398282561980e-01 -8.758657325645275993e-01
3.684795595772826730e-03 6.944502865939887470e-02 -8.239092604571466305e-01 5.632790595279324464e-01 3.958617787360328433e-01 -7.252655742783277182e-01
