-4.218082030002406196e-02 -1.441550143072451440e-01 -9.025881337849773756e-01 -7.046260505462785817e-01 -2.950174473184033128e-02 7.089652854331657261e-01
5.240032608354934507e-03 5.427742172691643607e-02 -6.960247613151179236e-01 7.659864354008485421e-01 -4.734708870048783269e-01 -4.348449148152880861e-01
9.133789777658914491e-03 -1.235247775911959001e-01 -8.040467466277401165e-01 -8.655499435975831934e-01 -2.257636429528938060e-01 4.470504140014400218e-01
5.444472709490237074e-03 9.205962594826828244e-03 -7.536072756534629713e-01 -8.764338773930360205e-01 -2.138409926009534057e-01 4.314344543974756863e-01
5.741132145947815124e-02 1.287103968012459979e-02 -6.065738068323948129e-01 -9.179089386206829015e-01 -2.409331377992332268e-01 3.152687797903032108e-01
9.378817985829139905e-03 1.875710032700176333e-01 -6.164220363876944386e-01 9.460072668967236531e-01 1.526103170342095194e-01 -2.859726247620721362e-01
-1.565321223048337989e-03 1.612495255877932632e-01 -6.654204329945518914e-01 9.350806342509787594e-01 1.597479383795993579e-01 -3.163934317147796271e-01
-1.582404624012414412e-02 1.791267569043636931e-01 -7.004967810786210114e-01 9.382290018785842678e-01 1.267181742627546681e-01 -3.219764655148410482e-01
4.912306314736140933e-02 -1.681407958780332034e-03 -6.405980628791480003e-01 -9.091489938112663483e-01 -2.442631500028190072e-01 3.373182778959097905e-01
7.139742438300074323e-02 -9.233347915054472554e-02 -6.496916546804197834e-01 -8.961318599941530127e-01 -2.717955498579304185e-01 3.508202796031678616e-01
-2.083643389551243646e-02 -4.979122785459071110e-02 -8.112857041287074855e-01 8.835131392283315233e-01 1.900970473114118875e-01 -4.280977054533012249e-01
-1.333876179635602038e-02 1.688780472643011954e-01 -7.194490698819439034e-01 -9.380489367984929938e-01 -1.402165289182631669e-01 3.168651403820411105e-01
6.764877487919868093e-02 -1.235625010799954182e-01 -6.648747250457696101e-01 8.675671660586471434e-01 2.924275501283989942e-01 -4.022602892442533884e-01
-1.287153945150584615e-02 -9.903215636872027272e-02 -8.177556713570749425e-01 8.642382258076032331e-01 2.159172625378077415e-01 -4.543919286157112047e-01
-2.118526917875514920e-02 2.022406236341728059e-01 -7.074144703733875605e-01 9.434320671520844970e-01 1.187803727759429717e-01 -3.095596189950373112e-01
1.617244016995071643e-02 9.870650548331384722e-02 -6.687247631363132383e-01 -9.235439228548634194e-01 -1.866168209393000987e-01 3.350235584259098065e-01
7.070705605566406093e-02 -7.869445483988843359e-02 -6.408901896869696468e-01 -8.972170375220109850e-01 -2.658665484374410082e-01 3.525855442331521372e-01
2.212081001266387806e-02 1.284867294895099543e-01 -6.331673733336931065e-01 -9.381628209269773366e-01 -1.794512743717297243e-01 2.960536464168248560e-01
3.655093449255205490e-02 -2.205576572418599668e-01 -8.054989406797464779e-01 3.326564142337375407e-01 8.345141369534100351e-01 -4.392332697941459529e-01
7.565528707420303943e-03 -5.665655709131907358e-02 -7.533744207327007780e-01 -3.784830973063806753e-02 9.855334565483914178e-01 1.652008216514487537e-01
-2.281851683992985186e-03 -1.113665091063354290e-01 -8.033415775021214289e-01 8.642863359121464306e-01 2.233791920349658677e-01 -4.506782290297167703e-01
-3.800830625308627975e-02 1.701896081485528567e-01 -7.668616315248059090e-01 9.325014392086190540e-01 1.126804676166106994e-01 -3.431387155241386600e-01
3.214189423008934066e-02 -1.037402091803934015e-02 -6.904738856985360718e-01 -9.042174473752128128e-01 -2.208034442741921566e-01 3.655634648852475466e-01
4.054706457270693121e-02 -4.597641452373709553e-02 -6.923350696925623105e-01 -8.946745153190991395e-01 -2.417110845771694161e-01 3.756770730708267614e-01
5.185902861127739821e-02 -6.732747246627972249e-02 -6.601284002775585913e-01 8.886730495779426864e-01 2.625408722561525243e-01 -3.759421515989100349e-01
7.529361297647476151e-03 -3.853738666072730190e-01 -9.457543177443219484e-01 -7.801487882652712313e-01 -2.714014356390932470e-01 5.636569248233076479e-01
4.008746790910277906e-03 -3.142309670443816511e-02 -7.764760505540238000e-01 -8.638420207129375861e-01 -2.225112137965369885e-01 4.519576561862629349e-01
4.268630400011005216e-02 -1.175319264182904666e-01 -7.327955741589815553e-01 -8.739260301164479827e-01 -2.576671893705405059e-01 4.121418607795029332e-01
-7.774573222931268181e-04 -2.768323095157004254e-01 -8.998027836639393984e-01 -3.126672330565027913e-01 -4.218280602816592562e-01 8.510583346233110413e-01
2.264106065094231325e-03 -2.047918646834074718e-03 -7.422256877284030274e-01 -4.393697364431738417e-01 4.004091962925857562e-01 -8.041310280185574033e-01
8.813618012208618941e-05 6.367452815127790100e-02 -7.100096467449933391e-01 9.125458896562942401e-01 1.840854709736939321e-01 -3.652020518121381620e-01
-1.186140860046702716e-02 2.286834404811421695e-01 -6.677499690863069048e-01 9.529627950135337588e-01 1.095830793450164875e-01 -2.825835452415045301e-01
-1.980059240539129573e-02 2.082145211225345516e-01 -7.228375092693070103e-01 -9.430744328098170648e-01 -1.249972103016360470e-01 3.081984938270306840e-01
1.510719041843412843e-03 -7.995491048340086504e-02 -7.805872724909593829e-01 -4.394576928689234996e-01 4.007037456204568526e-01 -8.039362191269023850e-01
5.693912111599681164e-02 1.459787339796477347e-03 -5.961612599524725997e-01 9.098169962748976491e-01 2.554714162594443616e-01 -3.270586931480594650e-01
8.785798421660292665e-03 8.605757470745725723e-03 -7.172581970408097307e-01 9.074447214100035408e-01 2.055903204434667286e-01 -3.664378497440919924e-01
7.350886560094707645e-02 -7.262543822973602237e-02 -6.286213217985376911e-01 -9.099676247446026878e-01 -2.585335322321286600e-01 3.242211199601974236e-01
1.710900500055003576e-02 1.150359755975450121e-01 -6.335302438475782782e-01 9.367065156478229238e-01 1.808645446718411820e-01 -2.997814537685117853e-01
7.321106311705463492e-03 2.139292873087494384e-01 -6.325206562079186412e-01 -9.509474059138544044e-01 -1.563955993552493817e-01 2.669071892775150556e-01
-5.906452861840450104e-03 1.997589360162038419e-01 -6.500002386579196711e-01 9.692580743326613124e-01 1.092676168157555999e-01 -2.204526553624301111e-01
6.933063510562831322e-02 -7.164757535241131348e-02 -6.428190839924574629e-01 -8.149200568793412147e-01 3.978650333973361430e-01 4.214364911769123423e-01
5.378123626402826069e-02 -5.616014071520762652e-02 -6.474516206578025956e-01 8.933539570510463657e-01 2.697063715492156732e-01 -3.594122710300711732e-01
-1.135802787930182377e-02 2.492592272077752413e-01 -6.654378388067956340e-01 3.531400945331383823e-01 -9.354462470715748657e-01 -1.524442431947680907e-02
-2.718319563469659243e-03 -3.500193070658549899e-01 -9.173591663556717180e-01 7.055591923790121012e-01 3.147074455635999191e-01 -6.349373589231537274e-01
-6.843181042372264988e-02 2.107564791994929673e-02 -8.827122179352160369e-01 8.938742218094949399e-01 1.247831147481266029e-01 -4.306019622089822252e-01
3.574627874621860713e-02 8.622753550931049060e-02 -6.180660545181237975e-01 -9.312019715783016460e-01 -2.025179862055825897e-01 3.030665824400959885e-01
2.357881971521212303e-02 -1.643855107092687118e-01 -7.985006893983043197e-01 -8.563780648154432074e-01 -2.524819291668111698e-01 4.504103523978568169e-01
-1.874525987186668324e-02 7.400038465888639228e-02 -7.530527807368052606e-01 9.165157114469321131e-01 1.598430625300442942e-01 -3.666730778662923296e-01
4.705693017420353730e-03 6.653278682598801064e-02 -7.100531453039419238e-01 -8.146787868920658537e-01 2.575354793020762090e-01 -5.195901760895038635e-01
4.176970866490189310e-02 -1.766511071758704587e-01 -7.547220154727041219e-01 8.508488216510824431e-01 2.746134470650518633e-01 -4.479327375689504676e-01
4.761453024509763876e-02 -1.175895115858670292e-01 -7.223745516778177223e-01 -8.765334729507532341e-01 -2.686378055411358656e-01 3.994030548592908958e-01
-2.050783446195442866e-02 1.806553007896529728e-01 -7.353796489557337113e-01 -9.382063587838110896e-01 -1.294894996352526084e-01 3.209381526428954912e-01
-5.441649470166157188e-02 1.712807368264153657e-04 -8.766843087957268965e-01 -8.804407154202533725e-01 -1.328256873751255118e-01 4.551719273017587053e-01
-1.466288335102005139e-02 2.021528550801300339e-01 -7.095747880387277551e-01 -9.430744328098170648e-01 -1.249972103016360470e-01 3.081984938270306840e-01
-1.672266191394375726e-02 -6.686195531734411002e-02 -8.274199412663315600e-01 -8.740254460752441279e-01 -1.973020391294792453e-01 4.440173701200438861e-01
1.754612898029858170e-03 -1.574191532092226453e-01 -8.189036728371823504e-01 8.530497137953547693e-01 2.381981593125928331e-01 -4.642928199894498786e-01
4.443971021735097088e-02 -1.259625478140593002e-01 -7.169723919503078191e-01 8.748162035226562105e-01 2.708196522250743143e-01 -4.016880954458271757e-01
-6.419326804948188858e-02 -3.468548921017390596e-02 -8.910815470011714812e-01 8.805363898728804095e-01 1.405616890570935418e-01 -4.526566885389539108e-01
-7.167386119777077735e-02 1.680793451393980745e-02 -9.045670613924140513e-01 -8.686037361596734563e-01 -1.256867127259199968e-01 4.793019922487368190e-01
2.422102048680964837e-03 -1.732955312415712101e-01 -8.257528532514394337e-01 8.463233144694222165e-01 2.398538021495470463e-01 -4.756122380468119082e-01
6.511405884441605341e-02 -1.275019491034690422e-01 -6.905876409801562366e-01 -8.780445902253891655e-01 -2.782203212161721284e-01 3.893984468873729621e-01
-5.315932527570629840e-02 1.065216446683687757e-01 -8.245311591873928370e-01 9.147478342990975619e-01 1.149058145836703293e-01 -3.873410040519512099e-01
-3.885807219665018616e-03 -2.430289161156958255e-01 -8.656265969512412228e-01 7.055591923790122122e-01 3.147074455635999746e-01 -6.349373589231538384e-01
8.820312271901130374e-03 -2.626653111710141042e-01 -8.817403021039359468e-01 -9.818721621953182543e-01 -8.912545841731860097e-02 1.672833218458834315e-01
4.459819130849152630e-02 -2.452444681654800118e-02 -6.683142225221558874e-01 -9.032988775086761013e-01 -2.463558647024479964e-01 3.512263170923766165e-01
-5.613547831536142702e-02 -9.982432590344110512e-02 -9.122232871556208433e-01 -8.481395989252005219e-01 -1.683638309756467499e-01 5.023075165217057991e-01
-3.900808121752422780e-02 1.121828089369148879e-01 -7.821597835056103287e-01 6.061028051411004869e-01 -4.279487325562629785e-01 -6.704470686814710811e-01
1.193364055612545875e-02 1.516955257336184137e-01 -6.279917717130372168e-01 9.381815486091957812e-01 1.742848438998351457e-01 -2.990655029187773151e-01
4.591126767194060598e-02 -2.483300497752788036e-02 -6.651536242451890901e-01 -9.032988775086761013e-01 -2.463558647024479964e-01 3.512263170923766165e-01
6.391971612390720536e-02 -1.071314610138317941e-01 -6.788472432086827268e-01 -8.851441742710596250e-01 -2.731311344377466144e-01 3.767216136018124439e-01
-6.932102807075241589e-03 -2.927701941799357721e-01 -8.941846906071992951e-01 7.933155133481216703e-01 2.703690110496658749e-01 -5.454824416470540616e-01
-1.949288745748739213e-02 8.282455460605407660e-02 -7.463053308632112692e-01 5.911681013106689919e-01 -4.332415743110767936e-01 -6.803102338501150204e-01
3.953025347495611741e-02 4.427804135095275012e-02 -6.419388690157760147e-01 -6.085082697427199871e-01 -7.907563082904892626e-01 6.649922220235333914e-02
-4.145953504815504120e-02 -6.085506874585860926e-02 -8.566498601027413562e-01 8.741090050626779684e-01 1.718529019597257457e-01 -4.543126977714312398e-01
3.905060536408125511e-03 9.067866176489967900e-02 -6.858301866502924948e-01 9.237364141994163225e-01 1.768519288321150629e-01 -3.397564309183345177e-01
-3.934353691002971665e-02 -2.964070702808457337e-03 -8.232060031270356237e-01 8.979251406282676706e-01 2.289995021393836927e-01 -3.758851817345560953e-01
4.029887748097995409e-02 4.173903690896017121e-02 -6.453282650842839807e-01 -9.054768612405650341e-01 -2.988057024896551006e-01 3.013748594650821344e-01
2.576861655013834226e-02 -8.965113143784830818e-02 -7.521404721958688810e-01 -8.800748784007177417e-01 -2.374294865300217994e-01 4.112121682708962389e-01
-4.189499283734975793e-03 -1.346887907671895368e-01 -8.289256730063313539e-01 2.930999954998264045e-01 5.782436345111101605e-01 7.613978538092839310e-01
2.364161395289705175e-02 2.132265270392118793e-03 -6.841201222659480941e-01 9.033079986339668244e-01 2.184989579551746552e-01 -3.691786355904141947e-01
8.784072062919661208e-03 -3.448892510745495410e-01 -9.230157410145756192e-01 -9.821270808422153387e-01 -8.358687955573188000e-02 1.686405367712173198e-01
-4.792555891445071832e-03 1.537305145594887457e-01 -6.690170816018992106e-01 9.213107021386318651e-01 1.726757120398972334e-01 -3.483815273465791784e-01
-6.962469523069569899e-02 -2.633607488543868516e-02 -8.990933800259592878e-01 8.883266999029763022e-01 1.287416968111010918e-01 -4.407961544089122330e-01
-6.329848774607753359e-02 1.164330859015361291e-01 -8.460501783081587623e-01 9.189176849957682025e-01 9.998187450679897614e-02 -3.815677043096343812e-01
-5.566781646654788557e-02 6.895945239626170842e-02 -8.582457472102100748e-01 -9.016830627591579939e-01 -1.158841403720576174e-01 4.165795486380641233e-01
1.172528773349702617e-02 -1.206056332399758381e-02 -7.404284921701570488e-01 -8.988711605193548948e-01 -2.119937143620297948e-01 3.835222312429593106e-01
5.891063423957454415e-03 2.163221765408723241e-01 -6.495604845290546825e-01 -9.647433127471176650e-01 -1.168675999506709751e-01 2.358226125533489370e-01
1.898381145506443379e-02 -5.702737218442742451e-02 -7.300879767211774229e-01 8.880159026214594631e-01 2.204879176152249598e-01 -4.035007247541149145e-01
7.347958535320872620e-02 -6.408103778792975658e-02 -6.216632794816161489e-01 -9.173071576166904606e-01 -2.551307483612231808e-01 3.057055443164717889e-01
3.752340256414694181e-02 -1.557775426817994413e-01 -7.498469180835103387e-01 8.595043070596113388e-01 2.670024035382638217e-01 -4.358463750575048978e-01
-2.315193114913609296e-02 2.116406178958869511e-01 -7.314436131150052756e-01 -9.401250603610431522e-01 -1.127998457139786220e-01 3.216225515850019701e-01
1.250852671582986832e-02 -1.275640494772655453e-01 -7.829639858710015776e-01 8.624464160410735269e-01 2.322509822165729210e-01 -4.497173120053803985e-01
3.337846549055086334e-03 2.093572964055180341e-01 -6.254170383067311212e-01 9.509654238815423710e-01 1.367338437637280746e-01 -2.774321873024014895e-01
6.065036483153252167e-02 -1.469993127332056559e-01 -7.221218810484429929e-01 -8.517285295051661986e-01 -3.689788806634825558e-01 3.720391076906974237e-01
1.685189297166350686e-02 -1.180008694704501038e-01 -7.690321128046943011e-01 8.678348998977730711e-01 2.398607539044924630e-01 -4.351199894923131750e-01
1.947925766550925170e-02 -1.172234912967188014e-01 -7.632742275864000669e-01 8.723826599244908220e-01 2.447439374683094138e-01 -4.231417017212770748e-01
-4.284066334020939643e-02 1.621341486649824706e-03 -8.360992096675278207e-01 8.948323201007166716e-01 1.524619639330421772e-01 -4.195598508637933266e-01
-2.214858526374723861e-03 -3.658069178630982826e-02 -7.837544059953330811e-01 -8.848391415137085714e-01 -2.034146356871029682e-01 4.191445808233313919e-01
8.962726488393081906e-03 -6.628065758042384070e-02 -7.571879274378620073e-01 8.870355435317365256e-01 2.224416712825905140e-01 -4.045833009262299051e-01
4.117706391613502881e-02 -9.804022685398679215e-02 -7.238985745089714374e-01 -8.828034474143834354e-01 -2.524399870830442150e-01 3.961465967981958047e-01
-4.224753201702210331e-02 -1.694502396365209218e-01 -8.967227733924335586e-01 9.018152257637009894e-01 3.169272406197831682e-01 -2.937455067467331093e-01
-2.142897784794846328e-02 -7.053901552298595667e-02 -8.216855862756456963e-01 8.745258583629603732e-01 2.004789639413030178e-01 -4.416024321395309316e-01
-3.915312553854204819e-02 1.609702218768574999e-01 -7.924039078439942818e-01 -9.277203208720978811e-01 -1.093554222189839220e-01 3.568983018624204417e-01
2.181412448415032471e-02 -1.385007779394792637e-01 -7.672053276473256300e-01 8.130221274267500631e-01 -2.709124679306054162e-01 -5.153653607240495926e-01
-3.726372271753933957e-02 -1.003958234448752568e-01 -8.797339713194819444e-01 -8.537088145873918954e-01 -1.892195017148037006e-01 4.851569231357947265e-01
5.326604399740183376e-02 -6.421478895200863346e-02 -6.800244514123519046e-01 -7.942566405980594491e-01 4.206922131579373669e-01 4.383770644709432118e-01
-5.295450150045499793e-02 4.354014645691551416e-02 -8.599913697955586800e-01 -8.955373627622904564e-01 -1.209474927793290910e-01 4.282342068157983794e-01
3.162231483350982225e-03 1.338712441950433707e-01 -6.650162297517793197e-01 9.382349914107753763e-01 1.607949366224393217e-01 -3.063659400929019672e-01
-5.862156742730666864e-02 3.100295609818053827e-02 -8.593494834307546792e-01 8.945470629361511605e-01 1.354718258563782918e-01 -4.259494530944305524e-01
3.925100207008409142e-02 3.834138513461392284e-02 -6.403753108389254045e-01 -9.192010846292677506e-01 -2.167117394637878558e-01 3.287938381341065086e-01
2.330786086469905163e-02 5.626142729846941165e-02 -6.732603619003939555e-01 -9.226889739301760152e-01 -1.977471071330842156e-01 3.309699971419997611e-01
4.436588439725263483e-02 -4.461455008930793886e-02 -6.626063963845938432e-01 8.973180499773640850e-01 2.412534795722979797e-01 -3.696174722318729677e-01
4.171005677239171539e-02 -1.258516271271900300e-01 -7.226629312549505135e-01 8.689193711308894619e-01 2.627332364095019690e-01 -4.194643881896150672e-01
2.492871113088195381e-02 -8.246215804645475045e-02 -7.497871989322263397e-01 -8.800748784007177417e-01 -2.374294865300217994e-01 4.112121682708962389e-01
-6.568714056223235072e-03 -9.589125958563197993e-02 -7.970671379233907894e-01 9.046302760493429851e-01 1.859875374909235601e-01 -3.834745096521433583e-01
-5.052957889427055899e-02 1.726483201025433289e-01 -8.173830682713183471e-01 -9.164568532029943038e-01 -1.144022001587566839e-01 3.834305319299717296e-01
4.318892382304075767e-02 -1.923759248952196244e-01 -7.621162694196379483e-01 8.427171539526940869e-01 2.940091834029035511e-01 -4.509838118032942211e-01
7.547781128329543975e-03 1.911243202377758688e-01 -6.441286763319022945e-01 -9.499455851266974671e-01 -1.479782761029352633e-01 2.751468973110541838e-01
7.734245472821847482e-03 -1.444322367617332237e-01 -7.972385144785885114e-01 6.468034308133826515e-01 7.172374796796070484e-01 -2.592599460597084238e-01
2.507235437360498531e-02 7.669970453998188609e-02 -6.334110658159417540e-01 9.226715448141573628e-01 2.091245021589509812e-01 -3.239508650814613699e-01
2.009411698978755961e-02 -6.338108667745220859e-02 -7.495886312433246434e-01 -8.814882380480146828e-01 -2.273331611015778353e-01 4.138817706139890085e-01
6.014513700715885119e-02 -4.808229680517491639e-02 -6.256375404483618397e-01 8.915217319067677559e-01 2.706726975056520379e-01 -3.632152149387066209e-01
-7.328121595698995280e-03 6.066310799376003343e-02 -7.376868018905025082e-01 3.067838212799834929e-01 8.029617377438763581e-01 5.110148087092832858e-01
2.034090919610367226e-02 -5.609063048274643901e-03 -6.969262052816589392e-01 9.077503078194000263e-01 2.144346542771842223e-01 -3.605650533521084222e-01
7.354429025223939431e-02 -1.446375556148582486e-01 -6.833977680071200433e-01 -8.883265251878789126e-01 -2.622902669373845530e-01 3.769347430491706286e-01
2.111301859206042575e-03 1.715254852172020117e-01 -6.719427592844556818e-01 -9.456130358381635848e-01 -1.444608819594057070e-01 2.914567550022514331e-01
-6.963823100320856718e-02 -2.871699760499720182e-03 -8.921650801820544263e-01 8.891058334985001421e-01 1.323150601405886084e-01 -4.381592652209120864e-01
-3.358771083789138800e-02 9.155191844329339801e-02 -8.014294649172833962e-01 -9.105784961895299068e-01 -1.372950765435601017e-01 3.898677522367192672e-01
6.358984828784491894e-02 -2.518224729176359034e-02 -5.992148128517387207e-01 8.864174698403404218e-01 2.811551302515049033e-01 -3.677170949182378967e-01
6.422754833656711682e-02 -1.373325415847624631e-01 -6.996104462367515042e-01 -8.780445902253891655e-01 -2.782203212161721284e-01 3.893984468873729621e-01
3.871932710587432797e-02 4.066039722235541276e-02 -6.183113287890602550e-01 9.219044257398573139e-01 2.257788569491963326e-01 -3.148271550485731152e-01
1.019830092442833985e-02 7.030804487374069101e-02 -6.794978874225928722e-01 9.164624616891182685e-01 1.950019110405489531e-01 -3.493863348862621954e-01
-1.326002306036710987e-02 -1.657596679437745579e-01 -8.499115414126486856e-01 8.454857072749454305e-01 2.245575495532227961e-01 -4.844871780887877732e-01
2.316020800488308856e-02 -5.206648754565681991e-02 -7.363825921373108319e-01 -8.893638530947977072e-01 -2.226962165429342555e-01 3.992972976941331353e-01
-1.671930536614446919e-02 -5.869106738048884137e-02 -8.237825462716472646e-01 -8.740254460752441279e-01 -1.973020391294792453e-01 4.440173701200438861e-01
-6.132784531133279871e-02 -4.790636439662505908e-02 -9.081893709949707683e-01 -7.102709224182941483e-01 -6.948276417240457636e-01 1.128262605215053782e-01
4.119130215075969548e-02 -1.738279227844719832e-01 -7.540898940118668792e-01 8.508488216510824431e-01 2.746134470650518633e-01 -4.479327375689504676e-01
-1.010246221985823707e-02 8.430126656084302450e-02 -7.560848391904104737e-01 -9.233614443870979960e-01 -2.304594141732781154e-01 3.070701897584350859e-01
2.395348077605336662e-02 1.324949747411504133e-02 -6.764468456308730948e-01 9.111725913249451025e-01 2.126486364924633776e-01 -3.529094306136922876e-01
4.807340813460305416e-03 -3.196541077634302425e-02 -7.586520464108846840e-01 -8.175165874224674667e-01 2.481303300851067095e-01 -5.197095040317997183e-01
4.098574717663330813e-02 1.066463802932240690e-01 -5.661846877448399873e-01 8.152772237058022453e-01 1.686548265980386818e-01 -5.539662426283253893e-01
-1.592250875494101827e-03 1.726134461649862228e-01 -6.545386395327928986e-01 5.791200505220968076e-01 3.680870311413661500e-01 -7.274145342160954764e-01
2.379666098951309285e-03 5.966201193540887626e-02 -7.262669874446593399e-01 -9.170912355594542653e-01 -1.770501226283036633e-01 3.572071104238214723e-01
-9.339440095278615794e-03 1.478351082019505325e-01 -6.854631507183926997e-01 9.244457401355903325e-01 5.660073705168475189e-02 -3.770894192500851005e-01
5.395282776359174720e-02 -1.453998502414924621e-01 -7.170669134267979583e-01 3.494190824254669314e-01 -8.676610350947923100e-01 -3.536532666541880032e-01
5.262572012278625422e-02 -7.968935089228098775e-03 -6.357230455106959166e-01 -9.085740938333305428e-01 -2.447779501571037131e-01 3.384920547543596170e-01
4.685051852004039341e-02 5.670400149289190478e-02 -5.829657677408643934e-01 9.235392342958255174e-01 2.294236873749843086e-01 -3.073110059655294046e-01
3.256435452868573083e-02 -8.507793902128171770e-02 -7.164613666971294537e-01 8.838724881145654244e-01 2.364277927150488789e-01 -4.035731948309462247e-01
4.001802093238331776e-02 -1.251269527677387750e-01 -7.257140762728938599e-01 8.689193711308894619e-01 2.627332364095019690e-01 -4.194643881896150672e-01
4.011009866866401680e-02 4.888550686155914565e-02 -6.083726460709037998e-01 9.203088926190524655e-01 2.269511577343520936e-01 -3.186294307959179339e-01
-4.018068422861216515e-02 -6.867751171301579582e-02 -8.731427130609927811e-01 -8.656484957456840323e-01 -1.690997980945519175e-01 4.712302410686478593e-01
-2.509737358388361081e-02 6.213543255242917618e-02 -7.921365323366147404e-01 -9.088764881206587987e-01 -1.366391570625020702e-01 3.940472942410678803e-01
4.162415135397368876e-02 -1.391952740866093385e-01 -7.534981482807567854e-01 -5.453259243997489181e-01 -8.252593373761635265e-01 1.468559234454457074e-01
5.748164413761196884e-02 -1.337028720935944937e-01 -7.116595130236107458e-01 -8.718219738361434601e-01 -2.740210065437361786e-01 4.060036131726023623e-01
6.626083891357790155e-03 -3.722961816540109464e-02 -7.738058314049505171e-01 -9.107333277399950466e-01 -1.834084461441069513e-01 3.700353329435433491e-01
7.874415920911908423e-03 3.760991073060304668e-02 -7.037613737744340403e-01 9.149041798614259147e-01 1.967373161088795397e-01 -3.524837161095052962e-01
1.937844023997994112e-03 4.239416099320469922e-02 -7.358710113317538104e-01 -9.105028375842111332e-01 -1.836340006953977588e-01 3.704904000641613404e-01
-6.426077311854275220e-02 -1.972249620887505609e-03 -8.962011982918964836e-01 -8.746927187315107766e-01 -1.356553519637471172e-01 4.653066443558158127e-01
1.852408882024608391e-02 2.002472565857486841e-01 -5.994135703545526717e-01 -9.563200968325176188e-01 -1.856485665337089808e-01 2.258018647802160772e-01
6.697701176679196622e-02 -1.597573385589429462e-01 -6.998559231260667035e-01 -2.816760594285647734e-01 9.315387476022185531e-01 -2.299873023896881752e-01
-2.650077031711498693e-02 1.463485364763449648e-01 -7.438488438260588698e-01 9.313651016693833551e-01 1.343120510124066191e-01 -3.384070335339083302e-01
-1.029636068511137958e-03 -1.886913612405153595e-01 -8.544917165106310497e-01 -8.335385807525051982e-01 -2.340342725980936456e-01 5.004411989900318103e-01
-5.155754072407774113e-02 -4.159995180672274723e-02 -8.690509461265905067e-01 8.767370615607535944e-01 1.548482955316306531e-01 -4.553615379638074612e-01
3.092867913533486543e-02 -4.953506900931577833e-02 -7.256889910532949850e-01 -8.827162395432091024e-01 -2.896271639169022416e-01 3.700380336778202328e-01
5.131021025951191389e-02 -9.179516838733305095e-02 -6.970986579860313226e-01 -8.852733407854623815e-01 -2.507340078086519597e-01 3.916932082928644143e-01
-6.711829976859930158e-02 1.872286982127786131e-02 -8.956895685631753867e-01 -8.778882086803723173e-01 -1.351399640500302590e-01 4.594012224369057873e-01
-5.055711150127557840e-02 7.501264767889484486e-02 -8.280039962258867181e-01 9.098771778825972545e-01 1.232689631036953948e-01 -3.961417472366930426e-01
-1.621842979149736366e-02 -1.657254544801345722e-02 -8.126812183048315319e-01 -8.750946858769627079e-01 -1.067885983284372758e-01 4.720227600624227193e-01
-5.351279082383388758e-02 1.419348033278849952e-01 -8.347147227739771802e-01 -5.235708039553863546e-01 2.872920599975969380e-01 8.020828420480315968e-01
1.272617845801291697e-02 -3.367679589066150531e-02 -7.310949890079385671e-01 8.988686973321785567e-01 2.120140943595874850e-01 -3.835167385515735883e-01
-4.132315370729821961e-03 1.225565528875172672e-01 -6.920400612710057020e-01 9.293866959072124567e-01 1.639183319044474341e-01 -3.307130930827165693e-01
2.349245207408046706e-03 -2.714085494045271330e-01 -8.765522560250835760e-01 -4.540225419014317088e-01 3.985386572333295963e-01 -7.968879909598446387e-01
-4.358105296422764424e-02 1.414878916339149806e-01 -7.905974633174849275e-01 9.251163954924687127e-01 1.137033547131403033e-01 -3.622584739077884253e-01
-6.348309747976028927e-02 1.013614285283818833e-01 -8.661633926488322421e-01 -8.875280091116526382e-01 -1.246579643755466454e-01 4.435700902451056860e-01
-5.873602379830981240e-02 1.715995388633067831e-01 -8.259040175121942218e-01 5.839984683234662466e-01 -6.408193389517308214e-01 4.982934515135759579e-01
-7.918315946596836061e-03 -3.878950616842080090e-01 -9.431894183241271712e-01 7.937773690816738448e-01 2.764894187638712308e-01 -5.417297201053238309e-01
-7.284024761480020760e-02 -3.057602425189331896e-02 -9.069468823913062749e-01 8.997011776532987115e-01 1.251946141552177094e-01 -4.181675495728874314e-01
-2.354073144060973496e-02 1.637918189670340696e-01 -7.290229841615667450e-01 9.382082648248348811e-01 1.268643839511702509e-01 -3.219793159491184387e-01
-3.794398703052979938e-02 -1.688308257820815006e-01 -8.994492819786302773e-01 -5.130994394646662959e-01 8.007506554912292851e-02 8.545858348336630161e-01
-2.398009908526388748e-02 1.913615621525829591e-01 -7.414048687452599040e-01 -9.342147539387478661e-01 -1.174991451035024698e-01 3.368037179472795350e-01
3.782492606403088653e-02 -6.888689499599950916e-02 -6.941948746555824945e-01 8.902959373012909738e-01 2.458062459581714654e-01 -3.833437536634271003e-01
-5.690182719907507097e-03 -1.525430692841313607e-01 -8.358965531546364014e-01 8.199697519404048895e-01 -2.557665829077352959e-01 5.120869662181329884e-01
-1.687937237262933030e-02 2.507248756193664399e-02 -7.884039297629421572e-01 -9.026336573196631630e-01 -1.749423603812106098e-01 3.932526557036570836e-01
-6.252026077703752571e-02 1.089142985047423552e-02 -8.735017902072155227e-01 8.886683609715574361e-01 1.391932236532714973e-01 -4.369139396919443086e-01
4.999765489969376468e-03 2.018932139732233788e-02 -7.202344098678605810e-01 9.087213351935135019e-01 1.934212715786949588e-01 -3.698834230740797313e-01
4.138208479716522920e-02 -5.141227216770211800e-02 -6.744478548538684892e-01 8.948535372123109788e-01 2.566342981814800916e-01 -3.652067687427416054e-01
-3.980052443792533867e-02 -7.397485683536962620e-02 -8.801842002076956106e-01 -7.626866619171517314e-01 -6.462141831820393811e-01 -2.676350477874614095e-02
5.559570835453914867e-02 -2.688951781697249827e-02 -6.414333334254812558e-01 -9.085740938333305428e-01 -2.447779501571037131e-01 3.384920547543596170e-01
3.306312822133090912e-02 9.662279518962935132e-02 -6.192072301611496465e-01 -9.308247284494076679e-01 -2.085763900375392776e-01 3.001020067010456427e-01
-1.769798944570108445e-02 -7.195673175519240461e-02 -8.148833013308568463e-01 8.785382438745965583e-01 1.975065656240957424e-01 -4.349272474622793982e-01
3.215503264141961887e-02 -1.255506236618669502e-01 -7.424141739317506872e-01 8.661970812524508734e-01 2.505977191660346826e-01 -4.323232581975160471e-01
-1.986031393871771217e-02 2.152789580678240722e-01 -7.202942414471725785e-01 -9.437561250394846946e-01 -1.189199197632516553e-01 3.085164973448880077e-01
-2.892954291153007271e-02 1.129467337391845683e-01 -7.628169065714688335e-01 9.225209395686644331e-01 1.289493755013579324e-01 -3.637680230794869130e-01
-1.377557517396496263e-03 -3.883599490037779184e-02 -7.652409406256955871e-01 8.962028057085361654e-01 2.004702328450799209e-01 -3.957678824553438890e-01
-3.914631826092934003e-02 7.738721953457324866e-03 -8.229836012392655054e-01 5.376840404620609748e-01 -4.046733608207402355e-01 -7.396859763943340882e-01
6.910334025429609728e-02 -1.653483254956115978e-01 -6.966940087528048497e-01 -6.341372657887575093e-01 6.741024405928898178e-01 -3.787556306177750631e-01
-7.863086818486823490e-03 2.288704886767895796e-01 -6.766611217729129324e-01 -9.463310368288945229e-01 -1.323822740918896568e-01 2.948431824557066760e-01
4.160526468384020266e-03 -3.611873543957849764e-02 -7.515704235616046391e-01 8.880475041195587949e-01 2.145098570869538313e-01 -4.066413058698745697e-01
-2.314981226298368916e-02 2.157949626385353148e-01 -7.085094546832254592e-01 9.439072224915576736e-01 1.103238515158992267e-01 -3.112359283806591659e-01
-2.463884727448183501e-02 -6.601973607718238102e-02 -8.425533856817747358e-01 -8.724523861911639422e-01 -1.884849421973240624e-01 4.508883014608110473e-01
7.072006371918769518e-02 -1.234794470172438791e-01 -6.747122902461271110e-01 -8.852782824079069579e-01 -2.736583885091009583e-01 3.760232028685302486e-01
7.345255228708393036e-02 -1.449250440451019528e-01 -6.750173583963205992e-01 -6.590216621649305218e-01 5.450484735674236969e-01 -5.182785064607574599e-01
-2.381206222686823790e-02 6.678676770465186152e-02 -7.682889826497307784e-01 9.151175425337597646e-01 1.477900993827264142e-01 -3.751239393472724504e-01
-3.374223106399296471e-03 -1.726487632295728436e-02 -7.712003793418562569e-01 4.340852631747164625e-01 -3.985612952422064037e-01 8.079101919331085346e-01
-2.575574083559817318e-02 1.882047768221528916e-01 -7.474313767388282015e-01 -9.342147539387478661e-01 -1.174991451035024698e-01 3.368037179472795350e-01
1.628671009993065124e-03 -3.034002698162386324e-01 -8.922774372974462409e-01 2.920518231407309706e-01 4.247323298479808162e-01 -8.569178377079573750e-01
-3.641011161238935645e-02 3.215610708782919158e-02 -8.109593499138348927e-01 9.006249158575462266e-01 1.450473360085798857e-01 -4.096779604194028535e-01
-5.952431868594865519e-03 -1.553687289529010612e-02 -7.559820049017746957e-01 9.213107021386319762e-01 1.726757120398971779e-01 -3.483815273465790674e-01
-1.078647369895755284e-02 1.382759221192568846e-02 -7.609071559749197577e-01 8.998327494152389416e-01 1.866791273439691035e-01 -3.942739231725906346e-01
2.240683121516009665e-02 1.897637654529963844e-02 -6.973706138948484456e-01 -9.095285270508108866e-01 -1.990418244075218834e-01 3.648838316742842869e-01
4.715298055885703415e-02 7.095671281779375450e-02 -5.933977805091426028e-01 -9.309274053588064701e-01 -2.157227921627126455e-01 2.946826138295967068e-01
3.447184235113621292e-02 1.177112544897997298e-01 -5.773561018990861493e-01 9.313143078168755196e-01 2.013772911481003236e-01 -3.034812130353825577e-01
-3.432879675395405367e-02 2.003917052479108063e-01 -7.469357735250430341e-01 9.423057083744902362e-01 9.239649233679148033e-02 -3.217496544966399474e-01
4.396859645478780332e-02 -1.479356593950861554e-01 -7.251467244525142686e-01 7.606774272588292529e-01 -4.251022655207777334e-01 -4.905689712038366346e-01
6.200988388386879241e-03 1.142711652379258284e-03 -7.446395479179105381e-01 -8.172953241542167957e-01 2.545829348862990171e-01 -5.169292817981312460e-01
3.709058272033753482e-03 5.048425623923176453e-02 -7.370187197866415740e-01 -8.861971424551609022e-01 -2.011589857114315649e-01 4.173603804529787409e-01
3.698104731102881682e-02 -8.864691704062098443e-02 -7.088249145486532621e-01 8.888727444502197983e-01 2.474053919613027341e-01 -3.856109648363336695e-01
3.724573192279499734e-02 -6.646876593636466546e-02 -7.129280612295166852e-01 -8.888118682768030299e-01 -2.472953096588843547e-01 3.858218405313717514e-01
-4.548039922494118148e-02 3.359621538662569545e-02 -8.475174168865120539e-01 -8.949618492538095049e-01 -1.351346305782916701e-01 4.251845716846627266e-01
-1.512128406297720551e-02 1.566268955458602619e-01 -7.124075535251184199e-01 3.269771595762664962e-01 7.997283373048535982e-01 5.035082160472170720e-01
1.279977036439544375e-03 -2.134506882051441234e-01 -8.498897941889552721e-01 7.651481457954620868e-01 3.194741899458235501e-01 -5.590031815152983752e-01
-2.401675689793269022e-02 -2.977981405106728402e-02 -8.264454090697723743e-01 -8.875838671643903055e-01 -1.716172340979661703e-01 4.274838052021029955e-01
-2.285643626564554109e-02 5.255327118572229034e-02 -7.906405008481669494e-01 -9.033891210923189474e-01 -1.612891944628696284e-01 3.973334766182756717e-01
-5.323147511425131012e-02 1.844479810806523845e-01 -8.049133727869113297e-01 9.480374208096274957e-01 4.151478472765546268e-02 -3.154386967282952203e-01
1.297073276353473241e-02 8.186407163944747767e-02 -6.870133352839722374e-01 -9.235963300754563843e-01 -1.791874168278296542e-01 3.389125089484278930e-01
-1.155873898419072093e-02 -1.710602707811856582e-01 -8.494088605852363472e-01 8.440463419957701108e-01 2.272450093057280518e-01 -4.857421932560514466e-01
-2.015028666185116057e-03 -2.458676589304346904e-01 -8.846171652602786706e-01 4.540227266831687869e-01 -3.928194211834400429e-01 7.997226181597515415e-01
3.198271626391657740e-02 4.506025583497359072e-02 -6.565006918718669926e-01 -9.170304331665058983e-01 -2.029084749811576049e-01 3.433414269022476151e-01
-3.444674903687054007e-02 1.145545563660009120e-01 -8.015565300991664976e-01 -5.606325253932535890e-01 4.741357927616608459e-01 6.788861623965051217e-01
3.385576419750063737e-02 -1.526462788757088074e-01 -7.721236407705175386e-01 -8.609953261375160594e-01 -2.534653697594646538e-01 4.409561822925837093e-01
2.745017557270092862e-02 -5.493508334782649938e-02 -7.096023988290596218e-01 8.910534835707891732e-01 2.328501533544073965e-01 -3.896209638856592550e-01
-1.713102903142373372e-03 1.242169521256961812e-01 -6.843799092867884903e-01 9.293840418917663770e-01 1.660591103182517403e-01 -3.296508373373772671e-01
3.644194676554659423e-03 1.076391794456842549e-01 -6.883804547243398408e-01 -4.340492098497216178e-01 4.010472442515410352e-01 -8.066984512859047829e-01
5.490102516875094291e-02 -1.505189826517404628e-01 -7.352503616253670549e-01 -7.729274914520088968e-01 4.002886776686678250e-01 4.922926644669549101e-01
-2.310071564209899633e-02 1.026201412762132170e-01 -7.811923611252028499e-01 -9.018364749406712066e-01 -7.332834199488139082e-02 4.258097306624939460e-01
4.666529524772735499e-02 6.006397917838427608e-02 -6.029882286566289329e-01 -9.262718759163204307e-01 -2.254352888705718205e-01 3.019922886735723067e-01
-1.690612034612955228e-02 2.825109193968587326e-02 -7.870512906295500377e-01 -9.026336573196631630e-01 -1.749423603812106098e-01 3.932526557036570836e-01
-5.984443562303953801e-02 1.582352911213601721e-01 -8.281417475313974652e-01 9.395984978693976419e-01 6.157895708108425403e-02 -3.366937701330058319e-01
-6.029570409432532391e-02 -1.092197449210012794e-04 -8.724817328889132861e-01 8.886683609715574361e-01 1.391932236532714973e-01 -4.369139396919443086e-01
3.192422418927871874e-02 -1.338554117536012444e-01 -7.476905186998512587e-01 8.661970812524508734e-01 2.505977191660346826e-01 -4.323232581975160471e-01
-5.972440047025147358e-02 5.797235646413985422e-02 -8.700579479939203331e-01 -8.855089152273416531e-01 -1.288173271654958485e-01 4.464079493857988634e-01
2.390712670954887528e-02 1.649107402711139647e-01 -5.817680408146571613e-01 9.253780432467596517e-01 1.507854434438786750e-01 -3.477631767772871862e-01
-1.689088469644108373e-02 1.963093540686847438e-01 -7.187623489342948035e-01 -9.430744328098170648e-01 -1.249972103016360470e-01 3.081984938270306840e-01
8.591382694308083087e-03 4.935139424298904537e-02 -6.865774378000312206e-01 9.253001472464682520e-01 1.031456419710115452e-01 -3.649391922609191430e-01
5.993238661304581272e-02 2.478889238757762611e-02 -5.931742950605286557e-01 -9.287330576275218963e-01 2.956346613561912084e-01 2.237298698758037052e-01
4.105379901304977153e-02 -9.354167650562546579e-03 -6.467701617990792018e-01 9.069387591371681490e-01 2.434046245810456699e-01 -3.438259383864077923e-01
-2.134056037501161698e-02 2.052901302956923468e-01 -7.067460581382709606e-01 9.439072224915576736e-01 1.103238515158992267e-01 -3.112359283806591659e-01
-5.211229560430667707e-02 -1.195555519925707300e-01 -9.112066700738594704e-01 -6.105662288002704496e-01 2.385028327388730249e-03 7.919616101102964212e-01
2.870899048745172502e-02 -3.299237632705618369e-03 -6.946919082595198747e-01 -9.042174473752128128e-01 -2.208034442741921566e-01 3.655634648852475466e-01
-2.991146793884080085e-02 1.357717352073994910e-01 -7.769896772185540534e-01 -9.300299729916972069e-01 -1.204625830030667949e-01 3.471786506012313200e-01
2.627403266154827374e-02 -1.820299811260997491e-01 -7.871801065987040769e-01 8.463198267547217268e-01 2.779075716053388545e-01 -4.544338593087896006e-01
-1.120364874049873706e-02 6.704916098004711118e-03 -7.652316690246240283e-01 8.998327494152389416e-01 1.866791273439691035e-01 -3.942739231725906346e-01
2.826960647094696466e-02 6.647051665613025462e-02 -6.308943235775519298e-01 9.284787024803428102e-01 2.045889449534571969e-01 -3.099526780707828610e-01
2.629287367716598087e-02 3.992662205893969529e-02 -6.537769843376270984e-01 9.167348356499908091e-01 2.057600975898793150e-01 -3.424325091833240742e-01
2.328817792440798437e-02 -1.524033684488267371e-01 -7.923365878754962122e-01 -8.563780648154432074e-01 -2.524819291668111698e-01 4.504103523978568169e-01
2.036889738566937183e-02 1.156143786773390220e-01 -6.229953191302057824e-01 9.367065156478229238e-01 1.808645446718411820e-01 -2.997814537685117853e-01
6.334361128706192390e-02 -4.296500060791226538e-02 -6.136387178747232385e-01 8.969590941329518285e-01 2.732372230072975250e-01 -3.475712925652158503e-01
4.973719321127834971e-03 9.875813433100336103e-02 -6.998692108385082822e-01 -9.293687400591070791e-01 -1.661211863226924879e-01 3.296627010380289713e-01
3.899517710501444745e-02 1.168879446095297536e-01 -5.932774266267295538e-01 -9.841253180266004152e-01 -1.326744932882452099e-01 1.178763642540340273e-01
-8.754885482921763787e-03 -3.580785736510920803e-01 -9.316151881261930390e-01 9.861311325336051814e-01 7.843260110937319562e-02 -1.462659103523685222e-01
-6.200597571274905906e-02 1.218654872202036554e-01 -8.415437667726496374e-01 9.240469898918500791e-01 8.222791102420776155e-02 -3.733305922642903285e-01
-1.733042689673030753e-02 1.698799689094417364e-01 -7.297890926070295103e-01 -3.349555682470805717e-03 7.723407931555602568e-01 6.351995589612526860e-01
3.280952460993163955e-02 -1.294394485144554907e-01 -7.605599070025367281e-01 -8.694548197858366079e-01 -2.508049288729030657e-01 4.256115646974786282e-01
-5.250123911085836752e-03 -3.404422267577003614e-01 -9.295636951278195559e-01 4.538488989093302228e-01 -3.957224254057736812e-01 7.983889647219332142e-01
-1.959790574269510907e-02 -2.106024553632024621e-01 -8.788109951949224508e-01 8.525285065734189427e-01 3.948873417522990037e-01 -3.424312088631802364e-01
-4.739189559244030847e-02 7.627486504432273717e-02 -8.380645424130520604e-01 -9.037162667897947754e-01 -1.263173991976080657e-01 4.090731276916982351e-01
1.633200008448807208e-03 -1.687336020744737153e-01 -8.405019599981431444e-01 -8.463650232677654150e-01 -2.365257625103073247e-01 4.772020652280042907e-01
6.723564526670401317e-03 -8.155108529093592351e-02 -7.862163052340782610e-01 -8.173055124848138675e-01 2.542906772316850805e-01 -5.170570091730569695e-01
-2.131109567122295781e-02 2.424923865353653674e-01 -7.118382974655377282e-01 -8.777608474969930130e-01 -3.458163206368864429e-01 3.315825191148153439e-01
1.924397627650126577e-02 -4.238183879774869156e-02 -7.210460172794016520e-01 8.940339228482896416e-01 2.300994594228524259e-01 -3.843924863597223962e-01
-2.463918809703121576e-02 2.892546270033545530e-02 -8.040885230962739882e-01 -8.967484737476031365e-01 -1.629949468432453918e-01 4.114302153888454994e-01
-1.669996509760335660e-02 2.405298111856900012e-01 -6.999340385428945988e-01 -9.438964157639000430e-01 -1.560200491633105813e-01 2.910623654255916626e-01
3.265060751272019779e-02 -1.535403760476873047e-01 -7.581642674479550648e-01 8.603381685069555473e-01 2.572574801498117569e-01 -4.400418442796846796e-01
-6.616786934367915657e-04 -3.839263568701024587e-01 -9.331316379263580041e-01 2.989075896104237406e-01 4.292689181927754061e-01 -8.522807335302674536e-01
5.126451746096902240e-02 2.037129735689470131e-02 -5.973396229451688466e-01 9.167446952450166719e-01 2.389030414256327339e-01 -3.201632404535282861e-01
6.094548758942898957e-03 -1.632181616256331569e-01 -8.254500656071446230e-01 -8.199636092899256212e-01 2.531655429590633499e-01 -5.133876579140569385e-01
-5.740177146244295620e-02 1.340967235653320044e-01 -8.273678674225832808e-01 9.251379895497867656e-01 8.856490838168616653e-02 -3.691557358285552648e-01
2.395706478794592045e-02 -1.324022018246835131e-01 -7.628121222162702608e-01 8.658751512494481384e-01 2.519338766481594161e-01 -4.321915596651270119e-01
3.077634912201537148e-02 -1.186863789348123130e-02 -6.947543087666283590e-01 -9.042174473752128128e-01 -2.208034442741921566e-01 3.655634648852475466e-01
3.637662128891045593e-02 2.387497764770303219e-02 -6.578208073279526724e-01 -9.150695573465846833e-01 -2.205129153877093962e-01 3.376710816234316792e-01
-3.804941306796279232e-02 2.179060250392329725e-03 -8.191446270080574577e-01 5.376840404620609748e-01 -4.046733608207402355e-01 -7.396859763943340882e-01
3.706534550625918689e-02 -1.508095794135390355e-01 -7.568713882942117444e-01 -3.438159133370821130e-01 8.741274834064320931e-01 3.430623274125649269e-01
4.832959081594317974e-02 -1.998095160126059644e-01 -7.765461154992771009e-01 -7.427486126794139443e-01 -5.043901991766049919e-01 4.403578378289531581e-01
-9.788188031184938062e-03 1.631085193395662158e-01 -6.892962247046908741e-01 9.385792073753443931e-01 1.459924650245298661e-01 -3.126583944798720927e-01
6.304808738321857932e-03 -1.118839845378896414e-01 -8.036453523734943261e-01 -8.655499435975831934e-01 -2.257636429528938060e-01 4.470504140014400218e-01
-3.068249164046635627e-02 -6.781123901507504943e-04 -8.112848557903074020e-01 8.911028250215899948e-01 1.690129638910451981e-01 -4.211536219425229821e-01
-6.455359177412776928e-02 -1.862557687712885698e-03 -8.815841044669756599e-01 8.874168919412145362e-01 1.331994715724149625e-01 -4.413039323076831666e-01
-4.887017554249922791e-02 1.258558577191518368e-01 -8.088174011579140066e-01 9.267521961926196150e-01 1.066079475437547858e-01 -3.602292497461362375e-01
3.010886581862817074e-02 -2.040805198790364983e-01 -8.117476671056778059e-01 -7.847731412093802428e-01 -4.107556783613199869e-01 4.641237868611066131e-01
-4.327892831906346438e-02 -5.907580891713855482e-03 -8.564593606534462999e-01 -8.838138143411022885e-01 -1.607377123268536878e-01 4.393592259367739006e-01
-3.148377530175327371e-02 7.424160621795120561e-03 -8.097687120006893391e-01 8.948323201007166716e-01 1.524619639330421772e-01 -4.195598508637933266e-01
-1.920019665877000653e-02 1.965213176572010167e-01 -7.035591878953744160e-01 9.434320671520844970e-01 1.187803727759429717e-01 -3.095596189950373112e-01
-8.274664616307689929e-03 2.988077940397804513e-02 -7.662449873967203118e-01 -9.076215869483794663e-01 -1.701155639468710512e-01 3.837756503588300450e-01
-5.728912481783380445e-02 1.082978391019872727e-01 -8.337599112859100936e-01 9.176785479234536025e-01 1.016644943315323513e-01 -3.840968800620690460e-01
-3.391353162691643219e-02 -7.498901488129036674e-02 -8.477714912765402788e-01 8.682531375023220255e-01 1.910328839090258690e-01 -4.578678045929568396e-01
5.503376838849428215e-02 -6.742062127553169470e-02 -6.426864065306504559e-01 8.986651262902229931e-01 1.947952091843635769e-01 -3.930086732740097899e-01
4.541432035838072895e-02 -1.830536109909509657e-01 -7.680028168420993673e-01 -8.564192017314971039e-01 -2.677941371619262934e-01 4.413982906710045562e-01
-1.289014976079907483e-02 -1.809162008803262209e-02 -7.802799412826557646e-01 8.934100332688483803e-01 1.794458142837734582e-01 -4.118467095784407728e-01
-9.315588067841492487e-03 2.112383428331599255e-01 -6.665973638445560345e-01 9.501196761984620487e-01 1.247627024457901440e-01 -2.858441340642707829e-01
-2.959819934576643150e-02 -6.786336900181962062e-02 -8.527309514617108510e-01 -8.682457306947070075e-01 -1.910563704468097590e-01 4.578720502958282812e-01
6.754781458435724778e-03 -5.540033646869515355e-02 -7.826329068221062890e-01 -9.023085843502222092e-01 -1.914446811043825081e-01 3.862488222438214547e-01
3.713282902995410084e-02 -4.255236443717870520e-02 -6.788200283789787015e-01 8.973180499773640850e-01 2.412534795722979797e-01 -3.696174722318729677e-01
1.298843389550469532e-02 2.050171169644894598e-01 -6.174445944822196664e-01 -9.521723670754316249e-01 -1.548809691729412519e-01 2.634002064654081821e-01
4.067822635270640363e-02 -1.724448596060450534e-01 -7.707474126696949313e-01 -8.562337021209277532e-01 -2.685929695022836183e-01 4.412727774135130066e-01
1.032383372579587623e-03 -2.233078520421189761e-01 -8.558000371788122562e-01 7.706322873049504807e-01 3.132307755198304178e-01 -5.549886116222437771e-01
-1.134348691936998450e-02 1.674384213174159031e-01 -7.237543432843356328e-01 -6.105914992998485724e-01 4.437216731613641274e-01 6.559642503594556029e-01
-2.005995065516106429e-02 -9.557342682054704996e-02 -8.300841395809421819e-01 8.678603151625167156e-01 2.009236358971840108e-01 -4.543656742139232096e-01
1.837002928272789617e-02 1.848775275521126749e-01 -6.108830763974879563e-01 -9.470666469300390578e-01 -1.687910735289125663e-01 2.730830272456525321e-01
1.681364893470836674e-02 -1.355833154263026974e-01 -7.955883372000437381e-01 -8.639424583129057256e-01 -2.399627195620636089e-01 4.427429524505517855e-01
4.549071857375504811e-03 -7.967917357444195825e-02 -7.991751903998655093e-01 -8.436850092347659702e-01 -2.384066122167902424e-01 4.809967696813004512e-01
-6.134997275449284582e-03 1.408242639509745264e-01 -6.791939384902695442e-01 9.359314413319130832e-01 1.564019210418371997e-01 -3.155483738205452915e-01
-2.037187387508927056e-02 5.721398020578345733e-02 -7.829741418259001939e-01 -9.092692159468490631e-01 -1.672346232566629398e-01 3.811326195900900382e-01
