1.104692825080886009e-01 -1.483377743181344688e-01 -9.140539824179425565e-01 -2.467062499497214012e-01 5.287532605174370959e-01 -8.121305410633963273e-01
-6.565995011378904234e-02 -1.748804122757846025e-01 -9.032499739351106394e-01 1.635505396993330862e-01 -3.833407268565742210e-01 9.090110604921868287e-01
6.290620795845620894e-02 -5.859357946676670148e-02 -8.664457822311285584e-01 8.719168311868502608e-02 -4.721312891643935639e-01 8.772055951639265992e-01
-9.586829803505897418e-02 -3.179226822584229478e-02 -8.360657849243557926e-01 2.672706314627880664e-01 8.436935013003254991e-01 4.655616880941558788e-01
-5.046420308365774654e-02 -5.016438273644754919e-02 -8.432675496422961103e-01 -7.734918320011209547e-02 3.983644343808938615e-01 -9.139599998242079471e-01
2.392968781823419898e-03 1.343846678753954083e-01 -7.719332478294679278e-01 -7.789644394139380590e-02 -4.244284282028449318e-01 9.021045689688904634e-01
1.269688962149442546e-01 1.422515750553491054e-01 -7.588866581316680016e-01 -4.788602509095014198e-02 -4.948021209152492217e-01 8.676853057063718122e-01
1.001777702796217279e-02 -1.693803807320816424e-02 -8.318228660405275754e-01 -5.941151446619024057e-01 3.503843053188121504e-01 -7.240566507322614420e-01
-1.198772762286452465e-01 1.322741041404700002e-01 -7.657482903759774695e-01 3.058834659021216970e-02 3.701668800482929012e-01 -9.284615414588747173e-01
3.244490032047270267e-02 -2.777861216260703314e-02 -8.397086963737783183e-01 -7.081578613193742489e-02 4.442903048829803803e-01 -8.930796433809832235e-01
-4.319746453930722180e-02 -1.623418063977666581e-01 -8.935791645747683809e-01 -1.420038896091579128e-01 4.007887354955500525e-01 -9.050984945494873202e-01
7.086703780605636827e-02 -2.770875712817674058e-02 -8.390769568291719382e-01 -4.728405657233172854e-02 4.087178677462391940e-01 -9.114350896136445002e-01
1.062767050270015667e-01 -1.142232358449952051e-01 -9.017196744716179380e-01 1.242629696998659994e-01 -4.827641373824154702e-01 8.668895558367182286e-01
-1.033667767673184940e-01 -2.733360271692356416e-02 -8.259532544749005334e-01 -5.502884321474201673e-02 4.282611730990060761e-01 -9.019779343367055890e-01
-7.911789574890813748e-02 -1.509288057127662341e-01 -8.829328767764627051e-01 -1.396156309928547889e-01 3.877585706318564251e-01 -9.111260980149820110e-01
-4.407569470006201563e-03 -2.317685329024263552e-01 -9.395078086874644185e-01 2.553846854625586027e-01 6.375585937111140078e-01 7.268409055744569081e-01
8.997671462861490943e-02 5.402184538258213847e-02 -8.082946789540248478e-01 2.039383326635037241e-02 -4.709297083478258261e-01 8.819349756983992927e-01
-1.219284976787946007e-01 -9.804772526046558190e-02 -8.635285775223007221e-01 1.127937486144549029e-01 -3.652916075594381806e-01 9.240344212853440764e-01
-3.259964402759255378e-03 -2.873236478218600398e-01 -9.721401932068123308e-01 3.786910192798383923e-01 -3.969671308275917188e-01 8.360683040035107316e-01
-8.509132583354571400e-02 -9.789709234911581071e-02 -8.680642216330641814e-01 1.197424296757814421e-01 -3.802322497830627479e-01 9.171069658225540211e-01
6.308456709781709582e-02 1.014077566822699783e-01 -7.749753524038290875e-01 2.754172090741092982e-02 4.555948858652032474e-01 -8.897610654456233892e-01
1.037836913527546284e-02 -1.250685743253843463e-01 -8.900914314931894777e-01 1.490863447406559628e-01 -9.022166966510604125e-01 -4.046953101975837019e-01
9.341355158522825219e-02 1.906501377720466739e-01 -7.340544969750640858e-01 -1.192640006735971592e-01 -5.126516588052850709e-01 8.502731178083415831e-01
8.712505022867648996e-02 1.925398292868278627e-01 -7.268142646218668235e-01 4.182052036220326729e-02 4.405668704779202582e-01 -8.967451570618744094e-01
-1.395737029043178645e-01 1.064923975438161891e-01 -7.834156389040478619e-01 -1.896827337185356911e-03 -3.639131680397453272e-01 9.314309465404986277e-01
-2.815854451919667933e-03 -1.441144604541244427e-02 -8.387842354940698852e-01 6.007458138757305888e-02 -4.281364140545217967e-01 9.017151743381293105e-01
-1.150119698490783132e-01 6.453068954558625892e-03 -8.230623358589773675e-01 4.345009079748102243e-02 -3.655884663372134247e-01 9.297618850495511511e-01
1.308110448990094377e-01 1.209597298823846118e-01 -7.633534820132116261e-01 1.139584495685891895e-02 4.902654277828245588e-01 -8.714986775885796844e-01
1.373665945773560118e-02 6.233907311514739341e-02 -7.947406416415178088e-01 -2.211664147846988809e-02 4.312914766309135506e-01 -9.019415260177563454e-01
-1.317278754612998537e-01 -1.268228120136325188e-01 -8.664849731036803338e-01 -4.482847164126607664e-02 3.964695591997708934e-01 -9.169527232950712703e-01
1.009337577535799613e-01 8.322344857823588127e-02 -7.962336588042694396e-01 2.459484692542207238e-02 -5.769326260181137922e-01 8.164213609041339748e-01
1.182347005990270761e-01 -9.610251250130319445e-02 -8.883071191570067748e-01 1.988873751882692387e-01 -7.174703643303860234e-01 -6.675927563255487085e-01
2.189532869117692335e-02 -5.174416371057398434e-02 -8.506561378130168549e-01 -8.023692658751324647e-02 4.451783889257970861e-01 -8.918398049230711333e-01
-2.630337354975462519e-02 2.338706351889452695e-01 -7.167018778085001429e-01 1.174846623442189347e-01 3.686398170493107584e-01 -9.221182350434870001e-01
-2.512016765635890353e-02 1.407035815624859409e-01 -7.634996871451548150e-01 2.075533401687132129e-01 8.333771556397100433e-01 5.122539677178468143e-01
-5.591074773858818736e-02 -4.696267062006258958e-02 -8.494906479283941270e-01 7.813276971513939684e-02 -3.947295819651667204e-01 9.154691843083772040e-01
4.692963970249366262e-02 -1.140560552064047856e-01 -8.846667062943945892e-01 -1.233205663436123395e-01 4.559181970875384460e-01 -8.814366882999249420e-01
5.823023217358915676e-02 -6.349580833847937034e-02 -8.601163525151704903e-01 -9.546781015607007370e-02 4.573527718238348805e-01 -8.841461074556963284e-01
4.016485373502241829e-02 1.549518790276397107e-01 -7.541510095670956870e-01 2.201942568204585116e-01 -8.798282601324665109e-01 -4.212086441842839979e-01
-6.916249476607495839e-02 2.414739343193719051e-02 -8.099177023715452561e-01 -4.300433283690439923e-02 3.994432395323058160e-01 -9.157487241318927884e-01
5.879087396804846821e-02 1.233137779938341116e-01 -7.718546846151481677e-01 -2.749347074224047296e-02 -4.580197327148167741e-01 8.885167603992585317e-01
1.120629110890460078e-01 3.050242895028059537e-02 -8.218527886805052640e-01 2.504126587779574933e-02 -4.901321637700525313e-01 8.712883547031510245e-01
-5.681671310946537906e-02 8.094548661598645334e-02 -7.857587867478741384e-01 -7.082931954345925846e-03 3.994172284335120726e-01 -9.167418991763285341e-01
7.110813318576242326e-02 6.977772482363168993e-02 -7.915626870955790872e-01 -1.056023305684192920e-02 4.578279979731459948e-01 -8.889780682051081628e-01
4.849815638310437001e-03 -2.788850010464348772e-01 -9.542072118173005046e-01 -3.786910192798383923e-01 3.969671308275917188e-01 -8.360683040035107316e-01
2.902403949393510610e-02 1.632518132718783696e-02 -8.177001771083842740e-01 -3.391882205039541825e-02 4.479621210848228618e-01 -8.934088938352361398e-01
-1.789673551427534495e-02 1.030198835555506676e-01 -7.833940951577508249e-01 -6.062384818849521698e-03 -4.197863931816254168e-01 9.076026837718528251e-01
-5.581411058918622076e-02 9.048309225566392167e-02 -7.894012580375712185e-01 -4.554219861107207216e-03 -3.987021410697499935e-01 9.170691695765668117e-01
1.135199404300112902e-01 -7.547961370216967059e-02 -8.810686318117663118e-01 1.084276891404873655e-01 -4.843745765080898491e-01 8.681156062761815617e-01
8.546081541610658916e-02 1.280570013284209330e-01 -7.685073054548492433e-01 -2.870904347807623838e-02 -4.765429488420042103e-01 8.786823138834310987e-01
1.221172690218269713e-01 -4.396400624914442029e-02 -8.641948903573756224e-01 7.871226818417043081e-02 -4.962264349892338000e-01 8.646176635109756869e-01
-7.344061549088147511e-02 -1.177496201379950175e-01 -8.698132593749309249e-01 -1.225115528770863160e-01 3.827481564692863936e-01 -9.156935994812934743e-01
-1.138496722140697713e-02 1.421970865240840265e-01 -7.571590261126642796e-01 2.658437566253890952e-02 4.217324704024371096e-01 -9.063305105638288506e-01
1.759492663244873172e-03 -4.042561474899579732e-01 -1.026950549466044471e+00 2.329109161297299446e-01 -1.554117325764070301e-01 9.599998429818669132e-01
1.126380953216252478e-01 -4.188236386012983425e-02 -8.539835339415362547e-01 -7.550358502623286117e-02 4.895076260885080077e-01 -8.687240601303614085e-01
-9.947032771219507796e-02 -9.628889414254380996e-02 -8.577033258903085100e-01 -9.850123335456899276e-02 3.686094827887418379e-01 -9.243508837156185765e-01
8.775254924680782331e-02 1.479137286248288774e-01 -7.499477794055792179e-01 4.057456276286117158e-02 4.646730762751357102e-01 -8.845522240329309893e-01
5.070308258665281315e-02 -1.060727588698573282e-01 -8.811410098828277304e-01 -1.200363298938334072e-01 4.452896899188998336e-01 -8.873039905001830485e-01
-9.487344089570740047e-02 9.495853305754300977e-02 -7.801148749449787756e-01 1.399793691212636304e-02 3.748236658490147755e-01 -9.269904407714839589e-01
1.773834307020697235e-02 -1.969278684940086732e-01 -9.307135199856754193e-01 2.027001443318100504e-01 -5.216651413095193535e-01 8.287207803780369808e-01
-6.130461133280325214e-02 -1.789606002664317352e-01 -8.977863893198649858e-01 -1.601161657974857211e-01 4.004374314326670237e-01 -9.022265108928688715e-01
1.497079817151818204e-01 -5.373342615449502174e-02 -8.721950898811466901e-01 4.568853934749905060e-02 -5.011171359084870547e-01 8.641725368646974159e-01
8.873552023815532708e-02 1.495643918160454444e-01 -7.473698716747689819e-01 -1.138859895552218893e-01 9.178736461215023512e-01 -3.801814713247431698e-01
-9.530473079557538751e-03 -1.992325478569057229e-01 -9.221422642971450756e-01 9.977512298145008174e-01 3.189170895487844493e-02 -5.895254280850564799e-02
2.328301214289360543e-02 -2.066394592422663712e-01 -9.294766765775258621e-01 -2.884475574645744556e-01 4.934477715931465114e-01 -8.205530472202750003e-01
5.251947991342586358e-02 -2.708453707620360126e-02 -8.530485975341216554e-01 8.088823380052821699e-02 -5.115227389873233665e-01 8.554540204660550096e-01
-5.500968936487700411e-02 2.076339756314808660e-01 -7.306488778622048930e-01 8.530929599152303755e-02 3.764532883373727379e-01 -9.224994556732321049e-01
-9.191864121285475697e-03 9.349842071975082713e-02 -7.824248944334969424e-01 8.509391018057518297e-01 2.244590792878062846e-01 -4.748902681075815591e-01
-5.096617403635194526e-02 3.583427007046237345e-02 -8.134285558438726360e-01 2.964645277390022884e-02 -4.110989372396455233e-01 9.111085290119717017e-01
7.082922986003044319e-02 3.743306078726805347e-02 -8.084355549071381430e-01 -2.418982446725884486e-02 4.590772231494877897e-01 -8.880669769660385349e-01
2.538053675519699043e-02 -8.042483321508829552e-02 -8.734581426883918365e-01 9.782117842719281753e-02 -4.448742401142019576e-01 8.902347597875105434e-01
-9.473652749638365733e-02 -1.705579785959674965e-01 -8.882521299440148121e-01 -1.526144915840113303e-01 2.905609697353022658e-01 -9.446073998360561275e-01
-4.038147073474755017e-02 -7.186620931564542680e-02 -8.538219737650731833e-01 -9.110582454991372758e-02 3.963680299167136600e-01 -9.135601313504346788e-01
1.357194407680568649e-01 7.817070228270441359e-03 -8.276955748747889530e-01 -5.672700516355333455e-02 4.889175556859716165e-01 -8.704835843525304817e-01
-6.258648305059365258e-02 -6.524714048682898893e-02 -8.567414519964643427e-01 9.042134815147322147e-02 -3.809179474107192154e-01 9.201768836147072861e-01
-1.282072462144338842e-01 -6.458075461546239349e-02 -8.423479677514680297e-01 -7.388701302436671836e-02 3.572448029275201442e-01 -9.310837019772252310e-01
6.927200948054683394e-02 -1.322561325426489243e-01 -9.059272233170023725e-01 1.369166038406580688e-01 -4.639163117178454754e-01 8.752345396034432179e-01
-5.426673296212296271e-02 1.144115724262530082e-01 -7.710950529818344501e-01 2.768423278004800148e-02 4.015049389780767086e-01 -9.154383470401439293e-01
5.729624530648753239e-02 5.728314835714409803e-02 -7.978310694981912699e-01 -1.473234281398449162e-02 4.594903329689373206e-01 -8.880605790053437421e-01
-4.049047739864750778e-02 1.729593942991353717e-01 -7.523025957696074517e-01 -4.645543460045210848e-02 -4.072444716543821563e-01 9.121369595093854477e-01
2.870459797696801180e-02 5.114293985643134782e-02 -8.004274742779243779e-01 -1.587745905140155664e-02 4.466027737241822226e-01 -8.945914535674582835e-01
6.908880160042536744e-02 -1.189448029670552576e-01 -8.978073518336429082e-01 -2.130660255630970057e-01 7.329460240078118360e-01 6.460595906275874434e-01
-4.770732018557063275e-02 2.189556056835303965e-02 -8.117835537346561603e-01 -3.246070201221312040e-02 3.994443290211714959e-01 -9.161825859716503651e-01
2.225850116178641497e-03 -1.647723552881388553e-01 -9.109007612708502899e-01 1.618503791671128678e-01 -4.232560142389685809e-01 8.914363696720051244e-01
1.643855198019534836e-01 5.440494788221134081e-02 -8.021697787898114385e-01 -6.292569272233174138e-02 4.970452448164313641e-01 -8.654399931831140425e-01
-8.698088729177971823e-02 -2.673166880854144917e-02 -8.421392758492848296e-01 8.327855275992823714e-02 -3.153229788534505085e-01 9.453232789142549386e-01
-4.934386265437861602e-02 7.361384574681942294e-02 -7.987892742268731805e-01 -1.286664279361617036e-01 -8.805802135067340997e-01 4.560958648163594420e-01
-9.430370905441623139e-03 -2.724015854325526065e-01 -9.595838856445434439e-01 9.974179490177349505e-01 3.080237047922161284e-02 -6.487410076537404591e-02
-1.183328823411296526e-01 1.116611637542044844e-01 -7.739200984250599324e-01 1.881440630979313786e-02 3.664639944481450917e-01 -9.302419894244292609e-01
1.493680457537398809e-01 6.912024454409380902e-02 -8.003859282263091623e-01 -1.148993530630592307e-02 -5.067572929227212031e-01 8.620121968141125635e-01
-4.246992604707058860e-02 1.974190564834966966e-01 -7.340111308458011630e-01 6.795121873541455637e-02 4.012031330895243220e-01 -9.134652034267758403e-01
-1.316734660880997942e-01 3.455720729266104074e-02 -8.112987392998050051e-01 3.812822451434966925e-02 -3.657221053082621021e-01 9.299427832852276143e-01
5.451711460683597577e-02 2.151417393320543270e-01 -7.245893804470810995e-01 -8.659131903345047843e-02 -4.561032046850529986e-01 8.857041323964068846e-01
2.731235220587322431e-04 -2.189011180129463718e-01 -9.240630136860311650e-01 -1.039539666914666705e-01 4.199340488868434917e-01 -9.015813703679839142e-01
-4.074091255905265552e-02 -1.357090700762404178e-01 -8.821112074334739317e-01 -1.398456146376595710e-01 4.073560417357885988e-01 -9.024988971339330535e-01
-8.720305976680961524e-02 -1.313562909911985925e-02 -8.247636544250224189e-01 -5.791981827157106216e-02 3.947735709924412584e-01 -9.169509923094386616e-01
-8.653092645985184517e-02 4.630588657024658356e-02 -8.079805759693267087e-01 1.007720729678784205e-02 -3.822148588800661773e-01 9.240185341996062229e-01
2.421437860693974320e-02 6.140163505031370067e-02 -7.953150933006609691e-01 -1.399289756739119893e-02 4.370633674497938492e-01 -8.993218621000574897e-01
4.278690409855004373e-02 -1.281684860270839998e-01 -8.875560834887031847e-01 -1.484240700343004149e-01 5.019169857675986890e-01 -8.520854621646943849e-01
-8.104342390828507547e-02 -8.051047892370528924e-02 -8.532777731262216614e-01 -9.058120615322386160e-02 3.810830463474145779e-01 -9.200927979711619464e-01
-1.687649225509229023e-01 -1.474639336704331588e-02 -8.255692809889959571e-01 9.481640921696530278e-01 1.643920633974446932e-01 -2.719560696363078622e-01
9.535969142930443565e-02 -7.547417683461504767e-02 -8.706579914063361514e-01 -1.023913743068707999e-01 4.838163783296427489e-01 -8.691592020611287328e-01
1.432949284697715708e-01 9.811088031148450239e-02 -7.762248029273685068e-01 -5.733709976787243999e-03 4.927183288628095292e-01 -8.701699678640617552e-01
1.157804536386090703e-02 5.983037989241159899e-02 -7.927479357495266221e-01 8.622446753803303388e-02 -5.267829622801777772e-02 -9.948820725615152849e-01
-4.840050229820282851e-03 -1.430359940459921264e-01 -9.034731406487224170e-01 2.112524861668007847e-01 -4.049631034281747088e-01 8.895938803466258982e-01
2.280279532124909747e-02 -1.620090000199877200e-01 -9.132871987195999575e-01 1.643836883013192751e-01 -4.299374239268621833e-01 8.877678832485371707e-01
9.163047451584322572e-03 -1.012898486574542517e-03 -8.250231292799959926e-01 -5.625143093687121065e-02 4.313400311490129257e-01 -9.004340920055853292e-01
-2.915443023418038543e-02 1.075144954592337498e-01 -7.736339369355613726e-01 2.482395479029383956e-02 4.137293246775283206e-01 -9.100614359319075808e-01
-1.041478399274862188e-01 7.973019278045517799e-02 -7.863265354545856400e-01 1.347752022449072787e-02 3.705527626157038013e-01 -9.287136300100631292e-01
5.844186572020419745e-02 -1.667604101911296932e-01 -9.221212536456216968e-01 1.656973617908301943e-01 -4.463854342105646467e-01 8.793659240726834359e-01
-1.225128498611269684e-01 -2.403781610777552813e-02 -8.233758401668499483e-01 -4.468789960032052561e-02 4.284825905369931687e-01 -9.024442704322627185e-01
2.913540355376549248e-02 -2.297287683933184679e-02 -8.370601196514432241e-01 -6.820001843418770082e-02 4.346015323151679044e-01 -8.980368954530122405e-01
-8.094793041946872492e-02 -8.503072437710902653e-03 -8.310981979747505966e-01 5.778988169944723752e-02 -3.947765499886813911e-01 9.169579080591421238e-01
1.010790376215251335e-01 1.536972849999885815e-01 -7.462763032148649334e-01 3.368560643306729024e-02 4.713903156315497056e-01 -8.812811414344599026e-01
5.547807911421240995e-02 -6.459978934829398167e-02 -8.687791022568972510e-01 9.454739841233279762e-02 -4.539989525131169490e-01 8.859716364367722363e-01
-5.580014857017417257e-02 9.560997888627777164e-02 -7.871294921442978376e-01 -2.651206410455563683e-02 -3.991048912258902681e-01 9.165219016785611794e-01
-1.018560793384488267e-01 -1.296689909847308086e-01 -8.709036069664413127e-01 -1.181680019354607453e-01 3.690739837820061764e-01 -9.218572111850403816e-01
1.371604683120146995e-01 -6.314205000337599905e-02 -8.686340668330477799e-01 -1.145227366666534130e-01 4.998963451237484756e-01 -8.584801610510859327e-01
2.433625542021580421e-02 -1.328851855153957706e-01 -8.870299207105484252e-01 -1.656914567235906466e-01 5.037255560114117792e-01 -8.478248081943630110e-01
-1.037927792753620404e-01 1.866577885939320336e-01 -7.499267416102919359e-01 -1.248093011924266901e-02 -4.105004271835812069e-01 9.117749863126626275e-01
-1.167299364731304578e-01 -6.096117156136861108e-03 -8.203338726066247144e-01 -3.660475099345925076e-02 3.657475926649886300e-01 -9.299939734559963256e-01
-1.089687990936411000e-01 -5.819090180835238130e-02 -8.493212798412247411e-01 8.904863565018478200e-02 -3.636333856880666904e-01 9.272761731554813869e-01
-1.137055023143102115e-03 -2.933302080142421650e-02 -8.378702266079304239e-01 -7.681526927731247012e-02 4.276437886179715320e-01 -9.006776362618990062e-01
-1.465807382077090881e-01 9.355428067424158278e-02 -7.816623461687546293e-01 1.859845747563835389e-02 3.508877531024924834e-01 -9.362328140490543404e-01
-3.283659229144227781e-02 1.504202208253454243e-01 -7.620733937315607998e-01 -4.564965517023974323e-02 -4.147866789873467797e-01 9.087728648664009645e-01
1.522482465198476964e-01 6.587407621926437418e-02 -7.948795478035365347e-01 -2.089816836583087076e-02 5.028810856428229670e-01 -8.641029338346498667e-01
1.488963702794569299e-01 3.422286239602059799e-02 -8.131529377104770306e-01 -4.805937146572007018e-02 5.001952835582297308e-01 -8.645779173217542635e-01
-1.926314004834304289e-02 1.633555750136402307e-01 -7.554626115785202378e-01 -4.771751364086290748e-02 -4.142931684500724687e-01 9.088917479367573105e-01
-3.629389033124574837e-02 1.686739384692248211e-01 -7.540022022848714700e-01 -4.645543460045210848e-02 -4.072444716543821563e-01 9.121369595093854477e-01
1.115826535566715738e-01 -8.915347436062908554e-03 -8.419698659227220494e-01 2.694285022108682814e-01 -8.882972135249315171e-01 -3.719359388930438270e-01
5.797161682865900612e-02 -1.609705401323975604e-01 -9.190465888709765663e-01 1.562354886384260400e-01 -4.569083212531807603e-01 8.756855931551644767e-01
2.134148897285828572e-02 -1.756564312632488689e-02 -8.338514127598429804e-01 -6.820001843418770082e-02 4.346015323151679044e-01 -8.980368954530122405e-01
-6.962322556899837311e-02 2.013404357663420019e-01 -7.416083689518601085e-01 -6.347404931235395287e-02 -4.003305092560554002e-01 9.141698575334237242e-01
-6.007700811653803735e-02 -1.181712426646251701e-01 -8.775600101582877732e-01 -2.010628581795549374e-01 -9.671201163953546676e-01 -1.557318449261538840e-01
1.513053770745060034e-01 7.097743255791000294e-02 -7.918867497014171475e-01 -2.089816836583087076e-02 5.028810856428229670e-01 -8.641029338346498667e-01
5.814013235310662268e-03 -3.641136717548166257e-01 -9.951127999397193502e-01 -3.794145484715004124e-01 4.032873852141680704e-01 -8.327087638155891147e-01
2.595941056033496466e-02 1.962814899609997554e-01 -7.291687621560489774e-01 6.851536710287690901e-02 4.366470280308156759e-01 -8.970200763542663935e-01
3.409522051846820140e-02 -2.134178766732482135e-01 -9.381925140478720726e-01 -4.510526502460741605e-01 6.559517178894228584e-01 -6.052097574427460769e-01
-2.978980835484798875e-02 2.027887002393924734e-02 -8.132227094582864524e-01 -3.437610457232599670e-02 4.091482264825423987e-01 -9.118201643968083525e-01
-1.697541374040015538e-01 5.160929982655858457e-03 -8.174163506534928292e-01 9.492520891677902473e-01 1.094596741602919809e-01 -2.948542876461323625e-01
6.235664262018718318e-02 6.725556256416137524e-02 -7.890470935139347608e-01 1.617629712061430247e-02 3.648944207140563667e-01 -9.309083677479855767e-01
-1.130196116146269109e-01 -5.552490326438372370e-02 -8.478867930685033416e-01 8.904863565018478200e-02 -3.636333856880666904e-01 9.272761731554813869e-01
8.330171662820107237e-02 1.145672806885695560e-01 -7.757965828458491808e-01 -2.888727249279237491e-02 -4.705934554285421401e-01 8.818771599240746717e-01
7.083344599408999964e-02 1.509861145966746310e-01 -7.491109339471916373e-01 4.259882384166538416e-02 4.544669743431475339e-01 -8.897444068038257159e-01
-1.034091962391572340e-02 -2.143356806454287111e-02 -8.334267332985989540e-01 -6.741300974897052045e-02 4.246045156988772495e-01 -9.028657105930576465e-01
-1.505976308937762853e-01 -2.422736546009744696e-02 -8.326038316348304269e-01 7.878894714501523400e-02 -3.438440056949726986e-01 9.357155559011592905e-01
1.286999632806466905e-02 -1.851170793474175152e-02 -8.337081072839613860e-01 -6.695763099476233216e-02 4.312731437103387577e-01 -8.997333778213246758e-01
-1.711999752738988315e-02 2.320921963907620622e-01 -7.231491858562276720e-01 -8.651734311794363752e-02 -4.306174746437085865e-01 8.983781719695147494e-01
-2.032049472415099062e-02 -1.283219296958758651e-02 -8.288091250236558905e-01 -6.375938066423386674e-02 4.170728251451041313e-01 -9.066338841576541130e-01
-5.887083523318625833e-02 1.782713284202334103e-01 -7.435461707223643968e-01 6.254406369861455206e-02 3.998165089510078984e-01 -9.144588559723680898e-01
2.191896686474743144e-02 1.820259174131102498e-01 -7.363642144165760683e-01 6.724747666165419024e-02 4.314083906755019626e-01 -8.996469181503450319e-01
7.839585606336524348e-02 -9.391898704045831270e-02 -8.868406359374669812e-01 1.059856112017103086e-01 -4.692132280268451194e-01 8.767017719058333158e-01
1.180517392202678206e-01 3.989182740420046946e-02 -8.086625837548238049e-01 -3.092133317664388578e-02 4.868616391008861455e-01 -8.729316213350147846e-01
-3.935896579576111248e-02 -1.901886581740025173e-01 -9.064246714006454209e-01 -2.125509828999031514e-01 3.136793930173868428e-01 -9.254335838214046150e-01
-1.314425108490241065e-02 2.092391747881982567e-01 -7.262458707940498970e-01 8.227346409773095282e-02 4.137158283169688477e-01 -9.066809198970516848e-01
-1.129149610703107480e-02 -3.317292874639733019e-02 -8.388567568330063118e-01 -6.801537404222370020e-02 4.218468103759823173e-01 -9.041123699350132048e-01
7.478626395831317053e-02 1.488888494058604461e-01 -7.545534124140237386e-01 -2.194129029955828869e-01 7.274409582862915169e-01 6.501443149075232242e-01
2.722603071539508174e-02 -1.015203566947921188e-01 -8.757264195355159986e-01 -1.138905813175981607e-01 4.453365677392739364e-01 -8.880902414289567615e-01
-1.595968245916483050e-02 -9.992927133921400418e-02 -8.693636886104416650e-01 -1.100490224955909813e-01 4.069863283965870493e-01 -9.067807569341280738e-01
-1.566054316063700824e-01 8.629668464072701162e-02 -7.847993418824992240e-01 3.538059118058689556e-02 3.403687427937970300e-01 -9.396261664601951447e-01
-5.007024142724418592e-02 -3.294977878994480303e-02 -8.340863844469416089e-01 -2.245683448785016634e-01 -2.866262899959334809e-01 -9.313508621146476818e-01
-4.497482331472961448e-02 -4.300799282584698811e-03 -8.314404747828229025e-01 6.420605605714287123e-02 -4.102050566754104621e-01 9.097303962402873978e-01
2.797239611236610347e-03 2.011719950239181376e-01 -7.286577030093824847e-01 8.220759836832584877e-02 4.216011514657814208e-01 -9.030472744287748599e-01
8.787728189619476230e-03 -1.718812864357629200e-01 -9.129241638212817200e-01 -8.461128875573653563e-01 -2.296593373609730204e-01 4.809881186393858976e-01
2.070896193418213932e-02 1.846585728443614072e-01 -7.351922214455576254e-01 6.724747666165419024e-02 4.314083906755019626e-01 -8.996469181503450319e-01
1.100838868035919488e-01 8.072186982761637986e-02 -7.834052228683775487e-01 1.300066427147758552e-01 -1.508357503387624532e-01 -9.799728819052980766e-01
2.448916944878968345e-04 1.512918316709011002e-02 -8.249623339001654898e-01 6.016521664367922850e-02 -4.281340726904603877e-01 9.017102430979135885e-01
-9.169071654425031692e-02 1.726073563183873893e-01 -7.481135518206182278e-01 6.283864840779071481e-02 3.729939790317124415e-01 -9.257034059958797467e-01
-7.838548779365009031e-03 2.311947970546551420e-02 -8.241128418662471145e-01 5.934692626429605156e-01 -3.425167507303331638e-01 7.283381836531402920e-01
3.262298451570622322e-03 -2.039794396383488306e-01 -9.218676584330294244e-01 -2.007287516843422603e-01 4.539539236665201538e-01 -8.681208461009428667e-01
1.202310235276470157e-01 4.645046525952339217e-02 -8.131103786944995360e-01 1.438246811687331553e-02 -5.023022452321147524e-01 8.645724949624775668e-01
-1.976014107953711491e-02 -1.870425095906337043e-01 -9.089892128261185533e-01 -1.659106817620442376e-01 4.119971072036204274e-01 -8.959531401435582021e-01
-6.083983091188332332e-02 -1.016477043267242086e-01 -8.726590516522488850e-01 1.186896254132692730e-01 -3.966084739609112564e-01 9.102826435792649162e-01
6.106774499955135160e-02 1.130724662242051093e-01 -7.770635045255416262e-01 -2.749347074224047296e-02 -4.580197327148167741e-01 8.885167603992585317e-01
1.317404676278069236e-03 -3.708527018815288567e-01 -1.013189959384483307e+00 2.520780529796040614e-01 -4.107528027040699414e-01 8.762070476073353653e-01
1.059834954869957185e-01 1.206847100217008362e-01 -7.718892686428542316e-01 -3.029869609294515501e-02 -4.842613805907791669e-01 8.743985957693320987e-01
1.645694846111782628e-01 5.829327532394501521e-02 -8.063812791924865886e-01 -1.513125013336069635e-01 -5.229150029355484897e-01 8.388470818004211127e-01
1.128046955617825614e-01 1.533278645431742360e-01 -7.460269649575640427e-01 2.905538965640005675e-02 4.695257363636403114e-01 -8.824405743301336758e-01
-1.356754414644404383e-01 1.209078870251015236e-01 -7.709628910721048056e-01 4.848755186540665285e-02 3.583279783911630378e-01 -9.323357856567566770e-01
1.128559022291141384e-01 -1.092582884469145282e-01 -8.935135071835151876e-01 -2.527754924284598137e-01 8.959507968143817225e-01 3.652077766357443855e-01
8.544392031614708727e-02 -1.237760431650973131e-01 -9.038840443572381256e-01 1.295829314741572258e-01 -4.747145679522584150e-01 8.705483001215179595e-01
1.092781439082673861e-01 1.290574380902442531e-01 -7.671318615215901859e-01 -3.026489701366485291e-02 -4.856042029026075291e-01 8.736547339378842869e-01
2.904470073459808691e-03 -2.488524895879553819e-02 -8.325310301897538290e-01 -1.241991560781167681e-01 4.255901486660786381e-01 -8.963523832666864255e-01
-9.782711277498219726e-02 -1.757110224538351029e-01 -8.950912897440143068e-01 5.978287736213362402e-01 2.297522495588839031e-01 7.679939200625494067e-01
5.996248595401390546e-03 1.324393028748384882e-01 -7.710972091415516649e-01 -4.346153940750269729e-01 -3.806163019611201181e-01 8.162356828235646233e-01
-9.010175418369083256e-02 6.992944656451219321e-02 -7.872233331509319587e-01 1.289865789714587374e-01 8.712486815934584738e-01 -4.735907487133804716e-01
8.737533588146460806e-02 -4.292360111987109095e-02 -8.604291842715650063e-01 8.185722315231133694e-02 -4.727216349171396992e-01 8.774016474221251194e-01
-3.699051447460621148e-03 -2.932204554205730673e-01 -9.589021524657572737e-01 2.294208864177276763e-01 4.174708629394730530e-01 -8.792520318269818613e-01
3.982924926648362396e-02 -1.244806252731245483e-01 -8.890378285122220170e-01 -1.399152645007392115e-01 4.418779474249526773e-01 -8.860968335002664675e-01
-3.152025007723905509e-02 -3.987127492930746947e-02 -8.483807737237558655e-01 7.931606776344429788e-02 -4.179305368353543049e-01 9.050099600419087009e-01
1.181372833212844115e-01 -1.716555732116733721e-02 -8.405667183685451294e-01 -5.868244460898740245e-02 4.883893192755540125e-01 -8.706504714937413070e-01
7.611359648035760650e-02 1.480672863257588012e-01 -7.521069364465872154e-01 -2.083413599567976726e-01 9.125169350683698388e-01 3.520038649571625156e-01
-8.088001592262887562e-02 2.105943987547900242e-01 -7.354734048742367358e-01 6.041831933755912321e-01 -6.100245733262738002e-01 -5.126721064974870679e-01
-1.570259017865876794e-01 -1.004769097843736907e-02 -8.200899563539588710e-01 -6.793392463564485069e-03 3.451905939817790370e-01 -9.385080200218549606e-01
-9.510350448303823978e-02 -1.295952425315834711e-01 -8.717650050410943319e-01 -1.270512064682514930e-01 3.816877533670982037e-01 -9.155175857756850943e-01
6.982726724914448124e-02 -1.642393249371386088e-01 -9.232375892635654724e-01 2.492442090746382066e-01 -6.225267861065213459e-01 7.418475077956677710e-01
-1.103675036485698008e-01 4.785568081497217768e-02 -7.990640218271667372e-01 -6.113777137777516753e-03 3.650436162100546000e-01 -9.309703432405329604e-01
-1.349453223593659497e-02 2.010219664082936175e-01 -7.375087247045128969e-01 -5.928174283683826373e-02 -4.239066707813801682e-01 9.037636911456853328e-01
-4.915232443120771955e-02 1.215282659139909488e-01 -7.678234489806021745e-01 2.641149804422635028e-02 4.016155168346759452e-01 -9.154274462832518999e-01
-4.058581693040595045e-02 -1.164025818493805431e-01 -8.736589320560234073e-01 -1.199822496650814474e-01 4.060559734422290457e-01 -9.059375288601250187e-01
7.435259284418603565e-02 9.141423678970060640e-02 -7.882725040604804390e-01 -8.364605346193933547e-03 -4.729145142315170913e-01 8.810686100449672820e-01
-4.535187682093747702e-02 -1.058269708679429877e-01 -8.764457859951639840e-01 1.234721515712070145e-01 -4.091790708130370047e-01 9.040614557622487224e-01
1.083666115405133717e-01 1.131539076367470420e-01 -7.759774173065527858e-01 -3.029869609294515501e-02 -4.842613805907791669e-01 8.743985957693320987e-01
1.541318934979364619e-02 -4.557619224899266130e-02 -8.434737910191343335e-01 -4.759881248978474477e-02 3.479528663335264560e-01 -9.363029188568438022e-01
1.861953444785728259e-02 1.768175711503521819e-01 -7.467856728601977023e-01 -6.186322466172077678e-02 -4.362235896201991925e-01 8.977092632324350507e-01
1.117366057086127407e-01 -2.731601178485314196e-02 -8.456973514203519615e-01 -7.550358502623286117e-02 4.895076260885080077e-01 -8.687240601303614085e-01
9.095674859880047147e-02 -5.002288003935780741e-02 -8.562679133872692638e-01 -8.875527572231632634e-02 4.730243761892251597e-01 -8.765674192908666784e-01
-8.476965084492381342e-02 6.677875436740492165e-02 -7.995313022291138383e-01 1.007720729678784205e-02 -3.822148588800661773e-01 9.240185341996062229e-01
5.714122911805735727e-02 1.453155943530603234e-01 -7.563270439194715866e-01 -2.096437965199957343e-01 9.170479266196854828e-01 3.392234939729532051e-01
-5.195170213537001619e-02 -1.987159671737328756e-02 -8.379372713729075217e-01 6.699781109709096460e-02 -3.991276537422300263e-01 9.144443172366599759e-01
-1.265436634203724042e-01 -2.347552042228110911e-02 -8.229092601048922928e-01 -4.468789960032052561e-02 4.284825905369931687e-01 -9.024442704322627185e-01
-4.014581191858478462e-03 -6.007460108397693482e-02 -8.495725156711353421e-01 3.598529758710860005e-01 4.050575216355185026e-01 -8.404964246938917416e-01
-1.751627042636372950e-02 -4.966446647066630887e-02 -8.482338452079236646e-01 2.445407673255005354e-01 9.540698203440995950e-01 1.730623905544841912e-01
7.776070700571001762e-03 6.064837470843188055e-02 -8.034399099534647037e-01 1.174995461240361562e-02 -4.338191901905532055e-01 9.009233312491241596e-01
-5.974981458609170126e-02 -6.949974485663971968e-02 -8.588827650345995934e-01 1.024208993905880299e-01 -3.952177665805771678e-01 9.128597243536837880e-01
1.948924487896386282e-02 1.965786506973974113e-01 -7.295183099897546430e-01 6.851536710287690901e-02 4.366470280308156759e-01 -8.970200763542663935e-01
1.562471107565994999e-01 9.785869692339634052e-02 -7.829190334834145171e-01 -1.472046939606827809e-01 -5.314032459670815500e-01 8.342310041299059176e-01
1.075561239635942357e-01 -1.304391336368567467e-01 -9.029282537756818661e-01 -1.370678278796073901e-01 4.906335573152192375e-01 -8.605179387999878360e-01
1.481020621731414244e-01 1.079480850764281269e-02 -8.344117782424458341e-01 3.798359076675640600e-02 -5.005027871064259282e-01 8.649012700483004190e-01
5.001077277054399167e-02 -7.843230032309619904e-03 -8.309974367981138865e-01 -6.025052320538119843e-02 4.458009948301385195e-01 -8.931020924070980360e-01
-1.048005394775112890e-02 1.375923689442722087e-01 -7.671542820583199251e-01 -2.673983186752191057e-02 -4.239593347945082025e-01 9.052863987889657738e-01
-1.590602764337066821e-01 4.118136148460094931e-02 -8.012429748674469998e-01 1.371228222336657622e-02 3.454319803481187834e-01 -9.383436045868293052e-01
3.882445542222640045e-02 -9.572020274087855718e-02 -8.827658310049092405e-01 1.237086275048558948e-01 -4.418716862449149629e-01 8.885075060886882259e-01
5.471385107785029650e-02 -1.142298836266888579e-01 -8.883043721249282987e-01 2.073975590545463210e-01 -7.311546338828537328e-01 -6.499224214087755414e-01
1.469671864950701339e-02 -1.117143946307641578e-01 -8.873621865267412590e-01 1.252032019310830024e-01 -4.329952504464189555e-01 8.926585412782691575e-01
8.707829206720765769e-02 6.332426566014844049e-02 -7.951129977812705363e-01 -1.328663925279047198e-02 4.712708212808400243e-01 -8.818884726691061937e-01
2.449466732098610350e-02 8.447343473322387053e-02 -7.839525027135216817e-01 4.609799436017569634e-03 4.469586258738579843e-01 -8.945427527547872293e-01
-1.730857700178573683e-03 1.554998868364010911e-01 -7.472973700839363742e-01 8.712665409878760092e-02 4.180570899499997384e-01 -9.042329432663289701e-01
8.030847867585685917e-02 -1.400755251767113463e-01 -9.034703216630990408e-01 -1.514357971792553437e-01 4.660518530670783588e-01 -8.717011354732915329e-01
-1.633406784924511801e-01 -8.249829168342815572e-03 -8.256364455195250862e-01 8.764353407728761591e-02 -3.365641327566150642e-01 9.375730347424839906e-01
5.250452820313752933e-02 1.775230129619050912e-01 -7.442897582563874348e-01 -6.158673289953328633e-02 -4.532529012760252995e-01 8.892518663548742985e-01
3.592081101639900409e-02 -1.790206170012628994e-01 -9.240867150338737401e-01 1.642820607998049520e-01 -4.357244928554984131e-01 8.849607736081797071e-01
1.506720299790580836e-02 -1.558893675325673245e-01 -9.088911574818312467e-01 1.643836883013192751e-01 -4.299374239268621833e-01 8.877678832485371707e-01
-7.135529165174564828e-03 -1.890375092056835460e-01 -9.122526965575250557e-01 -1.824513744946885674e-01 4.179429141778601697e-01 -8.899636039937344201e-01
1.476502041272816958e-02 -1.416259950701981851e-01 -8.935368791751575612e-01 -1.263551600385232065e-01 4.346188612305860177e-01 -8.917066888805240676e-01
-1.357090214279793872e-01 -6.421477973037083287e-02 -8.489804692741959036e-01 8.789404967491043497e-02 -3.506657324970626211e-01 9.323669771522599126e-01
9.399359098619458619e-02 -1.555972645155768649e-02 -8.461867348323501847e-01 6.416909383955456125e-02 -4.724963822293627991e-01 8.789934562759692538e-01
2.017642405898669930e-02 -8.445541086579977375e-02 -8.664389531246090570e-01 -1.108611773538044215e-01 4.345405280882526089e-01 -8.938032942457253549e-01
-6.600440705165983024e-02 1.114349385105097984e-01 -7.805034983502349144e-01 -2.378309539344372961e-02 -3.993376371154865878e-01 9.164953987645144684e-01
-1.185930490426349848e-02 -3.843326011890332156e-02 -8.412684418799002417e-01 -6.801537404222370020e-02 4.218468103759823173e-01 -9.041123699350132048e-01
6.106648868674845881e-02 -4.376636764689093712e-02 -8.502321575292961509e-01 -8.635525517872578993e-02 4.565383039777318741e-01 -8.855029909063848459e-01
-1.220778576092999140e-01 8.179830279929672932e-02 -7.931553052329689546e-01 -6.455547365150439247e-03 -3.715483182555964770e-01 9.283911746185733449e-01
1.122313774914535656e-01 -3.776429605719076182e-02 -8.598357083757260932e-01 6.865695456763160065e-02 -4.892203736296865668e-01 8.694536494920979131e-01
2.902026571949982772e-02 1.477868643815339333e-01 -7.643337613185450241e-01 -7.184334439402885464e-02 -3.434820397762751720e-01 9.364072950470913037e-01
-9.312623397053065855e-02 -3.661528614200092180e-02 -8.419396101655770570e-01 7.435803353573650076e-02 -3.675096612032547894e-01 9.270423570533156132e-01
1.340080969171516534e-01 -3.805506272609280455e-02 -8.619032884944225481e-01 7.693247147619795834e-02 -4.895646612346122861e-01 8.685665416666723537e-01
1.083573632464370773e-01 2.240706856638786243e-02 -8.179675203561714847e-01 -4.023137190729138279e-02 4.751168381836503030e-01 -8.790025180787756076e-01
-7.213173485587665024e-02 -6.334717215220091180e-02 -8.470323061290155886e-01 -8.634326122690536010e-02 3.977426292004310193e-01 -9.134252252688398466e-01
4.193841897937079094e-02 -1.043222020554045448e-01 -8.790767985495361314e-01 -1.200363298938334072e-01 4.452896899188998336e-01 -8.873039905001830485e-01
-1.439871140353604813e-02 -1.156804439255240957e-01 -8.768865152438957145e-01 -1.275467905837700255e-01 4.178635744007438424e-01 -8.995120062571783093e-01
4.745054232413543904e-02 2.227341588337451161e-01 -7.148662721771462669e-01 5.515842535207175767e-02 4.084058872154688324e-01 -9.111323610762738223e-01
-3.410673093949149332e-02 1.410793397711001540e-01 -7.664006074662998991e-01 -4.564965517023974323e-02 -4.147866789873467797e-01 9.087728648664009645e-01
1.129085266183358638e-01 -8.250396096906435772e-02 -8.766919147353614550e-01 -1.181369379485642940e-01 4.858204533446960904e-01 -8.660381925781859280e-01
-8.281453043751360599e-02 1.381159789235616997e-01 -7.694894801583499477e-01 -3.680252981022350683e-02 -3.896445460809979111e-01 9.202297004057740093e-01
6.584087135305682903e-02 1.294254557508070780e-01 -7.684444726542786208e-01 -2.727769161756847874e-02 -4.655204306472049414e-01 8.846166718924404204e-01
-2.598651895864624931e-02 1.888561963513975817e-01 -7.441462961540395993e-01 -6.935345219473308676e-02 -4.219799967663692697e-01 9.039485499726893636e-01
-5.238829525112146529e-02 6.831541443932659385e-02 -8.028968576111151778e-01 2.794537423562064304e-02 -3.349382375163418302e-01 9.418255852907574388e-01
-1.465961005074128409e-01 1.172836043363303937e-02 -8.194313614739738849e-01 5.695034151913463960e-02 -3.534383889436344961e-01 9.337226375223973696e-01
-6.319235581837025217e-02 1.996107714402712285e-01 -7.346964438228950067e-01 7.427249613713084175e-02 3.901204684252645993e-01 -9.177633771475149915e-01
-1.031700935094892468e-01 -4.681604770641390606e-02 -8.373680597754383781e-01 -6.815336869751838222e-02 3.645814766885591141e-01 -9.286740360270496764e-01
5.747329614756330196e-02 1.571651769238805729e-01 -7.500743167383199239e-01 2.213488359142315176e-01 -7.842986985710201919e-01 -5.795517615012647505e-01
-1.293444317039872671e-01 -2.482646704049270778e-02 -8.254065922887905415e-01 1.179064752963698837e-01 8.647411535489164525e-01 -4.881811143848929779e-01
-4.466466347213991599e-03 -2.167222828218256792e-01 -9.381510406633597476e-01 2.319021408385358307e-01 -4.104282354544303568e-01 8.819127284580183801e-01
-7.018292498673237012e-03 -1.850991043053056284e-01 -9.100534735400647168e-01 8.435311913429595077e-01 2.292897658471157174e-01 -4.856761601204062084e-01
-5.029882427484318880e-02 2.235923828859585627e-01 -7.299654596228671855e-01 -6.275704503344353702e-02 -4.375557703917769548e-01 8.969986070755788798e-01
6.832315250962368858e-02 1.324071732350644015e-01 -7.588353178832744073e-01 2.733333951398055767e-02 4.628716820898877704e-01 -8.860037779097170718e-01
-3.711069888953860002e-02 -9.464873071828543150e-02 -8.644338691410707876e-01 -1.103835666010628408e-01 3.977191862916223397e-01 -9.108429705937014509e-01
1.382902762139119335e-01 1.141889729289448513e-01 -7.743983250885221326e-01 -2.106254071404735362e-02 -5.005349880154983389e-01 8.654600482697014652e-01
1.482642681114104168e-02 1.918629574776227753e-01 -7.321742965541578885e-01 8.506057074050349387e-02 4.278171967071892068e-01 -8.998539578770001768e-01
-1.065968278416900422e-01 -1.047655565449492898e-02 -8.303318808465202094e-01 5.843920529487824089e-02 -3.659948874217182624e-01 9.287801686436176762e-01
-1.021123094522650432e-01 4.509165768569775579e-02 -8.081225133953897632e-01 2.409815659537673307e-02 -3.829677532372943727e-01 9.234473340852109580e-01
-3.494584034384662558e-04 -1.438135849679952893e-01 -8.886878488440222990e-01 -7.681526927731238685e-02 4.276437886179715320e-01 -9.006776362618990062e-01
1.933015106992510765e-02 1.462155423572049362e-01 -7.617064404066387073e-01 -4.591734540311710744e-02 -4.356903938045605940e-01 8.989246231679036692e-01
4.751112392976699489e-02 5.596392581671526256e-02 -8.064813491961300151e-01 1.076722701013720085e-02 -4.595466055463865440e-01 8.880883875793590398e-01
9.611767214199738729e-02 -1.350885158944288567e-01 -9.116906502353219199e-01 1.358079228019127560e-01 -4.743562542430867501e-01 8.697944309805034635e-01
2.444223451891036885e-03 -1.329452065139936356e-01 -8.874643506690773620e-01 -1.446515603183038123e-01 4.244000686637983688e-01 -8.938459083173357911e-01
2.850207527108471542e-02 1.317898455854757400e-01 -7.606103517127940083e-01 2.423303694561655328e-02 4.437547317979149142e-01 -8.958205723956962352e-01
-3.780325849976925306e-02 -5.373511546744214745e-02 -8.541029194729409246e-01 9.189943784653391290e-02 -4.090522939445738748e-01 9.078715295360754167e-01
7.652082206973749579e-02 8.250576299370894484e-02 -7.930335523241222040e-01 -8.364605346193933547e-03 -4.729145142315170913e-01 8.810686100449672820e-01
4.861959738523460861e-02 1.296066110451056519e-01 -7.689483869192774712e-01 -2.637551800556113199e-02 -4.533703755789562084e-01 8.909318911102769301e-01
-6.485033793983950579e-02 1.998075800143909453e-01 -7.419489336350085784e-01 -6.247739115956468109e-02 -4.005399104327046489e-01 9.141467911361148557e-01
-1.497439547077737132e-01 4.778101085598718267e-02 -7.987737386951194729e-01 -6.683048158447061271e-04 3.462368280262279052e-01 -9.381469033616266495e-01
1.011316294793917353e-01 -1.007673611523319385e-01 -8.852721565564696249e-01 -1.191239382236872618e-01 4.800455111222324822e-01 -8.691178254951820170e-01
-6.991139812885557858e-02 -8.098459377859475172e-02 -8.546598413357965329e-01 -1.024411068753789400e-01 3.952156651940408327e-01 -9.128583666743592673e-01
7.172969546354020232e-02 1.325552389037568946e-01 -7.666158709777932678e-01 -2.727769161756847874e-02 -4.655204306472049414e-01 8.846166718924404204e-01
-1.488164948952361566e-01 6.216910373676171053e-02 -8.002752539496827966e-01 3.033092432986429082e-02 -3.589884411854459279e-01 9.328490414448307178e-01
-1.174257404802772631e-01 -1.396302607110238569e-01 -8.801373697252058426e-01 1.572048630337407049e-01 -3.477965922816245725e-01 9.242965765574555626e-01
1.425896210351151050e-01 2.604706510079163317e-02 -8.253434839590902961e-01 3.798359076675640600e-02 -5.005027871064259282e-01 8.649012700483004190e-01
5.674210693509262882e-02 -3.086497123147163499e-02 -8.544936140775775124e-01 -1.134905964810294515e-01 1.759675916895595271e-01 9.778319340179868480e-01
2.005214525713362034e-02 -2.060542558355363818e-01 -9.364290119216159836e-01 2.684113664340537775e-01 -4.565311204307226367e-01 8.482538973958639872e-01
5.994988649422484939e-02 -1.344330407011894990e-01 -9.056227903862199557e-01 1.369166038406580688e-01 -4.639163117178454754e-01 8.752345396034432179e-01
8.030232030160980305e-02 1.209601734599490865e-02 -8.221670818802429004e-01 -4.766182307959386522e-02 4.748137839150320394e-01 -8.787947548916178464e-01
-1.239248804628900573e-02 -7.321552410995341154e-02 -8.656405682538813595e-01 9.435037000672213958e-02 -4.188879422986726553e-01 9.031228595691610517e-01
-4.570362413234090732e-02 -4.466427494918569045e-03 -8.234800823063862518e-01 -4.580975985714062088e-02 3.950224021507400263e-01 -9.175286195541206835e-01
-8.049184717875973449e-02 -2.776636318756782462e-02 -8.312848819019498237e-01 -6.093608678055111028e-02 3.826672553272545962e-01 -9.218744844219191048e-01
8.018056112224355644e-03 -4.064173477657077038e-01 -1.021358294690203561e+00 -9.766888748350281979e-01 2.530988815349493465e-02 2.131624998332120879e-01
5.559242843904061565e-02 1.104093031274582248e-01 -7.786057564745011428e-01 -2.749347074224047296e-02 -4.580197327148167741e-01 8.885167603992585317e-01
-8.872620030227876264e-02 -1.216442860931661735e-01 -8.693351898802704758e-01 -1.270512064682514930e-01 3.816877533670982037e-01 -9.155175857756850943e-01
8.954231947153344640e-02 -1.650759541913298656e-01 -9.207813130804525237e-01 -3.384247831811636464e-01 7.285420722644786462e-01 -5.955628556830599996e-01
-2.961630438999122983e-02 -2.192812018939588603e-01 -9.264869098347890963e-01 3.127599234487108415e-01 -2.775191404140188167e-01 9.083855772678365303e-01
-8.566353488961436780e-02 9.132833083678208730e-02 -7.814306832284214632e-01 1.347752022449072787e-02 3.705527626157038013e-01 -9.287136300100631292e-01
9.741911959884909378e-02 -9.143249457335339558e-02 -8.879307470235302535e-01 1.120349078357962824e-01 -4.697128634385653312e-01 8.756814519827221810e-01
9.383908449485309222e-02 -1.601210603016368916e-02 -8.381533800117911825e-01 -7.099597396854036291e-02 4.724556322983879952e-01 -8.784903227638813927e-01
-3.221816092183546476e-02 1.482103238532382627e-01 -7.552898145289749232e-01 4.587201860482999216e-02 4.124654029908240704e-01 -9.098175911932762094e-01
4.255400507502807295e-02 2.302974582284100097e-02 -8.149127940271639892e-01 -4.226195209070381098e-02 4.477596885324806597e-01 -8.931546275594047790e-01
4.260774871380087168e-03 -3.590540322905554915e-01 -9.920048483434749098e-01 -3.786910192798383368e-01 3.969671308275916632e-01 -8.360683040035106206e-01
-4.922040510298508233e-03 -1.655277923768789794e-01 -9.140417338349987597e-01 2.098429450748713898e-01 -4.171588223809938878e-01 8.842762324703785648e-01
-4.031344006088986853e-02 1.158029848294308065e-02 -8.166720624990959632e-01 -4.224400381055530562e-02 4.090823315751911382e-01 -9.115191112286450403e-01
-4.571389244711770994e-02 1.998405023939117675e-01 -7.404496621834523173e-01 -5.967724473154241427e-02 -4.127105529246928306e-01 9.089051798542276961e-01
1.334973472581968412e-01 7.911842524243127561e-02 -7.868715399423912293e-01 -1.357278036497149357e-02 4.913478251098237215e-01 -8.708576774611396232e-01
-1.285713113261074680e-01 -1.366562860344150698e-01 -8.768811732616612620e-01 3.589379536732128506e-01 -2.128912484010699879e-01 9.087578675131898764e-01
8.975776668129256675e-02 -9.048197093501011978e-02 -8.781712513318455926e-01 -1.160494889144793179e-01 4.698662735454535722e-01 -8.750761116081258173e-01
