-3.826989291500754176e-02 -9.025307032949102248e-02 -8.395161814954402724e-01 2.497350135476111843e-01 -5.691639298109723022e-01 7.833803954724071206e-01
5.997870240941877151e-02 1.175897166724233257e-02 -8.044686610584000919e-01 4.377759956059191215e-01 -6.677332389390895351e-01 6.020668561606420388e-01
7.027972933585123483e-02 3.370707069675720619e-02 -7.869582454790005066e-01 4.148893072694961326e-01 -6.834784042140188420e-01 6.006031415889330205e-01
9.791261897046596723e-05 1.333054143859060611e-02 -7.533484598977594482e-01 5.835662000104553382e-01 -6.575271036033171201e-01 4.765591235433334072e-01
5.654062918613566788e-03 8.493673123918094037e-02 -6.506134614643421799e-01 2.168562200751770752e-01 -8.295927157838564048e-01 5.145379536371170737e-01
-4.613837880739097078e-03 -9.872488303707786794e-03 -7.781368986703356416e-01 5.700496564910570996e-01 -6.233568376760095786e-01 5.352285886020972105e-01
2.404051675653144302e-02 1.232521873943671076e-01 -5.452363237440933652e-01 4.944978785638529106e-02 -9.977048076406221933e-01 4.625835375094500962e-02
4.793917926184593226e-02 -1.126335822853766037e-02 -8.203789537872366866e-01 4.561303401041649219e-01 -6.386465081337132643e-01 6.197384532890255482e-01
-1.138432910597829417e-01 -2.768260685713828939e-02 -7.525236045445997668e-01 3.720806522811256345e-01 -6.820681925497417142e-01 6.295545797704759083e-01
6.173672873781364378e-04 8.470187944308034400e-02 -6.487570705818550554e-01 2.399479135314976086e-01 -8.222724478882958987e-01 5.160358710745511779e-01
4.215588603638171714e-03 -1.246963064994817821e-01 -8.865423077366050286e-01 4.911429011900029784e-01 -4.639882204726397119e-01 7.372201719115532015e-01
-8.570398039729805462e-02 -1.192593205867704675e-01 -8.379346532125349079e-01 4.489326710714809376e-01 -4.646541101049658229e-01 7.632535717618279536e-01
8.292869454363809012e-02 3.666006454019042626e-02 -7.923382375387716392e-01 4.158936330440548002e-01 -6.840981503289432775e-01 5.992013073332996820e-01
1.693952726073889511e-02 1.096615727809381186e-01 -6.085340597444550692e-01 1.226379654587997081e-01 -9.232378209043887729e-01 3.641316458093720176e-01
-2.458298309269458734e-02 -9.983805790863167773e-02 -8.502274602677504234e-01 1.885917556656228067e-01 -5.603998712988650377e-01 8.064645893919792918e-01
9.456522791342845957e-02 1.192962304306191545e-01 -4.930215477980667282e-01 1.116291509085012013e-01 -8.828845009131673915e-01 -4.561292478177151333e-01
9.767044872121267984e-02 9.693588375402147073e-02 -7.060900360917264917e-01 2.235972828207320462e-01 -8.710935091837558319e-01 4.372646262540744178e-01
-1.066701409521422922e-01 1.041208195183378378e-02 -7.038097375309104731e-01 3.399240223887912693e-01 -8.204030482889370646e-01 4.597722233467831932e-01
8.387491032144474279e-02 1.269001565630775985e-01 -6.407345449636034918e-01 3.255638182968003114e-01 -8.913689673101103939e-01 3.153879584456503182e-01
1.026903719809094534e-01 3.629604880312090748e-02 -8.061144390610495147e-01 4.047038236634177832e-01 -6.892240366798355611e-01 6.009867239589921084e-01
-1.922782349521065873e-02 1.089425460517799565e-01 -5.944109270589500449e-01 1.921029237414421387e-01 -9.138779380226150773e-01 3.576640617751847273e-01
-8.464998175807767269e-03 -1.436355792259694404e-02 -7.790128154009213768e-01 5.687541298085474484e-01 -6.245308305511912961e-01 5.352382474345056540e-01
-1.321974090792699952e-01 -1.533261016830981052e-02 -7.269340651604845327e-01 3.639833067028626079e-01 -7.249111443663280863e-01 5.848247474373418076e-01
4.467040700438657842e-03 -2.214231808752804009e-01 -9.290058855612962629e-01 2.727486007986844041e-01 7.957813586315048981e-02 9.587885695266219477e-01
4.340990383007518362e-03 -5.908614454137247479e-02 -8.353080966712804756e-01 4.664902442065980703e-01 -6.008530126301218077e-01 6.491244174065364803e-01
5.891507460955767300e-02 1.233990621056272746e-01 -5.437800751536691068e-01 -3.568704679032591587e-01 -9.236664529814970770e-01 1.395842139179375163e-01
6.898360016904940550e-02 -2.565558999007127444e-02 -8.520078628039190471e-01 4.979010058324470633e-01 -6.314541693897258723e-01 5.944410991438670022e-01
3.815199473195503982e-02 -1.022585764044646184e-01 -8.922258700649714491e-01 4.312820270755495788e-01 -4.599535749064219137e-01 7.761691323754168481e-01
8.996212510024860498e-02 1.021479837817882846e-01 -4.672054504344597681e-01 7.349472646742339910e-01 -4.756504808517026395e-01 -4.833312924003632660e-01
-9.752081279543890757e-03 9.473457170880635048e-02 -6.274411193980431456e-01 2.276371635165896079e-01 -8.442430953639222801e-01 4.852163617567577525e-01
2.236277256786293327e-02 1.220114326066739224e-01 -5.629243715133475101e-01 7.120571717987889127e-02 -9.891121043855742867e-01 1.287904918805726495e-01
7.115030428224178305e-02 -8.362005148297619456e-03 -8.350826379305014147e-01 4.742364288326058608e-01 -6.580675096339895225e-01 5.848478112570960619e-01
-8.647359078204594485e-02 1.869779410749905241e-03 -7.312722547498959891e-01 2.957037058652199346e-01 -7.881288227019737080e-01 5.398261545756894986e-01
-1.111204383410475602e-02 -1.537121867183370702e-03 -7.654695026026003823e-01 1.023471015853079369e-01 -7.263038345981328581e-01 6.797115643014578490e-01
-1.117241067469852134e-01 -1.137262628041199319e-01 -8.184533033681934411e-01 4.946545250354053569e-01 -4.483694472097668471e-01 7.445010004498352485e-01
-2.071795303294667739e-02 -1.213871086381939357e-01 -8.656128116716415022e-01 1.283007477480939962e-01 -5.406871308880807359e-01 8.313821892603276975e-01
-4.712119558381867163e-02 8.465658101806292080e-02 -6.246014299294598837e-01 2.833094449633123957e-01 -8.003364110393661468e-01 5.283913204805760211e-01
-2.109052842886578738e-02 2.923570077791386862e-02 -7.234494540531147821e-01 2.410667175023869235e-01 -7.991988590223898514e-01 5.506069573206777701e-01
3.568845396334312942e-02 -8.199533985764816124e-02 -8.768906256770248042e-01 4.646302059959610542e-01 -5.497330877254688053e-01 6.941990376945021968e-01
9.665530549192151433e-02 1.026893046387578196e-01 -6.946321685941553303e-01 2.338617008607550840e-01 -8.450219478877816215e-01 4.808810793309027387e-01
6.342963571705263759e-02 1.233120623628120444e-01 -5.244232573516991458e-01 -9.675774290210490888e-03 -9.987102996695175205e-01 -4.984091417607859620e-02
4.318327398800785207e-03 -2.011781698951933817e-02 -7.973014676896458264e-01 4.731212321048416380e-01 -6.338882979643936100e-01 6.118348841275729200e-01
-7.218372012024272533e-02 -9.748240192226000772e-03 -7.542283953516948358e-01 2.635754032503075384e-01 -7.507828986197777610e-01 6.056839488887931777e-01
7.189882915683309950e-02 1.017882413753410514e-01 -6.812483285960356794e-01 3.204375937311222389e-01 -8.270331958144357953e-01 4.618829305622468295e-01
-5.620090069185834647e-02 -1.508937698807776839e-01 -8.724253149801455276e-01 3.349876606748086738e-01 -4.949564404575574339e-01 8.017489564977330341e-01
-1.455317560415764211e-02 -2.299184727676998330e-01 -9.195014725510256559e-01 6.882225648546803909e-02 -1.325936462974071361e-01 9.887782471180314170e-01
3.844013093919523144e-02 3.421777945699847057e-02 -7.616563840905139493e-01 4.719671410309249082e-01 -6.933231235702737028e-01 5.445641046836028343e-01
3.135659472784359247e-02 5.757817205727594478e-02 -7.206520985896944786e-01 4.930475945739785648e-01 -7.426730625678084063e-01 4.531454420172023045e-01
-7.939537314880396046e-02 -7.957518308305622234e-02 -8.158004977485668885e-01 3.998691755983697083e-01 -5.255088360126983771e-01 7.509627858148890667e-01
-2.412727889358386169e-02 -1.154864671112157404e-01 -8.612032152461164269e-01 2.017679274397842504e-01 -5.342977075651926810e-01 8.208627553661048681e-01
4.903882604977835569e-02 7.020100086653754956e-02 -7.181232446901978372e-01 4.562228374918138041e-01 -7.710617075097461193e-01 4.442122980772509888e-01
-6.180468290535095360e-02 2.225177445572177823e-02 -7.133795534209143030e-01 2.766233032567375072e-01 -8.238201180390087863e-01 4.947726358738170349e-01
-1.075403135328205639e-01 -3.777017046089110180e-02 -7.664385549979596535e-01 3.881059457548565184e-01 -6.333180438458986261e-01 6.695386696890127665e-01
4.704711139908729356e-02 -2.545837502340538017e-02 -8.343071457485885523e-01 4.729691300706554968e-01 -6.213060690724818702e-01 6.247231150949256184e-01
6.087956307514299885e-03 1.213919580670962672e-01 -5.574040716750040536e-01 8.370057193997065825e-02 -9.880154739155351251e-01 1.296905453777651429e-01
1.490050851906211428e-02 -1.864233581278980090e-01 -9.243053472364157752e-01 2.101983363492741508e-01 -3.601764706748105671e-01 9.088946965233293263e-01
-1.013532655961447149e-01 -2.265581533126055647e-02 -7.541988655432984023e-01 3.504432410745955684e-01 -6.872359787394196617e-01 6.363145796783260533e-01
2.013280465919573686e-02 -1.572675869726322673e-01 -9.133299604216998935e-01 3.126629244172708377e-01 -4.050072999838153498e-01 8.591920522529639115e-01
1.029928049474085477e-01 3.020784204884964172e-02 -8.133815268010705646e-01 4.018270545079412615e-01 -7.032423523908686303e-01 5.865025252027726843e-01
-9.569585356087777564e-03 -1.678768903606537299e-01 -9.023641945294939015e-01 5.468467400619345664e-01 -4.015004333009158377e-01 7.346809136916595540e-01
1.688510639082832498e-02 4.804636710758030706e-03 -7.796634591379759671e-01 4.602823449803313260e-01 -6.708664026089896648e-01 5.814451244527554241e-01
-7.273275323112730895e-02 -1.393216029829882352e-01 -8.575304591239414354e-01 3.960923139485691968e-01 -4.902231233493204998e-01 7.763969140616833187e-01
-4.931859350450837213e-04 -2.381142350281867937e-01 -9.247107318812913812e-01 5.504371715099345419e-01 1.364546348636335449e-01 8.236498363044669757e-01
4.936766190957894707e-02 -2.349193426486550704e-02 -8.341083171499361626e-01 4.729691300706554968e-01 -6.213060690724818702e-01 6.247231150949256184e-01
1.488292399583280440e-02 -1.224266768619654694e-01 -8.918830939015021109e-01 4.602387009340097590e-01 -4.685418934471932695e-01 7.540880799001493662e-01
3.920958285112645381e-02 -4.879000471589738097e-02 -8.510670593559425123e-01 4.843197189600097485e-01 -6.030075429052214053e-01 6.338898271986265209e-01
3.034269227597938788e-03 2.311508879900580488e-02 -7.425926438368366522e-01 5.913853768330823435e-01 -6.722907394224366673e-01 4.452959664704210785e-01
1.510508619920269968e-02 3.861838694430473617e-02 -7.330550961754956907e-01 5.145847976135606849e-01 -7.109723836339355563e-01 4.792919316814027719e-01
-2.065515904108122108e-02 -4.335915533270607441e-02 -8.052970560939520794e-01 1.333424434015703652e-01 -6.634622054276401171e-01 7.362320929956741589e-01
-1.792578285233712571e-02 -1.637477370492232964e-01 -8.919092963258029583e-01 8.103586265817687151e-01 -2.622152623777565528e-01 5.239866911484237777e-01
9.787059862252865325e-03 7.188367645550018670e-02 -6.728953677247550003e-01 1.927510927629252913e-01 -8.258466638535639781e-01 5.299285839060173808e-01
6.965861669380753185e-02 2.844700898851579979e-02 -7.925150688745504768e-01 4.148893072694961326e-01 -6.834784042140188420e-01 6.006031415889330205e-01
1.130827188515165505e-01 1.294376957001589501e-01 -6.582221136474294410e-01 2.816977763360808962e-01 -8.337563276047362804e-01 4.748649797430541941e-01
8.709633148131097624e-02 4.701483324228921540e-02 -7.831025620217997307e-01 4.029308788183822987e-01 -6.975036713389983767e-01 5.925667349449043053e-01
5.996922245606133711e-02 1.236708670315835867e-01 -5.310627460672697753e-01 -1.526309090718222516e-02 -9.989016563723094322e-01 -4.430032677775137817e-02
1.085577920694068971e-01 6.633264254124947301e-02 -7.736667516029051006e-01 3.812526988332019529e-01 -7.772975501364493001e-01 5.004546914399680135e-01
4.985250975711888466e-02 -3.559134471601086563e-02 -8.466575824534939843e-01 4.850810923155194909e-01 -6.024148267254442191e-01 6.338712096469875101e-01
-7.134180221685798573e-02 -6.099362937037590415e-03 -7.500717625135806532e-01 2.635754032503075384e-01 -7.507828986197777610e-01 6.056839488887931777e-01
1.075554225647730178e-01 1.102733167918380081e-01 -6.867646276792671589e-01 2.656131616943471219e-01 -8.190075177709454923e-01 5.086023340188354780e-01
5.363254366968749770e-02 1.196746706365114654e-01 -6.183023131030006558e-01 4.653692460649092588e-01 -8.584158895326819971e-01 2.157628916537597252e-01
8.596030752492671290e-02 -3.452790819466833305e-02 -8.743683198409458734e-01 5.028196113368119669e-01 -5.928969912071901938e-01 6.290036536241729870e-01
5.946313483236101254e-03 1.075244402776205088e-01 -6.097973895083018681e-01 1.745086007202678313e-01 -8.847020193340865424e-01 4.322604368443218048e-01
-8.200983914839980737e-02 -1.758848363140497473e-01 -8.770827930783841042e-01 3.679043432544316650e-01 -5.347620191348735341e-01 7.607075503143889694e-01
1.180090363217185384e-01 9.895986794768039940e-02 -7.127714256564069428e-01 2.237346595025092588e-01 -8.923346431296513837e-01 3.920225590549274997e-01
-6.021155024834854569e-02 -1.202075796323412715e-01 -8.515258841875810170e-01 3.594798348341991523e-01 -4.949744053841105274e-01 7.910591547806162804e-01
-4.610375136606712052e-04 -1.742149890922219113e-01 -9.123306968177041787e-01 5.242635564813805660e-01 -4.018143205374967719e-01 7.507948955317185202e-01
-6.986107495092262754e-02 8.369357165381255403e-02 -6.133701840629220969e-01 3.116420889521617776e-01 -7.853125007384901268e-01 5.349425058615100426e-01
5.081346999545140880e-02 1.034851342129166074e-01 -6.581977216025494126e-01 4.358850185956040790e-01 -8.079004880913237541e-01 3.966119664176944726e-01
5.482971390506544140e-02 4.036514115100484773e-02 -7.674284866476984712e-01 4.547422056559922710e-01 -6.916719998753732002e-01 5.610698450135465087e-01
7.082314543836787379e-02 1.276164311112280847e-01 -5.424428621614070245e-01 3.243639709107806191e-01 -9.321672692220875911e-01 -1.607861827584272374e-01
-6.245057382327327128e-02 -5.058507115577639407e-02 -8.001822915839634787e-01 2.426493350650857361e-01 -6.489294398645939488e-01 7.211184939172591291e-01
1.188914254790753439e-01 9.114830537710708058e-02 -7.321018639599364830e-01 2.544451077789544602e-01 -9.022446854780963310e-01 3.481554461068893103e-01
3.194396729079489183e-02 3.668951989643585293e-02 -7.527828643945877474e-01 4.669583836482310013e-01 -7.145880145831515762e-01 5.208779486163156447e-01
4.556783011283486312e-02 -4.421894341961543629e-02 -8.515781029765103760e-01 4.850810923155194909e-01 -6.024148267254442191e-01 6.338712096469875101e-01
1.152283129035341913e-01 1.045181473744440231e-01 -7.002235078167414750e-01 2.174782651367322128e-01 -8.478994069791769839e-01 4.834974662161916625e-01
-1.083225267543588138e-01 7.169482670132233150e-03 -7.083740687368802469e-01 3.399240223887912693e-01 -8.204030482889370646e-01 4.597722233467831932e-01
-2.237302333966144710e-02 1.676376536064066308e-02 -7.402691867429509465e-01 2.020663701467713957e-01 -7.867603644248400974e-01 5.832472126172578708e-01
1.407367854838151647e-02 6.465038237335417326e-02 -6.855939828938099057e-01 6.693267528659340160e-01 -6.745706629993453163e-01 3.113777746059732121e-01
-8.976377455463199762e-02 -1.205277320383462691e-01 -8.363189363834254708e-01 4.489326710714809376e-01 -4.646541101049658229e-01 7.632535717618279536e-01
7.573714303639918384e-03 -6.850331119593866536e-02 -8.459688861284512251e-01 4.684747842500348036e-01 -5.843118717304283116e-01 6.626545201511618854e-01
6.969742124479760825e-02 1.264038656106032388e-01 -5.375519292831857365e-01 3.150712217511233426e-01 -9.359419802981042702e-01 -1.572982350184428946e-01
-9.568421498818942272e-02 -1.922129425064362032e-02 -7.536116622960301603e-01 3.504432410745955684e-01 -6.872359787394196617e-01 6.363145796783260533e-01
5.716562030292762775e-02 6.648614568481911458e-02 -7.320551882030874591e-01 4.354959511597100708e-01 -7.694310246848550250e-01 4.672463748130244454e-01
-1.029856396193084278e-01 3.931690473593628388e-02 -6.553055926878562643e-01 3.718082909514605072e-01 -7.774268610116822353e-01 5.073125964898531626e-01
6.145375420183715742e-02 1.191177686109128192e-01 -6.345795553976057990e-01 4.405531086414925523e-01 -8.423347524173646628e-01 3.104595357470824601e-01
-5.463203427730313651e-03 -1.836612734997520105e-02 -7.870965151571135410e-01 5.636947482910010798e-01 -6.248701348525429466e-01 5.401717739002193097e-01
1.162398035607311170e-01 5.388681254665900200e-02 -7.948101864408435580e-01 4.014679369812660936e-01 -6.938134268449750452e-01 5.978682332300641056e-01
4.992824624707727782e-02 1.160539822076203376e-01 -6.247176441594095575e-01 4.653692460649092588e-01 -8.584158895326819971e-01 2.157628916537597252e-01
1.133193153689998206e-01 7.632605137296395725e-02 -7.614898810003618568e-01 3.519110841593861561e-01 -8.325494256117402792e-01 4.278084182894568155e-01
1.052283233850009013e-02 -9.916161085735646086e-02 -8.730418184065326104e-01 4.811056980271399830e-01 -5.312875406629335995e-01 6.973312386966112886e-01
-3.114028432900801946e-02 -8.121340104601632026e-02 -8.348049937642618712e-01 2.108279567641205277e-01 -6.075223642956799619e-01 7.658120849968699240e-01
-1.079863159591013116e-01 -1.011283246384661882e-01 -8.133216532224289974e-01 4.774862169247930388e-01 -4.520917131985014992e-01 7.534055982696792331e-01
8.323545338641106378e-03 2.511430678368355152e-02 -7.458485068108461347e-01 5.416225152498732598e-01 -6.899498893558601020e-01 4.802230743646510591e-01
-2.382230440236960886e-02 6.773743578464613835e-02 -6.628841829837907040e-01 2.874298987756425117e-01 -8.018476779997298909e-01 5.238552801836260375e-01
-9.069858113959199108e-02 -7.279734698183147959e-03 -7.417660775985682742e-01 3.398433435479202847e-01 -7.385189726861155490e-01 5.823196964115284757e-01
2.792160570817927775e-02 -1.282413643967283690e-01 -9.020263553696264980e-01 3.540982619352352478e-01 -4.466988177934698712e-01 8.216292272530000274e-01
-3.668709101819712937e-02 2.284527541457708616e-02 -7.257807556894856349e-01 2.761935906464046409e-01 -8.051749712528135650e-01 5.247955470027133584e-01
8.428786107179900983e-03 -8.920428417970022172e-02 -8.639910496937979190e-01 4.786986935134629473e-01 -5.587067118728787918e-01 6.772697918383040472e-01
-9.646506469813237450e-02 -1.301387602647973152e-01 -8.380944307861795117e-01 4.733886305403744998e-01 -4.611141276685112311e-01 7.505177984162779703e-01
-3.447527964132351269e-02 -2.021102344348155444e-01 -9.087842962879599806e-01 2.044244521540522497e-01 -4.190371073376734645e-01 8.846573042910972351e-01
5.272155108395916966e-04 -6.677038177229628613e-02 -8.394143496378131397e-01 4.772514090478577886e-01 -5.782032744254719248e-01 6.617492470758820078e-01
1.151354333949759778e-01 7.429074716681051405e-02 -4.175843682307075477e-01 -6.008722111295853457e-02 -8.123857046165611218e-01 -5.800163728668148444e-01
3.192049425045854604e-03 -1.561380108324348370e-01 -9.048244673454243214e-01 4.384856810089410861e-01 -4.253965628064836912e-01 7.916868521723440244e-01
-7.629031809442790579e-02 4.688377096019501200e-02 -6.626563760903257938e-01 3.537444048565795973e-01 -7.862411514798468559e-01 5.066455839660586324e-01
-1.115213235369222761e-01 -4.423374440586534673e-02 -7.700986984480594488e-01 4.168257941444287185e-01 -6.247045287703729688e-01 6.603033462505339957e-01
-5.537154369036025037e-02 -7.093820583834231641e-02 -8.194203272110749392e-01 2.698613539450812615e-01 -5.818113615417846995e-01 7.672485837248721463e-01
4.130662946368390820e-02 5.244734517820260483e-02 -7.389142108018171839e-01 4.714732629765565064e-01 -7.328544717113949503e-01 4.905479442326213246e-01
-8.878853894685630188e-03 9.314653783478030191e-02 -6.306138599725178429e-01 2.276371635165896079e-01 -8.442430953639222801e-01 4.852163617567577525e-01
9.964833131662334531e-02 6.509959251641639875e-03 -8.404824856716124337e-01 4.492278258725712625e-01 -6.945014160228114575e-01 5.620161417647293600e-01
-5.912607690787785586e-02 -2.450032069930636186e-02 -7.763581743824421455e-01 2.314565366308894423e-01 -7.184797548994147354e-01 6.559075494690623787e-01
-1.201453478824882903e-01 -9.891344404847672578e-02 -8.041423921869937930e-01 4.920513026174316851e-01 -4.419632314482945801e-01 7.500360108956566352e-01
5.105721004360576354e-02 7.150291670662367594e-02 -7.178764265897566998e-01 4.320603313863460859e-01 -7.794590360043008870e-01 4.536160063683454813e-01
7.696484476688071619e-02 9.775518525988811935e-02 -6.919214392712846884e-01 3.181274512958180978e-01 -8.262928677574968850e-01 4.647956770723223885e-01
-6.095209666512168417e-02 -6.418486829977516905e-02 -8.120769236855018836e-01 2.675264059732501143e-01 -6.050204025480132586e-01 7.499199521333433927e-01
1.973153811405366914e-02 -4.140648798476240927e-02 -8.298178690982758177e-01 4.604789641646605536e-01 -6.186328275113242015e-01 6.365944928187687868e-01
9.571413443755531769e-02 9.946132736752205661e-02 -4.580280540652939547e-01 2.773628736663403815e-01 -8.212584934657493063e-01 -4.986023698518867175e-01
7.442537138385769968e-02 1.257422841533789026e-01 -6.326431901792918255e-01 3.787510761636975753e-01 -8.874714640355009232e-01 2.625681298778005934e-01
-9.554106646644279499e-03 1.062434179236701123e-02 -7.520192665390393882e-01 1.149222194212314724e-01 -7.531284251449850142e-01 6.477580248224895643e-01
-3.457028137654108435e-02 5.917633633196417442e-02 -6.700935687353720693e-01 3.008147254337897869e-01 -8.012052052203847419e-01 5.172820508097636383e-01
1.306123123299699103e-02 5.113478223485816432e-02 -7.097301390368766505e-01 5.510306298133171854e-01 -7.235804835058514684e-01 4.156880187075125410e-01
7.893236247333101918e-02 1.132042330859480278e-01 -4.953202991706656122e-01 7.863550048061019870e-01 -4.258641937439342495e-01 -4.475326746766362662e-01
1.128003382873573046e-01 9.092008868845524727e-02 -7.282416915641222177e-01 2.544451077789544602e-01 -9.022446854780963310e-01 3.481554461068893103e-01
-1.089262622333502656e-01 -5.391778605501607036e-02 -7.800383031468101080e-01 4.431182671893151293e-01 -5.706956828787270730e-01 6.913411884350028069e-01
-1.271680109926031678e-02 9.683838533833070972e-02 -6.223912027792858348e-01 2.246399723473667120e-01 -8.441470217145248256e-01 4.867778636650108015e-01
7.653901904829298053e-02 8.719362250633466704e-03 -8.199325238169524743e-01 4.307348506971857005e-01 -6.799776667946227926e-01 5.933783456239484222e-01
3.472905415103617194e-02 1.234223674387040504e-01 -5.347139714880865258e-01 1.255583692174363011e-02 -9.979601680740098901e-01 -6.259276233630013675e-02
-7.055998035644069077e-02 -1.250282488422962412e-01 -8.497666489062500883e-01 3.963778260195309211e-01 -4.828245808572584896e-01 7.808745374002428186e-01
-1.225484637716936498e-02 -8.658419268124668833e-02 -8.464545025112212295e-01 5.572108150416289485e-01 -5.205155260189001654e-01 6.469773525973774309e-01
-1.198951994525843806e-02 -3.131465987814052027e-02 -7.950387583587343876e-01 4.817377167583055536e-02 -6.818887430850620879e-01 7.298678166465479844e-01
-1.045059568663345984e-01 3.716173283850303377e-02 -6.574940302971784556e-01 3.718082909514605072e-01 -7.774268610116822353e-01 5.073125964898531626e-01
-1.325679232069074804e-04 -1.711323684403968370e-01 -9.109102869383250978e-01 5.242635564813805660e-01 -4.018143205374967719e-01 7.507948955317185202e-01
-6.221230715929917943e-02 5.088008174888235952e-02 -6.658776007315269085e-01 3.276848587107940580e-01 -7.990078167691648803e-01 5.041915728306648470e-01
-8.929899233239654843e-02 5.484854482260369951e-02 -6.421728443394957297e-01 3.485868950044989645e-01 -7.658126914113809747e-01 5.403869893922125245e-01
-6.147474623476128358e-03 -2.163749982986781784e-01 -9.235753726488236115e-01 6.132952186673834571e-01 1.045441192744958961e-02 7.897845782433191575e-01
8.410685593812578312e-03 4.304702383118463177e-02 -7.172086766184695428e-01 6.045697808171041077e-01 -6.929543487170722882e-01 3.928226708285262880e-01
4.010543797538464184e-02 2.630888392651965259e-03 -7.999213284339633523e-01 4.471704674056465323e-01 -6.504046104120613236e-01 6.140133677982511085e-01
2.745749972911699574e-02 2.083782653261272502e-02 -7.693332653583857539e-01 4.528735360041066249e-01 -6.870598037688145920e-01 5.682027687650731407e-01
-4.862694916384307370e-02 -1.264400292389603331e-01 -8.602555065609605034e-01 3.197200858772947241e-01 -5.081639667504206370e-01 7.997177311921330745e-01
-9.521474486319764230e-02 4.216973948263902372e-02 -6.566077106941942132e-01 3.558695396819738233e-01 -7.788535476454205853e-01 5.164726730880179195e-01
-8.601890225554931213e-02 3.281498974131472762e-02 -6.783910208712644607e-01 3.500137011528832720e-01 -8.032747242597547688e-01 4.819129863063196795e-01
7.666503716059203111e-02 7.090221030476881459e-02 -7.417083599874993993e-01 3.622261450372065150e-01 -8.017691168708802607e-01 4.753509262466762975e-01
-2.206513985418901563e-02 6.870744029835738897e-02 -6.623635540065332394e-01 2.874298987756425117e-01 -8.018476779997298909e-01 5.238552801836260375e-01
5.913471651044929778e-02 1.168972424966652768e-01 -4.897184875962438677e-01 -1.375864573895063669e-01 -9.487465626769842064e-01 -2.845170057335987823e-01
-5.229873999100619064e-02 -1.341608993760885250e-02 -7.666850637481166242e-01 2.378828565090289338e-01 -7.144719516261353043e-01 6.579829609637671828e-01
8.308843249992743651e-02 -3.772911077839416483e-02 -8.750900140531212568e-01 5.028196113368119669e-01 -5.928969912071901938e-01 6.290036536241729870e-01
8.806032602330722547e-02 2.254224545951168807e-03 -8.363666639821368820e-01 4.521646580193311449e-01 -6.777314665022302620e-01 5.798509992670511926e-01
-6.254177060202743485e-03 -1.318195365169582134e-01 -8.837127738448098402e-01 5.316552075268990984e-01 -4.510214231805422802e-01 7.168838233226692003e-01
-5.150504303832210279e-02 9.762463893988036767e-02 -6.009833567945169763e-01 2.558731053511398290e-01 -8.596373324348302036e-01 4.422133089836781106e-01
2.514212127604733681e-03 -1.941334287421377924e-01 -9.232266015744842180e-01 3.478107516897284146e-01 -3.332847811595391341e-01 8.763269570522547181e-01
2.769720945979757196e-02 -1.039548883599291651e-01 -8.874342239178920622e-01 4.469791719537258290e-01 -4.801599517891201874e-01 7.547556164331812312e-01
3.521217513625618262e-03 -8.901126679734827629e-02 -8.603155393591933597e-01 4.900410651451880262e-01 -5.563055000948152751e-01 6.711065079669745748e-01
6.619863523331210968e-03 5.619559513673379192e-02 -6.951555791911862014e-01 1.560567786679060154e-01 -8.125196571870280104e-01 5.616565574409960737e-01
-8.911500771452575409e-02 -4.924891109056057405e-03 -7.396615068371491519e-01 3.069933432488496927e-01 -7.444414405828800874e-01 5.929266638833003977e-01
-2.214566973787776213e-02 -2.103030133443558602e-01 -9.143578484097728554e-01 7.715033745799342035e-02 -3.028331839964096273e-01 9.499157268414469835e-01
-1.705557934151895674e-02 9.618976435910218947e-02 -6.215137356871938135e-01 2.246399723473667120e-01 -8.441470217145248256e-01 4.867778636650108015e-01
-1.277998175871180031e-01 -9.443305467793153274e-02 -7.963813347893426986e-01 4.919085148716681455e-01 -4.513658980972711232e-01 7.445097978076538059e-01
-5.717341991582174099e-02 1.272692889239451786e-02 -7.309659843881690655e-01 2.685291765488511673e-01 -8.019631885302671570e-01 5.336170214529919464e-01
1.298440300787657683e-03 -2.337384958536578294e-01 -9.263070127634863704e-01 3.306988153962032717e-01 1.357367108933854871e-01 9.339238934792242208e-01
-7.695015982956802253e-03 -1.705590779715027427e-01 -9.053106826444750066e-01 5.643894758897192165e-01 -3.858144500660949938e-01 7.298025278286754958e-01
6.758440917366871636e-02 9.234594611530942687e-03 -8.128419228925223283e-01 4.307348506971857005e-01 -6.799776667946227926e-01 5.933783456239484222e-01
-8.349867926351510483e-02 -8.679936529949375257e-02 -8.186709275422980880e-01 3.998691755983697083e-01 -5.255088360126983771e-01 7.509627858148890667e-01
-5.593185718337059797e-02 -6.861766375528345618e-02 -8.174441342859565252e-01 2.675264059732501143e-01 -6.050204025480132586e-01 7.499199521333433927e-01
7.715526189562221804e-02 -6.335713554574441686e-02 -8.904041944729469416e-01 4.907692939343910599e-01 -4.913443840784000871e-01 7.195319286631809419e-01
-8.841295591012239899e-03 7.491911604001665059e-02 -6.595742262483741403e-01 2.601312231238394612e-01 -8.100194867363542661e-01 5.255475029561728073e-01
-8.375893730848343877e-02 -1.514562323922762355e-01 -8.592906034789374869e-01 4.490166406078177075e-01 -4.768272927778457460e-01 7.556585136947910897e-01
-2.995556221412896264e-02 -1.168384919981372422e-01 -8.605634654726059818e-01 2.517065192336105928e-01 -5.258575016158163473e-01 8.124762865275956258e-01
5.598476256920686261e-02 1.252220595655298141e-01 -5.863659688086245714e-01 4.370187275382883541e-01 -8.965792412654405297e-01 7.183519967746843093e-02
-1.117668194963126194e-01 2.295534737952629675e-02 -6.758142863895425512e-01 3.581848947698468844e-01 -8.267869791387247869e-01 4.337359476517662071e-01
7.545395997077078420e-02 -4.510884318687430339e-02 -8.754519901911935742e-01 5.070764865311231384e-01 -5.525604488974100725e-01 6.614759157532074108e-01
3.230440259352530818e-02 1.224370106322901358e-01 -5.647341779408463491e-01 6.270401772689207509e-02 -9.886810183890817338e-01 1.363013207494101764e-01
7.007498859619988932e-03 -7.921301889656701123e-03 -7.861772505735630245e-01 4.802509074684684354e-01 -6.466782634616249359e-01 5.925928530129010996e-01
-8.934504527418428432e-02 -6.210274743179700768e-02 -7.977719551386377450e-01 3.681388299627113003e-01 -5.615448328294220248e-01 7.410406214211623377e-01
7.283270903501476434e-02 -1.330430545024188088e-02 -8.420332899132766391e-01 4.814395110304224845e-01 -6.441862775707104527e-01 5.943400011848262166e-01
-1.246200926474516114e-02 -2.174066474491380963e-01 -9.181668926622825744e-01 5.513198968166371783e-01 -9.643640040113311829e-02 8.287016302938982060e-01
-4.657759716434039382e-02 2.069202620958445968e-02 -7.242421146080786354e-01 2.563028597160989519e-01 -8.168519049198946780e-01 5.167802333004707371e-01
-7.643641885909474749e-03 9.627054778151007686e-02 -6.257577919272762079e-01 2.276371635165896079e-01 -8.442430953639222801e-01 4.852163617567577525e-01
-2.176077703913308764e-02 1.088590618148926013e-02 -7.481014360912154881e-01 2.093296913143583571e-01 -7.567671290290354236e-01 6.192613283222089260e-01
4.482535392665244062e-02 7.165694686554510695e-02 -7.112686248858348659e-01 4.562228374918138041e-01 -7.710617075097461193e-01 4.442122980772509888e-01
3.955813975923468812e-02 -9.675383909125123694e-02 -8.897046430440700426e-01 4.304184103043324772e-01 -4.970891878159970911e-01 7.534204214298440005e-01
8.074465254384426138e-02 1.341138619729189685e-01 -5.637405090422356047e-01 3.156718525139124432e-01 -9.407361028216681964e-01 -1.239631654094648094e-01
5.102843981783650174e-03 1.049535312715803581e-01 -6.147083300686473351e-01 1.568751034563051483e-01 -8.838123412647365118e-01 4.407561086856520149e-01
9.118631342144001284e-02 1.302345882644765918e-01 -6.388578701697477102e-01 3.255638182968003114e-01 -8.913689673101103939e-01 3.153879584456503182e-01
1.358527914815393922e-02 -1.308507923658621709e-02 -7.969093039794443722e-01 4.571366826922262927e-01 -6.528281337113922556e-01 6.040210933171517027e-01
5.653646328580044789e-02 8.646479934188362748e-02 -6.963713222483628451e-01 3.942100789329848198e-01 -8.107365558623725876e-01 4.327870731157156814e-01
4.522192610572114274e-02 4.067106898516548857e-02 -7.591651386774336263e-01 4.495881822679412276e-01 -7.144463217292423840e-01 5.361314388585735058e-01
-1.019617897267458342e-02 -1.242526832532835912e-01 -8.758030276914045009e-01 5.502964599734468942e-01 -4.670531521521240070e-01 6.921236588973513904e-01
-8.463034564025143092e-02 -2.647662498649112559e-02 -7.674234822206141837e-01 3.224776613815165116e-01 -7.056434795645510905e-01 6.309321973539955275e-01
4.740344743628605029e-02 -3.999087508556230935e-02 -8.489645944730532801e-01 4.850810923155194909e-01 -6.024148267254442191e-01 6.338712096469875101e-01
1.888194843564113337e-02 -7.702620913015956194e-02 -8.612597644598241065e-01 4.702801984710194283e-01 -5.625262036753814199e-01 6.800005919884349881e-01
-9.638311707985705579e-02 4.289481495645971337e-02 -6.546616290003356431e-01 3.718082909514605072e-01 -7.774268610116822353e-01 5.073125964898531626e-01
-4.300586477504081406e-02 4.751104216757923160e-02 -6.832879114368537454e-01 3.118268922434505042e-01 -8.026849576645727069e-01 5.083904483886517722e-01
1.363229891173094177e-02 -1.473215566535924503e-01 -9.056922968758497339e-01 3.949352216382591152e-01 -4.408252583363785337e-01 8.060392436613768030e-01
6.182335906244732643e-02 1.278536504076276392e-01 -5.865744958635447093e-01 3.923824251816512843e-01 -9.197937184041941050e-01 3.943094311772775418e-03
1.019154215821442278e-01 8.878046733269812085e-02 -4.385059814430275482e-01 4.139154999193085660e-02 -8.230972939823487655e-01 -5.663899577395422602e-01
-2.637639520478387602e-03 -1.992629371894523160e-01 -9.225584826170338815e-01 4.897028992670587888e-01 -3.237919467602981549e-01 8.095368093314925240e-01
-8.911297109589355614e-02 -1.226770061770342396e-01 -8.380101646267182902e-01 4.489326710714809376e-01 -4.646541101049658229e-01 7.632535717618279536e-01
-1.004628533246902239e-01 3.181515187381535326e-02 -6.691991367633639554e-01 3.593860342004899788e-01 -7.997400725200137783e-01 4.808923942290285192e-01
5.646580181489714752e-03 -1.246755953953303242e-01 -8.874826125100999663e-01 4.911429011900029784e-01 -4.639882204726397119e-01 7.372201719115532015e-01
-2.679017480836591580e-02 -1.727580753379998890e-01 -8.951838345362469473e-01 2.015482451663588581e-01 -4.861543207928790689e-01 8.503130489677173109e-01
-4.497241845081684231e-02 8.197430734635560712e-02 -6.298344045115361611e-01 2.871999813728092765e-01 -8.004944346654300213e-01 5.260464150330572686e-01
7.991276407950288763e-02 1.143256196373341055e-01 -6.640289831436920753e-01 3.276274382204186209e-01 -8.494335703494472201e-01 4.136700028869829127e-01
5.213632071975603244e-02 7.009972900998193146e-02 -7.213153886717753593e-01 4.320603313863460859e-01 -7.794590360043008870e-01 4.536160063683454813e-01
9.892562023082909772e-02 9.915862299589200957e-02 -4.565140187200915078e-01 4.826250270866915687e-02 -8.699561518935057247e-01 -4.907616780219694053e-01
3.858365836441026570e-02 -5.614805551127361599e-02 -8.572495345523135635e-01 4.874894835938348714e-01 -5.764565044695192375e-01 6.557834260182238140e-01
-1.534281043887590797e-02 -9.943524751556995223e-02 -8.538280952327207407e-01 6.229511296162835166e-01 -4.671908608531970541e-01 6.274269596096784252e-01
5.211044804968786165e-02 1.231933958764993703e-01 -5.781634585462194220e-01 5.086019045095787616e-01 -8.601252541837334231e-01 -3.884134195154554520e-02
-1.073252110400529013e-03 1.977634192103343291e-02 -7.422904326105624895e-01 1.055355566472722106e-01 -7.688775277472095215e-01 6.306263502332339899e-01
-5.947570169426472791e-02 -8.110472195983899069e-02 -8.255317017133045887e-01 2.881922816079361960e-01 -5.678246074750719075e-01 7.710515053920797834e-01
-5.228929181884781063e-02 6.691511972132453689e-02 -6.477491921122375818e-01 3.072461950064640512e-01 -7.837812195623654610e-01 5.397098994046530818e-01
7.534699393466347261e-02 1.334760680791727827e-01 -5.796259950809791173e-01 3.356267583261923204e-01 -9.398465605759268593e-01 -6.358554607025232452e-02
-6.359969937566083142e-02 3.277146518205597409e-02 -6.944827657134746701e-01 3.182892954350554637e-01 -8.199180764596875060e-01 4.758426970187753513e-01
-8.242040178378945425e-02 -1.017016475227124767e-01 -8.289577207422866856e-01 4.105491789271890624e-01 -4.894278320274849103e-01 7.693567241007821522e-01
1.028701844750483894e-03 -2.057548358337309147e-01 -9.264844345558149730e-01 4.006513644633048488e-01 -2.768913502853249664e-01 8.733897550869609283e-01
-3.788062127032157389e-02 -2.103297977973944410e-01 -9.113484801856535089e-01 2.602572134925556502e-01 -3.211015676299905364e-01 9.105822127027592972e-01
4.033387012735126925e-02 4.775224370682191327e-02 -7.449935270544081334e-01 4.714732629765565064e-01 -7.328544717113949503e-01 4.905479442326213246e-01
-2.111450824830324313e-02 -5.094426589079025999e-03 -7.672155558162342404e-01 1.788425340592770807e-01 -7.327481227774178540e-01 6.565786598553343678e-01
5.087678751512761388e-02 1.223795430281982705e-01 -5.767206211403143046e-01 5.242992655506444333e-01 -8.500264784597916234e-01 -5.064845565562981627e-02
6.463754771672877708e-02 7.218191411336122298e-02 -7.294582750662017556e-01 3.833216466512808784e-01 -8.157779283633523892e-01 4.330945471877331587e-01
6.733775311652182016e-02 9.897065839670912690e-02 -6.829523812404759697e-01 3.907593979885808366e-01 -8.067986806717998283e-01 4.431511951353002687e-01
-5.076792330575438661e-02 -1.227391701560153967e-02 -7.659982747313618390e-01 2.378828565090289338e-01 -7.144719516261353043e-01 6.579829609637671828e-01
1.057849948368063536e-01 2.236985830780187715e-02 -8.250852452909127610e-01 4.189125134070304513e-01 -7.134195782951885390e-01 5.617337549196412816e-01
-6.818166485765340956e-02 3.404817652506026554e-02 -6.890187686384723342e-01 3.250503086410467257e-01 -8.242028151313742779e-01 4.637154476420618510e-01
7.485703200143171976e-02 -7.875874725982136976e-03 -8.375714218201391059e-01 4.790854591360098058e-01 -6.570886940791885733e-01 5.819893220306925352e-01
-8.736192541100064324e-02 1.742092944727181500e-02 -7.051634563199078443e-01 3.245872454094383408e-01 -8.250584662471506237e-01 4.625166455290147249e-01
5.134043168345387570e-02 1.333867164655219879e-03 -8.095894438059468845e-01 4.539078003270456962e-01 -6.521338808692365152e-01 6.071977521571463310e-01
-3.690676619005558295e-02 -1.037630756366254708e-01 -8.495487997503794464e-01 2.505341785777895347e-01 -5.459429691070887269e-01 7.994866476976889569e-01
4.017910519538375053e-02 -5.929905360447955409e-02 -8.612053785020205021e-01 4.874894835938348714e-01 -5.764565044695192375e-01 6.557834260182238140e-01
-4.535684200761105900e-02 -1.087188250021010744e-01 -8.499996109732056437e-01 2.847979099999660701e-01 -5.323871054669886416e-01 7.971537620761334209e-01
8.709164166292403253e-02 1.359375909597999310e-01 -5.614410824657390942e-01 3.104170992217614167e-01 -9.425066268727307905e-01 -1.237840167862328117e-01
1.028977619017751310e-02 -2.412475884874444240e-02 -8.059224743416329995e-01 4.599886762100519055e-01 -6.350404849603726865e-01 6.205916533597746199e-01
-5.608758121708164526e-04 -6.234171405223345314e-02 -8.347509742267599231e-01 4.807405965309363149e-01 -5.773465977546018424e-01 6.599692302738554561e-01
-7.639023236625343272e-02 -1.236463080010685583e-01 -8.458277252408237246e-01 4.108532248993319036e-01 -4.842905585967697268e-01 7.724391771808621909e-01
8.270058705353940109e-02 1.728560997760981294e-02 -8.144136581449338275e-01 4.236582115871572740e-01 -6.990269580509417269e-01 5.760859585798097093e-01
3.266583612352252225e-02 1.232392915218021578e-01 -5.540163835855300700e-01 4.405907351687312484e-02 -9.976652566093703323e-01 5.218077994237419609e-02
-2.132328264864304102e-02 -1.466433502057887250e-01 -8.812954664217089729e-01 1.013913496132785030e-01 -5.016692366551396276e-01 8.590970674012612385e-01
3.437278824149147399e-02 5.766229714034276643e-02 -7.237960108781018587e-01 4.930475945739785648e-01 -7.426730625678084063e-01 4.531454420172023045e-01
5.314868626253853312e-02 -6.721174820656626581e-02 -8.771563961178187041e-01 4.609674665616414480e-01 -5.335133038417034790e-01 7.091350713338413492e-01
-1.184023799461127180e-01 -4.202089969979690143e-02 -7.637436090892675278e-01 3.979728761210161170e-01 -6.168910454810342392e-01 6.790162206289941382e-01
8.874392320775986720e-02 6.050988236519127400e-02 -7.673204561163734505e-01 4.017523753092392957e-01 -7.225751024127496924e-01 5.625657742047488474e-01
5.128134149317203905e-02 1.207731201188107784e-01 -6.062489524903923455e-01 4.559383295855580220e-01 -8.789993143681554821e-01 1.395723645821171921e-01
-7.440376339416714113e-02 -6.075229434223284458e-02 -8.039695932548683865e-01 3.176082571630116647e-01 -5.853105900555206631e-01 7.460137452827073634e-01
-1.149311714698127429e-01 1.684003227146894585e-02 -6.849442362428511677e-01 3.513152805938519752e-01 -8.309900732666651857e-01 4.313155129989242886e-01
-1.206448237999675904e-01 7.757094173633275695e-04 -7.106886533615285328e-01 3.380397486666754103e-01 -8.207403486483318966e-01 4.605588001786368735e-01
4.876185910749147173e-02 -1.237171496050363667e-01 -9.086542840517705111e-01 3.117307679196453796e-01 -3.569553392469687059e-01 8.805718676606184570e-01
-8.503253552128922643e-02 -4.116263060045591976e-02 -7.819912915096755013e-01 3.427290611394862019e-01 -6.560796727369725412e-01 6.723810330993830187e-01
-1.092714689144952539e-01 -2.360516089140982793e-02 -7.508080906418568290e-01 3.720806522811256345e-01 -6.820681925497417142e-01 6.295545797704759083e-01
-1.012773235928424165e-01 1.143746577205632768e-02 -7.059671539789598160e-01 3.399240223887912693e-01 -8.204030482889370646e-01 4.597722233467831932e-01
8.691109392894316721e-02 1.374757389755086046e-01 -5.944761666489681851e-01 3.631018998280799992e-01 -9.309706131700218323e-01 3.808842022284631562e-02
2.813636882165355610e-02 1.233826576756955479e-01 -5.448795002980476587e-01 2.779350268914872191e-02 -9.995334236531737693e-01 -1.266713102614747469e-02
6.939994402778162930e-02 3.967584198752121399e-02 -7.792863264138865098e-01 4.264700799950984500e-01 -6.948452045058547411e-01 5.790625291315187884e-01
7.839127017123456720e-02 7.765489229035552055e-02 -7.311586769934163010e-01 3.200713864887990701e-01 -8.333665643348883156e-01 4.506156643968363129e-01
1.693278280788797913e-02 -1.066629466191217762e-01 -8.827355477009076745e-01 4.680163172618341805e-01 -4.970874463294107648e-01 7.306605213629485673e-01
1.999870298203076588e-02 -5.161773938521291641e-03 -7.932895420777522633e-01 4.644332792769068075e-01 -6.474380929234188065e-01 6.042562742179723445e-01
-9.963057543282778650e-02 3.278200005988993887e-02 -6.682132235045401547e-01 3.593860342004899788e-01 -7.997400725200137783e-01 4.808923942290285192e-01
1.305292659259517417e-03 -8.536844674673782496e-02 -8.556778030699804249e-01 4.900410651451880262e-01 -5.563055000948152751e-01 6.711065079669745748e-01
1.228934955627362935e-02 1.198641108309812658e-01 -5.723136955110409430e-01 9.909850928442848206e-02 -9.735141824988040593e-01 2.060330602871517647e-01
6.526413603902374294e-02 1.279018776868825480e-01 -6.052783015482150475e-01 4.333367584128828831e-01 -8.873564195878144156e-01 1.575367843537165136e-01
1.047784214588062535e-01 9.365479043853773555e-02 -7.170064610067445887e-01 2.458520742432473150e-01 -8.737156296656155563e-01 4.197353405043586783e-01
1.632518500570442205e-02 1.923069604438857813e-02 -7.617760321871300810e-01 4.778783468605868889e-01 -6.869272446140429755e-01 5.475063891944560446e-01
-2.170975668324568245e-02 -1.003230998769927412e-01 -8.510963411867117356e-01 1.195056175382040453e-01 -5.685467632934601001e-01 8.139244346530843943e-01
9.790151864355271794e-02 1.409965972026501480e-01 -6.037258055898477860e-01 3.301708296137387810e-01 -9.420041158255110236e-01 6.012877048445783995e-02
-2.783595914143273398e-02 -1.976784307427802423e-01 -9.080992538358427790e-01 1.760102337125041549e-01 -4.112040342969197626e-01 8.943889756735642349e-01
1.080836331287122476e-01 8.404080668418287270e-02 -4.315012124985746489e-01 -3.917021149498167709e-02 -8.396923899564037175e-01 -5.416478420346019229e-01
-1.052248528421174389e-01 -3.345597056724021467e-02 -7.636472011948025607e-01 3.691027656122087830e-01 -6.496163389191920157e-01 6.646516084586302497e-01
2.465690781695872164e-02 -1.524581353435966180e-01 -9.127092101556698589e-01 3.126629244172708377e-01 -4.050072999838153498e-01 8.591920522529639115e-01
5.004665957207771187e-02 3.545634955640015237e-03 -8.062468392605491863e-01 4.539078003270456962e-01 -6.521338808692365152e-01 6.071977521571463310e-01
1.016666934547680173e-01 6.901007486957039597e-03 -8.416125615445014807e-01 4.492278258725712625e-01 -6.945014160228114575e-01 5.620161417647293600e-01
3.603075759915942700e-02 1.228216199742442893e-01 -5.632959156257140165e-01 2.020648424922827022e-02 -9.972449676811840913e-01 7.137347146412353904e-02
-9.049033418967755704e-02 6.369398079743417151e-02 -6.293626762658528495e-01 3.331061669022920002e-01 -7.612846833789100875e-01 5.563145804527642735e-01
-4.157399034725152431e-02 4.096852343960769721e-02 -6.946405918384280787e-01 2.920892820352155028e-01 -8.095162654969780824e-01 5.092811278812305886e-01
5.674433780706148595e-02 1.254652919680550038e-01 -5.722798497410933605e-01 4.487718196081404987e-01 -8.935498250215687666e-01 -1.313636667888679922e-02
-4.376102198468428267e-02 7.309026995057085752e-02 -6.436333408345104035e-01 3.068845051132935708e-01 -7.849807586979813401e-01 5.381701487404431106e-01
7.898309726481633763e-02 1.082766525970731836e-01 -6.745761346509537848e-01 3.209627695576319772e-01 -8.256049586409894836e-01 4.640682631093235311e-01
-1.162012948846927463e-01 -1.234516080340992417e-01 -8.213356182228968017e-01 4.946545250354053569e-01 -4.483694472097668471e-01 7.445010004498352485e-01
-3.315280126996721088e-02 9.866591831667206880e-02 -6.092358077832488172e-01 2.181885460980294567e-01 -8.671196680475246055e-01 4.477691812047573383e-01
-1.195803073524591559e-01 -5.936912118081646289e-02 -7.778001759840640350e-01 4.235854339775481647e-01 -5.637002948875856623e-01 7.090961554441689296e-01
1.128275190143024215e-01 1.280597137168487387e-01 -6.604901519681926070e-01 2.816977763360808962e-01 -8.337563276047362804e-01 4.748649797430541941e-01
-2.852202320634088933e-02 -5.626087348756371107e-03 -7.657442983640636580e-01 1.938772570673889251e-01 -7.388879839669120209e-01 6.453341431702942499e-01
-5.898721799905683183e-02 -2.062301355610287046e-01 -9.027120153787488999e-01 3.134239219780184937e-01 -3.359350038730591903e-01 8.882078125668140256e-01
3.999208814484824653e-02 1.136075675604332758e-01 -6.094926866787423458e-01 5.428610034791540029e-01 -8.231909082275530309e-01 1.663089279416541666e-01
-7.964826952752743217e-02 -8.687392739502040884e-02 -8.207733529043790277e-01 3.998691755983697083e-01 -5.255088360126983771e-01 7.509627858148890667e-01
2.937292457431765411e-02 8.818354406001950585e-02 -6.623881690005991585e-01 5.180495320551495864e-01 -7.680683734157710552e-01 3.764248345897123205e-01
3.055787626651946393e-02 1.179036240648871775e-01 -5.881557067333170741e-01 4.485701410350110413e-02 -9.711896593573645653e-01 2.340480588320366373e-01
-8.185657716313337467e-03 8.543368694120097306e-03 -7.546815341056396509e-01 1.149222194212314724e-01 -7.531284251449850142e-01 6.477580248224895643e-01
4.568339723817870651e-02 -1.324008715895190758e-01 -9.110473005225458998e-01 3.112191312338863924e-01 -3.457201546156170036e-01 8.852232639546810944e-01
-1.036573675459174920e-01 -7.181991509836750665e-02 -7.969198713974908754e-01 4.162607466358524411e-01 -5.347427827454395155e-01 7.353755143542830552e-01
-5.364487875261603894e-02 1.347851480521268346e-02 -7.316119460689225473e-01 2.606652390928279051e-01 -8.027760981888275582e-01 5.362873943189422343e-01
-6.548725757838985695e-02 -3.097554171185970540e-02 -7.804866220136346122e-01 2.816975781929711431e-01 -6.787824648440451414e-01 6.781598925478101725e-01
-7.859442383285183964e-02 4.409691820453556788e-02 -6.653724242510087317e-01 3.537444048565795973e-01 -7.862411514798468559e-01 5.066455839660586324e-01
-6.114255119775061781e-02 1.700895315902363307e-03 -7.446620633754446050e-01 2.627405146975899664e-01 -7.793315625814239977e-01 5.688670648761814386e-01
5.350201282726559093e-02 -1.220979270596329880e-01 -9.096759628711287293e-01 3.117307679196453796e-01 -3.569553392469687059e-01 8.805718676606184570e-01
-6.329005053315162055e-02 2.083107664025877007e-02 -7.149146264771238934e-01 2.766233032567375072e-01 -8.238201180390087863e-01 4.947726358738170349e-01
-9.268472951931708281e-02 9.247802653972840570e-03 -7.155509635838357418e-01 3.298572858447502143e-01 -8.105750898346671951e-01 4.839030840102759856e-01
