-2.197405531491349734e-02 9.595175052405578719e-02 -7.761496814136948919e-01 -8.672137668366951546e-01 -4.774737548803318354e-01 -1.412766647730153702e-01
1.683080072974819236e-02 -1.033701966085975258e-03 -7.086191448903662593e-01 -8.942526865510896927e-01 -4.459065718142010692e-01 3.846377268372612457e-02
-1.032963507350894428e-01 1.500939494690662068e-01 -6.137494633017165357e-01 -5.169860470960397913e-01 -8.443809718477989223e-01 -1.405211780813777345e-01
3.568049657362250965e-02 -2.759298822327490089e-02 -8.756064825915700345e-01 -9.697715456210073137e-01 -1.993768956349125931e-01 1.406840530793304622e-01
6.199765159405414526e-03 5.775521571334132215e-02 -8.118703395387945054e-01 -8.893192290807832023e-01 -4.385022491059504812e-01 -1.297192596193206815e-01
-1.043803432616668830e-01 1.520859132980144357e-01 -6.272205769697390965e-01 -4.446992749424294455e-01 -8.931176311744369878e-01 6.770119460570950265e-02
-3.127986146451653543e-02 7.816480832950804813e-02 -6.889291509819591708e-01 -8.736426322099595243e-01 -3.124524334217867461e-01 -3.729906540840635665e-01
6.831990556303099704e-02 -1.884477270482804445e-01 -7.785566754995238981e-01 -9.924521771454561936e-01 -5.432092089874241553e-02 1.099450482375481236e-01
-3.081378659814973126e-03 5.333546949088351086e-02 -7.558266778771544070e-01 -8.827146044339942987e-01 -4.316172705711333046e-01 -1.857995125495819355e-01
-9.834525488043166508e-02 1.857579889507186277e-01 -6.835835081181490525e-01 -6.426301892879339173e-01 -6.537669755943444905e-01 -3.995186872199824046e-01
4.809813268353622245e-02 -8.973483902109889720e-02 -8.330682380991748515e-01 -9.913136121004556545e-01 -1.306229787571789869e-01 -1.532840125222682294e-02
-2.324196242182448302e-01 1.775764307659015717e-01 -6.010761947570562036e-01 -7.832690082281690280e-02 -7.051304651935135226e-01 -7.047381951217572826e-01
3.886325884024390952e-03 2.317643426503264090e-02 -6.385623692050806932e-01 -8.663729462633686929e-01 -4.939141183607940189e-01 -7.380217928225213386e-02
5.221823204915242850e-02 -1.348184697271852250e-01 -8.721682694266574831e-01 -9.940939647689781555e-01 -1.034513618214699948e-01 3.278726806516304992e-02
9.199359714790609349e-03 8.267193774929048819e-03 -6.118484960981167564e-01 -8.336064037908470503e-01 -5.286583387480107143e-01 -1.600647507450809193e-01
6.174315317444012408e-02 -1.286621247342740471e-01 -7.477692159771655023e-01 -9.541452059360188143e-01 -2.729889025292301930e-01 1.228168762230932298e-01
2.394349361011169700e-02 2.157952985503778717e-02 -8.314069995397962431e-01 -9.389134396644706060e-01 -3.404234143341174912e-01 -5.053169095265305777e-02
5.590876931566551855e-02 -2.092622147829518442e-01 -8.812478368693160702e-01 -9.978944567038066094e-01 6.259099604624852875e-02 -1.700060274676792188e-02
1.150364052732667786e-02 1.144789560923613336e-02 -6.526230067698262083e-01 -8.838723685949236852e-01 -4.668027237656796613e-01 -2.940838518759842854e-02
-1.354047684987453593e-01 1.650409383993621804e-01 -6.153868742832274696e-01 -1.020583917938536339e-01 -8.521322331144896012e-01 5.132784253714212097e-01
5.475667099938011373e-02 -1.939345804090954750e-01 -8.554497002627420299e-01 -9.705259909222095915e-01 1.212922122434857003e-01 -2.082486499201003649e-01
3.020296503837360119e-02 -1.857351777188842937e-02 -7.887420181283387732e-01 -9.585470980972224941e-01 -2.234526401128004991e-01 -1.767947350913285365e-01
-2.196726287861291704e-01 1.758858997504992305e-01 -6.018835116972883759e-01 -1.064212165729417070e-01 -4.422003637693842915e-02 -9.933373611447207097e-01
-6.848148702251158348e-02 1.328442009735380236e-01 -6.601697950082306976e-01 -8.011593578612780098e-01 -4.870800761756672870e-01 -3.477020027322404450e-01
-4.616313645297357576e-03 3.888124834847368760e-02 -7.221506692106426373e-01 -8.951746085736100866e-01 -3.780396024214272011e-01 -2.361111584955978282e-01
6.429187422653925843e-02 -1.868183809120764205e-01 -8.125928052729453066e-01 -9.786272484403593097e-01 -1.238170548082456746e-01 1.641890542900564520e-01
-6.086713920645876047e-02 1.233604390608721013e-01 -6.650389501571811746e-01 -8.299863079002051114e-01 -4.223031598182681590e-01 -3.643937017920207411e-01
4.595400172601239730e-02 -9.795220397092865849e-02 -7.970378477551340879e-01 -9.069041905695905958e-01 -3.485931439109081209e-01 2.366592680323865994e-01
6.726776175059329121e-02 -1.992522160422442457e-01 -7.883308643870288179e-01 -9.949484221276315710e-01 2.905724241422091153e-02 9.609013460817691921e-02
-3.730459711923765631e-02 1.268317355220988929e-01 -7.845791636162485760e-01 -8.940670081455371898e-01 -4.380362151067153098e-01 -9.364005126371773013e-02
6.273185247601795189e-02 -1.383705141996116605e-01 -7.613689888375361203e-01 -9.613059963688064258e-01 -2.503702579048850962e-01 1.149152526952706699e-01
-2.089543890022704450e-02 6.490182418995024682e-02 -6.756433187597572498e-01 -8.221084988057103526e-01 -5.677230721878984143e-01 4.275663102906650248e-02
6.357624633465502884e-02 -1.446900809000725152e-01 -7.666664895787094203e-01 -9.650824354591196474e-01 -2.287531048903600761e-01 1.276240955749116390e-01
5.614036741103584083e-02 -2.004085566694439602e-01 -8.793436015919452453e-01 -9.999560385512299421e-01 8.649258651821162963e-03 -3.620951491686245829e-03
-1.734582327797149284e-02 7.723124805815664851e-02 -7.455971454274755716e-01 -8.755485045451052439e-01 -4.502610504527516100e-01 -1.751565089684497811e-01
6.240978105084546423e-02 -2.191773810184677040e-01 -8.421130701422738785e-01 -9.791199762012948726e-01 -5.743387247430307985e-02 1.950010833205330363e-01
3.050593984253695615e-02 -2.927582333159873748e-02 -6.686139996899904681e-01 -9.259504102580327078e-01 -3.775020239809139255e-01 1.039517355770271795e-02
2.305291259339001253e-02 -1.872821682429910706e-02 -7.405916826630689620e-01 -8.990760924599514592e-01 -4.277878850236184194e-01 9.305753808243717728e-02
6.448795044810672061e-02 -1.923283530900712357e-01 -8.156183790145317136e-01 -9.805393193538182173e-01 -1.218168936403998398e-01 1.539587205225946831e-01
-4.119021662458213773e-02 1.213739117264475004e-01 -7.375301912640221946e-01 -8.840316820031186573e-01 -4.449057933598839498e-01 -1.433416207859717628e-01
-1.775828560756175650e-02 3.836204736353582972e-02 -5.894240441337426084e-01 -8.081221516245079561e-01 -5.100145803838784797e-01 -2.946586429236929816e-01
4.776964897092263185e-02 -8.806089511243490875e-02 -7.582155815051255798e-01 -9.465641753581314211e-01 -3.117986190713288863e-01 8.244927576269557579e-02
-7.197499549944694208e-02 1.685924605782530561e-01 -7.088819665245114088e-01 -8.325376575565676118e-01 -4.920738674703205584e-01 -2.544491259623918866e-01
4.139414452634822272e-02 -5.539273144423783463e-02 -8.113922380685308910e-01 -9.793495299813176347e-01 -1.520995670046580983e-01 -1.331924166098349405e-01
-1.444161665603134297e-02 8.101102382945750413e-02 -7.713358490406833079e-01 -8.584798113534007902e-01 -4.873900491888321085e-01 -1.595724081736483169e-01
5.556662218086683147e-02 -1.838148062680989847e-01 -9.033731728201205291e-01 -9.985719793692254820e-01 -1.236020815595592799e-02 5.197333232503596051e-02
-3.634763971505660524e-02 1.066121909510097387e-01 -7.240561895157332506e-01 -8.833321130692777245e-01 -4.350298254545797438e-01 -1.745664027971097210e-01
4.173230203869633735e-04 6.666205850826328883e-02 -8.070645219800425263e-01 -8.641616437273422768e-01 -4.819965140837149664e-01 -1.445822047196871629e-01
7.003154570336890539e-02 -1.773593692072693850e-01 -7.575526196538248103e-01 -9.924568196203075177e-01 -5.521152940521171365e-02 1.094584314243632894e-01
4.726016468340373672e-02 -9.830230727529046253e-02 -7.913918831526335351e-01 -9.316875265617401425e-01 -3.205447122891071920e-01 1.709076951829859858e-01
-1.009087356168704430e-01 1.779492458176733793e-01 -6.673458333459036940e-01 -6.459098870229834644e-01 -6.409987806754406936e-01 -4.146335502809138651e-01
2.693677090880000971e-02 -9.986398679764335595e-03 -7.834077828010864719e-01 -9.473324541582791580e-01 -2.535910643956535981e-01 -1.955832133827734853e-01
5.502225543657558032e-02 -1.666933767095375163e-01 -8.745167826705109171e-01 -9.971576626349132333e-01 -7.326555347497247517e-02 1.757141207993163923e-02
3.151498364764182547e-02 -3.333610792871247175e-02 -6.981199679813200332e-01 -9.272688328253619883e-01 -3.729767295455585496e-01 3.257101300528614934e-02
-6.962447552012974994e-02 1.332853839626824133e-01 -6.581611475356556884e-01 -8.028594176709896724e-01 -4.537239945332299240e-01 -3.867186215348429323e-01
-2.249204252558383715e-02 5.662124553481179268e-02 -6.099296794589414983e-01 -8.536972481233007226e-01 -4.756294377144392738e-01 -2.120793401681308199e-01
2.220121986001915085e-02 2.970566185478263829e-02 -8.622428067767848869e-01 -9.440765526022785181e-01 -3.295163625266647189e-01 -1.176561319239997211e-02
-6.256598623160851413e-02 1.168346888732732097e-01 -6.093546576048353147e-01 -7.191102664681248147e-01 -6.863840568876242720e-01 -1.084313197864406886e-01
6.844442108598192132e-02 -1.949256122533176983e-01 -7.770856122644771435e-01 -9.960150844325933450e-01 1.417738306123233864e-02 8.805085685142066687e-02
2.971840173580883593e-02 -2.496265968479986080e-02 -7.789320704834674647e-01 -9.578885309521786295e-01 -2.045220403384865049e-01 -2.015447773723248182e-01
-5.416360186643381230e-02 1.066773660373097066e-01 -6.076284609991950969e-01 -7.823357196716251849e-01 -5.989033695708345650e-01 -1.710718435119608083e-01
4.452936466889096528e-02 -9.414996875645094410e-02 -7.996908395381561174e-01 -9.530350571537394844e-01 -4.123207482852755262e-02 -3.000401570478583579e-01
-9.859350841587891101e-02 1.900607598417662358e-01 -6.900819197552847672e-01 -6.473722649038616828e-01 -6.527807871428717990e-01 -3.934290210068099869e-01
5.023724735535223945e-02 -1.162508361099746368e-01 -8.697508010594113825e-01 -9.874674390464588392e-01 -1.254929151690125366e-01 9.570572117387389499e-02
5.393222858466715369e-02 -1.558328501622646967e-01 -8.405459995754192004e-01 -9.950733046970275941e-01 -2.230576732316708749e-02 -9.660005705723766212e-02
-1.384475554025865751e-01 1.645031329615400661e-01 -6.032872542876506206e-01 -3.641445802292300193e-01 -8.937293916212025735e-01 -2.620047695025289336e-01
-3.953358345836166521e-02 9.046397300630185101e-02 -6.750448848207976082e-01 -7.584479685750645794e-01 -6.389463354540593221e-01 1.284689043083444282e-01
8.603611415726027112e-03 1.590752392317113656e-02 -6.940273997558401575e-01 -8.750253835328682950e-01 -4.817005706368205908e-01 4.790760295942936287e-02
-2.486286551864372307e-01 1.764218659621823171e-01 -5.988681590563948998e-01 -9.953738327706493361e-02 6.117213779043866040e-02 -9.931516897677323819e-01
-5.670385731800810236e-02 1.571149680593837972e-01 -7.467203580543023689e-01 -8.963533075127098071e-01 -4.145223400891749344e-01 -1.572322412166793082e-01
3.763663318496980603e-02 -5.174842241872841531e-02 -7.220387021238076075e-01 -9.321607040918736820e-01 -3.586871164536861722e-01 4.919323365141007459e-02
3.386895558316251748e-02 -3.982482048308338962e-02 -7.835117680113883321e-01 -9.564777318132114958e-01 -2.040130633744872690e-01 -2.086360911204288293e-01
-5.324764342019958074e-02 1.538325610660148113e-01 -7.581607279604860583e-01 -9.062075055374828603e-01 -4.018743445062020747e-01 -1.314723093858304048e-01
-5.207358597067483774e-02 1.434560110825448820e-01 -7.354141824517089754e-01 -8.885123543929447365e-01 -4.303966516816017940e-01 -1.590739397650419995e-01
2.211381101996868354e-02 2.971667547792150935e-02 -8.655279479382442798e-01 -9.637511078103494500e-01 -2.629781698641615595e-01 4.501426850700412235e-02
6.572212895718999859e-02 -1.770947471817945484e-01 -7.936238336566536766e-01 -9.888857149549119541e-01 -1.059535400825340479e-01 1.043019180173195837e-01
-1.221631654358987934e-02 5.195843355455102147e-02 -6.657195234086457081e-01 -8.468253969130691283e-01 -5.318215949968561063e-01 -7.248326567084226180e-03
5.533688272552505366e-02 -1.771123065398937380e-01 -9.001143191527811727e-01 -9.968189289257101127e-01 -7.962487733437072224e-02 3.449905054702800955e-03
8.683451433909436176e-03 6.066893026470020905e-02 -8.393927436457553348e-01 -8.850826360232073586e-01 -4.494849105861432048e-01 -1.207975271500937725e-01
1.009233071125379376e-02 4.533421760635091002e-02 -7.996256709074369695e-01 -8.960630147568797721e-01 -4.187623953394290499e-01 -1.473401840449364841e-01
-5.514316375790061925e-02 1.456424848956367757e-01 -7.250718376880249672e-01 -8.845343669439820200e-01 -4.328189162523353173e-01 -1.739733871290754241e-01
3.015983640046972919e-02 -1.180970747011623068e-03 -8.186700416727918928e-01 -9.595368647258372130e-01 -2.585965559035209305e-01 -1.114308148895441497e-01
-2.973876386082874995e-02 7.815804460908556961e-02 -6.506706095290156755e-01 -8.361155155804390615e-01 -5.468955350941049343e-01 -4.261593950377431939e-02
-7.273127569304511930e-02 1.729778886513362035e-01 -7.150906898552327196e-01 -8.295278998027371120e-01 -5.003693073353956411e-01 -2.480202002369097658e-01
6.893745931767742557e-03 1.901457318182839945e-02 -6.452312499271321000e-01 -8.544145023224153368e-01 -5.153950657397182722e-01 -6.590739285005320358e-02
6.135819641106446398e-02 -1.377272409168362743e-01 -7.706633704972954968e-01 -9.630558605806143202e-01 -2.337208481383869496e-01 1.337833119144734018e-01
5.592791623584730115e-02 -2.096153752817731253e-01 -8.847431605872450033e-01 -9.986613759897445819e-01 5.158667068879957407e-02 -3.777765677707188314e-03
-1.068773890588750747e-01 1.453122251761311823e-01 -5.855293981061455710e-01 -4.701359949960161044e-01 -8.554439233068050763e-01 -2.172276232125345818e-01
5.613894328180842747e-02 -1.965757441983435050e-01 -8.934262041302252211e-01 -9.995749922098942086e-01 -1.069168003291687437e-02 2.712052592896840170e-02
6.390180680831324123e-02 -1.580958948353407834e-01 -7.856978078446521518e-01 -9.725616621109923754e-01 -1.841421348032817595e-01 1.421811787192457655e-01
-8.489498573521571390e-02 1.356375348935759395e-01 -6.031275719196511620e-01 -5.953339874019869526e-01 -7.859472724439702240e-01 -1.669261165364319677e-01
2.220449938265062900e-02 1.928136019914331034e-03 -7.768288761979480483e-01 -9.347059792724523586e-01 -2.894261706242327037e-01 -2.062940233504563792e-01
-2.775411854203916825e-02 7.344115487551397536e-02 -6.856179800319311957e-01 -7.816216472172843321e-01 -6.080972422861918858e-01 1.388716836697378165e-01
-3.388493575788494375e-03 6.469682204537005599e-02 -7.812093019691096485e-01 -8.655808609562691824e-01 -4.607022317947710444e-01 -1.962733470584354933e-01
5.136882815564236537e-02 -1.048437150276869539e-01 -7.756825207488021734e-01 -9.496926986641621715e-01 -2.934656368586569530e-01 1.093695482624116172e-01
-9.492309771574261590e-02 1.375219875656790713e-01 -5.821398369020406305e-01 -5.505697982860103812e-01 -8.035109839173190105e-01 -2.263691585431283904e-01
-2.310053291707231393e-02 8.202705462824612381e-02 -7.288475324728229676e-01 -8.792027318922451817e-01 -4.445650394656367466e-01 -1.713606778643508022e-01
-3.366622690013645197e-02 7.146349891645308039e-02 -5.976782714266393182e-01 -8.617896780424096903e-01 -4.651454544034494543e-01 -2.023814642386219387e-01
2.193451356341593467e-02 -1.172948450548353186e-02 -7.070616076948560424e-01 -9.124907330156245555e-01 -4.081534261376458805e-01 2.777486080450679296e-02
-3.883847973076397925e-02 1.296325120183222379e-01 -7.830354619670347738e-01 -8.940670081455371898e-01 -4.380362151067153098e-01 -9.364005126371773013e-02
4.636580596739508370e-02 -2.557579205441840031e-01 -8.719640305101507005e-01 -7.676308526367596752e-01 2.378357192554215460e-01 5.951277549622583374e-01
-8.655138924453888161e-03 6.412699300037322248e-02 -7.551536114029001601e-01 -8.714815317025241814e-01 -4.490166415095643848e-01 -1.972409580916035798e-01
6.034042315986681837e-02 -1.088307643380706652e-01 -7.057516864499407960e-01 -9.357016318300636071e-01 -3.342300778747659962e-01 1.129279028158414883e-01
-4.350442330839196514e-02 1.077384233182336754e-01 -6.941496868160748068e-01 -8.735167183528894652e-01 -4.312701545467675923e-01 -2.257755446349456463e-01
4.395840505919649394e-02 -6.254040108334460446e-02 -6.481208577441318619e-01 -9.170240912231844010e-01 -3.988200205419024091e-01 -3.067137305250803962e-03
-2.141264647376855262e-02 9.996527742572101916e-02 -7.956810996789758228e-01 -8.614400019148311660e-01 -4.951785459642480958e-01 -1.127800102753527545e-01
6.139836927340058120e-03 6.852949667989233218e-02 -8.508778413368888183e-01 -8.821416821682374065e-01 -4.569051717872075202e-01 -1.142966166406299139e-01
1.508395713509724269e-02 3.578537781881754344e-03 -6.943497366167739049e-01 -8.988826453253020432e-01 -4.376318035827690411e-01 2.209964764153646288e-02
-3.920237523599091195e-02 8.635897706104250782e-02 -6.117479604962319240e-01 -8.419991327841607198e-01 -5.179280019817810166e-01 -1.509570970636411880e-01
4.706333718699072521e-02 -1.123601297540222504e-01 -8.921508040861224620e-01 -9.769042642746276206e-01 -1.591235039621387848e-01 1.426105498511945902e-01
-3.907646979902013734e-02 1.089788388563223825e-01 -7.162086282813383553e-01 -8.796614159832153446e-01 -4.359971217827643408e-01 -1.900060605021589577e-01
5.301426464239668290e-02 -1.384810133646177666e-01 -8.625033961758949985e-01 -9.963687052431331459e-01 -8.461320899397663242e-02 9.487258606377686060e-03
-1.141999770389911795e-01 1.553943069044794456e-01 -6.104593246957271679e-01 -4.526674036460069939e-01 -8.701247611145205285e-01 -1.948720651396239067e-01
3.693750513588092005e-02 -2.707814545353719182e-02 -8.198521433992873586e-01 -9.707963438791391564e-01 -2.281266415671900083e-01 -7.424751927284287123e-02
-5.499586782916420641e-02 1.604984783301739160e-01 -7.668879835309811988e-01 -9.118128762604685855e-01 -3.924223708795430143e-01 -1.208385762862593388e-01
2.475543044062645734e-02 1.984386890767830813e-02 -8.348004893136306004e-01 -9.389134396644706060e-01 -3.404234143341174912e-01 -5.053169095265305777e-02
-7.730832076354381133e-02 1.780938956955569474e-01 -7.125735182038217541e-01 -7.770895898606500207e-01 -5.521563682167304199e-01 -3.020846145832609686e-01
-2.300111248237148576e-01 1.742909392267006918e-01 -5.928906893305888604e-01 2.489307647546518121e-02 -8.705668740905113667e-01 -4.914200367098012778e-01
1.759357957317670904e-02 -8.423389864310094509e-04 -6.430317522155086785e-01 -8.861097135485828113e-01 -4.607594756496258825e-01 -5.010270605397024180e-02
2.971302250142147331e-03 5.797596231577127612e-02 -7.956574193299845721e-01 -8.740405222985592193e-01 -4.595674245906362088e-01 -1.576418333920026060e-01
2.957833194703015159e-02 -1.682541268993072159e-02 -7.875648250336619860e-01 -9.585470980972224941e-01 -2.234526401128004991e-01 -1.767947350913285365e-01
4.686847087146007312e-02 -8.412813571172765570e-02 -7.536890887947965689e-01 -9.465641753581314211e-01 -3.117986190713288863e-01 8.244927576269557579e-02
4.962883505056629729e-02 -1.097311565248091231e-01 -8.222373363886286146e-01 -9.927499341171140967e-01 -9.106301500423728823e-02 -7.845441739509627366e-02
5.484997750187878968e-02 -8.715682581323681843e-02 -6.570579417837403291e-01 -9.007825331147156778e-01 -4.341998931579430510e-01 7.828206503861108098e-03
-2.010205564959451074e-02 6.382159411478245670e-02 -7.043572219351982300e-01 -8.864157086548153375e-01 -3.599302914800945330e-01 -2.910624962530140580e-01
-5.916961117369079828e-03 3.974459570018204491e-02 -6.405340388175014832e-01 -8.540006399739572540e-01 -5.072063044774112184e-01 -1.158648852001308988e-01
4.953747949060808425e-02 -7.737801419729065100e-02 -6.847431837174480229e-01 -9.311626422318466378e-01 -3.607420635980815860e-01 5.292728278311413515e-02
2.501929662276133545e-02 -2.705015111488232732e-02 -7.548004482996779618e-01 -8.860752116367557329e-01 -4.350964779371795377e-01 1.598804997788668691e-01
5.157483872484496662e-02 -1.019070032603654613e-01 -7.650579562608613715e-01 -9.510831048332479831e-01 -2.929048979335043823e-01 9.822244380645643591e-02
-4.036218729998935356e-02 1.204568702605428032e-01 -7.397905751906084237e-01 -8.840316820031186573e-01 -4.449057933598839498e-01 -1.433416207859717628e-01
4.365949277488035546e-02 -6.097901862800742673e-02 -8.234182243777292687e-01 -9.875462156221381793e-01 -1.434994057872118201e-01 -6.450110502239868315e-02
-5.209230780929609284e-02 1.012211822075349960e-01 -5.974217655171542019e-01 -7.979497202379749465e-01 -5.672675529729933608e-01 -2.036756424223814810e-01
4.656605794305655743e-02 -2.540299215261890287e-01 -8.724246828742090454e-01 -7.812229166961741633e-01 2.517461425096180760e-01 5.712395593446323305e-01
-3.508115863020104530e-02 9.892462959872902473e-02 -7.117896174131168596e-01 -8.757544466441764541e-01 -4.406000730591898007e-01 -1.972960334198060606e-01
5.114773603375780825e-02 -1.010582213013127145e-01 -7.666624547271000401e-01 -9.510831048332479831e-01 -2.929048979335043823e-01 9.822244380645643591e-02
6.697026467202178701e-02 -1.252037215738448783e-01 -6.999423631409218416e-01 -9.351844482208758746e-01 -3.339955826924464466e-01 1.178006729511733575e-01
6.327343171901217422e-02 -1.756471688286195265e-01 -8.095959234474768840e-01 -9.747463982612936118e-01 -1.593222134378790011e-01 1.564796836074596742e-01
2.945681473002669318e-02 -2.775528151294439153e-02 -6.267920962462080192e-01 -9.111962497517961390e-01 -4.104749364956737923e-01 -3.509588219627719080e-02
6.266513872270687568e-02 -1.468500139207387645e-01 -7.771927632793824703e-01 -9.630558605806143202e-01 -2.337208481383869496e-01 1.337833119144734018e-01
-4.743176149213413489e-02 1.016529420660102628e-01 -6.655550713678258790e-01 -7.319678795380966108e-01 -6.667495957578292165e-01 1.402426464427780628e-01
6.012750985591762409e-02 -1.678824191607046212e-01 -8.180429969651765720e-01 -9.572748039122277453e-01 -1.977396081330035083e-01 2.110071021795525970e-01
4.622804041558908200e-02 -6.855447842589892926e-02 -6.329101848242826289e-01 -9.100152967715710028e-01 -4.142962155803470714e-01 -1.519228085417288591e-02
3.768487922120647426e-02 -4.165415834142906226e-02 -8.794589593665059768e-01 -9.722394958902258466e-01 -1.761238775366169296e-01 1.540478574748323781e-01
6.847379772860874569e-02 -1.375157887888896202e-01 -7.163964221146564837e-01 -9.531246553203591709e-01 -2.730491943553991496e-01 1.303745714559177982e-01
5.178412381409698562e-02 -1.305698110056390249e-01 -8.149983020486495366e-01 -8.963731614558171357e-01 -3.093694375833710986e-01 3.174991441107399281e-01
4.013818830007452251e-03 5.029645408260467743e-02 -7.808974876258496511e-01 -8.774607013729791571e-01 -4.427590790581371616e-01 -1.844644015999567510e-01
5.246988983143290042e-02 -1.387035140328084781e-01 -8.753385288888485549e-01 -9.912592826823647396e-01 -1.120815165365942195e-01 6.959000033698327370e-02
3.399996082665539265e-02 -2.274091956515469221e-02 -8.047910981785092455e-01 -9.585804006993899895e-01 -2.424057169822582403e-01 -1.495429161455484601e-01
2.035569550037529679e-02 -1.583671039124249363e-02 -7.489739000175902328e-01 -8.441541366466218665e-01 -4.923362102985574529e-01 2.121528920643108995e-01
2.459683464734805508e-02 -1.608975954280220111e-02 -6.377985525220468688e-01 -9.081081300997857486e-01 -4.181494319567129470e-01 -2.215122120672358141e-02
2.654442367416143256e-02 3.069341734684714711e-03 -8.016032269244932618e-01 -9.440284662369581303e-01 -2.806423187718510848e-01 -1.733497731427851574e-01
-8.565515864716785610e-02 1.388115060173230886e-01 -6.167808673210548598e-01 -5.826594916386423906e-01 -8.011734790140324636e-01 -1.364879970105468132e-01
6.719673368396215929e-02 -1.375905404821808897e-01 -7.258542731909217727e-01 -9.607724663910732765e-01 -2.295741355760822222e-01 1.556020054475801551e-01
-4.917269003719258735e-02 1.046768995304901140e-01 -6.380361409635129100e-01 -7.769470985194911750e-01 -6.294474608577946828e-01 -1.221065607654090238e-02
1.869654537212091239e-02 3.946142596983635842e-02 -8.542536690981673564e-01 -9.440765526022785181e-01 -3.295163625266647189e-01 -1.176561319239997211e-02
-4.621723447993185407e-02 1.408002035421777598e-01 -7.656751665510832527e-01 -8.978106695022082251e-01 -4.222170948890010544e-01 -1.251747838483818209e-01
3.962354066493971316e-02 -5.503521219649536861e-02 -7.076834661545917671e-01 -9.310030895795354811e-01 -3.620802198368389124e-01 4.616450580549961297e-02
-6.296637666870126548e-02 1.707791282706522529e-01 -7.486439235551533011e-01 -8.745402483817645845e-01 -4.514403688627604549e-01 -1.771466830663689374e-01
4.320637627128760122e-02 -7.187794791073784384e-02 -8.759875484713215421e-01 -9.766562941811189891e-01 -1.521039262150252480e-01 1.516801854771347158e-01
-6.845498721098967898e-02 1.140469363805167585e-01 -5.756993689790497193e-01 -7.030479068551995780e-01 -6.748183527623566880e-01 -2.243743110109137073e-01
4.191107826191362712e-02 -7.820868707743638959e-02 -7.823041798857746087e-01 -9.337707954307472580e-01 -3.310067127100908557e-01 1.360391772302709801e-01
-3.866390606070534142e-02 1.159171615229433738e-01 -7.363483389551122027e-01 -8.870849202005269829e-01 -4.342968706412290159e-01 -1.564179417588037746e-01
-2.119694587993107421e-02 4.051667995652395021e-02 -5.835403793889700763e-01 -8.514295913486752410e-01 -4.558450338543037494e-01 -2.593703068706921799e-01
-3.140075928365423930e-02 7.136448871205525180e-02 -6.070976244710509784e-01 -8.617896780424096903e-01 -4.651454544034494543e-01 -2.023814642386219387e-01
9.035828383141264464e-03 1.630493486788905239e-02 -6.589546731789851508e-01 -8.781251469696268463e-01 -4.784193818688071698e-01 -3.334863091605088509e-03
-2.919336804183000206e-02 7.452486555828660708e-02 -6.289710660522193075e-01 -8.434758288139369009e-01 -5.291730300404363652e-01 -9.232784241205750642e-02
3.173333515264635529e-02 -3.999292789594309505e-02 -7.449374356691164101e-01 -9.233159345366629411e-01 -3.791845883993582023e-01 6.088294466513555908e-02
-7.662870524769621432e-03 8.956684379865956225e-02 -8.386334597616789122e-01 -8.442752235746648903e-01 -5.172126914047805446e-01 -1.403224098559212596e-01
-1.975540457455599586e-01 1.723571157026620448e-01 -5.878771870072853067e-01 1.524226665519562429e-02 -8.912773310719914743e-01 -4.532023746897184679e-01
-3.769493987586296224e-02 7.201601518990830009e-02 -5.823418507198734329e-01 -8.675708034981396422e-01 -4.614906884051856450e-01 -1.853300985617296615e-01
-8.426166958490891035e-02 1.652658107034939983e-01 -6.749688259493312747e-01 -7.074010961943258957e-01 -5.879144672935481264e-01 -3.923522247292725029e-01
9.447198578557461021e-03 4.073845448996396557e-02 -7.852617450663310628e-01 -8.988955655528216848e-01 -4.007672231926909800e-01 -1.771225424498327483e-01
4.886386378130463948e-02 -1.278909673655974077e-01 -8.993645544810545678e-01 -9.807493449631083937e-01 -1.762280229290837663e-01 8.410948988633847045e-02
4.660926183366911196e-03 2.193385937374723108e-02 -6.391140624937619030e-01 -8.544145023224153368e-01 -5.153950657397182722e-01 -6.590739285005320358e-02
2.610919363027051909e-02 -1.878729438739037971e-02 -6.683230944150116981e-01 -9.184134315078669175e-01 -3.956186395474571849e-01 1.631216896646982143e-03
5.474659618874211375e-02 -1.163400797254246499e-01 -7.759984119726033303e-01 -9.545433307787020150e-01 -2.721896923755012798e-01 1.214899215179255920e-01
-3.247114151767815926e-02 1.152776818902225692e-01 -7.756698487943443077e-01 -8.762346903600486403e-01 -4.656587946005206757e-01 -1.239945741587907685e-01
4.209965513383377017e-02 -8.015608899615993266e-02 -7.852181082429762204e-01 -9.073221227653445187e-01 -3.665742033449556625e-01 2.058881224903480467e-01
3.391951741244046692e-02 -1.715511680711591380e-02 -8.725130790205170017e-01 -9.716827159362428912e-01 -2.062643885318901082e-01 1.152722931772085235e-01
2.279035941740233800e-02 2.737728375401329156e-02 -8.650829484909812184e-01 -9.556669754403163131e-01 -2.888109190803834769e-01 5.734880184190658398e-02
7.774686379852597997e-04 2.795921577780518044e-02 -7.268575731232560511e-01 -9.008364075016193073e-01 -3.115473684809252908e-01 -3.023772546210894419e-01
6.560202476162316221e-02 -2.120065201854802461e-01 -8.071182095431909120e-01 -9.955820347561369354e-01 9.151136642813383071e-02 2.102574339437083759e-02
2.369831722170072721e-02 -7.966242883442473804e-03 -7.706269438959815199e-01 -9.465471987062860082e-01 -2.435498302753489885e-01 -2.114991271710869869e-01
-1.672997100712101393e-01 1.779597319908953756e-01 -6.103828987674918549e-01 -1.938046705264329927e-01 -7.711060106711383755e-01 -6.064942456355073563e-01
-3.895118966592416021e-02 9.145424119334479018e-02 -6.531074153119766912e-01 -8.164678568423892058e-01 -5.773858023151081653e-01 -2.423639439907368347e-03
4.958898702456424057e-02 -7.610345050013929413e-02 -6.688671427866279551e-01 -9.106779257247830106e-01 -4.125747383371227150e-01 2.116130628438427780e-02
6.363416755332994279e-02 -2.291501690657164469e-01 -8.222484859517997791e-01 -9.931952552921712307e-01 1.161728947035376019e-01 8.188003500231782333e-03
-1.747449123054062026e-01 1.732487832992572752e-01 -6.064261853121137857e-01 -6.281041258807080162e-03 -7.967668431282078911e-01 6.042542066152415403e-01
2.291137164051561259e-02 -1.154111513287477304e-02 -6.706729560186601713e-01 -9.144947936247599385e-01 -4.045752154428807201e-01 4.262332994330636678e-03
-6.903581037627121164e-02 1.547242547049599293e-01 -6.920610140968361801e-01 -8.232709998503011661e-01 -4.941417097811139914e-01 -2.793722095343104117e-01
4.642615132559470281e-02 -6.818933934573206956e-02 -6.576452068879984347e-01 -9.258980794930655733e-01 -3.776249690009466642e-01 1.058910657642754549e-02
-4.609813616666876696e-02 9.583101422967556238e-02 -6.079078044797113778e-01 -8.335688184404103085e-01 -5.371806911345943236e-01 -1.288407155988283148e-01
-2.729845602849438890e-01 1.713225368083907130e-01 -5.939980147933283661e-01 1.214261267345332906e-01 -8.566910456903760185e-01 -5.013343674437046316e-01
2.733964944713181480e-02 5.903748375010979196e-03 -8.823613948222186476e-01 -9.701749579806852042e-01 -2.219527639046386114e-01 9.745522819360441513e-02
-1.712724351347678919e-01 1.734246509989428586e-01 -5.991700219533867555e-01 -1.460523246037313261e-01 -9.713063529224255088e-01 -1.877037219939526047e-01
5.318957960996564122e-02 -2.261588123568575304e-01 -8.667687340138222618e-01 -7.564793329318024728e-01 -1.438012268539627658e-01 6.380127161760574817e-01
5.448247847905007823e-02 -1.602421127111097743e-01 -8.782218248020098317e-01 -9.971215429791178142e-01 -7.383193784986818997e-02 1.724741952515409377e-02
1.471158363586009578e-02 2.933178404890808902e-02 -7.870888394239851094e-01 -9.052217712698658048e-01 -3.839669983332115732e-01 -1.820518854888089622e-01
-7.011705764523257223e-02 1.267420330466619005e-01 -6.506990215277661527e-01 -6.554518412441396880e-01 -7.442864753583565696e-01 1.281426018477150874e-01
6.698941950711538584e-02 -1.750716026961715299e-01 -7.821775729878346350e-01 -9.950199978614460150e-01 -5.864826026776295831e-02 8.059519479083571136e-02
-8.410166061483453914e-03 5.284913582106397917e-02 -7.311748622262032038e-01 -8.860077835600317364e-01 -4.132631540905959966e-01 -2.102469332526215595e-01
5.425053435855511919e-02 -1.613210328268272764e-01 -8.859034833674771514e-01 -9.959032308929245403e-01 -9.022824291953297771e-02 -5.968155216496595118e-03
4.851191803600243824e-02 -1.152507425224782722e-01 -8.844108729306494610e-01 -9.818513661724092012e-01 -1.416501002674186160e-01 1.261076676479434555e-01
3.007820936853670968e-02 -1.420412310691494991e-02 -7.935579196251046907e-01 -9.575518676793955963e-01 -2.236821464290401074e-01 -1.818260654378213159e-01
4.314066672461976809e-02 -7.745148302115571759e-02 -8.817790689428733897e-01 -9.778863128613488609e-01 -1.464620801890179347e-01 1.492890424148475559e-01
-1.780305117620798719e-04 3.245666466228860902e-02 -6.698117856348508870e-01 -8.561259001864022222e-01 -5.167307218095056331e-01 6.148509433203328163e-03
-3.530305686444464713e-02 7.488447270313848547e-02 -5.985708790537180857e-01 -8.617896780424096903e-01 -4.651454544034494543e-01 -2.023814642386219387e-01
-8.805193313052054119e-03 4.610855097829786448e-02 -6.538790388493114225e-01 -8.508299798885798904e-01 -5.237162719371499797e-01 -4.253953256739054223e-02
4.791808943381427321e-02 -1.005795087159265799e-01 -8.718413742680785061e-01 -9.846837244154708069e-01 -1.377413508520820284e-01 1.068891160816703434e-01
5.664510083478239977e-02 -2.126410051465546514e-01 -8.569155482175579985e-01 -8.914015979745184559e-01 -1.804353604142830969e-01 4.157478464654300598e-01
4.240371625104786407e-02 -6.345901463381029006e-02 -8.089343523831393767e-01 -9.781333295645647796e-01 -1.655363002666840611e-01 -1.259083908600090451e-01
-5.036896838040633758e-04 3.077208740333949727e-02 -7.044330612029446881e-01 -8.498495640779960558e-01 -5.248291857961009388e-01 4.806291889848343657e-02
-5.539043209929832984e-02 1.619503019151068424e-01 -7.686255021093219009e-01 -9.118128762604685855e-01 -3.924223708795430143e-01 -1.208385762862593388e-01
6.710346125268044915e-02 -1.421183784681732676e-01 -7.343260957054407179e-01 -9.667927234952798932e-01 -2.266612209198742567e-01 1.180530420094778460e-01
5.097616650011241313e-02 -9.541762175168597149e-02 -7.495651905252422864e-01 -9.450744038963750926e-01 -3.158282203984945635e-01 8.418376506091582168e-02
5.721427384763484031e-02 -1.334460681230017209e-01 -7.920840645969027261e-01 -9.531346822982315059e-01 -2.555757050631183303e-01 1.619115078730950785e-01
6.409816592806945323e-02 -1.677430513005148949e-01 -7.964107728126638142e-01 -9.747463982612936118e-01 -1.593222134378790011e-01 1.564796836074596742e-01
-1.825482219850780782e-02 5.959620713656373775e-02 -6.422173186981120496e-01 -8.372936669698732848e-01 -5.389887926569276733e-01 -9.181719143151044482e-02
-3.680008805980381631e-02 6.539104493842141930e-02 -5.724436227833434865e-01 -8.809213520129945962e-01 -4.247621725774936019e-01 -2.086975522492909851e-01
-7.784305793309799840e-03 4.477973660285004126e-02 -6.764486304567191022e-01 -8.482262540216937152e-01 -5.287974440844744883e-01 2.975710197671128585e-02
-4.185722501286751746e-02 1.072767832620836748e-01 -6.999754095458804448e-01 -8.784010028987843111e-01 -4.317074871911007472e-01 -2.050373712510862867e-01
-2.054656632251440351e-01 1.746754146168994215e-01 -5.930672140978286988e-01 -1.194066028197779926e-02 -9.423712020941349410e-01 -3.343560050241146664e-01
4.915816570794329099e-02 -8.408238675926466010e-02 -7.259658251167939724e-01 -9.395909456574123020e-01 -3.347314881626039518e-01 7.157992505624968804e-02
4.140237528448014598e-02 -6.023261526333605065e-02 -8.053971873407997917e-01 -9.781333295645647796e-01 -1.655363002666840611e-01 -1.259083908600090451e-01
-5.079678187942077497e-03 4.719566770999009814e-02 -7.342091186727642826e-01 -8.915023962714326844e-01 -3.972232848430087282e-01 -2.178006873745429450e-01
1.430697259598396687e-03 7.432320466455370755e-02 -8.381887662457752075e-01 -8.509269993361738837e-01 -5.052224874057912318e-01 -1.437827528608371097e-01
-9.901501426347801560e-02 1.447179567327841754e-01 -6.005796868931791987e-01 -5.269264146647621994e-01 -8.288402319528848095e-01 -1.880755790229749758e-01
-9.246169448014286696e-02 1.445568808855677012e-01 -6.227853666000268129e-01 -5.684860129457958156e-01 -8.190753662307000971e-01 -7.706618920795957339e-02
1.845408021752784067e-02 1.203158860405361373e-02 -7.745186476786638519e-01 -9.308272678580481463e-01 -3.062500848330194647e-01 -1.994278891020261346e-01
-2.231331731600698018e-02 6.739783107190092104e-02 -6.610244831683899092e-01 -8.321409534232367955e-01 -5.545180825382531875e-01 7.150508650822495586e-03
6.034424342888661946e-02 -1.633824016583708127e-01 -8.128426730199925787e-01 -9.572748039122277453e-01 -1.977396081330035083e-01 2.110071021795525970e-01
-8.493565566889124674e-02 1.375907715898219974e-01 -6.128703028748548887e-01 -5.870968475851541246e-01 -7.969121190922884290e-01 -1.422967532989169170e-01
3.271982692154034450e-02 -1.272708739705332576e-02 -8.747024493267446799e-01 -9.716827159362428912e-01 -2.062643885318901082e-01 1.152722931772085235e-01
7.550331151504742315e-03 1.907032094968631741e-02 -6.715498425847843400e-01 -8.716226057272237204e-01 -4.898919571492210689e-01 1.673031696623155859e-02
6.946378874375559731e-02 -1.351052403043531969e-01 -7.047602838588632457e-01 -9.456574694220410970e-01 -2.893858639117669052e-01 1.482827444254449789e-01
5.896831161558308693e-02 -1.265932437118962306e-01 -7.651039483592920742e-01 -9.564090604563312281e-01 -2.695263048410462825e-01 1.124156576094694909e-01
-2.507699683283751146e-02 8.432187094758580859e-02 -7.248102856221223522e-01 -8.813933399102557020e-01 -4.337986769872568260e-01 -1.869879359904005611e-01
4.277290132253340482e-02 -9.412094368446119463e-02 -8.995145127220212089e-01 -9.678313032300351892e-01 -1.771841825758229960e-01 1.786290400046678106e-01
-1.448262224109593196e-02 4.073381208687636146e-02 -6.040534398866957977e-01 -8.110963643680818569e-01 -5.264492557789945959e-01 -2.548997230257863955e-01
5.230442642514403911e-02 -9.732804432542351003e-02 -7.422460064950829883e-01 -9.436406377197001927e-01 -3.188391963421902675e-01 8.879140566419750635e-02
-3.783252036134114593e-02 6.731029981045325017e-02 -5.719919414447653949e-01 -8.809213520129945962e-01 -4.247621725774936019e-01 -2.086975522492909851e-01
5.485745169094442819e-02 -1.630883177919424387e-01 -8.660552397468859187e-01 -9.983901348700134903e-01 -5.671982458212829203e-02 9.675171754276036976e-06
4.593219165795854597e-02 -7.103512779391668586e-02 -8.404153880816137567e-01 -9.887693526457438375e-01 -1.490195972631037369e-01 1.132814636465515057e-02
-4.592187046643416565e-02 9.855140244319052223e-02 -6.716682216989616760e-01 -7.111002990935763046e-01 -6.691943563555080576e-01 2.156740087515506554e-01
5.552367773489838565e-02 -8.837170885960367317e-02 -6.469208416078174873e-01 -9.007825331147156778e-01 -4.341998931579430510e-01 7.828206503861108098e-03
-1.238447960372826909e-02 9.332798102795648865e-02 -8.258079157328456210e-01 -8.320258616861733181e-01 -5.365905922637560499e-01 -1.407249152759123823e-01
2.206316767190269826e-02 -1.386750161793140652e-02 -7.245509602806814442e-01 -9.100949752904247125e-01 -4.082643470831230914e-01 7.104476653429804556e-02
4.722535106005821127e-04 3.016781824074479812e-02 -6.942324211140036283e-01 -8.601377149754978468e-01 -5.092073242301160541e-01 2.951291627635075493e-02
-1.074394053408402917e-02 4.911480337920804545e-02 -6.835930769914799754e-01 -8.410260423957381937e-01 -5.384959630573061817e-01 5.193547711484459983e-02
-6.718042140055935363e-02 1.203584505432330892e-01 -6.025681843789384429e-01 -6.740441699294394962e-01 -7.159720668559533818e-01 -1.817923443551658635e-01
6.137088367693144947e-02 -1.021003200295825530e-01 -6.655260887721747842e-01 -9.093729538831915038e-01 -4.121098318280944084e-01 5.662435214974889663e-02
6.765022729354874809e-02 -2.021716544550196948e-01 -7.832053477520960483e-01 -9.948562061577577165e-01 8.869986710834527888e-02 4.892302775130944609e-02
-6.757842158729139570e-02 1.382654280823382986e-01 -6.698619850630314065e-01 -8.153530070881188641e-01 -4.750769198868850518e-01 -3.309099485103949578e-01
-8.036483361154415916e-02 1.411816072780181508e-01 -6.482423013670745027e-01 -7.048579629992826057e-01 -5.177323909178790373e-01 -4.849004262639480256e-01
-1.195788820777445999e-01 1.544208897488354715e-01 -5.958523306858287683e-01 -4.002892152705160855e-01 -8.851521839529734592e-01 -2.372217430620477130e-01
-1.253618184819145498e-01 1.715762219652919029e-01 -6.312135721069047634e-01 -4.598571372288929870e-01 -7.192670573767828701e-01 -5.207555218259244390e-01
4.468198031435414996e-02 -6.441741602330085248e-02 -8.318580806605240241e-01 -9.892568579042875232e-01 -1.401941577054464372e-01 -4.143026954530865114e-02
3.537747917573456913e-02 -3.988739152091660273e-02 -7.910487943517957588e-01 -9.664520686620523549e-01 -1.745434164555543510e-01 -1.884276910405232319e-01
1.751259443594320453e-02 -3.222960181532267057e-03 -6.235795310614293818e-01 -8.863971927797026362e-01 -4.568335697195196055e-01 -7.485389909405865128e-02
-7.388840514926874395e-03 7.465288607742637250e-02 -7.895737782357882262e-01 -8.525293516243630521e-01 -4.958532763958964917e-01 -1.652974074400388460e-01
-3.750329852110862588e-02 7.350195643755225161e-02 -5.865064243182986914e-01 -8.655985651932331937e-01 -4.549600244737718735e-01 -2.091662020170589331e-01
-4.992012891786633960e-02 1.051612423651509115e-01 -6.314885461796239108e-01 -7.866757104827305502e-01 -6.152884756170635683e-01 -5.061045652156582336e-02
-2.178727390454417850e-02 7.238345677231765307e-02 -7.131912058147790168e-01 -8.836317293156527031e-01 -4.207072199832533888e-01 -2.054273642935426913e-01
2.912541223459336887e-02 -3.108440452225638001e-02 -7.298117090727637146e-01 -9.284416335910563589e-01 -3.666346896244522258e-01 5.979245252331238242e-02
2.339162738639052885e-02 2.327208148962131573e-02 -8.758200310756479867e-01 -9.637511078103494500e-01 -2.629781698641615595e-01 4.501426850700412235e-02
1.761449480489102673e-02 -1.322590400592992162e-03 -7.532787816506277823e-01 -9.383090689270652263e-01 -2.480855346650595317e-01 -2.408934591456889929e-01
-1.852540572608368102e-02 8.157196808192611337e-02 -7.511094953870359747e-01 -8.733879991641307905e-01 -4.593330990259374969e-01 -1.618842396754696378e-01
6.030448883150654749e-02 -1.645280094403086535e-01 -8.140966028903765528e-01 -9.572748039122277453e-01 -1.977396081330035083e-01 2.110071021795525970e-01
6.862591283931397668e-02 -1.810278591884269539e-01 -7.721284492720307258e-01 -9.924521771454561936e-01 -5.432092089874241553e-02 1.099450482375481236e-01
6.805249071544960948e-02 -1.778774260279854524e-01 -7.751637813507424868e-01 -9.898387417804780375e-01 -6.976065286796184761e-02 1.239060796808448411e-01
-3.721261277866039652e-03 3.396054914714923684e-02 -7.142731751876900681e-01 -8.110561781035362516e-01 -5.683950932258725608e-01 1.382566235550277689e-01
3.574121873660252718e-02 -5.685743718768238725e-02 -7.801407221716937235e-01 -9.541204538060543694e-01 -1.213755582933881416e-01 -2.737190776652175250e-01
2.068538608475188958e-02 3.409349778473053094e-02 -8.666813803168672559e-01 -9.471030555109789528e-01 -3.207897199339685979e-01 9.474060716168162394e-03
-2.083402309054931678e-01 1.748923793859094578e-01 -5.936350727370321989e-01 -9.449929745618851525e-04 -9.417640244594057686e-01 -3.362731467457694134e-01
-5.837471969697060475e-02 1.650533592227798885e-01 -7.589675418723343947e-01 -9.010805355405213657e-01 -4.077086614117947927e-01 -1.477413817446212585e-01
-5.176559254353047673e-02 1.343050806420258425e-01 -7.150331927614463901e-01 -8.833652597358465641e-01 -4.211591012810597112e-01 -2.056473420687722764e-01
1.647941829932407162e-02 -6.346050939604254426e-03 -7.424174404947073702e-01 -8.392434918673833399e-01 -4.958741126902298513e-01 2.231125853059811870e-01
-5.117598371106279326e-02 1.458810968182906731e-01 -7.476967046949221096e-01 -8.956837418324340439e-01 -4.259733098068326784e-01 -1.276611685253657702e-01
-1.351682645911850833e-01 1.839448023348494443e-01 -6.402574167851490250e-01 -3.993362539707851488e-01 -7.498184678785209112e-01 -5.275441417482410467e-01
3.124147708483968749e-02 -3.171696824742101239e-02 -6.873653957581884466e-01 -9.272688328253619883e-01 -3.729767295455585496e-01 3.257101300528614934e-02
-6.334583121769546410e-02 1.123658308956658747e-01 -5.872045977503826952e-01 -7.555021871136580192e-01 -6.250785174745396855e-01 -1.961970750503458094e-01
-4.477703224721139852e-02 8.959700909026331594e-02 -5.943140650361281585e-01 -8.515092319168142687e-01 -4.998786946942938014e-01 -1.582824012680054959e-01
-1.881061997242468656e-02 6.866054382708468296e-02 -7.183706983806475987e-01 -8.836317293156527031e-01 -4.207072199832533888e-01 -2.054273642935426913e-01
-6.687490678972236868e-02 1.594487795556783494e-01 -7.074370192651820988e-01 -8.297545353228232834e-01 -4.884350736447465313e-01 -2.700714534060515426e-01
2.345173110749647002e-02 2.060995640344401997e-03 -7.827665536952791436e-01 -9.453017979443918417e-01 -2.646121639075240672e-01 -1.907482988529073664e-01
5.870122260635240313e-02 -1.992401094199355016e-01 -8.452439518738028568e-01 -9.208013384929778500e-01 -1.849202268573520436e-01 3.434085099827408061e-01
2.159148672719334375e-02 6.232636862486878523e-03 -7.802573338368927747e-01 -9.308272678580481463e-01 -3.062500848330194647e-01 -1.994278891020261346e-01
5.274869023125370454e-02 -2.263652677039764693e-01 -8.708256821148183668e-01 -9.329865753011198359e-01 2.575938051481428404e-01 -2.513592684927065668e-01
2.917682467861787421e-02 -2.613279103604785811e-02 -6.510433367488583922e-01 -9.231741113360170115e-01 -3.842535162550712591e-01 -9.939587746432630710e-03
-5.567330493739432173e-02 1.082881010859541027e-01 -6.058557485984221724e-01 -7.969099860694520698e-01 -5.907861495820727615e-01 -1.261197826067522731e-01
4.879431120788144116e-02 -2.353907247093663668e-01 -8.936446179367947273e-01 -8.370064043289898725e-01 3.978099128527416428e-01 3.757227067244537366e-01
-1.425079833350504088e-01 1.763799183679584104e-01 -6.237268476668810235e-01 -4.101424732447350729e-01 -7.467106564447227868e-01 -5.236471590609304005e-01
-5.454035405420445959e-02 1.557916250402928970e-01 -7.555652873801788072e-01 -8.963533075127098071e-01 -4.145223400891749344e-01 -1.572322412166793082e-01
4.755706750057177995e-02 -8.759122336368047046e-02 -8.584880267290756484e-01 -9.922050800712828300e-01 -1.148648526853345980e-01 4.832333492543740283e-02
-5.609795016819227320e-02 1.417592913231425777e-01 -7.117041496189905336e-01 -8.805843457946622710e-01 -4.324701681188981017e-01 -1.937543899595538521e-01
5.396042460749406883e-02 -2.282834701128428623e-01 -8.663902819894904184e-01 -7.513285672006295712e-01 -1.522591430279750802e-01 6.421234596809526352e-01
3.864072164167482726e-02 -4.476686259639700571e-02 -8.769851423575337757e-01 -9.722394958902258466e-01 -1.761238775366169296e-01 1.540478574748323781e-01
-5.249179687337081346e-02 1.320904799017016962e-01 -7.070130775606359164e-01 -8.723452782947003215e-01 -4.457901214723180017e-01 -2.007109439832267250e-01
3.899141283566480692e-03 2.234727037285263659e-02 -6.331812766255655589e-01 -8.613002174189450244e-01 -4.954171557852378727e-01 -1.127997217538384417e-01
6.617794337618730649e-02 -2.034266173736166416e-01 -8.040928644603138054e-01 -9.975584259361210959e-01 1.010844974724932344e-02 6.910141885342090118e-02
6.386399325560983276e-02 -1.649029909409024663e-01 -7.947724915122036382e-01 -9.725616621109923754e-01 -1.841421348032817595e-01 1.421811787192457655e-01
-1.075080975388647136e-01 1.489995252776088464e-01 -5.981505793100414525e-01 -4.539496236232112292e-01 -8.647307081747667157e-01 -2.148733151229145211e-01
-2.918927824862552547e-02 1.067131901365853536e-01 -7.667335131306328710e-01 -8.777833778307010393e-01 -4.610241707491448682e-01 -1.302039000536784896e-01
-2.436608984894025193e-02 6.482672140973494423e-02 -6.227673149217999304e-01 -8.518734592353703894e-01 -4.975948746584976656e-01 -1.634348499064930405e-01
-2.681383217194789267e-02 1.060939535234399350e-01 -7.820225398553956042e-01 -8.788322884121203549e-01 -4.640985994394196679e-01 -1.107533242963153891e-01
-1.768053227096154020e-02 8.503309004253177539e-02 -7.656030703190750408e-01 -8.672150666634752536e-01 -4.774730004382182758e-01 -1.412712355873961823e-01
3.583748435555901557e-02 -4.958945360522486190e-02 -7.381791550805923974e-01 -9.356551886106747595e-01 -3.472189947933116971e-01 6.315328717212660703e-02
-1.127576937321919520e-01 1.540598756470043240e-01 -6.078484821579874797e-01 -4.530770703425755497e-01 -8.702301756431939372e-01 -1.934440739071763282e-01
3.106677268629358304e-03 4.519741837847402605e-02 -7.656519931073590968e-01 -8.874152236668718663e-01 -4.166202537028910746e-01 -1.972860486927916768e-01
9.350381707360303635e-03 1.471472192417216419e-02 -7.403561709524850709e-01 -9.136349656337212632e-01 -3.138068284310692735e-01 -2.584500415970227838e-01
