2.851669600044066943e-02 -3.432177585025341510e-02 -8.885487150678776924e-01 -9.344352719235917704e-01 -3.546704965646115815e-01 3.224223087342233118e-02
-3.705733027179353850e-02 8.270065214997594782e-02 -7.749760113627424118e-01 -8.443923018874260888e-01 -5.221626007349056131e-01 -1.197825484242747429e-01
2.158363329438454242e-02 4.514390321193267192e-02 -9.927580370794333309e-01 -9.263539286588432509e-01 -3.607438621887701924e-01 -1.083155794493864538e-01
4.886767458068503461e-02 -9.487677342921145562e-02 -8.831149408455979399e-01 -9.549236089335262356e-01 -2.932216476632077962e-01 4.628138333113687719e-02
4.978989112117797322e-02 -1.111799752688504284e-01 -9.628469942747995836e-01 -9.799289341051105051e-01 -7.481415572482741361e-02 -1.847758810202325130e-01
4.906425504290837930e-02 -9.463043356978165233e-02 -8.774981790898106482e-01 -9.549236089335262356e-01 -2.932216476632077962e-01 4.628138333113687719e-02
-7.994122771160895591e-02 1.518400942059412173e-01 -8.127306529199124219e-01 -7.009147847009709054e-01 -5.567911681523075584e-01 -4.457600920396306843e-01
4.182504262742031687e-02 -7.534241945370701021e-02 -9.400033525791433586e-01 -9.614610361777143899e-01 -1.055692035538259854e-01 -2.538657502954789202e-01
-1.827925616000239950e-01 1.805360188731069959e-01 -7.575016883190358596e-01 -1.407114871375421683e-01 -9.840458171511892171e-01 -1.088765683459482631e-01
-4.239603983198506759e-02 1.263283487558209406e-01 -8.779228614540320885e-01 -8.927122242633720450e-01 -3.938349691885630333e-01 -2.189952092968850406e-01
5.731963415450574972e-02 -1.792388003340711355e-01 -9.793797165620790057e-01 -9.575615815189152391e-01 -1.648714492640216689e-01 2.364174757004541827e-01
3.609992463204755170e-02 -1.726745880731181794e-03 -1.019933112166390377e+00 -9.778904685133418262e-01 -2.071271791349497404e-01 2.878477469696612973e-02
6.477809652672829321e-02 -1.760810252006076437e-01 -9.166061014750190861e-01 -9.943920474368692641e-01 -9.332939261470939163e-02 4.974012935729898999e-02
1.538301192069261268e-02 1.003016916561602460e-02 -9.033505980263681900e-01 -9.147552757324067807e-01 -2.934886233155804547e-01 -2.776458418634316083e-01
5.782059542951635545e-02 -2.520230435240537470e-01 -9.868713816313932075e-01 -9.483034242987893325e-01 3.054766196729678529e-01 8.605027772394022167e-02
5.328480725608827212e-02 -1.242244432116182545e-01 -1.026918336464059722e+00 -9.934349875597567880e-01 -1.059217529489703408e-01 4.321467047616320278e-02
-1.741461738342924004e-02 8.606968241186728485e-02 -9.037019467830433861e-01 -8.745335838059875577e-01 -4.425471353500071703e-01 -1.983508099024504923e-01
5.933394450825724836e-02 -1.142922326864529575e-01 -8.193579524804247560e-01 -9.300881986312058425e-01 -3.661377868379760425e-01 2.964901037720562432e-02
2.573010141928078198e-02 2.863643174280255596e-02 -9.763492515182816689e-01 -9.486587285628584887e-01 -3.003699425690711799e-01 -9.911868805908245761e-02
4.813771492902767929e-02 -6.801494058132093179e-02 -9.868167643766260211e-01 -9.902090588752341382e-01 -1.275496045418888502e-01 -5.671964476819887913e-02
2.519976007970111190e-02 7.618184089467468223e-03 -9.375122465780915126e-01 -9.251694370560260561e-01 -2.992396192871019656e-01 -2.334891067830491829e-01
-3.905467930882228211e-02 9.136925427303350944e-02 -8.166073716476501820e-01 -8.183612468445831123e-01 -5.747039046222579550e-01 5.400693567747280426e-04
5.938625225523842810e-02 -1.306488536819329638e-01 -8.847511645900180133e-01 -9.602415449385578450e-01 -2.700912335109854068e-01 7.061799313578753789e-02
5.494603508537618253e-02 -1.036559464998133284e-01 -8.237790423322274291e-01 -9.296502640656340022e-01 -3.648587264606800717e-01 5.126886236486796061e-02
4.217742277360497782e-02 -7.410203471631224281e-02 -8.863978280590800729e-01 -9.528423046344707270e-01 -3.022649247615663004e-01 2.697142483732205623e-02
2.512070809605445459e-02 -2.498624660717334300e-02 -8.353240760005409271e-01 -9.293217471151954401e-01 -3.686849655322696484e-01 -2.079631047156717261e-02
-5.467601542665263131e-02 1.565276478130675220e-01 -8.842124365093162464e-01 -8.871437611711775473e-01 -4.080247224603485434e-01 -2.156195094981260274e-01
-5.357159441475168454e-02 1.067136481155202404e-01 -7.697744937987169855e-01 -7.877397088450218687e-01 -5.991842939405845891e-01 -1.429836808998958819e-01
-9.077761455028268700e-02 1.881785228396867238e-01 -8.458264603272643845e-01 -6.400695421291366927e-01 -6.404947007324391928e-01 -4.243554165699556235e-01
5.126577958939342733e-02 -1.029577762886823428e-01 -1.021088435693959351e+00 -9.919571767564745457e-01 -1.109504559976876720e-01 6.091761481894351904e-02
1.102241334894136018e-02 6.008586718701072055e-02 -9.681775867936662783e-01 -8.934863543668339902e-01 -4.163205338832502989e-01 -1.684023385450149068e-01
5.683041935255899596e-02 -1.990819285871773814e-01 -1.014910002945131007e+00 -9.938958763072797131e-01 4.350373686109343385e-02 -1.013825031181678493e-01
-1.637950414556426926e-01 1.774557275387476651e-01 -7.592757480245316826e-01 -2.515871431919350365e-01 -9.202496384559420983e-01 -2.997407418123680944e-01
6.380283896851009218e-02 -1.961680545084796834e-01 -9.499436917308592410e-01 -9.981803894887423256e-01 -2.082083507356844929e-02 5.658977705329684693e-02
2.279359767341579412e-02 -1.936884486171324554e-02 -8.258043431525693423e-01 -9.304111319185365270e-01 -3.663660839246781209e-01 -1.053651516221446559e-02
5.210886989545412268e-02 -9.652089735388466596e-02 -8.271748545834320954e-01 -9.297744694555678535e-01 -3.672308405677316978e-01 2.570886392928532077e-02
2.583011319247724077e-02 3.164087065862788289e-02 -9.864111299160880364e-01 -9.486587285628584887e-01 -3.003699425690711799e-01 -9.911868805908245761e-02
5.508642605998116670e-02 -1.506218766274873277e-01 -9.942095086989065633e-01 -9.975429030662925634e-01 -3.868244383861275948e-02 -5.841083016655501670e-02
4.435794388922443686e-04 1.375138953724201751e-02 -7.601228580252256117e-01 -8.287429302781691431e-01 -5.212765923651835331e-01 -2.036071456656081691e-01
-4.081944709132751675e-02 1.284601946992282029e-01 -8.892223705230816178e-01 -8.967859009587967334e-01 -4.011327225816744280e-01 -1.867286446042291381e-01
6.657130486757541210e-02 -1.858652384890157883e-01 -8.986409271116950759e-01 -9.973866926780502462e-01 9.621073440354312861e-03 7.160461028869634370e-02
5.089444438834073853e-02 -1.037983601341736783e-01 -8.976213244087211107e-01 -9.600117695979757393e-01 -2.735172266173253597e-01 5.971372519722551592e-02
-4.133792082881882629e-02 6.489402113315172194e-02 -7.248154845337031471e-01 -8.824300825693447425e-01 -4.012351908096842834e-01 -2.456165121333982737e-01
-9.926955951569504943e-02 1.641044638056695093e-01 -8.000997173078274738e-01 -6.406279256740501360e-01 -5.975812553403073712e-01 -4.821747651137148760e-01
5.533485899696400506e-02 -1.282512641037503731e-01 -9.288271935949850011e-01 -9.661239480065638707e-01 -2.459966119817978414e-01 7.803963084027987218e-02
5.328131901275427046e-02 -1.314235563595603229e-01 -9.815232303063250452e-01 -9.943787632794722775e-01 -4.596746379008448402e-02 -9.538274168577114132e-02
5.776727664274914492e-02 -2.047689348090793449e-01 -9.933224984662738510e-01 -9.406499486424599876e-01 -1.575476424766822370e-01 3.005934371688396833e-01
2.456940584448049150e-02 -2.332226494357279509e-02 -8.740718796629948217e-01 -9.295575378480003259e-01 -3.686690156867973855e-01 2.437355634978297363e-03
-6.514720260042435040e-02 1.675759746081712798e-01 -8.683524889220669563e-01 -8.322899082696321171e-01 -4.725325208417318068e-01 -2.898387919852792316e-01
2.162350790458601041e-02 -1.842961117443276883e-02 -8.955133801901294932e-01 -8.946349344015803728e-01 -4.337632763468714514e-01 1.071342813533906480e-01
-2.150333639193392210e-01 1.855277277520544776e-01 -7.653066511096207059e-01 -6.579954954402654488e-02 -6.983661136161117833e-01 -7.127097520256975294e-01
3.533961713535625770e-02 -5.307296622302482697e-02 -8.201929228213334921e-01 -9.367282918286080617e-01 -3.492417482836908671e-01 -2.388113363325137725e-02
1.609792057601061588e-02 -2.914625952356540532e-03 -8.600942336793501175e-01 -9.136431451443561835e-01 -4.064211695868105712e-01 8.833812450910987282e-03
1.859510586160049994e-02 -1.043599563080546341e-02 -8.110887727037098260e-01 -9.240843150146818008e-01 -3.804840472897836889e-01 -3.605646269161898870e-02
4.320235092491494372e-02 -7.355469219973299888e-02 -8.275907391844271599e-01 -9.364041890801387824e-01 -3.509155439005794963e-01 2.340026095622399147e-03
2.345386846513853110e-02 -2.282960568024466202e-02 -8.071815529049534144e-01 -9.291592857006123474e-01 -3.664396539664859787e-01 -4.883648018899505727e-02
2.845999563803256610e-02 -3.498273116239680736e-02 -8.982185041994472652e-01 -9.253122764802571565e-01 -3.746170569415834262e-01 5.881540311304959967e-02
9.011906397840371841e-03 6.101971676656472998e-02 -9.611007210775617260e-01 -8.639499794394890353e-01 -4.633760726859535994e-01 -1.971624920938265246e-01
2.634626120897877455e-02 1.752214485644871048e-02 -9.568447247698134150e-01 -9.436250095955307504e-01 -2.778705354518602455e-01 -1.798883175571188986e-01
4.980902074467905005e-02 -9.039084872953372096e-02 -8.215264981202924366e-01 -9.287280274479902120e-01 -3.706734075238865000e-01 -8.091723376143743207e-03
1.353834582004905841e-02 2.531473949629858920e-03 -8.639172092913248724e-01 -8.970935311220048503e-01 -4.416203347733025919e-01 1.395264612068630034e-02
-1.303449505643784756e-02 3.867273511974470002e-02 -7.679422871520745764e-01 -8.380448196201860656e-01 -5.035167832736390237e-01 -2.101231288305433487e-01
2.329668635096825147e-02 -2.642439061446357276e-02 -7.797279290955678732e-01 -9.336246283184830297e-01 -3.539442632712946901e-01 -5.539415036368704887e-02
5.971107864544408783e-02 -1.747903738736637791e-01 -9.653030520804957160e-01 -9.682097108501097615e-01 -1.726956430302206136e-01 1.809590304293358654e-01
2.268749395090764037e-02 1.634257057827689236e-02 -9.387389001691741619e-01 -9.251694370560260561e-01 -2.992396192871019656e-01 -2.334891067830491829e-01
5.329927650179477894e-02 -1.181344912541551218e-01 -1.013348085970387391e+00 -9.962236529363455162e-01 -8.678310154752552630e-02 2.669572242121368358e-03
-8.142227894474914074e-02 1.726720203810442889e-01 -8.386736506506855537e-01 -7.017814961261448214e-01 -5.894509732353212517e-01 -4.000628473713628841e-01
-7.189501237125350830e-02 1.742115521085393914e-01 -8.610453179894916875e-01 -7.680607828603944753e-01 -5.445937698660242576e-01 -3.368979959201151564e-01
1.926572830942206022e-02 -1.229801436516255939e-02 -8.903767467911622990e-01 -8.946349344015803728e-01 -4.337632763468714514e-01 1.071342813533906480e-01
6.427800012204760993e-02 -1.864669475834773993e-01 -9.358882642434208643e-01 -9.989301109090401587e-01 -3.186602375324587566e-02 3.351402765127215605e-02
-1.238889764302887886e-01 1.740373076331917790e-01 -7.870918035821281578e-01 -4.535506272129409266e-01 -7.118895966834652977e-01 -5.361949558589682585e-01
-3.914874498531004110e-02 9.144844900456872150e-02 -8.197358732250262792e-01 -8.038092600485943207e-01 -5.930432934106403264e-01 4.680091452944542402e-02
3.177876415270473182e-02 -1.434224036390683438e-02 -9.401417010701634824e-01 -9.546677058138643979e-01 -1.999894567512013610e-01 -2.204853479586620923e-01
-8.189885707505279236e-03 5.785981817068513305e-02 -8.858884589899425066e-01 -8.793264903703785773e-01 -4.142697925643273327e-01 -2.348732898854647422e-01
5.199296819175325962e-02 -1.108374369765072892e-01 -9.125155631130648093e-01 -9.605705416564291887e-01 -2.720326323717777162e-01 5.746722045440733756e-02
3.838849752598923887e-02 -1.154779464827192584e-02 -9.867878106031520158e-01 -9.737078297194845522e-01 -2.177557883921860116e-01 -6.689902065552863486e-02
5.680638529083608529e-02 -1.608470689859226588e-01 -1.041386624249843962e+00 -9.953305293639393980e-01 -8.862480208062620268e-02 -3.824633018042700866e-02
4.210057374539532410e-02 -7.661724852753819259e-02 -9.122568308199466847e-01 -9.561541321491784373e-01 -2.884806463753026851e-01 5.047962203641261775e-02
1.844237315787679646e-02 -9.598633860521552097e-03 -8.852697904064928958e-01 -9.087913424660570838e-01 -4.125191094866203501e-01 6.266003644355459812e-02
-2.759793695034249914e-02 5.808869961118385411e-02 -7.584157418442305509e-01 -8.549929794152267837e-01 -4.551416054991466731e-01 -2.486626712925213423e-01
4.325517769696096693e-02 -8.031880138930901081e-02 -9.113578184785627867e-01 -9.573414233327764977e-01 -2.854205967467234872e-01 4.508305805863448146e-02
4.660897510194119547e-02 -9.822088945847554098e-02 -9.367315667593338890e-01 -9.469316989625127245e-01 -2.944636792564049865e-01 1.288856046994782401e-01
-3.671261775760048529e-02 8.525452682354069112e-02 -7.870199810305140709e-01 -8.433682321452415920e-01 -5.319159482457304078e-01 -7.612784648245024544e-02
-5.849037416956184843e-02 1.163234114382322298e-01 -7.909195542470550677e-01 -7.523548285528849355e-01 -6.546082658150923494e-01 -7.382567493573524708e-02
1.162991059567940536e-02 5.752548354727889113e-03 -8.194129299385614074e-01 -9.023038481812373224e-01 -4.303192216037411977e-01 -2.594480826063154735e-02
5.014084032051890211e-02 -8.859692385578542273e-02 -9.850372841997601103e-01 -9.935072826313668948e-01 -8.809239792582865269e-02 -7.199311624117092634e-02
6.209434079644322868e-02 -1.454743646584724936e-01 -8.952766967601469839e-01 -9.762061116550126982e-01 -2.028594190911875983e-01 7.661386071323368629e-02
5.332246038006138722e-02 -1.288065403974369416e-01 -9.836655216097794918e-01 -9.962954407942280488e-01 -6.094107717309034389e-02 -6.067602298781864245e-02
2.055439872140269776e-03 2.454116788085156445e-02 -8.163006288861790472e-01 -8.879116993123339352e-01 -4.582494257118163161e-01 -4.025267766340450554e-02
-4.266754036269435751e-02 1.168882442557173940e-01 -8.594333679078272059e-01 -8.777688321549039774e-01 -4.195732377888745646e-01 -2.312578116059578193e-01
5.463230281594295967e-02 -1.229364141657414700e-01 -9.207506291033413781e-01 -9.665557389225819529e-01 -2.459561835824982112e-01 7.263304560153129030e-02
-4.284723749118974148e-03 3.668492630596550258e-02 -8.363036887345118853e-01 -8.637817374405662996e-01 -5.038082867641617835e-01 -7.636769730493017487e-03
1.264177118449593892e-02 -3.964681665370387432e-04 -7.879370692693379308e-01 -8.946520487814715317e-01 -4.379014791420182129e-01 -8.854380936207800756e-02
5.647344110746910922e-02 -1.564775635107383267e-01 -1.049388051847664816e+00 -9.926066495215370988e-01 -1.121309392463383930e-01 -4.646172391724490147e-02
4.039105245241548375e-02 -6.608983703536845666e-02 -8.356664896163674694e-01 -9.397842176503208300e-01 -3.415258254615091693e-01 -1.287380278740924040e-02
-2.504173597688432590e-02 1.015839958462799314e-01 -9.037811752567004309e-01 -8.800610995214735999e-01 -4.404490710925083041e-01 -1.774741583521429189e-01
3.316171616696905744e-02 9.355192260013772687e-03 -1.030014899967240272e+00 -9.792577385811833679e-01 -1.955975154756788292e-01 5.287620796358323549e-02
-7.837547701576827452e-02 1.264611452369277245e-01 -7.400704517281191386e-01 -6.127498040200680673e-01 -7.526062472591911190e-01 -2.410840398280345576e-01
3.904956013962544020e-02 -6.606989124606194030e-02 -7.922474203627580813e-01 -9.299208941942970208e-01 -3.621031979930495748e-01 -6.425266176653840478e-02
5.302091858232662984e-03 1.780577604515508686e-02 -8.112388747264018818e-01 -8.879116993123339352e-01 -4.582494257118163161e-01 -4.025267766340450554e-02
5.309908856872850441e-02 -1.435707862285302561e-01 -9.758988184267073374e-01 -9.895884506146498394e-01 -2.458975347573825326e-02 -1.418098812992206470e-01
-1.414570541598220458e-03 3.623371142354357699e-02 -8.778417098209425617e-01 -9.000992721412358621e-01 -3.345192084473482264e-01 -2.791383160201715841e-01
3.119887537753359558e-02 -4.410251312045631450e-02 -8.016872160048190699e-01 -9.364963901932609192e-01 -3.481311574405605569e-01 -4.218066350932848235e-02
4.091269071145951786e-02 -2.266525191442060258e-02 -1.010980316447473992e+00 -9.848564718434362764e-01 -1.691084805062708918e-01 3.821062272404265880e-02
-8.030880626532632682e-02 1.877982531577148395e-01 -8.642345072160649844e-01 -7.050698220673728978e-01 -6.022421032024483090e-01 -3.744075254854989931e-01
-8.564033721608008132e-02 1.399295324370676274e-01 -7.679984676348655670e-01 -6.006295627807449744e-01 -7.826075367425160412e-01 -1.636140939761077662e-01
3.878367927111760205e-02 -6.178433654614541581e-02 -8.306940766716237601e-01 -9.364041890801387824e-01 -3.509155439005794963e-01 2.340026095622399147e-03
-6.572785043099217683e-02 1.573716078827106235e-01 -8.500851754516839387e-01 -8.186148096399574747e-01 -4.892898665855018869e-01 -3.007743670841617201e-01
5.057782162666254328e-02 -1.198661929550896010e-01 -9.509278078302727533e-01 -9.526805916620563197e-01 -2.453489021800049630e-01 1.794536332022859948e-01
-1.899301429838056998e-01 1.924748328540543951e-01 -7.748763909539304606e-01 -4.078634309436744709e-02 -7.455929175472848502e-01 -6.651523701531221189e-01
5.829622132197535833e-02 -1.827121795715713204e-01 -1.043853420183090019e+00 -9.976210349082977880e-01 -5.351576357060746497e-02 -4.345496240881502326e-02
-2.442347236259019908e-02 1.219242936605674094e-01 -9.674157400267470175e-01 -8.720526053386872256e-01 -4.677947560150219619e-01 -1.438482525679545820e-01
-2.571893598901428546e-02 1.117160830696934670e-01 -9.266130232146840839e-01 -8.814139160696922159e-01 -4.437544433235006136e-01 -1.618378898445595182e-01
-1.533218753495256825e-01 1.751132822188140314e-01 -7.624724101996768200e-01 -3.452621412663095524e-01 -8.850069817393568794e-01 -3.123406731131837533e-01
4.187412440465795166e-02 -7.257055972284050249e-02 -8.799496831106549122e-01 -9.528423046344707270e-01 -3.022649247615663004e-01 2.697142483732205623e-02
-6.515816691117895521e-02 1.388952591549647009e-01 -8.254695053535958671e-01 -8.021545940754890580e-01 -4.782805877753645296e-01 -3.574852256539273188e-01
4.596100029548980115e-02 -5.293480180313436811e-02 -1.010482851511435909e+00 -9.847425603030270924e-01 -1.526161216282821698e-01 8.360866789382799535e-02
6.429511845013516358e-02 -1.710561211923722624e-01 -9.168332484398687976e-01 -9.943920474368692641e-01 -9.332939261470939163e-02 4.974012935729898999e-02
-1.088756271770317946e-01 1.806892891604133244e-01 -8.109511859263108802e-01 -5.704333125878372490e-01 -6.637994753892823008e-01 -4.837107527882547608e-01
2.254339543128053291e-02 2.003136080867647800e-02 -9.435313123259918555e-01 -9.263943935432927823e-01 -3.206428462346360142e-01 -1.974375667650569988e-01
5.570531563811857018e-02 -1.403702100781471784e-01 -9.502560695557173975e-01 -9.661952015182253550e-01 -2.290442788026991194e-01 1.183450502171810581e-01
-1.831911037527673702e-01 1.770619781705871087e-01 -7.444186357895840045e-01 -6.613667778452829438e-02 -9.261825180926114287e-01 -3.712302291452774794e-01
3.134353687789202206e-03 6.887886093058966097e-02 -9.530839856334246685e-01 -8.688151483212065429e-01 -4.605956522313001122e-01 -1.816917257148032427e-01
4.854610116082950372e-02 -9.028101632248881903e-02 -9.661519769455788609e-01 -9.885051279079422049e-01 -9.139751658143886737e-02 -1.204329940774058055e-01
-6.391882842224216876e-02 1.764394296531424100e-01 -8.875548545264257960e-01 -8.368251647603931476e-01 -4.805016335956641127e-01 -2.623772546080150314e-01
6.139236635434765221e-02 -2.303182632130244267e-01 -9.617587200951448478e-01 -9.888646236294504899e-01 1.437926088291281712e-01 -3.834633985530565975e-02
-2.380425670300656202e-02 4.160719274974057635e-02 -7.420031739316433894e-01 -8.064780181357500410e-01 -4.914838232276336760e-01 -3.286896070297645744e-01
2.089621905375386654e-02 2.942590557357561976e-02 -9.510064762195263866e-01 -9.239814936921916244e-01 -3.221708374952755860e-01 -2.060683158128370496e-01
-1.735120714902446681e-02 5.842742564282926709e-02 -8.558122250892185034e-01 -8.854122094560932243e-01 -3.328156527207226656e-01 -3.244671950292640772e-01
5.982730111717485949e-02 -1.319858894964652529e-01 -8.838676533853897510e-01 -9.602415449385578450e-01 -2.700912335109854068e-01 7.061799313578753789e-02
6.450899473003302020e-02 -1.574814830877732108e-01 -8.923040176654225553e-01 -9.894118120930615046e-01 -1.311545520222873740e-01 6.215102231305187630e-02
-6.275520493897339402e-02 1.329419019812843328e-01 -8.230232853978518559e-01 -7.963985755126100630e-01 -4.692408119631244490e-01 -3.815263677777372409e-01
4.518452728107351379e-02 -6.078467122408213325e-02 -1.029011602317454033e+00 -9.816247093246536215e-01 -1.324432569379639102e-01 1.373743561766678223e-01
-2.349447548213706369e-02 1.103690494870678551e-01 -9.358286387421413943e-01 -8.845948369990029869e-01 -4.420019853089600104e-01 -1.487488465086201639e-01
4.715473644037346951e-02 -1.027222846103240800e-01 -9.426368085309034806e-01 -9.482329595414205059e-01 -2.712812286039364973e-01 1.651082961163908014e-01
3.752758719116580655e-02 -5.811393621716851726e-02 -8.438339569469871515e-01 -9.409089804852355243e-01 -3.385868962231617374e-01 7.014566857669667782e-03
-2.985761201268894577e-02 9.171282385542015025e-02 -8.631761577484287074e-01 -8.828092243214131773e-01 -4.099191964819692835e-01 -2.293776924825113583e-01
-5.040050220404351106e-02 1.069251134848564211e-01 -8.032163840389420217e-01 -7.999698812525019020e-01 -6.000249237076501485e-01 -4.275513827206606048e-03
5.230306301376343170e-02 -1.053790148804086835e-01 -8.800207092999209335e-01 -9.510554053773430105e-01 -3.033313931422399468e-01 5.902272305583342038e-02
1.132903224652316056e-02 6.970051366815630499e-03 -8.305144830737639650e-01 -9.001174417761275137e-01 -4.353865145552973659e-01 -1.507229092705394437e-02
6.617530768999434210e-02 -1.427330534700107789e-01 -8.455113486429763903e-01 -9.679316526888759320e-01 -2.319253403158658688e-01 9.653472039816145267e-02
3.879686417725154712e-02 -2.002941747574959325e-02 -9.714853713396854884e-01 -9.735734377658470384e-01 -1.918309403462863105e-01 -1.239179228467378602e-01
6.666913918267533545e-02 -1.835458808184492197e-01 -8.974370669577013127e-01 -9.937230566495746098e-01 -6.272042081859748042e-02 9.263171970423657309e-02
-3.678396565458778335e-03 1.862036486715316908e-02 -7.565351396609950596e-01 -8.051425037933016560e-01 -5.335422688890508747e-01 -2.589945866117228102e-01
-1.823775971312673327e-01 1.776618599499895090e-01 -7.462296202856830707e-01 -8.548193006122849213e-02 -9.376221780683685614e-01 -3.369829236435221698e-01
4.964617622154014753e-02 -1.134593176770393036e-01 -9.459697131615514287e-01 -9.482329595414205059e-01 -2.712812286039364973e-01 1.651082961163908014e-01
3.068748041491393963e-02 -4.008059596039342809e-02 -8.889837365624784216e-01 -9.344352719235917704e-01 -3.546704965646115815e-01 3.224223087342233118e-02
-7.197094073149633287e-02 1.510333684467912441e-01 -8.265704210482526237e-01 -7.556609456841202332e-01 -5.268950994746751659e-01 -3.890476697235872861e-01
-1.786411862675962511e-02 5.770257832302644330e-02 -8.060184109169019617e-01 -8.485463708833230756e-01 -5.254152402236185182e-01 -6.251305304893572945e-02
5.594830053983460005e-02 -1.670347618124225220e-01 -1.001386023773300993e+00 -9.985757548993359212e-01 -2.140115345164799246e-02 -4.887179511907299018e-02
-1.923768628256896512e-02 1.080892364353925883e-01 -9.537264052174118101e-01 -8.706947614760796039e-01 -4.680556116224740548e-01 -1.510449494912848578e-01
-1.858103512754571973e-02 1.059354112755576810e-01 -9.507811966040298213e-01 -8.679572151783646605e-01 -4.735435083816232904e-01 -1.496890720441589051e-01
-7.893363666331150441e-02 1.446301123918632137e-01 -8.059127538444191829e-01 -7.495654695106774845e-01 -4.956724000694735510e-01 -4.387031783867144652e-01
-9.182128962431215791e-03 7.365569723583668960e-02 -9.122682310845571241e-01 -8.704627463117523556e-01 -4.473256848907056771e-01 -2.054126065276007385e-01
-5.090698416724226578e-03 3.607050029456282392e-02 -8.673973878096917778e-01 -8.787498249339636969e-01 -2.659798204194192550e-01 -3.962997354379403925e-01
-1.453037345739288319e-02 3.207275408595783306e-02 -7.510745695156001434e-01 -7.969220573645352523e-01 -5.429238386755242951e-01 -2.648564514670350145e-01
3.854090911470822028e-02 -6.981736806472950418e-02 -9.273940810990124461e-01 -8.996647289949775139e-01 -3.696034330099851606e-01 2.323718522317769208e-01
1.845892774377230414e-02 3.832369786137350496e-03 -9.073855401469513859e-01 -9.302882265541765339e-01 -2.604853908576876265e-01 -2.582850686439359111e-01
5.362468776916495816e-02 -1.212402640208791182e-01 -1.004568221239465320e+00 -9.963137820733380945e-01 -8.495828416349077150e-02 1.187171439668956857e-02
-2.505412266532234915e-03 8.330492002189833489e-02 -9.650038322075774611e-01 -8.455994195440027505e-01 -5.037471000671326360e-01 -1.766365784337992073e-01
2.934108737425765445e-02 -1.709751015874328567e-02 -9.277234678915673438e-01 -9.433778691435336095e-01 -2.305866310546383358e-01 -2.384701272467434630e-01
-5.114854893237318068e-02 1.141540986575317468e-01 -8.281089557909933063e-01 -8.522369932990805363e-01 -3.831039157104487169e-01 -3.562632411853127734e-01
3.980205150258207814e-02 -6.862883071083722419e-02 -9.069121183783671603e-01 -9.509088984374460818e-01 -3.069054588959888585e-01 3.976564059996379186e-02
-5.980141020241991345e-02 1.174363959309958072e-01 -8.122485685098644881e-01 -6.909004242751604075e-01 -7.027911212474342584e-01 1.695324264917407731e-01
-1.266058248591549751e-01 1.821163892332767209e-01 -7.957247644832811106e-01 -4.431400000519604143e-01 -7.230461171029339829e-01 -5.299351402731462546e-01
4.176747999668215666e-02 -4.046826251539566155e-02 -9.641421611529490399e-01 -9.685734135167362036e-01 -1.852134383610651858e-01 -1.660166403677948987e-01
1.796740381827783076e-02 1.061917897763118949e-02 -9.126775772589068580e-01 -9.103926585395161197e-01 -3.199249414103094158e-01 -2.623608948394600682e-01
3.931569166349319772e-02 -2.852577398739206474e-02 -9.628408159325605453e-01 -9.693222499339306797e-01 -1.781945958693276766e-01 -1.692957819497858396e-01
2.404196934790575266e-02 3.928861111679365220e-02 -9.942816274746297811e-01 -9.263539286588432509e-01 -3.607438621887701924e-01 -1.083155794493864538e-01
3.604309154218001549e-02 -2.950836610664833888e-03 -9.843329187928718804e-01 -9.627537058022904715e-01 -2.553198715872567193e-01 -8.897789127993320502e-02
-3.025978058605156493e-02 4.547039462159188639e-02 -7.305308555619187683e-01 -8.508198430957090164e-01 -4.353957175719021522e-01 -2.941702971318509441e-01
4.143033008857037024e-04 5.683181031614979728e-02 -9.165461982733423829e-01 -8.745135878949403807e-01 -4.359959419545243464e-01 -2.124465184141777485e-01
6.419204856581658958e-02 -1.379666082329005783e-01 -8.526770491317111622e-01 -9.589796850371571368e-01 -2.631654095026206286e-01 1.053657009057159671e-01
3.160386564511155627e-02 -4.240917897933682568e-02 -8.848687160301907939e-01 -9.395543238085136695e-01 -3.422714078497217649e-01 9.378485021373342972e-03
-1.760541318487960916e-01 1.772232217895707840e-01 -7.483306726053651214e-01 -2.117503138258686191e-01 -9.324520337238438872e-01 -2.927370994577105368e-01
6.522286930139610528e-02 -1.875960554651809331e-01 -9.195168608311987679e-01 -9.976445039011335725e-01 -2.733039709942515494e-02 6.291655767958792556e-02
-5.351456528968318027e-02 1.097839754502369231e-01 -7.877468219036041219e-01 -7.994436662322552678e-01 -5.949737299532869006e-01 -8.304267087831135319e-02
4.745249355007402636e-02 -6.190982309720157589e-02 -9.885832229716294828e-01 -9.902090588752341382e-01 -1.275496045418888502e-01 -5.671964476819887913e-02
-5.722676363746201887e-03 8.783594680561847279e-02 -9.625240227910780710e-01 -8.455994195440027505e-01 -5.037471000671326360e-01 -1.766365784337992073e-01
2.868173556456465531e-02 -3.657591660974379016e-02 -9.043321845938608883e-01 -9.151497051349566370e-01 -3.820980371921582908e-01 1.284605276546149921e-01
1.128502188225231385e-02 4.268477791143250426e-03 -7.984658459671484243e-01 -8.935608573149392830e-01 -4.438055071645902738e-01 -6.771754635965111790e-02
2.250713862315563418e-02 -1.797318664854937950e-02 -8.676801217908824970e-01 -9.299347252188269186e-01 -3.673859559883018711e-01 1.577866200748220815e-02
2.644730945022090787e-02 -3.358955571704985710e-02 -7.867298661295899498e-01 -9.328181785324698438e-01 -3.552712966307009501e-01 -6.027065280636556555e-02
5.587119998951223243e-02 -1.751913160731590202e-01 -9.988371704744098967e-01 -9.952135926533380861e-01 -1.966740473811598704e-03 -9.770382249402592700e-02
-6.806212588016966568e-03 8.295313212029026273e-02 -9.442233472326435617e-01 -8.548347649359036016e-01 -4.857275714266974243e-01 -1.825547890713929422e-01
2.337523275902565756e-02 -2.026312630058887954e-02 -8.410575573239127412e-01 -9.293217471151954401e-01 -3.686849655322696484e-01 -2.079631047156717261e-02
-1.989404122311890823e-03 1.643006500646228621e-02 -7.572736185992812175e-01 -8.051425037933016560e-01 -5.335422688890508747e-01 -2.589945866117228102e-01
1.922276827066238952e-02 -1.319885682506628452e-02 -8.976206450390060709e-01 -9.060781472763419497e-01 -1.374278339851343067e-01 -4.001699407432122158e-01
-2.240357252385333925e-02 4.040777642912801032e-02 -7.436464485298948102e-01 -8.064780181357500410e-01 -4.914838232276336760e-01 -3.286896070297645744e-01
-1.404442024876132941e-02 9.516257626941375392e-02 -9.432833525046100398e-01 -8.495546363073683827e-01 -4.959271671602303311e-01 -1.797586292812785869e-01
-5.009275479188002311e-02 1.539806541583956523e-01 -8.995759908621701051e-01 -8.896974101888147635e-01 -4.139331365576648936e-01 -1.926080911147019237e-01
4.185872744499147258e-02 -6.161201271534802459e-02 -1.052052465786306623e+00 -9.797010438199081905e-01 -1.302678662871487314e-01 1.523684604869909587e-01
7.107558965213197494e-03 -1.624535219160351627e-03 -7.478693584922155857e-01 -8.205884000372015707e-01 -5.276426831743932233e-01 -2.196084620794760689e-01
1.166309631874656166e-02 6.585774063897873939e-03 -8.532175141750270031e-01 -8.988200760080553575e-01 -4.382614706589435527e-01 7.025261613173097892e-03
4.129375805909496489e-02 -5.621896720004104786e-02 -1.051074314307299362e+00 -9.797010438199081905e-01 -1.302678662871487314e-01 1.523684604869909587e-01
-8.235723306718401027e-02 1.395194956015161913e-01 -7.821650331760727770e-01 -6.431835171869082490e-01 -7.616010265315829031e-01 -7.923912925516990446e-02
4.121125771904162599e-02 -2.202975200079613366e-02 -9.994352662167271806e-01 -9.757214240554505924e-01 -2.188000043525785976e-01 9.708796759392493772e-03
1.833702484219227116e-02 5.471997235176141727e-03 -9.086000670433304061e-01 -9.302882265541765339e-01 -2.604853908576876265e-01 -2.582850686439359111e-01
4.664137235706880547e-02 -5.813047902322958371e-02 -1.011953426079631901e+00 -9.847425603030270924e-01 -1.526161216282821698e-01 8.360866789382799535e-02
-2.059913143710595876e-02 1.036558831041986123e-01 -9.326519260517930343e-01 -8.694086505357854211e-01 -4.661651796839618167e-01 -1.637639265032572733e-01
5.544375564028895115e-02 -1.480975326253702595e-01 -1.042438742564071097e+00 -9.934485577283358460e-01 -1.142752230481174358e-01 1.066088548195138781e-03
5.179786932571953800e-02 -1.068499870839643567e-01 -1.019513067545736673e+00 -9.919571767564745457e-01 -1.109504559976876720e-01 6.091761481894351904e-02
4.738014968765073831e-02 -7.022678677492238952e-02 -1.020868260510239711e+00 -9.864492595860642199e-01 -1.250944242562087860e-01 1.061566921211914011e-01
5.384269446168433310e-02 -1.240076427926797148e-01 -1.006076737966110191e+00 -9.963137820733380945e-01 -8.495828416349077150e-02 1.187171439668956857e-02
-3.470654701480800630e-02 7.788351442271725100e-02 -7.727693750087519797e-01 -8.546652375108598765e-01 -4.798417838315536255e-01 -1.982402438453352289e-01
4.358100169991180328e-02 -3.779397266844038844e-02 -1.012047848567668940e+00 -9.811815627659943306e-01 -1.869054159581493291e-01 4.846758064513214531e-02
-5.210717142634808258e-02 1.123562055586108527e-01 -8.237646573330873467e-01 -8.482699812245341198e-01 -4.048513440725004520e-01 -3.413699286053452631e-01
-5.782294670328196745e-02 1.159948201037209886e-01 -8.073279752518432995e-01 -7.536797192727231476e-01 -6.563004457171408568e-01 3.516540499512831042e-02
-1.054757972814306805e-02 4.264289947133423353e-02 -7.904785186338912917e-01 -8.607017408536375980e-01 -4.857901270021659501e-01 -1.523169911688692646e-01
6.451058159020016392e-02 -1.650118312720253166e-01 -9.066045092089493052e-01 -9.906786943264651590e-01 -1.010750265260305369e-01 9.132121122922305656e-02
-6.764890534602811811e-02 1.267741896462024342e-01 -8.022603161861616705e-01 -6.941797880014195510e-01 -7.151504226205183112e-01 8.169635827867859079e-02
4.532186035600522384e-02 -6.819714084142948496e-02 -9.607469079706433268e-01 -9.839115820603189233e-01 -1.008931509377369862e-01 -1.474400582657757752e-01
-3.470080562868838037e-02 8.270622421117995726e-02 -7.915021206661945197e-01 -8.433682321452415920e-01 -5.319159482457304078e-01 -7.612784648245024544e-02
5.457483503727537238e-02 -1.336462694711355870e-01 -1.012242567634102031e+00 -9.973195769566013391e-01 -7.237647922233295117e-02 1.073809454628546663e-02
4.982511563159672252e-02 -8.612980558134628040e-02 -9.836990949669726092e-01 -9.935072826313668948e-01 -8.809239792582865269e-02 -7.199311624117092634e-02
6.042470441881380577e-02 -1.998536747943875369e-01 -9.804765810224456146e-01 -9.767723649596388169e-01 -1.162144912280173442e-01 1.800276064379219276e-01
-1.180130123609143961e-01 1.531555338952720613e-01 -7.392861788019475799e-01 -4.105278780680385875e-01 -8.740254571073383660e-01 -2.598968288711157038e-01
5.280312081495065757e-02 -2.579644268804062168e-01 -1.002233418002332455e+00 -8.563133987204837316e-01 4.528306583075375480e-01 2.483379915931833437e-01
-1.554527287203216280e-03 3.168521242063312288e-02 -8.261905011042240954e-01 -8.688689399538473968e-01 -4.941035749324619308e-01 -3.047002498257456518e-02
-1.662271000102399920e-02 6.884207156221253121e-02 -8.730364178188035895e-01 -8.845713929446178403e-01 -4.093929541718626108e-01 -2.234521422104826516e-01
1.940331717889508256e-02 -1.041164315347946172e-02 -8.571615332336769422e-01 -9.203047442296862224e-01 -3.911990685840290860e-01 1.570505434519463197e-03
1.232044348313359600e-02 3.579805527113507496e-02 -9.257150049299999184e-01 -9.053398845129969619e-01 -3.547232981592554624e-01 -2.335188969933980063e-01
4.235356661627981412e-02 -7.162271451308899195e-02 -8.204769123074372450e-01 -9.344065235005682979e-01 -3.551505394834371110e-01 -2.743251982967516781e-02
-9.944211443571941700e-02 1.583705750135703250e-01 -7.930482288603148966e-01 -6.424095174079239579e-01 -5.760939268965502569e-01 -5.053966752330592005e-01
5.653441869261397607e-02 -1.433071817692573302e-01 -9.485759191290277226e-01 -9.713366311579829659e-01 -1.927746806251232903e-01 1.390793711538210464e-01
4.768912508643275566e-02 -8.698531822187055562e-02 -8.507944792530639511e-01 -9.430762801101495452e-01 -3.295838990876187591e-01 4.451497900488268072e-02
4.323402076928262866e-02 -7.810530732552496691e-02 -8.932559210911388270e-01 -9.528160805658129062e-01 -3.020146249191749677e-01 3.047429983005983667e-02
9.902290167348330729e-03 5.116187301129627302e-02 -9.433757118558347976e-01 -8.774639745400754087e-01 -4.380403737347198789e-01 -1.953909014326944971e-01
-6.962081310630895137e-02 1.233916980612316389e-01 -7.590965214319922438e-01 -7.321406219287487360e-01 -6.570847315901424679e-01 -1.794707921442806331e-01
-1.985373227760962520e-02 6.925274249417770478e-02 -8.619480287428429310e-01 -8.841826465833424464e-01 -3.994795820522329954e-01 -2.421510086789837313e-01
-1.381293362730544663e-02 9.791453300744365484e-02 -9.522726568067593211e-01 -8.474911967196689933e-01 -5.033587772223531154e-01 -1.684892070011639043e-01
5.488094803020331092e-02 -1.661753533741314459e-01 -9.785093894694434358e-01 -8.959204720446318770e-01 -2.556040723575775941e-01 3.633084997155260343e-01
1.414716950846473323e-02 2.760823389104493167e-02 -9.204869695922562878e-01 -9.114278142621282663e-01 -3.337974497752367875e-01 -2.405797204938678324e-01
-1.868070578542576146e-02 1.131180241862378560e-01 -9.735483644823762495e-01 -8.687329577613719378e-01 -4.744031526425083745e-01 -1.422838601599893393e-01
-6.173648787270900190e-02 1.122715341245114906e-01 -7.518630536426726962e-01 -7.464692873889986480e-01 -6.347717770504117674e-01 -1.996206253001494013e-01
-2.809729632326142534e-02 1.212281370917539930e-01 -9.411271942918968403e-01 -8.902422197294689310e-01 -4.324339898419026773e-01 -1.430721309010290487e-01
-3.619586281053365634e-02 1.117253059855364411e-01 -8.753100383772538517e-01 -8.851824108210051278e-01 -4.141163071979078736e-01 -2.120372224065416311e-01
-3.676373940512417393e-02 8.318381345815042960e-02 -7.786244620058075938e-01 -8.386567829596278667e-01 -5.264403596336558744e-01 -1.396973448015189634e-01
4.369692945480495999e-02 -5.542279701137520220e-02 -1.034681931020221546e+00 -9.824779912156151873e-01 -1.289443861419098114e-01 1.345746709429958554e-01
4.164737621276814208e-05 2.307233387151965895e-02 -7.860909730983617338e-01 -8.637039749570442071e-01 -4.934933330603088475e-01 -1.023707666691461987e-01
-1.661407020234537818e-02 6.759406903159619062e-02 -8.710705781057375141e-01 -8.877662720169912092e-01 -3.928236085983630166e-01 -2.399180251602899272e-01
4.242952181227178238e-02 -3.604882635317803452e-02 -9.743813118848185795e-01 -9.718910328005831989e-01 -2.033735857678176107e-01 -1.186044053724650549e-01
7.865797889825245498e-03 4.308578532166611533e-03 -7.685242274962320597e-01 -8.539189140582619242e-01 -4.974465129325295609e-01 -1.528707132999175544e-01
5.024353026487171636e-02 -9.667549075144744875e-02 -9.757505523613345666e-01 -9.912700494390245254e-01 -8.959839139129736896e-02 -9.672547412779118614e-02
6.670290313953543271e-02 -1.623109688820145724e-01 -8.756372817757176463e-01 -9.865536844076029377e-01 -1.096309278807990339e-01 1.212142212522059753e-01
3.610992370946972813e-02 -1.454828525455947354e-02 -9.620398865073007677e-01 -9.586325765734270421e-01 -2.403593695454759871e-01 -1.524826436152448561e-01
4.752834248726379301e-02 -9.606126741952664139e-02 -9.186017669472095193e-01 -9.620000972265578820e-01 -2.673212819422555730e-01 5.563402876695337090e-02
6.358819146439467253e-03 4.909882495460801688e-02 -9.251999344639757483e-01 -8.876455048176546958e-01 -3.995964326255014298e-01 -2.289282612741027068e-01
-6.457292740397045649e-02 1.730125561384735777e-01 -8.794232356269366946e-01 -8.324435400653681372e-01 -4.840429741085795490e-01 -2.697038224044276955e-01
-3.909774552444233303e-02 9.110807387960812020e-02 -8.052800779260101960e-01 -8.304729739428027280e-01 -5.558523835668941482e-01 -3.664378847225206043e-02
5.472466809006258648e-02 -1.158324304245804820e-01 -8.909763264077097400e-01 -9.594897806829018050e-01 -2.745010621667544060e-01 6.347068326716474862e-02
-1.046610141262661886e-01 1.931401996005648325e-01 -8.335576803711287619e-01 -5.744641191596440155e-01 -6.748379628210372516e-01 -4.632328785111077263e-01
-4.898593230149150130e-02 9.638262401492669884e-02 -7.580656787640227545e-01 -8.404799541294256660e-01 -5.164092927061778582e-01 -1.640575786524468838e-01
6.104468201859830634e-02 -2.362963011440188388e-01 -9.855923930784143971e-01 -9.902896517068527915e-01 1.376524691171478465e-01 1.944745403061929820e-02
3.651252528452481744e-02 -1.371121439071280000e-02 -9.658904546533264579e-01 -9.586325765734270421e-01 -2.403593695454759871e-01 -1.524826436152448561e-01
3.351457835840478128e-02 -4.716640905977717568e-02 -8.665011713351361555e-01 -9.426387703702417964e-01 -3.337279377595940844e-01 7.603430384177527895e-03
-2.016571178264378594e-02 6.006565157192189641e-02 -7.967525102606786147e-01 -8.562811960804735945e-01 -5.028905890303217996e-01 -1.178285564017888670e-01
5.150536432344161170e-02 -1.011190123134630692e-01 -9.876091354525344812e-01 -9.960283564693206415e-01 -7.660421815974985393e-02 -4.537958648067739326e-02
6.588182179459908805e-02 -1.401442428819313080e-01 -8.422344293379002700e-01 -9.679316526888759320e-01 -2.319253403158658688e-01 9.653472039816145267e-02
-4.224984986930423181e-02 1.058192357853464105e-01 -8.425257485881030295e-01 -8.730848616970414700e-01 -4.080720697650066509e-01 -2.668333003078167120e-01
2.935063408777780283e-02 -3.546963327198737748e-02 -8.583218766088399621e-01 -9.357976629626716392e-01 -3.525359531595372853e-01 -1.065703288170468700e-03
4.373328758797070948e-02 -8.357372408261495855e-02 -9.443923486149981006e-01 -9.695760425813366723e-01 -8.536044366462230970e-02 -2.294251344332019493e-01
4.646269061368035053e-02 -8.346825355450009087e-02 -7.984011665771886257e-01 -9.113481264436321672e-01 -4.104219163836861917e-01 -3.159814835752129680e-02
3.192350279011757497e-02 1.363376154628399319e-02 -9.899100620256408023e-01 -9.616210079621898554e-01 -2.669817707387545647e-01 -6.329116161819975384e-02
-5.514531887516534170e-02 9.587643302990887795e-02 -7.328204934203412790e-01 -8.381463062892499094e-01 -4.914687387175739053e-01 -2.365782071895966288e-01
6.468183773126721936e-02 -1.546368364840199905e-01 -8.853060527393010748e-01 -9.845581657571282896e-01 -1.378887337828084148e-01 1.078513576026420423e-01
-5.169178669868363871e-03 4.029648831794439140e-02 -8.708128301360104073e-01 -8.875223943895766965e-01 -3.146391150119524638e-01 -3.366099029462565895e-01
4.240515134159800192e-02 -6.486174148736188749e-02 -1.051496258214660307e+00 -9.787007978604329583e-01 -1.389762525855684772e-01 1.510971524702707514e-01
3.761080028094453825e-02 -1.372549718795093750e-02 -9.727726096355844287e-01 -9.586325765734270421e-01 -2.403593695454759871e-01 -1.524826436152448561e-01
6.824687394410003383e-02 -1.653199913378866071e-01 -8.657924950033253353e-01 -9.865536844076029377e-01 -1.096309278807990339e-01 1.212142212522059753e-01
-3.821499223587440652e-02 1.032484477671175849e-01 -8.522691375558841820e-01 -8.818146557394338503e-01 -4.058213966490791247e-01 -2.402330263409560573e-01
4.891225541818487732e-02 -9.088900099563754220e-02 -8.537841647251384058e-01 -9.430762801101495452e-01 -3.295838990876187591e-01 4.451497900488268072e-02
5.737070524248762821e-03 1.646907606936163712e-02 -8.058239007386478470e-01 -8.893683128706615371e-01 -4.553217255163590216e-01 -4.130533058091285376e-02
4.472299171905505522e-02 -2.546470976752195359e-01 -1.026863936061441329e+00 -9.121076847460823922e-01 4.099432044528456554e-01 -2.478013332007302991e-03
5.431780005513202336e-02 -1.994768846659728811e-01 -9.995423015742748163e-01 -9.070102702452841337e-01 1.998203128512259785e-01 -3.706807416654053222e-01
4.757669318548600479e-02 -9.238969192610083092e-02 -8.943152726909603389e-01 -9.560565813409869218e-01 -2.902178656034830606e-01 4.158610055227154184e-02
6.490732879800482913e-02 -1.420308221888288980e-01 -8.563179048840424690e-01 -9.589796850371571368e-01 -2.631654095026206286e-01 1.053657009057159671e-01
6.150767584729284476e-02 -1.480630746492425098e-01 -9.087292222694351995e-01 -9.757854719127536658e-01 -2.022435105864823224e-01 8.330831428891216639e-02
-1.281282444659630482e-01 1.613308665687362697e-01 -7.509585986970532812e-01 -4.113538465569419600e-01 -8.762943428609365482e-01 -2.507912231174109774e-01
-1.069414851292922602e-01 1.566843911249869714e-01 -7.809601877780764090e-01 -4.977262470732259914e-01 -8.667479897280822021e-01 -3.188267988627213612e-02
3.931342320845705035e-02 -6.307732351909405011e-02 -8.369180397352472545e-01 -9.397842176503208300e-01 -3.415258254615091693e-01 -1.287380278740924040e-02
5.499291072953225307e-02 -1.622393375722035458e-01 -9.752784568288297429e-01 -9.447476033024559960e-01 -2.014985118777445072e-01 2.585542801140981450e-01
5.324302644799613904e-02 -1.346471469605359517e-01 -9.795536771250877850e-01 -9.944704185251441730e-01 -4.822284332963501507e-02 -9.329064293716679557e-02
5.997843965546803546e-02 -2.375382664870968608e-01 -9.955971872028139824e-01 -9.790727568420128923e-01 1.363692587123731259e-01 1.510627753221104042e-01
3.976991830240410308e-02 -7.303861674184899955e-02 -9.340877139822649777e-01 -9.295805162428737445e-01 -3.620991484646909203e-02 -3.668363475562964049e-01
-1.059901767738693351e-01 1.540228442140165466e-01 -7.669379435132476219e-01 -5.333722113132548515e-01 -8.262151304551158537e-01 -1.813357174024034513e-01
3.214096139942362873e-02 1.372158052508839522e-02 -1.032767126623924003e+00 -9.792577385811833679e-01 -1.955975154756788292e-01 5.287620796358323549e-02
-1.226463715435784606e-02 2.524410830273861664e-02 -7.447346605952644971e-01 -7.924323663207410995e-01 -5.222118931651605900e-01 -3.151915028108622785e-01
4.686743072558791773e-02 -5.744889184745722438e-02 -1.003098097890366303e+00 -9.887498692019405233e-01 -1.466657140745942778e-01 2.937455477338912421e-02
5.668264082004852676e-03 7.049533155390947693e-03 -7.651682062395999129e-01 -8.539189140582619242e-01 -4.974465129325295609e-01 -1.528707132999175544e-01
5.178738989372001084e-02 -1.108377428135296772e-01 -1.026218599962792410e+00 -9.901451270303853747e-01 -1.147502870012065690e-01 8.028075143596166696e-02
4.775971371591064552e-02 -7.395069671925220967e-02 -9.739265375679063697e-01 -9.868320555038638808e-01 -1.182493562420075806e-01 -1.103611524875016542e-01
-1.197436821699276732e-01 1.908399443470516210e-01 -8.139379539326146995e-01 -4.954626690178154935e-01 -7.071016260872469150e-01 -5.045037502283941100e-01
-2.962980929447493750e-02 6.640673893607910994e-02 -7.669996262498547379e-01 -8.560642955213686456e-01 -4.766870313027530282e-01 -1.998083985253648609e-01
4.595415797548310644e-02 -7.494419260533784211e-02 -1.037116501095908694e+00 -9.816948867421325664e-01 -1.312074375007843685e-01 1.380570812701375216e-01
3.064771760919672919e-02 -4.401817559002398073e-02 -7.916778710375994565e-01 -9.367960284853509290e-01 -3.456065397753840807e-01 -5.449147344823197792e-02
3.753230107459824827e-02 -6.233913837733465885e-02 -9.299232524322833537e-01 -9.429364124468712083e-01 -9.898236972109268617e-02 -3.179204500597925809e-01
1.309418377351111683e-02 3.868348232093298672e-02 -9.334614089750244981e-01 -8.997963715282991659e-01 -3.787973236542185873e-01 -2.165157670399734668e-01
4.887422405071846498e-03 5.086356942035345080e-02 -9.226166928488755969e-01 -8.791595302927573963e-01 -4.214023457447869103e-01 -2.224827707850866587e-01
-1.250232835437949108e-02 5.021844098944015788e-02 -8.194679441632606309e-01 -8.593468709903008262e-01 -5.095580967173388709e-01 -4.328396226066359709e-02
-1.515099062173617950e-01 1.858503601562161434e-01 -7.823869475167211096e-01 -3.477330469686467640e-01 -7.661655811465414301e-01 -5.404368883711428984e-01
5.469458254052438767e-02 -2.204512877017069938e-01 -1.013924021683398236e+00 -9.586857415232679092e-01 1.751148855316500275e-01 -2.241794501403263085e-01
3.429212519685958388e-02 -5.336657954813571469e-02 -7.955860711273310404e-01 -9.356731396001597423e-01 -3.490433173183078996e-01 -5.181253194171325099e-02
5.820492040639037995e-02 -1.822607571501735635e-01 -1.041559261255566637e+00 -9.990441949678351419e-01 -4.243704593782708645e-02 -1.047824570913718882e-02
4.783769199578959130e-02 -9.025920580409033112e-02 -8.733539028047833108e-01 -9.504847659606663335e-01 -3.093760895209670125e-01 2.941334577044592627e-02
-5.779139258467456963e-02 1.541958931842671854e-01 -8.688226122701323551e-01 -8.669196187850053414e-01 -4.254751972588969866e-01 -2.596559860337591119e-01
-1.436380116153298525e-01 1.798820313469080556e-01 -7.790651567196992255e-01 -4.023257936092338172e-01 -7.519263471947431610e-01 -5.222458465043743336e-01
3.997416231435822059e-02 -6.849962590318554867e-02 -7.919360276831800549e-01 -9.299208941942970208e-01 -3.621031979930495748e-01 -6.425266176653840478e-02
5.828525024348860106e-02 -1.418001188201997720e-01 -9.301970763633956585e-01 -9.715821762609943013e-01 -2.168736192178065403e-01 9.483621702345652882e-02
-6.713036667702447502e-02 1.685766783591013673e-01 -8.642891874802979268e-01 -8.322899082696321171e-01 -4.725325208417318068e-01 -2.898387919852792316e-01
