1.642578185529435658e-02 1.067235151812009619e-01 -6.241972972332877623e-01 -3.470722595524746157e-01 -8.835639214561569199e-01 3.144131729908238859e-01
-6.669893273977173243e-02 2.226810924508030448e-02 -8.548612704070995827e-01 -5.133535251231813312e-01 -6.828084830908567326e-01 5.198468367344045715e-01
1.174364012836826704e-01 -7.298678446975952194e-02 -7.944355807604219777e-01 -3.855914026323420951e-01 -6.522566684578320340e-01 6.525952104239756135e-01
1.149881719757979703e-01 -2.235081841838871750e-02 -7.404302032009193457e-01 -4.675869978602496535e-01 -6.724638506595309595e-01 5.737201138082879126e-01
9.157410294685759677e-02 2.295018593986336217e-02 -7.050710528387448273e-01 -4.523886020034985633e-01 -7.352110857908110697e-01 5.047863034073100108e-01
6.184217217803077149e-02 -9.518247666021678599e-02 -8.466917398835029918e-01 -4.384691100808473796e-01 -5.523517905360962876e-01 7.089797874385970200e-01
-1.816836993140087328e-02 4.562940068178428232e-02 -7.593716777349617253e-01 -5.585602159483625817e-01 -7.202926005124986597e-01 4.113259714711199333e-01
1.968251224781345649e-02 -1.967757636603191806e-01 -9.362181828477029732e-01 -6.872509375104184359e-01 -3.307225852034289537e-01 6.467679031363658959e-01
1.175929767982776958e-01 -2.858302945799907901e-02 -7.456121093173526670e-01 -4.675869978602496535e-01 -6.724638506595309595e-01 5.737201138082879126e-01
-3.941701178851891169e-02 -2.780593696898157191e-02 -8.806417163356622391e-01 -5.395849037124225145e-01 -5.490879189174183717e-01 6.382402282719216169e-01
4.579548911531922117e-03 7.815447265507963204e-02 -6.879607634818829531e-01 -3.230752985762078144e-01 -7.998802059330366587e-01 5.057805923584030028e-01
7.170553290165894433e-02 -1.626175240010031275e-01 -8.848860593714321654e-01 -5.305259173611203138e-01 -3.882009600520693327e-01 7.535530940967554159e-01
4.267530981667166240e-02 -9.601206763746362310e-03 -7.801764699606655862e-01 -4.240450979589774905e-01 -6.585506851170367382e-01 6.216886278747929540e-01
8.465392882449349066e-02 4.882431465721422809e-02 -6.567370282459737973e-01 -4.987383780660411547e-01 -8.194891866881641729e-01 2.823074620785394617e-01
3.640664647206606503e-03 4.148994614656121432e-02 -7.418470469727466154e-01 -2.691485139784857150e-01 -7.702187742017790884e-01 5.782059471246226989e-01
-3.793469434196837520e-02 2.039420446084149602e-02 -8.265845038843248060e-01 -5.744649445993741388e-01 -6.593854492749020579e-01 4.849751093726085149e-01
-1.111581733955850360e-01 1.220417124137104375e-01 -5.220303618702124560e-01 -2.189714109634683659e-01 -8.277568447676304508e-01 -5.165947416699137040e-01
-8.096559306896007613e-02 3.294058063181779655e-02 -8.547511195641014359e-01 -5.027125983696011380e-01 -6.824047523012557459e-01 5.306635445149269215e-01
2.869537645208200191e-02 -6.308650396784175329e-02 -8.404357272572409165e-01 -3.893874302779591345e-01 -5.956580434097731303e-01 7.025446067423536389e-01
-3.470412106336074470e-02 -1.123507399368153803e-02 -8.613105041714100851e-01 -5.545773775659674776e-01 -5.967354181827281279e-01 5.799575613597424129e-01
-6.058683678814635182e-02 1.113265624319788316e-01 -6.988915278625088545e-01 -5.312627123308588661e-01 -7.438762345115941255e-01 4.054726602567810256e-01
3.110692756228992939e-02 -8.870083225637401259e-02 -8.598554745188246029e-01 -3.720059400498898494e-01 -5.524831014063945611e-01 7.459048218291454146e-01
1.854119778114262512e-02 8.608181190082524192e-02 -6.641874812353585344e-01 -4.023100571455868191e-01 -8.053122573140200080e-01 4.354523925061293266e-01
7.089817334073443555e-02 4.557686177243394643e-02 -6.853826417922920244e-01 -4.265654973418903095e-01 -8.126891563310345568e-01 3.969612218585300001e-01
3.180996667093874408e-02 -1.232128412484728153e-01 -8.831484195414894822e-01 -2.558372774838878483e-01 -4.970204788755646641e-01 8.291670103350329279e-01
-8.982708445276874065e-02 3.719826467496178263e-02 -8.575425913839872516e-01 -4.962167732157528044e-01 -6.787280806171690495e-01 5.413844350931046323e-01
6.373164936898244315e-02 4.003351200176814839e-03 -7.506365788126554417e-01 -4.222289311718779303e-01 -6.918515648135880047e-01 5.857167762207631245e-01
9.929627930300466421e-02 -1.564049129640078528e-02 -7.453118892533732165e-01 -4.683340304041557767e-01 -6.559327637864603711e-01 5.919589895903726307e-01
6.643171425033625455e-02 -2.116668217427143950e-01 -9.096305291377686508e-01 -6.817885126024652021e-01 -2.231535430012686894e-01 6.966827974977560789e-01
-2.761368513293205665e-02 3.576430783294783002e-03 -8.366211514941114258e-01 -5.889764183327390601e-01 -6.229123049816978064e-01 5.148660398106741365e-01
-4.238436489048353489e-02 1.030361962842624435e-01 -6.886489540755962313e-01 -5.640367315280516713e-01 -7.431784831180172635e-01 3.599281980028176120e-01
-6.226832459201128017e-02 1.228704280468917720e-01 -6.764662266698074911e-01 -5.435745988103405368e-01 -7.860469533724497859e-01 2.943753430946068339e-01
-4.828094376865625648e-02 -1.006234140260441751e-02 -8.726540067293093728e-01 -5.224808809455152581e-01 -5.964694854986620776e-01 6.092929360458396726e-01
1.032971588055154599e-01 -3.074607855963799527e-02 -7.591874625928909381e-01 -4.505015973694689868e-01 -6.595100658768358048e-01 6.017431210863058988e-01
-2.515768002139565085e-02 4.749793349673313292e-02 -7.654637864288584836e-01 -5.512593958554767859e-01 -7.233207705128779086e-01 4.158366763835431024e-01
8.199473772466610300e-02 3.313806165001000753e-02 -6.977718928293534795e-01 -4.318386262639333784e-01 -7.867657802262403299e-01 4.410385560599826005e-01
4.531292708395512348e-02 2.533718279840109500e-02 -7.380478422857729148e-01 -3.871407776887889063e-01 -7.193293775705479343e-01 5.767904860644704756e-01
8.983841260147004681e-02 -8.767211103860042543e-02 -8.232609880940570113e-01 -4.268230855519496436e-01 -5.725918092734454401e-01 6.999719091455567366e-01
8.555235458280889549e-02 -1.717870417611657985e-01 -8.780442462351717436e-01 -5.896653791993696769e-01 -2.918175035909237325e-01 7.530851778993029599e-01
-1.195198078733716515e-02 -4.088170728072449897e-03 -8.264189284229482846e-01 -6.392604783260263934e-01 -5.996195907314958440e-01 4.814586038917298971e-01
1.181444469157935662e-01 -3.948674495774540452e-03 -7.169870995028292393e-01 -4.724410822164359924e-01 -6.615313442054145954e-01 5.823879329690304640e-01
1.143415730649646050e-01 -1.206949761254862696e-01 -8.327165084678438411e-01 -4.687823016038044632e-01 -4.252024055252944246e-01 7.742390251327705419e-01
8.790976399938554842e-02 -1.755679438033506956e-01 -8.776199408535073632e-01 -6.432452408524640397e-01 -2.456327927318492921e-01 7.251896932909404070e-01
1.012512092974685030e-01 -1.389009306576707015e-01 -8.515732143915512031e-01 -5.477567742048399246e-01 -3.661755184045519251e-01 7.522486331219656597e-01
-1.581861907371668458e-02 8.769073101508823020e-02 -6.840422872255953468e-01 -2.253598297498487779e-01 -8.173821822653496438e-01 5.301879999115917119e-01
-1.039513524225508939e-01 7.301824820161958995e-02 -8.092505523761794883e-01 -4.287061413684087885e-01 -7.988367538832337189e-01 4.219844606123642206e-01
1.843369902821238859e-02 -1.251287912231516079e-02 -7.987390532737498328e-01 -3.638823691706256080e-01 -6.622331647049681802e-01 6.550090510608347349e-01
3.126179069360009166e-02 -2.008863469189451356e-01 -9.241831703977257950e-01 -8.412216336548357098e-01 -2.134903686869356887e-01 4.967575118194045292e-01
-3.739607008295661034e-02 7.546566531116077892e-02 -7.323100777236526415e-01 -5.306531572712345213e-01 -7.365158323359038972e-01 4.194659168473899302e-01
-4.640455207661892123e-02 1.137084664783062082e-01 -6.710350109582811085e-01 -5.510057436270208164e-01 -7.910262363211777448e-01 2.658386050625197172e-01
9.696793303190867630e-02 -8.312155635040741064e-02 -8.153001208113689335e-01 -4.071625189498873643e-01 -6.044853039731548083e-01 6.847015411424640652e-01
-8.276975596754967968e-02 1.394730208614695377e-01 -6.642947356359453215e-01 -4.764969047786947187e-01 -8.661737763443803084e-01 1.506442461882929462e-01
-6.818185769586426748e-02 5.743440557309718170e-02 -8.004058689975839247e-01 -4.762182430700270808e-01 -7.766957664228313352e-01 4.122618965999011453e-01
7.354413824257234611e-02 -1.067928633116626141e-01 -8.484427918781659583e-01 -4.382129764621173762e-01 -5.497352482051919287e-01 7.111684358441309195e-01
1.208248409821304770e-01 -7.603754119058853123e-02 -7.952475023350159544e-01 -3.939558509825169530e-01 -6.048629662090008186e-01 6.920546073724891389e-01
-7.593242672460753795e-02 1.389791163861644474e-01 -6.102154451894958864e-01 -3.955310015189001938e-01 -9.143270306722458551e-01 -8.695578082870644709e-02
8.804185831035862830e-02 -2.161360222089196009e-02 -7.606053283666375231e-01 -4.483928035716531202e-01 -6.551958259936958573e-01 6.079986211379032612e-01
-9.578843570324095669e-02 1.444705303406109420e-01 -6.747916631289555545e-01 -4.976205679452465058e-01 -8.287439876963699215e-01 2.560413505958939462e-01
1.083098062475472412e-01 -4.918878240230726423e-02 -7.760007092833408615e-01 -4.243148319421005121e-01 -6.688789969415812608e-01 6.103751394383386542e-01
-7.361522622946983785e-02 1.378727536346872895e-01 -6.404814534907036228e-01 -4.641003710211073496e-01 -8.836336319100452918e-01 6.166401037504185001e-02
-8.337227893860081618e-02 -1.465871830852180299e-02 -9.012221803397373332e-01 -4.792381996453990434e-01 -5.146474656000314951e-01 7.109632438826222200e-01
-5.502496987734376011e-02 1.179411743641063520e-01 -6.762337069172932313e-01 -5.441524506802496441e-01 -7.857289536347261683e-01 2.941566280721155668e-01
7.120209205374722350e-02 4.175702849719741677e-02 -6.928763103951901536e-01 -4.265654973418903095e-01 -8.126891563310345568e-01 3.969612218585300001e-01
-4.967590883740369279e-02 9.304667958137362305e-02 -7.171920585728993602e-01 -5.325070487961077736e-01 -7.353134286124423102e-01 4.192259589823540411e-01
-8.929719982245631904e-02 1.433608463424987101e-01 -6.007053707204013104e-01 -3.573780892506619455e-01 -9.230969377278804844e-01 -1.420314925675132678e-01
8.275133432322698268e-02 -1.717550230979941195e-01 -8.803916473633759399e-01 -6.310476158203572883e-01 -2.855517777249778621e-01 7.212760143007307390e-01
2.717843717092157177e-02 -2.689299504196367846e-02 -8.081873082233673733e-01 -4.147491936375908295e-01 -6.506425276177205674e-01 6.361190200207755829e-01
-6.795324865938150161e-02 -1.796090360571863526e-02 -8.935434864365566776e-01 -4.908427167362022780e-01 -5.294304621728047611e-01 6.919370008537732986e-01
9.030283635417359414e-03 -1.150087269199032980e-01 -8.996529247503316506e-01 -6.226261876726347788e-01 -4.180922170246256786e-01 6.614646842331601828e-01
-8.151074308629444390e-03 3.257739328216294195e-02 -7.674067471487073799e-01 -6.224725174915582970e-01 -6.770952935270719841e-01 3.925174243918481687e-01
-5.391279192199274761e-02 1.293641175460589487e-01 -5.879835526108828647e-01 -3.585015091862415321e-02 -9.923578717978978059e-01 1.180704067912829447e-01
4.060568571980410768e-02 1.000071284963346824e-01 -6.117176537554553928e-01 -4.232606380905151733e-01 -8.525848933779831551e-01 3.065117156437303647e-01
-1.823985088909264168e-02 5.359309087921138026e-02 -7.455391289771776675e-01 -5.532066484167460496e-01 -7.200811023456522575e-01 4.188622806987767344e-01
1.933226697405155889e-02 -9.610486368802728663e-02 -8.760964844490429781e-01 -7.041942317730774947e-01 -4.417584210344612239e-01 5.558416873379190548e-01
9.144997754892743302e-02 -1.510931412121145900e-01 -8.646410782589082356e-01 -5.477614045029312040e-01 -3.652614166278873586e-01 7.526895384286707014e-01
-9.947820429553475008e-02 1.311144037834291454e-01 -7.135484045295825695e-01 -5.158625500644418160e-01 -7.499978251411520969e-01 4.139916565880924493e-01
2.309311745106331151e-02 -1.239845919085655057e-01 -8.915244709954021074e-01 -6.880532833426059591e-01 -3.999471825326609276e-01 6.054956073049961862e-01
6.991153703865884972e-02 1.016666065270281812e-02 -7.389391486523689823e-01 -4.373082715270155685e-01 -6.816904345380535579e-01 5.865659614343249340e-01
8.943467265906930239e-03 -8.703790556227732067e-02 -8.807134023255728250e-01 -6.459121056988810228e-01 -4.565552522555544890e-01 6.118454489080593639e-01
1.385166653905301089e-02 -8.091166248378645065e-02 -8.706442751904205357e-01 -6.724931185255710320e-01 -4.547673178308671571e-01 5.839004128861972065e-01
5.173258946354676070e-03 -1.666814370039779725e-01 -9.339909622867480499e-01 -5.839218140687585379e-01 -4.007384751909996434e-01 7.060056583032763289e-01
1.039810177087149429e-01 -3.811302815732309224e-02 -7.667496560384912119e-01 -4.505015973694689868e-01 -6.595100658768358048e-01 6.017431210863058988e-01
-9.578715385187037967e-02 5.031853404211251296e-02 -8.436682423825611066e-01 -4.731200553795880115e-01 -7.434026347229452103e-01 4.727683744547631073e-01
-6.373962739983753123e-02 -6.942936129524625299e-02 -9.227002232056963349e-01 -4.320968896023743566e-01 -4.371777561034687620e-01 7.887761961192094606e-01
5.308132865486960700e-02 4.851475676369726431e-02 -6.983491396378092020e-01 -4.097104450227257444e-01 -7.980994902067511942e-01 4.417856436904710749e-01
1.235555101985613691e-02 -6.728364316854067162e-02 -8.609130120317353141e-01 -6.840142264396191774e-01 -4.680540880432995654e-01 5.595086314742291345e-01
2.697876473975661243e-02 -7.482378229658283308e-02 -8.509900818509530396e-01 -3.167270154694352691e-01 -5.796177790810153052e-01 7.508177061344621928e-01
-5.223560377091281126e-02 5.954704775953462148e-02 -7.777968617109491944e-01 -4.977602391668432547e-01 -7.570597856269215553e-01 4.231964381833651090e-01
-8.957650733859090497e-02 9.401807093209485489e-02 -7.603697590175798604e-01 -4.954794290122757072e-01 -7.253513588462957573e-01 4.778760735227298717e-01
-9.518894241453534910e-02 7.160853515443513229e-02 -8.028090462463499666e-01 -4.406642325311532216e-01 -7.949776732861727480e-01 4.169238937075124274e-01
2.536714775789008711e-02 -1.918716542229270405e-01 -9.278588423202608348e-01 -7.072353896680613206e-01 -3.012939004261084852e-01 6.395624200710106066e-01
5.972371149497333886e-02 -5.779258042588824446e-02 -8.158326468460778136e-01 -4.405536390005204139e-01 -6.079575763157816226e-01 6.605301481110760209e-01
7.589532490330230807e-02 -6.756975324003051953e-02 -8.143034039389488443e-01 -4.166550963474200397e-01 -6.020223301300261509e-01 6.811517046242605566e-01
4.463229277239197379e-02 5.729717592019219850e-06 -7.683587678597160187e-01 -4.190176233540964801e-01 -6.799024787746964504e-01 6.017946914643799161e-01
-2.789182229248807210e-02 -1.089873156258461262e-01 -9.244739131703035850e-01 -4.774430015404487193e-01 -4.494721446358617145e-01 7.549986566057494963e-01
1.006651159380176075e-01 -6.752904608526448527e-02 -7.991202387158961029e-01 -3.988875155892954161e-01 -6.383192955634611199e-01 6.583594966417410932e-01
-1.150781547769669060e-02 -1.055637392467817098e-01 -9.110983112851355203e-01 -5.605796114969642252e-01 -4.275047928758730631e-01 7.092179857012014255e-01
9.976333675077596330e-02 -9.255244671530581113e-02 -8.213548136626257490e-01 -4.123583308081427701e-01 -5.680320055404201041e-01 7.122501300069031815e-01
9.572116254973568605e-02 -8.785403926208401604e-02 -8.199479741831957602e-01 -4.123583308081427701e-01 -5.680320055404201041e-01 7.122501300069031815e-01
-8.630157558138007445e-02 6.186011886980327668e-02 -8.119867023818065910e-01 -4.410215117395073214e-01 -7.942447960960330455e-01 4.179416586766272479e-01
5.760923397879483959e-02 -1.026127446615788669e-01 -8.550869535098520879e-01 -4.344124955016901990e-01 -5.511769516399208646e-01 7.123831495290426918e-01
9.369489139112820164e-02 -1.294739362896723256e-01 -8.512961048165323952e-01 -4.936415048709640319e-01 -4.626253626884698211e-01 7.364073862109830060e-01
-5.418891298284558150e-02 5.594513699905474119e-02 -7.868531641971986401e-01 -5.044850385261855363e-01 -7.607135526371672229e-01 4.084234772113045087e-01
3.690042030353014868e-02 3.135191865210401607e-02 -7.358682135298511007e-01 -3.695185210163322020e-01 -7.435212110683722120e-01 5.573439434651852320e-01
1.902435907864322845e-02 -5.206392649204161227e-02 -8.361443457752434361e-01 -7.993987586055462113e-01 -4.543620950036682538e-01 3.930861373335231002e-01
-1.667083694915421146e-02 -1.862802876293604207e-02 -8.491900245747069365e-01 -6.286639827960089910e-01 -5.759070770072481915e-01 5.226017942832065222e-01
-6.980436019471694675e-02 1.341870659988502468e-01 -5.911744269416963071e-01 -3.956575091039012393e-01 -9.074978655984619058e-01 -1.410771399764402800e-01
-1.050546607881805011e-01 1.516116688966535619e-01 -6.629487062179982848e-01 -4.371703784772866808e-01 -8.947762203828328875e-01 9.087120346643325075e-02
-9.576768169300396705e-02 1.482463067647511734e-01 -6.505371553249401639e-01 -4.377956653525763020e-01 -8.952232384858692660e-01 8.312826639217024693e-02
-1.015127033757600161e-01 1.476570929193897208e-01 -6.739613004284534803e-01 -4.567576895050294850e-01 -8.734198492329412478e-01 1.688495781574037569e-01
3.456702805818159807e-02 2.235055514987528344e-02 -7.489257397020723239e-01 -3.742975275416570158e-01 -7.284063136557540341e-01 5.738689772958961433e-01
8.243337408929149110e-03 -6.779127857445525762e-02 -8.663649626673655124e-01 -6.840142264396191774e-01 -4.680540880432995654e-01 5.595086314742291345e-01
4.826002715382204239e-02 6.313843013805460480e-02 -6.761182653946204990e-01 -4.561284077923367097e-01 -7.880049057969188420e-01 4.135155910540941337e-01
-8.231245550348019469e-02 3.415490433105338591e-02 -8.544649188445336829e-01 -4.967648420597339243e-01 -6.785922628308364013e-01 5.410519684092210957e-01
6.883469846801196224e-02 -5.290201098633035004e-02 -8.053637614259226973e-01 -4.346995346838278818e-01 -6.131506959412116320e-01 6.596078673063802134e-01
-5.818391434728910870e-03 5.268597988728603715e-02 -7.305837508868673336e-01 -1.275632859125692409e-01 -7.808688039535826020e-01 6.115321079872171328e-01
-4.906169381829562914e-02 1.292940003046327557e-01 -5.854683713445669735e-01 -7.645578800894439753e-02 -9.926087568035237840e-01 9.424631768347288552e-02
-5.718712916280134506e-02 5.248626854478997961e-02 -7.968678101865162011e-01 -4.919158902300399538e-01 -7.642295350147046973e-01 4.170994782427756009e-01
1.031043046877891910e-02 5.537484577745755560e-02 -7.191255993625175202e-01 -2.987672640600697593e-01 -7.830848988527021604e-01 5.454504222336928887e-01
6.142408846065334355e-03 -5.777059239295940368e-02 -8.601896806508616544e-01 -6.541903277472689293e-01 -5.072054239462344682e-01 5.610505084227636052e-01
-8.568175110368160541e-02 1.263710153824838534e-01 -5.300871835235171359e-01 1.636507787159517113e-01 -9.776955118336314587e-01 -1.316431113504840655e-01
9.483937247354699840e-02 -4.830393351111146594e-02 -7.837351170112698551e-01 -4.319892767799916600e-01 -6.377827017985089331e-01 6.376664410439788488e-01
5.022840407093100146e-02 4.497671653003935260e-02 -7.071460079557209122e-01 -3.870771245985146769e-01 -7.682561917519690198e-01 5.098565714466255505e-01
-9.227189881258025805e-02 1.329625585278333966e-01 -5.505127173739237101e-01 -2.582194855765904129e-01 -9.024723124703057930e-01 -3.447701009267766792e-01
8.603019061489719510e-02 -9.801056152923376397e-02 -8.340484810305411889e-01 -4.296780259679258696e-01 -5.777601234482100390e-01 6.939524722583065852e-01
8.595961214652243082e-03 5.978578492676844824e-02 -7.137257452747490793e-01 -3.286010184861128947e-01 -7.802451318861380880e-01 5.322019398854840322e-01
-9.550299210071479250e-02 1.237109063952022414e-01 -5.303197638119537816e-01 3.762031166411248795e-01 -9.259805251493813394e-01 -3.211358082774608269e-02
1.990675345132548665e-02 1.117753962038443710e-01 -6.044995270920989761e-01 -3.357657676458171703e-01 -9.120319740629503347e-01 2.354974045802910865e-01
7.627617768834059342e-02 -2.733077752501473362e-02 -7.752369150961724298e-01 -4.454958913929835118e-01 -6.470614742516581641e-01 6.187445832419398162e-01
-6.498602629021807409e-02 5.188770206690061088e-02 -8.071623414153930032e-01 -4.919158902300399538e-01 -7.642295350147046973e-01 4.170994782427756009e-01
5.507673760732168661e-02 -8.307135091907842661e-02 -8.409737876993012007e-01 -4.399590747260361812e-01 -5.734722287042625100e-01 6.910612241120002164e-01
1.288017026429555123e-01 -6.210104315288667021e-02 -7.765022893519932801e-01 -4.004832851650239056e-01 -6.578170175711245404e-01 6.378792281437459799e-01
-1.030201714154865278e-01 1.028368602346423494e-01 -7.607099545365318960e-01 -4.881943619923397870e-01 -7.284562811285519857e-01 4.806430186773260615e-01
9.872034222369172052e-02 -1.584878532109991744e-01 -8.625631309526224921e-01 -5.557442953031738186e-01 -3.335643045764288828e-01 7.615005797439829971e-01
-6.491847187180163625e-02 -1.804550907083657049e-02 -8.915259666279974349e-01 -4.694956094693997772e-01 -5.463814463403717792e-01 6.935713285480884505e-01
-3.527479429034173497e-02 4.209780475372577185e-02 -7.880900549508689235e-01 -5.432793788453207373e-01 -7.364640226827168235e-01 4.030735166386318347e-01
4.213445291108373209e-02 -2.166858624340458478e-03 -7.725525355300491004e-01 -4.190176233540964801e-01 -6.799024787746964504e-01 6.017946914643799161e-01
-1.215473570097388156e-01 1.129172577349099732e-01 -5.028917966310724186e-01 -2.640199299700035085e-01 -8.058016790815495378e-01 -5.300727596924690310e-01
-2.103955456322297024e-02 -9.541316316382830731e-02 -9.118889587292257071e-01 -5.138558969725670611e-01 -4.356171823441242208e-01 7.390465395312292296e-01
5.585633652514576664e-02 4.745992414476791349e-02 -6.976811950400932938e-01 -4.097104450227257444e-01 -7.980994902067511942e-01 4.417856436904710749e-01
-2.580954726134284186e-02 1.085355163352841878e-01 -6.514047866474419468e-01 -1.642395579095372038e-01 -8.841683861219972185e-01 4.373461244827747674e-01
-9.455761976044106676e-02 8.616418047010368508e-02 -7.774948723653241078e-01 -4.581071236646360179e-01 -7.500283276362075258e-01 4.770695661965325129e-01
-1.509911254129530679e-02 -8.286723863780445787e-02 -8.998783005293174986e-01 -5.650130870232284996e-01 -4.552857000221814388e-01 6.880953007017226453e-01
2.185967415390401361e-02 1.131171217862099714e-03 -7.820665779493417569e-01 -3.829758574265462734e-01 -6.941130009479636875e-01 6.095380501194439526e-01
1.470498487171095769e-02 -2.855065282982293534e-02 -8.167915623532179259e-01 -7.907345350236557602e-01 -4.775864043142155624e-01 3.829492414604600548e-01
-8.160471456504378440e-02 9.511441568479436781e-02 -7.504574320988103286e-01 -4.786415562039457727e-01 -7.403809620441555994e-01 4.719515777251259148e-01
2.366296854742203082e-02 -1.643907592458554792e-02 -7.997800356693296475e-01 -3.739586348613719857e-01 -6.581712150927557792e-01 6.534260409839390826e-01
5.367263471008266312e-02 -1.818006160445501118e-01 -9.064692324781676858e-01 -4.282578761468085471e-01 -4.173001323886076919e-01 8.015333998197924359e-01
-5.567349722604383877e-02 1.850874374177921902e-02 -8.489114034237258410e-01 -5.133535251231813312e-01 -6.828084830908567326e-01 5.198468367344045715e-01
8.958711152708119518e-02 4.648428217720644573e-02 -6.552859608187748819e-01 -4.544500290741063653e-01 -8.464190493838276153e-01 2.775787526355745216e-01
7.414162263513222884e-02 -4.604551920189518116e-02 -7.952859870685036192e-01 -4.360764130518280379e-01 -6.269582324480360569e-01 6.455700866253685222e-01
1.876257767131208698e-03 -5.003163818763550069e-02 -8.581760296805025501e-01 -6.648340787749467129e-01 -4.965923289255765871e-01 5.580248261069932214e-01
-1.398016189349787948e-02 -3.519830369639222883e-02 -8.627842865925848814e-01 -6.298235864852689270e-01 -5.442566590897193191e-01 5.541723007723593497e-01
9.682554023075433391e-02 -1.154463694102892957e-01 -8.402706283793988096e-01 -4.580166241934506277e-01 -5.155610710636928662e-01 7.241667998231439141e-01
-1.413274761727100967e-02 8.769267089797275205e-02 -6.833227060012486698e-01 -2.253598297498487779e-01 -8.173821822653496438e-01 5.301879999115917119e-01
2.422612516395996046e-03 1.425627117888841888e-02 -7.802485144678346085e-01 -6.945643208096022869e-01 -6.013709120932708707e-01 3.948840720343169131e-01
2.218318547906467965e-03 -7.831916286261035587e-02 -8.812851157613628139e-01 -6.316930143405917741e-01 -4.512421445013283794e-01 6.303526494424683824e-01
-1.402189587895003378e-02 1.125045302848433487e-01 -6.359047112046001260e-01 -2.213033135428359444e-01 -9.092025142737392152e-01 3.526692947412239931e-01
1.661743381866011976e-02 -1.154465332856909193e-01 -8.926938546638097938e-01 -6.493409180843883188e-01 -4.121676924833803657e-01 6.391198364737629145e-01
-8.343975285899027372e-02 1.432325409828119067e-01 -6.325368265644545351e-01 -4.132710534900365662e-01 -9.105513986719439012e-01 -1.015808662111396948e-02
5.191774983448385616e-02 -3.812032785101100024e-02 -8.026231543123243384e-01 -4.381328435974646829e-01 -6.218194999720174643e-01 6.491379828786401074e-01
-1.088760053873974593e-01 1.058319675829725720e-01 -7.622194817349889906e-01 -4.938115035575095790e-01 -7.022456266108639822e-01 5.128365030496429000e-01
-5.091730131534837056e-02 1.297651787653409938e-01 -5.749477279339141322e-01 -8.172613543186250940e-02 -9.964941132097391296e-01 1.789751730571455257e-02
-1.123706866758940846e-02 5.691414851273710745e-02 -7.290337457288511569e-01 -6.313112698158496183e-01 -6.872308334894762227e-01 3.593881774695150688e-01
-9.589869769317735382e-02 1.479504007924386522e-01 -6.544138167034942999e-01 -4.377956653525763020e-01 -8.952232384858692660e-01 8.312826639217024693e-02
-2.990919466558919146e-02 -3.139724959533352067e-02 -8.756805217406987696e-01 -5.511528554635820587e-01 -5.564200528869300832e-01 6.217935788182810120e-01
1.106965363399015773e-01 -2.414685200861224970e-02 -7.459122768567968409e-01 -4.459690236487990900e-01 -6.786136388206048808e-01 5.836053111070823585e-01
-5.350088922619796600e-02 6.500172524187357304e-02 -7.696564626054488434e-01 -5.010268840204177287e-01 -7.494360899633913942e-01 4.328020431434844162e-01
8.066121663314679280e-02 -1.326749759697492537e-01 -8.618759268387803374e-01 -4.786937213672100011e-01 -4.529861138479106542e-01 7.521009917455100391e-01
4.889503309408965714e-02 -2.472432540773284240e-02 -7.915214312871061697e-01 -4.337111139701128604e-01 -6.386430671963171379e-01 6.356333080801257474e-01
-2.537753858921044242e-02 -4.310636923761067274e-02 -8.809097081662690121e-01 -5.862984848080399214e-01 -5.032824522910853693e-01 6.347919816189141473e-01
1.053598561797299410e-01 -1.279345980280937045e-01 -8.425796999525566600e-01 -4.660990494404224083e-01 -4.529630732597426657e-01 7.599842961363240113e-01
3.306932594378893253e-02 6.483423917156773408e-02 -6.883389323988243769e-01 -4.066768118480657002e-01 -7.857152783912758620e-01 4.661174444360701163e-01
-3.688698134504382609e-02 8.835263267368860529e-02 -7.088167006685409666e-01 -5.448562200291343638e-01 -7.299287277641712812e-01 4.127175206847196187e-01
2.759892248095047879e-02 8.288368020691430638e-02 -6.616148416708403923e-01 -4.707556264888110298e-01 -7.798145935875354651e-01 4.126479610479544258e-01
-6.429489814049528518e-02 1.241150615574393573e-01 -6.768849218066009810e-01 -5.435745988103405368e-01 -7.860469533724497859e-01 2.943753430946068339e-01
-2.006604208870900116e-02 1.225277861630181264e-01 -6.070626835804044941e-01 -1.888286801871701948e-01 -9.600152842319563673e-01 2.066745837779943307e-01
-1.507139260057256853e-02 1.083121742858195735e-01 -6.462926144197050915e-01 -2.550673973153477214e-01 -8.791440603410475285e-01 4.025498031223359585e-01
4.454734416360239813e-02 -1.812687331432211446e-01 -9.106399246224712307e-01 -3.575794719043486336e-01 -4.342492737462129160e-01 8.267795894453937589e-01
-5.724184762834130802e-02 1.289048494305068682e-01 -6.008378805816471102e-01 -6.468525736550168048e-01 -7.330509571382711753e-01 -2.102808650223446096e-01
-5.045100671722030361e-02 -2.416300604695387211e-02 -8.862104493210147815e-01 -4.984014274476935014e-01 -5.430784593310307162e-01 6.757675666445790430e-01
5.112777319383667723e-02 6.717741472802543634e-02 -6.637617805746433008e-01 -4.998891994483470325e-01 -7.964313785325332073e-01 3.403055209126937264e-01
1.103637386882211531e-02 -1.922944406507303694e-01 -9.425042548785115271e-01 -6.431534989094096488e-01 -3.403270352263433884e-01 6.859526849095581857e-01
5.242668549087810270e-02 2.473627077990826761e-02 -7.338588001732574417e-01 -3.980037777644572783e-01 -7.175970029568224939e-01 5.715308690111204903e-01
7.377927287051823380e-02 1.478130812487574858e-02 -7.304717176626885911e-01 -4.267058880840559620e-01 -7.026711687773250503e-01 5.693639553427184419e-01
-3.383154512393973107e-02 -2.469613589654698696e-02 -8.731606832656714223e-01 -5.511528554635820587e-01 -5.564200528869300832e-01 6.217935788182810120e-01
-4.863275064459749580e-02 -5.896041369379077107e-02 -9.082791229791936649e-01 -4.490062215054660966e-01 -4.540199341496681251e-01 7.695838566680796022e-01
5.174979305807624747e-02 -4.355211525529721628e-02 -8.079397107283146084e-01 -4.381328435974646829e-01 -6.218194999720174643e-01 6.491379828786401074e-01
6.968702637319230953e-02 3.648603558453162015e-03 -7.466499272124565989e-01 -4.449295514148726149e-01 -6.752504432753431152e-01 5.882809984473515996e-01
-6.457142248147415553e-02 1.337968759156150933e-01 -6.105472963598773672e-01 -4.593530913476287503e-01 -8.879957423720252763e-01 -2.140791906125295158e-02
-7.807164267399059610e-02 1.079943744682665130e-01 -7.265043168376462690e-01 -5.178231112276409087e-01 -7.217095160748359106e-01 4.593414850474020206e-01
2.410623168409659067e-02 -1.420414541881810933e-01 -9.018610816105413486e-01 -6.989710119988202797e-01 -3.753609933369880247e-01 6.087229657786988879e-01
-4.278175075572996505e-02 -8.646839867994421391e-02 -9.204970058312419434e-01 -4.535555474844627510e-01 -4.358252368559470402e-01 7.773954773894218295e-01
-6.314135436129290901e-02 1.305064320263345512e-01 -5.726783437375086994e-01 -3.495734555029293700e-02 -9.993220883606172000e-01 1.154762774998147751e-02
6.044715648402587682e-02 -4.821397622336551052e-03 -7.626762277484250285e-01 -4.343182954803454510e-01 -6.697589453769038359e-01 6.023209885921830820e-01
-2.072566098907168558e-03 -5.983993154923208935e-02 -8.714560730100762154e-01 -6.275755621723585476e-01 -4.785526697760922321e-01 6.141142043742536805e-01
-1.124651075342317508e-01 9.588050190543777329e-02 -7.798628975545043307e-01 -4.702515051732051310e-01 -7.315456406907856479e-01 4.936643570976571027e-01
3.701998735589069611e-02 -2.065515778448185347e-01 -9.248426132077912643e-01 -2.291356516521996789e-01 -3.507264956161177949e-01 9.080130937463175567e-01
7.808968087009084125e-02 -1.874625770924921997e-01 -8.902739057789482713e-01 -6.633452606969751919e-01 -2.485176037453978304e-01 7.058413885140962796e-01
1.632415499560214978e-02 6.818157278736661220e-02 -6.960037411405010088e-01 -3.642585077027568063e-01 -7.872780795836322731e-01 4.975027286088677947e-01
1.356368063186897018e-02 -1.412406198403300395e-01 -9.116152018319984007e-01 -6.211654842027147794e-01 -4.045183768120264589e-01 6.712066180071308841e-01
5.295107909440403132e-02 -2.364349779092260184e-01 -9.242777324175227571e-01 -5.555326945999576882e-01 5.782311688475190448e-02 8.294817131102062424e-01
9.462297619001792948e-02 3.292349691807482104e-02 -6.848425546602892044e-01 -4.301760620101972021e-01 -8.029527635651055872e-01 4.125717091083182519e-01
-7.418883488159194739e-03 -1.481254522339862101e-01 -9.335531810916908313e-01 -5.829172451419512013e-01 -4.357967163153125822e-01 6.857759892012184055e-01
8.648427006062144040e-02 -8.298869623921506511e-02 -8.214515566743781916e-01 -4.205903209291500522e-01 -5.747326472917899665e-01 7.019872976612079318e-01
-2.293201093959418638e-02 1.268243288510153277e-01 -5.776672380715283106e-01 -1.364702998837336034e-01 -9.893710120150341902e-01 5.020814509610019294e-02
-7.130722870105590805e-02 -3.462010640030845077e-02 -9.070009939027768864e-01 -4.443497659907702513e-01 -4.727158213148590082e-01 7.609816277299776832e-01
-5.056325852177493037e-03 9.441446922708481015e-02 -6.671631222150817830e-01 -2.968219871034266100e-01 -8.264239603980714222e-01 4.784560017932059650e-01
5.960254346410497756e-02 5.764961975902137270e-02 -6.733223714243828928e-01 -4.772156967310737241e-01 -8.095429937752095517e-01 3.419141997971816282e-01
2.942392710519544513e-02 -1.533396644151074073e-01 -9.023125936256615187e-01 -7.595227036515732610e-01 -3.262643278596854546e-01 5.627404828196316267e-01
-7.420708025998178081e-02 7.566701650524915168e-02 -7.741475363549358280e-01 -4.765518525602572275e-01 -7.602106832041058970e-01 4.415631879626441547e-01
-1.146541606291623799e-01 9.713968481362335317e-02 -7.800821877340023969e-01 -4.702515051732051310e-01 -7.315456406907856479e-01 4.936643570976571027e-01
-1.062445029168762461e-01 1.262019404185057148e-01 -7.297442104827447373e-01 -5.128951214912236267e-01 -7.243749790035721725e-01 4.606728602208700618e-01
1.150655493597358969e-01 -4.970710682550567860e-03 -7.206606147971034160e-01 -4.741499338831450805e-01 -6.628786591306237153e-01 5.794598549233550555e-01
-2.720223804932393047e-02 1.070586150255639218e-01 -6.548810295807021564e-01 -1.489151563455768656e-01 -8.862853155365985058e-01 4.385460245798203371e-01
6.390756041877970750e-02 -7.322837103693949357e-02 -8.269223671587412339e-01 -4.317712644810480782e-01 -5.966380303177724054e-01 6.764588944991157815e-01
-5.156264845726868384e-02 -3.874098907534659353e-02 -8.974228232581598075e-01 -5.030176087069468949e-01 -4.952692915093054871e-01 7.082948638939968733e-01
-9.723899413816720905e-02 4.202506910089440911e-02 -8.581374975437894292e-01 -4.758869760937055049e-01 -7.412343649775297028e-01 4.733953972745695293e-01
7.375315621025104948e-03 -8.410087351712564052e-02 -8.801772713862294761e-01 -6.459121056988810228e-01 -4.565552522555544890e-01 6.118454489080593639e-01
-3.690087399986105576e-02 -1.121780761093022633e-01 -9.320190077124327344e-01 -4.764291878529376967e-01 -4.645664906328014765e-01 7.464537525814398666e-01
9.090420646009189642e-02 -1.162120699212476210e-01 -8.445193545187340556e-01 -4.595098288709031364e-01 -4.985811508506852174e-01 7.350289471765311111e-01
1.629115906577864419e-03 1.151219580754161004e-01 -6.151673459364520591e-01 -2.898813274724251210e-01 -9.223817885459950627e-01 2.553050178541655946e-01
-2.666756752027118690e-02 1.120041232298944062e-02 -8.254359757323471714e-01 -6.071313012144825549e-01 -6.464375028914509658e-01 4.620715723143707931e-01
-1.637892291549715787e-02 -1.461354971483355691e-01 -9.393690430520577062e-01 -5.551776141006644627e-01 -4.554259049020190075e-01 6.959634056081333009e-01
-3.059500206196321889e-02 3.839302737937614479e-02 -7.885466645488730109e-01 -5.495850913251180136e-01 -7.214338542530321918e-01 4.212949339011523575e-01
1.147711704311563524e-01 1.551390121254450118e-02 -6.952981756031498817e-01 -4.451191838874190010e-01 -7.491733856753785004e-01 4.905182466851653600e-01
-2.918857056142776588e-02 -2.806161128738055358e-02 -8.718917273746874530e-01 -6.008704124551341730e-01 -5.438292789356071744e-01 5.858365495668350631e-01
-3.978427056339146894e-02 9.361948921825076486e-02 -7.031792334537121381e-01 -5.541255439969008378e-01 -7.355836573387997124e-01 3.896941936265081452e-01
-7.673652332143222898e-02 1.364309859556352977e-01 -6.626502865622995175e-01 -4.776107358779818068e-01 -8.655835767770666545e-01 1.505093239235121838e-01
5.877836601374354653e-02 -6.181763931886058439e-02 -8.201560339101185981e-01 -4.381843327242099795e-01 -6.070330981049030239e-01 6.629519653490756337e-01
1.290590318638869423e-02 -6.562581430854767806e-02 -8.588533435622435208e-01 -6.840142264396191774e-01 -4.680540880432995654e-01 5.595086314742291345e-01
-6.121774216920705669e-02 -7.672060260559497580e-02 -9.253808335834710075e-01 -4.319077272344590268e-01 -4.434153576756100223e-01 7.853906898687906812e-01
-2.166686383881283318e-02 1.242929036210962263e-01 -5.997655732777478210e-01 -1.569640520997200306e-01 -9.778649024194867589e-01 1.383564923108565048e-01
-2.526005475623604654e-02 3.170142570070123150e-02 -7.927019490865543361e-01 -5.687725954374328596e-01 -7.041887049519168773e-01 4.249894145711263227e-01
8.542076492214439876e-02 1.168039676270666433e-02 -7.251340078786784327e-01 -4.478206068415897523e-01 -6.987476820313271997e-01 5.578605389735660225e-01
-6.457704164191357954e-02 1.089237785047540985e-01 -7.085277408466902349e-01 -5.312627123308588661e-01 -7.438762345115941255e-01 4.054726602567810256e-01
1.657176206520660083e-02 6.013928723498248446e-02 -7.082829339643424982e-01 -3.286010184861128947e-01 -7.802451318861380880e-01 5.322019398854840322e-01
7.418855104471773487e-02 -7.145143461571266952e-02 -8.188039778231376298e-01 -4.300712675326278656e-01 -5.980749934133789969e-01 6.762728791667352857e-01
2.282436874735953910e-03 -5.601639028164043244e-02 -8.631045973631875645e-01 -6.541903277472689293e-01 -5.072054239462344682e-01 5.610505084227636052e-01
-8.384524368522475180e-02 5.842386565884423455e-02 -8.159248860744965359e-01 -4.410215117395073214e-01 -7.942447960960330455e-01 4.179416586766272479e-01
-7.076775791475233002e-02 -3.347673707180379848e-02 -9.059757359196498605e-01 -4.443497659907702513e-01 -4.727158213148590082e-01 7.609816277299776832e-01
1.972305381261893129e-02 1.789962287111109690e-02 -7.636569468759111246e-01 -3.458928065838869359e-01 -7.272007907666279136e-01 5.929057060460062312e-01
1.471817591140352384e-02 -5.357700004680653050e-02 -8.449243742457411832e-01 -7.174605558498842184e-01 -4.861015446296618192e-01 4.989545461344470634e-01
-1.058775869691320481e-01 1.227609336760555336e-01 -5.256939002027369856e-01 -2.822038672906537760e-01 -7.934876076430676939e-01 -5.392016262986232267e-01
3.691306697385928620e-02 8.164462668181734703e-03 -7.644585396712749725e-01 -3.896829188909599617e-01 -6.929309628055351222e-01 6.066250106202477621e-01
3.917109426242075705e-03 5.945640278585341727e-03 -7.902761345565536555e-01 -6.945643208096022869e-01 -6.013709120932708707e-01 3.948840720343169131e-01
9.199235641817464504e-02 -7.729460145984570763e-02 -8.131145841927628348e-01 -4.071625189498873643e-01 -6.044853039731548083e-01 6.847015411424640652e-01
1.578359301482405372e-02 1.057089610600424334e-01 -6.274508784446579668e-01 -3.788174510481578383e-01 -8.380719947416827020e-01 3.925973387722763164e-01
-6.293633428310885236e-02 -6.517036763923619858e-02 -9.199018251337079954e-01 -4.349578046178197988e-01 -4.355540661189348794e-01 7.881017470411475490e-01
-8.678078354598600663e-02 1.403461472451606185e-01 -5.881950301973604134e-01 -3.140864382063943139e-01 -9.312347574897628100e-01 -1.848013413852927500e-01
1.354902829507445734e-02 -4.437422162841567902e-02 -8.370638294532880552e-01 -7.140351017239522369e-01 -5.091882895496419037e-01 4.805009461921751490e-01
-9.072226281522863256e-02 1.463893705743772311e-01 -6.429763019512706457e-01 -4.489285611407558552e-01 -8.903496340312795354e-01 7.576724999930556370e-02
-2.875176849087208303e-02 -8.505023851371902588e-02 -9.111212286268801641e-01 -4.735581675232014565e-01 -4.347965020535534131e-01 7.659599622526375162e-01
-4.407462367879264042e-02 1.205727904028803671e-01 -6.348962629912215938e-01 -5.855569577343747723e-01 -8.068462350121493598e-01 7.824450329309373675e-02
-1.829318345563143988e-02 -3.207541000452737712e-02 -8.646278386787482617e-01 -5.917187075610849112e-01 -5.527519873321845578e-01 5.867999758201766225e-01
-2.583558016183389386e-02 4.222470159563204706e-02 -7.755614323240995756e-01 -5.507299386722678269e-01 -7.246149835535194983e-01 4.142821022682167120e-01
6.064856307441684330e-02 -3.603972255519618390e-02 -7.947384409716258258e-01 -4.328594024046634736e-01 -6.235893113346622219e-01 6.509755053295319671e-01
1.874208994985886905e-03 -3.755394435368900226e-03 -8.068526791068734161e-01 -6.567821201840970957e-01 -6.043920379206090265e-01 4.509406957734640731e-01
-8.629876555930211801e-02 1.335423635833490330e-01 -6.899997419923175057e-01 -5.083776817741023635e-01 -7.962217713788962703e-01 3.279985113628453575e-01
8.316277475744418557e-02 -1.951983014748404077e-01 -8.880327836057813062e-01 -6.788067165369573441e-01 -2.254674457967212053e-01 6.988461007047385154e-01
-5.680209759861639535e-02 -6.137741873987554581e-02 -9.143913263730866214e-01 -4.495830437775079069e-01 -4.388109022106383428e-01 7.780231865753340914e-01
-8.934141121576322231e-02 4.626437875172465658e-02 -8.435466612112476614e-01 -4.808182937536068513e-01 -7.398412885549936480e-01 4.705832935210907397e-01
1.309081994946665328e-01 -4.781219275407343205e-02 -7.586823367706750920e-01 -4.150368068394289511e-01 -7.037005323853440242e-01 5.766714920031282832e-01
-8.229826550084136383e-02 1.417745964141330639e-01 -6.110593062226873373e-01 -3.890791558792946470e-01 -9.170998311461792118e-01 -8.686374486461660716e-02
8.927820893347267195e-02 2.975290200784235992e-02 -6.966791166365211563e-01 -4.318386262639333784e-01 -7.867657802262403299e-01 4.410385560599826005e-01
-1.039861944642860581e-01 7.425220004326253675e-02 -8.069500195912805429e-01 -4.287061413684087885e-01 -7.988367538832337189e-01 4.219844606123642206e-01
-1.017388493101898383e-01 4.425283672242901617e-02 -8.591623453080688977e-01 -4.731200553795880115e-01 -7.434026347229452103e-01 4.727683744547631073e-01
-1.357208969870368764e-02 -7.760043671442289070e-02 -8.951395855758983444e-01 -5.650130870232284996e-01 -4.552857000221814388e-01 6.880953007017226453e-01
5.463639228119806374e-02 -1.576214550154325655e-02 -7.784488418731891901e-01 -4.306159991930877950e-01 -6.534103770053371063e-01 6.225951657864696731e-01
-6.155033933630244675e-02 1.228941834612256728e-01 -6.750747091589532900e-01 -5.441524506802496441e-01 -7.857289536347261683e-01 2.941566280721155668e-01
3.818265079789084915e-02 -1.313571807997495622e-01 -8.856540313409025922e-01 -3.693115446550964132e-01 -4.909210747304217359e-01 7.890535351736245318e-01
-1.066937559701181398e-01 1.488299518517729181e-01 -6.817108701385863334e-01 -4.971454628533588660e-01 -8.259307947245402293e-01 2.658659645197352650e-01
-3.804775263149730996e-02 4.392272901859712794e-03 -8.475795515702748695e-01 -5.893340605232995078e-01 -6.231121037994459266e-01 5.142146159005486217e-01
-5.610913982602164229e-02 1.077969657198737108e-01 -6.991847966205056997e-01 -5.590230451919708798e-01 -7.300076210181016823e-01 3.931693123830845571e-01
-7.033133717179362865e-02 8.570857920369277794e-02 -7.534161800908657503e-01 -4.889450667830176900e-01 -7.429005472036069868e-01 4.571996266765010475e-01
-1.892311034331539688e-02 -5.541736010090703851e-02 -8.844860843279356288e-01 -5.885440519713034391e-01 -4.777442693087750047e-01 6.522087948133052926e-01
6.069608973528947682e-02 5.005805445889539851e-02 -6.880812758480912006e-01 -4.651986511261747004e-01 -7.876448184570827848e-01 4.039874440475803019e-01
1.081091318431718143e-02 7.134678465705451833e-02 -6.947460638087137319e-01 -3.229192933111543207e-01 -7.998028384493071075e-01 5.060025193769853713e-01
-6.702609038227314020e-02 -3.079132666137982671e-02 -9.019234088907696067e-01 -4.585912754896468435e-01 -4.855856101892989107e-01 7.442450249896636061e-01
-7.705701571133292960e-02 1.171553044586629289e-01 -7.102002082332120603e-01 -5.369142326618879801e-01 -7.330762887133106531e-01 4.175191752379941446e-01
1.596336627232236224e-02 7.212177564031592436e-02 -6.898515012478029229e-01 -3.648740040474972579e-01 -7.952030539988507174e-01 4.842716841621528268e-01
1.172812045616037323e-02 -4.889486394083467080e-02 -8.445602949188384390e-01 -7.140943968961281918e-01 -5.091371333282461720e-01 4.804670350688494129e-01
1.113251818775602281e-01 -1.066136779947821078e-01 -8.252228684056895913e-01 -4.315896241292967450e-01 -5.075893987901373139e-01 7.457099962986947217e-01
-2.938907944861906315e-03 -4.302182015080696642e-02 -8.576747336970906854e-01 -6.648340787749467129e-01 -4.965923289255765871e-01 5.580248261069932214e-01
-5.546055319641901571e-02 -8.629984065032671181e-02 -9.276141049801629457e-01 -4.408738338962460701e-01 -4.391895563246319134e-01 7.827788935587099983e-01
5.616963360069871652e-02 -1.282695136368203204e-01 -8.742081080851659136e-01 -4.357687744555847620e-01 -4.865054072708705490e-01 7.572437282049169216e-01
1.839129460767216506e-02 1.116587692596667236e-01 -6.071118985753373165e-01 -3.357657676458171703e-01 -9.120319740629503347e-01 2.354974045802910865e-01
1.154337830481305758e-03 2.392784625176194724e-02 -7.665419316250470239e-01 -7.270706283297238004e-01 -5.942224609370995170e-01 3.439011025543212141e-01
-5.264569661698934033e-02 -9.022288277363096909e-02 -9.282298120738282643e-01 -4.408738338962460701e-01 -4.391895563246319134e-01 7.827788935587099983e-01
3.218609334044564285e-02 -1.312620942711971994e-01 -8.878841134287959180e-01 -2.229340350324988673e-01 -5.033059481585845374e-01 8.348553997982625097e-01
-3.682254541096713352e-02 1.285993393493456149e-01 -5.675819951070114611e-01 -9.076004545153869285e-02 -9.958136548739244809e-01 1.085259951675062763e-02
-3.747853028702934769e-02 9.427343631112515554e-02 -6.986661544012559011e-01 -5.573244322384197647e-01 -7.341134937260049842e-01 3.879005743222378455e-01
-8.563407952216678387e-02 1.296568892477699408e-01 -5.483432560223742147e-01 -3.952192281690494191e-01 -7.246861458021137681e-01 -5.644747574231625542e-01
9.909547774792472688e-04 -1.147351690482881631e-01 -9.065788393522156152e-01 -5.955571693655377086e-01 -4.238327914191156176e-01 6.824056146715007376e-01
3.950669728824740545e-02 -1.525694502072748315e-01 -8.975313398846075374e-01 -3.488506049246438145e-01 -4.667923367571382709e-01 8.126550127751137609e-01
-3.355727546897453034e-02 -1.269302947646731294e-01 -9.391583457379621969e-01 -4.660387336696749094e-01 -4.679018144770537013e-01 7.509166336742358894e-01
1.297805932641904643e-02 -1.894861970911778104e-01 -9.392466217571997511e-01 -6.672741250949866254e-01 -3.426377734004987241e-01 6.613203446272226671e-01
3.115420403714697431e-02 -1.969430571525643270e-01 -9.226706614868666056e-01 -8.412216336548357098e-01 -2.134903686869356887e-01 4.967575118194045292e-01
-9.151654817608452508e-02 1.212661036284692490e-01 -5.152238830690543114e-01 5.403172161194168960e-02 -9.104029767515237070e-01 -4.101792205629314347e-01
7.878307704254304544e-02 -1.091296113414970542e-01 -8.470065895162443015e-01 -4.512902558814459453e-01 -5.345773536512195001e-01 7.145377232237065668e-01
2.799262182541710497e-02 7.637009341423781072e-02 -6.726866584831328044e-01 -4.118191268459932552e-01 -7.923195845411578064e-01 4.501496225882356539e-01
-3.697779946101537388e-03 1.158095368114248069e-01 -6.181281630409960481e-01 -2.365017921365920039e-01 -9.304902436692715773e-01 2.797406097664048574e-01
-8.564638314170407163e-02 1.224252422227686821e-01 -7.118016478891564525e-01 -5.300185759030003885e-01 -7.290054805109275060e-01 4.331643089900036880e-01
-3.771089499465558881e-02 4.625978680900791340e-02 -7.837690894261515329e-01 -5.432793788453207373e-01 -7.364640226827168235e-01 4.030735166386318347e-01
-1.789671379658824835e-02 4.694103712188413963e-02 -7.567059128483696329e-01 -5.585602159483625817e-01 -7.202926005124986597e-01 4.113259714711199333e-01
-8.752590734230413644e-03 8.596679595385577077e-02 -6.833846416978508476e-01 -2.735151453562867929e-01 -8.148128096750651972e-01 5.111453320242254073e-01
-1.677791946616788085e-02 -3.459921520020880353e-02 -8.653964723155388450e-01 -6.352566639616255006e-01 -5.387434620657076678e-01 5.533574369011424743e-01
-2.673848063471645151e-02 7.911997803533915574e-02 -7.117791161760154139e-01 -5.488939097239788900e-01 -7.364038635336066507e-01 3.955057845856388976e-01
-2.946106910715836150e-02 -6.041562709820578331e-02 -8.963710173109252777e-01 -5.201417065382513139e-01 -4.778475458969269618e-01 7.078942915434196514e-01
1.637232192180982510e-02 -7.019029951210998403e-03 -7.940034837555994818e-01 -3.467814317459951834e-01 -6.862489314100583826e-01 6.393786380031403205e-01
-3.597549444575192518e-02 -4.679143801884346615e-02 -8.922151716553335943e-01 -5.332388370281677670e-01 -4.671108274919897330e-01 7.053111494401571591e-01
