-1.094881638839166442e-02 -1.949329140264090543e-01 -1.109980967089047477e+00 -2.242325287901870134e-01 -4.405250143214217706e-01 8.692856174983394357e-01
-2.559618373697611360e-02 -1.189984622638784600e-01 -1.066304434177300253e+00 -1.180257180073180923e-01 -5.562899644264830412e-01 8.225639217515191559e-01
-5.176832410692597253e-02 7.555315206432675068e-02 -8.547186102118511375e-01 -9.884079835656131574e-02 -8.389053184424312137e-01 5.352273939824462312e-01
-4.661420873256081482e-02 1.934985868313588223e-02 -9.430596245320137516e-01 -1.483781222109670506e-01 -8.095090010281748016e-01 5.680485103435389815e-01
2.098193438804107913e-02 -5.015926714936634612e-02 -1.006639828381194146e+00 6.073317650024605274e-02 -6.788070949236116869e-01 7.318007988199772829e-01
-1.130675985705002634e-01 2.834214202855999190e-02 -9.394843294449919391e-01 -4.250051103993292972e-02 -8.630374218227203631e-01 5.033488999639678108e-01
8.092197657775411154e-03 -2.387177068733150609e-01 -1.113338392669371846e+00 -1.822883668101777863e-02 9.612328166638689497e-02 9.952025041341793221e-01
1.144044914236491961e-01 -7.003424327824968321e-02 -1.033010823701468794e+00 7.236567858515510765e-02 -6.230359317748149772e-01 7.788385174607109773e-01
-2.967653735720144140e-02 1.001863563871664142e-01 -8.080349235454984402e-01 -1.671704597596885833e-01 -8.716405612902625721e-01 4.607567354877523114e-01
-8.925785125328142278e-03 -1.508634436746290053e-01 -1.083927521500436253e+00 -1.583362583220459252e-01 -5.239880272043280218e-01 8.368788303255680905e-01
-4.270501580954345205e-02 -4.257384951911379750e-02 -1.012055531716950396e+00 -1.783498662590088379e-01 -6.469622061893854914e-01 7.413711816411241440e-01
1.158821997780743948e-02 9.595159015318296958e-02 -6.468802815138823270e-01 9.759999432270649589e-02 -8.720177011222794983e-01 -4.796450458804119577e-01
-2.768464663155127681e-02 -4.162108572441269166e-02 -1.007209557870922145e+00 -2.176640780496162386e-01 -6.778624442004357320e-01 7.022284926357101886e-01
-1.720127677003620986e-02 -6.994574326623929916e-02 -1.028745304636644819e+00 -2.398401519799330528e-01 -6.211107292148536629e-01 7.461220835442651245e-01
1.212230021070503511e-01 5.753093999128147673e-02 -8.828340804519848595e-01 -4.268754646005490372e-02 -9.106489884435956528e-01 4.109698203321951460e-01
-4.311981298445353994e-02 -3.629503629169765402e-03 -9.719538415013581067e-01 -1.781536562700355708e-01 -7.413703109405815894e-01 6.470172616039572278e-01
-2.862737482450296994e-02 -2.371063928209027338e-02 -9.897545931625090221e-01 -2.210314225478989258e-01 -7.077593249596885183e-01 6.709857287447015262e-01
9.879342984582505094e-03 1.017734840928761347e-01 -6.595073186753463990e-01 2.376526591712514458e-01 -9.069188114859900729e-01 -3.478785462796926131e-01
4.617745996796257524e-02 9.729480278503052637e-02 -8.139031202846931379e-01 3.888833494175050753e-02 -8.886967463606991746e-01 4.568432886815404492e-01
1.141226628694426287e-01 6.362435982766544151e-02 -8.693207138849964322e-01 -8.313621600847673210e-02 -9.317885408712770490e-01 3.533532010450282645e-01
7.893025049031208995e-02 -8.413972799414282111e-02 -1.041031370631976927e+00 4.013817605110391040e-02 -6.112860897209029254e-01 7.903911963939241891e-01
1.218433123761224618e-01 -3.205681117544185305e-02 -9.987384243665494710e-01 8.290623539186112168e-02 -7.351441022650740953e-01 6.728221942222386565e-01
3.768859099394522572e-02 -1.309599774076516121e-01 -1.072675377318939027e+00 3.542048328283192021e-02 -5.471464383938539067e-01 8.362871303068888373e-01
-8.638866798932111693e-03 1.113533317108100079e-01 -7.002882754508799046e-01 -1.453271921950038403e-01 -9.785331146113039891e-01 -1.461264891038482339e-01
-9.722868289423534927e-02 3.449036971515045957e-02 -9.274814327094765831e-01 -4.776193507497556584e-02 -8.699774615128382793e-01 4.907728741664231231e-01
-3.270271841316145511e-02 -8.398072806098355603e-02 -1.043028953185996643e+00 -1.288439413148928236e-01 -5.917584737640715353e-01 7.957519384298483711e-01
-7.075170543089328266e-03 1.125232427796120371e-01 -7.130674024652631227e-01 -2.017098632193354002e-01 -9.750699784113506796e-01 -9.247523063461504655e-02
-8.066465100086413209e-02 9.966111581678920028e-02 -8.227938839418038608e-01 -1.098610137997353270e-01 -8.555351327431883757e-01 5.059547354151254783e-01
-3.488552911338194118e-02 -6.441710836639065983e-03 -9.728888272116048563e-01 -2.068350142677663484e-01 -7.377390194289696890e-01 6.426199624076700534e-01
1.070865122867387526e-01 4.875006400509523941e-02 -9.003597479316269858e-01 -4.442732037712620805e-03 -8.231387106611335325e-01 5.678229698974563977e-01
-8.986285422030339254e-02 -6.360105892173797959e-02 -1.032004717056663301e+00 4.185087709209076717e-02 -5.602513974674707686e-01 8.272646950779228847e-01
-1.037939617505100331e-01 -7.316946790799910838e-02 -1.037323207654138768e+00 7.101376965489117343e-02 -5.279653764900872348e-01 8.462916788832809400e-01
7.221827273103709199e-02 -3.323146458534622510e-02 -9.941429193670765496e-01 6.545189614601895634e-02 -7.005523228808244740e-01 7.105930566767253431e-01
6.500791088417724739e-02 1.191528666767178862e-01 -7.498962192720081132e-01 8.667930694990877427e-02 -9.898763013358403695e-01 1.123904168528610109e-01
4.255298670206204836e-02 2.001587231427742058e-02 -9.341349128081186670e-01 6.732903576636180276e-02 -7.801740020536810372e-01 6.219287157402485500e-01
-4.372823166834648861e-02 2.738459001450931074e-02 -9.303047751168288526e-01 -1.290461480475774692e-01 -8.338336581545959802e-01 5.367201525959379715e-01
-6.135361411996592684e-02 -7.077000437886005191e-02 -1.037044186960595304e+00 -2.921496656012446264e-02 -5.640874137304181524e-01 8.251980825231108874e-01
-2.061835225309986350e-02 6.044030674869321079e-02 -8.725452525731562936e-01 -1.333925775181029894e-01 -8.380978641433777243e-01 5.289597247252247891e-01
2.092652340794716112e-02 -1.903831747663431162e-01 -1.105937709267596158e+00 1.339684645071854696e-01 -4.201350432789356382e-01 8.975182426706399541e-01
-2.154804916673397699e-02 -1.076860695658682018e-02 -9.734332129411584766e-01 -2.349872223457813714e-01 -7.286432217367243558e-01 6.433195634763031467e-01
4.544036990617419947e-02 -1.444710872378290600e-01 -1.081097704451969843e+00 -3.773618396772542710e-02 -5.056399093361936270e-01 8.619189419580242095e-01
7.604969282739296177e-02 7.666533757178946307e-02 -8.498237462901184758e-01 -8.342961139280752336e-02 -8.844559373149172288e-01 4.591047755047168444e-01
-1.253182773444811438e-01 3.101325007864335140e-02 -9.356004341242505351e-01 -2.407930635633565020e-02 -8.738198120168619853e-01 4.856532951934063869e-01
4.674490339002888850e-02 -4.265587287415623097e-02 -1.001287032577841796e+00 4.726677507825836205e-02 -6.966431732701050539e-01 7.158590232090813466e-01
5.541813679941312576e-02 3.465512486298276407e-02 -9.171982080238916257e-01 6.862879094284538017e-02 -7.925790773547701784e-01 6.058947888810271021e-01
2.243143172974947260e-03 -6.201580027158352243e-02 -1.014473126620774268e+00 2.093998047275875407e-01 -6.576976531547665816e-01 7.235920942179788762e-01
1.006832416481151238e-01 -3.171007990718251179e-02 -9.957266161839655183e-01 8.005821699477755349e-02 -7.250420050987343989e-01 6.840356516542276388e-01
2.418725199695533068e-02 -1.265090055852757522e-01 -1.068568406818213745e+00 1.038239977320515872e-01 -5.505674523962411637e-01 8.283091559658432024e-01
-1.039665256795210685e-01 -7.633568530290845387e-03 -9.859960879531796119e-01 -2.178869413786437351e-02 -7.271391678076338794e-01 6.861442147593961316e-01
6.345539967844239515e-02 9.203731914180092455e-02 -8.237466841780531901e-01 -5.173405343965482156e-02 -8.697257172888048782e-01 4.908164263766816582e-01
2.396536790752778340e-02 9.543197376140510890e-02 -8.126678239017511851e-01 1.519136274573538448e-01 -8.867181966803249216e-01 4.366383966954132112e-01
3.964608950468177101e-02 -1.818810978559317615e-01 -1.101433563802738602e+00 -1.750426456673657150e-01 -4.100892841447681958e-01 8.950904151131328090e-01
9.629729738644178527e-02 -7.294748284640743818e-02 -1.033653182152006522e+00 7.091211332147759339e-02 -5.970227609802383206e-01 7.990840350400044700e-01
-5.392830110208582384e-02 8.828417814743420161e-03 -9.594237033165773365e-01 -1.358836265437961821e-01 -7.797164927485903396e-01 6.112101365104668504e-01
6.747020560165381542e-02 5.239329564108538562e-02 -8.933816318595758643e-01 1.786748368459931818e-02 -8.427936424934533433e-01 5.379401725093578834e-01
4.489049539148135676e-02 8.280855131752379306e-02 -8.402762940814929582e-01 1.894620072260625940e-02 -8.685928497671812076e-01 4.951641170475761244e-01
-2.598370284458126345e-02 2.734436329489200318e-02 -9.255908831892342148e-01 -1.520799947874022784e-01 -8.117484470501838967e-01 5.638582569201932015e-01
-4.936184921479280611e-03 9.782051716356227056e-02 -6.598807703370622724e-01 -4.393269621303008132e-01 -8.001112585633222141e-01 -4.084284444863968688e-01
-5.206762284593056955e-02 -9.922634161214465010e-04 -9.713554318618786709e-01 -1.431723997112237245e-01 -7.478893445966489084e-01 6.481999631284504071e-01
-9.369954944542289998e-02 -3.118663156978608228e-02 -1.007607769283228816e+00 -1.041463680754964836e-02 -6.479707162822075928e-01 7.615940429000804812e-01
1.630484568914649518e-03 -2.162142400838764356e-01 -1.113199764057772212e+00 -3.483834834367107169e-01 -1.721353083424007890e-01 9.214110831167432458e-01
-2.807465497262968263e-02 4.710995724299089915e-02 -8.952512849633144087e-01 -1.180183137508491187e-01 -8.414846985423291015e-01 5.272335153786522621e-01
9.015859569513455518e-02 3.102959382606145997e-02 -9.241524913131096142e-01 1.516688533290692746e-02 -7.865897333818372417e-01 6.172896863933404754e-01
4.665852877101961393e-02 2.104449585077175847e-02 -9.332890230156751787e-01 6.732903576636180276e-02 -7.801740020536810372e-01 6.219287157402485500e-01
4.717661920412517113e-02 5.416954595357478808e-02 -8.883335656061008834e-01 9.669410647569334771e-02 -8.300354805785981060e-01 5.492643723686463364e-01
-7.826904042467228151e-02 3.053023688620310275e-02 -9.320100018345646165e-01 -7.198279289322152830e-02 -8.480412063024022062e-01 5.250186567546512029e-01
-1.100053695106836399e-01 4.357921312190727453e-02 -9.115504860372128926e-01 -2.031511768416357708e-02 -8.783192753411959153e-01 4.776426975863811708e-01
4.997749017102263297e-02 -4.824887877682207393e-02 -1.006900850966725658e+00 5.949511384572043343e-02 -6.834856977686236679e-01 7.275353134894707585e-01
4.082054917696398971e-02 1.103035289954893972e-01 -7.812944312674124925e-01 1.070504509355752615e-01 -9.376677126432650944e-01 3.306349370844484659e-01
-5.287167604611314742e-02 -4.414193490716528112e-02 -1.015388888851223026e+00 -1.288218752129629552e-01 -6.403156427467088241e-01 7.572323303455057442e-01
-1.094651022631961818e-01 8.077974666680286242e-02 -8.542320259607916189e-01 -6.291824869083736949e-02 -8.084308021268451494e-01 5.852187045491828998e-01
-1.157552885617555739e-02 -1.238439570884266872e-01 -1.067100546522430804e+00 -1.836092179683397330e-01 -5.408260180884864043e-01 8.208500918167743743e-01
-4.160061654851610925e-03 -1.425854752045055962e-01 -1.077587253886163721e+00 -1.911185899820911915e-01 -5.190977321764974617e-01 8.330733635235701984e-01
-4.662157624305531683e-02 1.139769246883172854e-01 -7.813025442906954554e-01 -1.557322736473658598e-01 -9.562613777211966815e-01 2.476118664833749095e-01
-2.385794493145360594e-03 8.618804773321395163e-02 -6.337442511559049363e-01 4.300295730395344851e-01 -8.283166744999308495e-01 -3.591184387591524474e-01
4.736036087142837803e-02 4.617344521319122208e-02 -9.003288557023555461e-01 9.924666636063729508e-02 -8.135758699642728908e-01 5.729261758971891938e-01
-7.654300487303129655e-04 2.753467353824379585e-02 -9.162822259883491860e-01 -3.295871095481827107e-01 -7.752698257330531417e-01 5.388218949964039828e-01
-7.478523607238908577e-02 1.175079705386281592e-01 -7.836937805817728586e-01 -1.277303851540710911e-01 -9.586965095482335997e-01 2.541376620818451837e-01
2.208638627138277341e-02 -1.981254839047924196e-02 -9.768420674594242570e-01 6.796396393437953432e-02 -7.130219176292816874e-01 6.978399849439613778e-01
-4.955690919364553679e-03 8.507884832844686551e-02 -8.264943426562834095e-01 -2.111231278920515098e-01 -8.604275214637354674e-01 4.637795868479441252e-01
-9.759295881259287195e-03 1.133833857560358205e-01 -7.188549104789685451e-01 -1.845003479625750564e-01 -9.810905551325107554e-01 -5.848883852044217679e-02
-2.069142614778469308e-02 -1.086604105620252170e-01 -1.058474716933388349e+00 -1.521157772295130828e-01 -5.574197758221208776e-01 8.161764416106834785e-01
2.892309530303282736e-02 -2.755640101829408967e-02 -9.852242805506361556e-01 4.846934030294180323e-02 -7.094921143928495377e-01 7.030445666278642980e-01
-2.247054336306318623e-02 -2.003113429922164790e-01 -1.114059342030801369e+00 -8.292292992862690393e-02 -2.984251873130058796e-01 9.508239559819942066e-01
-2.312230029042165388e-02 -3.204034829315323581e-03 -9.653720103787051254e-01 -2.063606646588910243e-01 -7.578901690224848497e-01 6.188842927241006153e-01
-5.406306548141635859e-02 8.513110787308141025e-02 -8.401789116082024611e-01 -1.155097839573215601e-01 -8.290468851186405530e-01 5.471185905132566196e-01
9.602195319990031175e-02 -7.933502701915462474e-02 -1.038401098332747630e+00 7.091211332147759339e-02 -5.970227609802383206e-01 7.990840350400044700e-01
-3.132419278460322337e-02 5.217095818672712326e-02 -8.879081681292122497e-01 -1.109460837198131544e-01 -8.390064118367170920e-01 5.326905362441813896e-01
2.557925178472249955e-02 8.183510270954601207e-02 -8.386186984434100822e-01 1.224401738823559099e-01 -8.594332166627191016e-01 4.963697713564255709e-01
4.830653169942444175e-02 -1.642263862928765306e-01 -1.091362501383961625e+00 -1.603195785746522606e-01 -4.223394626832880916e-01 8.921474155015175489e-01
1.199786113004242894e-03 -2.319288677310991920e-02 -9.769482054318116004e-01 -3.607211821224465265e-01 -6.708698320392443293e-01 6.479304725260426334e-01
5.742063880195300701e-02 -1.268592240676119920e-01 -1.070083418060765013e+00 -8.171460656764518993e-02 -5.025470723602363243e-01 8.606794775848035650e-01
8.622647250336676339e-02 -1.001935608265774602e-01 -1.052551752292544940e+00 -8.282349689719414876e-03 -5.661777860252246164e-01 8.242415406270131584e-01
-1.137294407806621610e-02 5.094404832197116373e-02 -5.775011767855784406e-01 3.304213522043899284e-03 -7.875077894786678412e-01 -6.162958410401799814e-01
8.243325168047779816e-02 6.935705932745707403e-02 -8.632260100879478593e-01 -8.228850546660498866e-02 -9.015483386036756697e-01 4.247813496718340631e-01
-7.342149011866846986e-02 3.725035615545423812e-02 -9.200152870647392289e-01 -7.146566893742718751e-02 -8.611285111811795012e-01 5.033391951698290567e-01
-1.657931060963678538e-02 -3.711304843453884506e-02 -9.991690895244349502e-01 -2.518940526027759197e-01 -6.749504466390402468e-01 6.935353493839446770e-01
1.366633947433253289e-02 1.067849270288272479e-01 -7.785492971847149946e-01 2.128310534791728326e-01 -9.475175930840228355e-01 2.385651975272290448e-01
2.267134012941555282e-02 -1.228070755090580612e-01 -1.065917765779784476e+00 1.038239977320515872e-01 -5.505674523962411637e-01 8.283091559658432024e-01
4.053316231145592807e-02 -3.327937462364145144e-02 -9.917520791268019664e-01 4.726677507825836205e-02 -6.966431732701050539e-01 7.158590232090813466e-01
-6.645047996230274423e-02 1.210704795163558278e-01 -7.639352864941615362e-01 -1.408542035615563959e-01 -9.746977086175667715e-01 1.735640232153662366e-01
-3.433932402593772859e-02 1.183289983341639096e-01 -7.345529210102614837e-01 -1.686163133340505271e-01 -9.856343944764593967e-01 -9.663296676415016051e-03
9.747392883518501971e-02 -5.677366835444514620e-02 -1.020050762084898865e+00 9.319952347323175179e-02 -6.814755847466157368e-01 7.258821365887307975e-01
3.398437868711016996e-02 1.096704135873471098e-01 -7.808983292431703749e-01 8.764505630222391153e-02 -9.457858537123645659e-01 3.127418472532159655e-01
1.631368173315382933e-02 1.139852072422587875e-01 -7.259074128808520321e-01 1.702110631672903718e-01 -9.853907014271280351e-01 5.775769768048431320e-03
-1.866953692148828892e-02 7.510994198052850512e-02 -8.483579557023052109e-01 -1.480069694207188646e-01 -8.427864117684262801e-01 5.174987933719218391e-01
1.533159021017261800e-02 1.043609144246523679e-01 -7.873129305855334215e-01 2.044936520972513994e-01 -9.291022763490557335e-01 3.081416984683039706e-01
-7.971746685588242121e-02 2.035110224864921866e-02 -9.484054024719997811e-01 -9.581208967928843412e-02 -8.269122766675707226e-01 5.541084101218306524e-01
-1.119990729186257257e-02 6.940706319205658392e-02 -6.030495326548276358e-01 1.973960219785414558e-03 -8.227991794879335741e-01 -5.683287901514701979e-01
-8.125461827361003808e-02 -2.622617607795692946e-02 -1.002886737399961259e+00 -3.068092597349335662e-02 -6.620588290189941549e-01 7.488236025255928796e-01
5.788719885198445603e-02 1.111190709695453020e-02 -9.459274833947065586e-01 4.032711043393719108e-02 -7.551004310394220376e-01 6.543676819710215753e-01
1.620841249071996656e-02 -6.678220782144274337e-02 -1.021361327049101098e+00 6.788913242058174091e-02 -6.588550661336838310e-01 7.492002853237308413e-01
1.650873588181201237e-02 1.749632937044973829e-02 -9.335510401925833923e-01 1.093843896705032487e-01 -7.844988072179862604e-01 6.104069763444457397e-01
-6.613662277001221279e-02 -1.445448807461003349e-01 -1.086937206901732456e+00 -6.394913350967887378e-02 -5.985859365070943516e-01 7.985019630152990766e-01
6.240768436543767811e-02 -1.149189773003410353e-01 -1.062401030451939343e+00 -3.773431952943102907e-02 -5.431454081637049347e-01 8.387903115322288272e-01
-9.007742011397822796e-03 1.112088108331850921e-02 -9.423767137782224079e-01 -2.362107517378661814e-01 -7.703873574774429134e-01 5.922058765348036102e-01
-4.797204454611450619e-02 -1.543617961693287237e-02 -9.866510293479465732e-01 -1.844627094167281545e-01 -7.121149966294288980e-01 6.773962949486129759e-01
5.426861966791104042e-04 7.365013621070309879e-02 -8.433801847901366555e-01 -3.267633271806259510e-01 -8.127202052109160357e-01 4.824019030349833703e-01
5.636913320845019643e-02 -4.152688184507213887e-02 -1.000961411056285000e+00 5.954514962972323744e-02 -6.967949310448110500e-01 7.147945153859470713e-01
1.130316149664351288e-01 6.807079946196720188e-02 -8.584464515793205353e-01 -1.253725534051142176e-01 -9.165779884413970402e-01 3.796926572339845429e-01
1.709664419269542671e-02 -4.927959253070589296e-02 -1.005501410127343176e+00 6.073317650024605274e-02 -6.788070949236116869e-01 7.318007988199772829e-01
-5.528974781216125511e-02 1.043502614128889033e-01 -8.085077007980521202e-01 -1.318219512017642092e-01 -8.980809176118442760e-01 4.196112946559321655e-01
-9.549645621136523821e-02 1.074759116472057130e-01 -8.127295100270491846e-01 -1.057520042091333462e-01 -8.505437923774100684e-01 5.151618880060951922e-01
1.792461442972338682e-03 1.074983817062690333e-01 -6.941039063197380621e-01 9.109440990843279407e-01 -4.123450581898832623e-01 -1.234509335015063040e-02
-2.139633963292209007e-02 1.148564924486781547e-01 -7.548449249356723456e-01 -1.970204139078836902e-01 -9.670561891239947139e-01 1.611995148272565570e-01
-1.112660428685650210e-01 3.839181495132783922e-02 -9.211262874932374389e-01 -2.033224238957606622e-02 -8.776952676071282378e-01 4.787876534952242857e-01
1.041114328564812785e-01 -4.674310211007724758e-02 -1.011486046862534627e+00 9.319952347323175179e-02 -6.814755847466157368e-01 7.258821365887307975e-01
-5.266525438860172881e-02 -1.676438097988318665e-01 -1.102043656339179778e+00 -1.329719173748339367e-01 -5.557452950269765601e-01 8.206495209558336557e-01
-3.753596240187877936e-02 -1.051445580736973251e-01 -1.058590614771056870e+00 -7.491327902087216439e-02 -5.511998887079230247e-01 8.310034195565708659e-01
-8.722855401432323685e-02 1.132386999201738381e-01 -7.994141974613180324e-01 -1.172821886969638433e-01 -8.868626068224882975e-01 4.468999942207098619e-01
-4.030435167904811850e-02 -4.797929564214046400e-02 -1.016191237104484335e+00 -1.643761647454726194e-01 -6.396882963012552326e-01 7.508524222766861378e-01
-2.360280190518198803e-02 7.099112591131501171e-02 -8.562672894182778993e-01 -1.154426728827058768e-01 -8.474099552900501431e-01 5.182367769205615815e-01
1.199537821096810508e-01 -2.469656925016422769e-02 -9.902497712004281194e-01 8.282789552865732485e-02 -7.528212290248481597e-01 6.529929071987007339e-01
7.392746669482891386e-02 -1.756043887071392223e-02 -9.781467200268055828e-01 4.866426881630434020e-02 -7.139810967294355493e-01 6.984717477848383371e-01
-1.055090283040302154e-02 8.686207528437173142e-02 -6.349823858471898008e-01 -2.158683667799198846e-01 -8.624939488864753478e-01 -4.577172012913474086e-01
-1.227931738649923471e-01 -4.049120262915014562e-02 -1.014147863786198256e+00 3.979566427066990458e-02 -5.827777850892048583e-01 8.116565519428624587e-01
8.886180052899485260e-02 -8.832668959947929943e-02 -1.044737367479828150e+00 3.619295468382126985e-02 -6.106337484085840872e-01 7.910856434898417833e-01
5.476941751780756151e-02 8.656491775568925240e-02 -8.341508976996083735e-01 2.301219179776260379e-02 -8.663812037940287203e-01 4.988527325183982342e-01
-5.376167201186473482e-02 -1.452398611997356148e-01 -1.086591924175359880e+00 -8.325856058159800122e-02 -5.813402494467295734e-01 8.093896011582399908e-01
3.176558704462704996e-02 -1.162109398400841404e-01 -1.062218245843333797e+00 7.057678612461078249e-02 -5.789777041970208815e-01 8.122830389113564475e-01
-1.983180401628608161e-02 -4.441610916273545928e-02 -1.007428074554577169e+00 -2.518022354619410264e-01 -6.463139182346286926e-01 7.203290590504944912e-01
-1.032796045402060853e-01 1.028853396207165399e-01 -8.217235060245152711e-01 -9.272042017588887075e-02 -8.485286302248143953e-01 5.209626544880227028e-01
-1.171259208310809416e-02 4.525759092848601756e-02 -8.941436988397468699e-01 -1.335713854070934292e-01 -8.334174991188219028e-01 5.362592257136077345e-01
-1.210923029049681687e-01 -4.641089826272972590e-02 -1.018366820527262462e+00 5.896639168071540760e-02 -5.663378269107887109e-01 8.220610868190527665e-01
-1.000859736382190834e-01 4.859561421580333579e-02 -9.021246197683785439e-01 -1.366744796775475751e-02 -8.753567087279282566e-01 4.832844228309637336e-01
4.590937487741295064e-02 -5.980028581032709872e-02 -1.017424211369263976e+00 5.383558970775505215e-02 -6.833647282517506527e-01 7.280895394539255161e-01
-3.823751884391694833e-02 -1.872708044210627254e-01 -1.111037311547757422e+00 -1.215498316709171522e-01 -3.849495687047885806e-01 9.148986107622903985e-01
-4.648963382460979260e-02 -1.078266343738595590e-01 -1.061189754797906337e+00 -8.203857161543776089e-02 -5.559426222783458993e-01 8.271623017894222940e-01
6.519971133737617608e-02 3.752409385298126343e-02 -9.145314076180388607e-01 5.932681625264565883e-02 -7.875863506110336587e-01 6.133417230260134190e-01
-5.665023555103037428e-02 1.087999878394374682e-02 -9.574116535806571626e-01 -1.358836265437961821e-01 -7.797164927485903396e-01 6.112101365104668504e-01
4.316413082146646624e-02 -7.347622489890320852e-02 -1.029464158980288202e+00 5.841712811672351846e-02 -6.653985731336565790e-01 7.441990177461188516e-01
-1.090637543950810640e-01 2.212859084178356306e-02 -9.492024959174577559e-01 -4.334474863950869145e-02 -8.346759026492249767e-01 5.490331231374656618e-01
4.056620258986897570e-02 -1.939130579015277064e-02 -9.777751145668706068e-01 4.659496076599804054e-02 -7.098920663858898639e-01 7.027675033135684091e-01
-6.565570151275518240e-02 1.051498152174703271e-01 -8.099817963386122255e-01 -1.184642710754575667e-01 -8.963268656144267599e-01 4.272755158634509720e-01
-2.083937756969283725e-02 9.596493760607151258e-02 -8.125924686520766826e-01 -1.639112933463038602e-01 -8.795127434778723385e-01 4.467554386614316364e-01
9.930801621470846524e-03 -3.057288997671130104e-02 -9.864538624063098338e-01 1.077444325586689733e-01 -7.118685052214727138e-01 6.939988245857168225e-01
-4.950696986716493497e-02 1.805013833450282157e-02 -9.456674260827995226e-01 -1.483781222109670506e-01 -8.095090010281748016e-01 5.680485103435389815e-01
2.044006683404304275e-02 7.991377935387006248e-02 -8.406437860156776853e-01 1.282072504925808043e-01 -8.607578596971526830e-01 4.926041086823266246e-01
-7.332617320727915187e-03 1.057766445607179057e-01 -6.747728047674492746e-01 -2.372808004369127421e-01 -9.120921451029180282e-01 -3.343437461439578984e-01
6.613702060280704509e-02 4.481782920224363503e-02 -9.046254735133096858e-01 3.981479062848688327e-02 -8.141483689909295718e-01 5.792902689642033254e-01
2.436787379820689117e-02 -9.083686222796932830e-02 -1.042489279427794013e+00 7.627318188922886655e-02 -6.401435099850854016e-01 7.644597362506853067e-01
4.379977659998497003e-02 -2.000467225750441821e-02 -9.786090920065387833e-01 4.659496076599804054e-02 -7.098920663858898639e-01 7.027675033135684091e-01
-9.020013209463294268e-02 1.113715024029880533e-02 -9.628786109749655209e-01 -6.215037009772045318e-02 -7.873264338879016888e-01 6.133958085918715941e-01
1.331971257345314352e-02 -2.395567342119896137e-01 -1.112506144395611463e+00 -3.345988826158446394e-01 -1.346873667798658969e-01 9.326858533193983503e-01
8.870892336007590862e-02 -3.889970465974468272e-02 -1.001611892674749482e+00 8.912982120171486500e-02 -7.158213355929372579e-01 6.925717944606855081e-01
-1.963523003659935554e-02 -1.946786641787615069e-01 -1.111768311213009897e+00 -1.384528508209633968e-01 -4.138719108381938572e-01 8.997448802403323898e-01
-7.648359315015375304e-03 -1.124609445665605417e-01 -1.058390724132736604e+00 -1.836827925973970599e-01 -5.593592057760375935e-01 8.083179514381838571e-01
-8.618320452318678493e-02 -2.752747380592308196e-02 -1.004239191083904581e+00 -3.068092597349335662e-02 -6.620588290189941549e-01 7.488236025255928796e-01
-7.225676503333086469e-03 -1.631584521817933398e-01 -1.091044192614733177e+00 -1.773857042074445667e-01 -5.076242881479959834e-01 8.431203318774070921e-01
1.202039817754543827e-01 1.876171651093201317e-02 -9.387686092971365692e-01 -5.960566264419566579e-03 -7.559898497670790585e-01 6.545561998017868088e-01
8.776627390376812166e-02 -1.031622246786610964e-01 -1.054575826977147024e+00 3.530064990421030724e-02 -5.525461666680971939e-01 8.327344101313046698e-01
-5.041023429847048092e-03 1.030983702698420740e-01 -7.872842196917783086e-01 -2.969540038386248026e-01 -9.029594624215130372e-01 3.106163692203972593e-01
-7.170638263430521853e-02 -1.416318210340465622e-01 -1.085051479463215340e+00 -1.096080634916517249e-02 -5.993402517557827602e-01 8.004193421885125170e-01
2.799193441813249347e-02 -1.839944498760667790e-01 -1.103364666691813545e+00 3.806697401410941844e-02 -4.672581412771060760e-01 8.833010443216249286e-01
9.150215791033523144e-03 -1.061202978469882041e-01 -1.051956412630218773e+00 1.770310609530832413e-01 -5.887933996097189926e-01 7.886585674636745757e-01
-1.164963621385502052e-01 4.595227037816163734e-02 -9.074628350369977614e-01 -2.031511768416357708e-02 -8.783192753411959153e-01 4.776426975863811708e-01
-1.279101604807563741e-01 5.198757506012073593e-02 -8.971363771927187702e-01 -1.227613328658077804e-02 -8.502599160073258666e-01 5.262198891934297684e-01
-9.340723404188298884e-02 -2.351921492859346610e-02 -1.000991345722682446e+00 -3.068092597349335662e-02 -6.620588290189941549e-01 7.488236025255928796e-01
4.277250720505969793e-03 -2.212760004122289459e-01 -1.113129568205903697e+00 -3.406326550956662591e-01 -1.331412353867363896e-01 9.307216585650999185e-01
4.992539062935529015e-02 8.170170342506270778e-02 -8.424105204209675346e-01 1.894620072260625940e-02 -8.685928497671812076e-01 4.951641170475761244e-01
1.053721372527780253e-01 -5.835841141228791107e-02 -1.022429592841988200e+00 9.606606860996412534e-02 -6.402028653127745939e-01 7.621755714447551178e-01
-7.718260803554559402e-02 -5.519755883643030075e-02 -1.026405553110336433e+00 7.377856375822396985e-03 -5.671755022884634734e-01 8.235639118120262614e-01
-2.685386783852576273e-02 1.581633711196256398e-02 -9.422654131362284691e-01 -1.726893099330510106e-01 -7.885179789091745217e-01 5.902692598906341681e-01
1.172480820274718616e-01 2.442228286177779498e-02 -9.322143632890391718e-01 2.657802208404815014e-03 -7.580861310811397580e-01 6.521490274084981165e-01
3.955779272579248301e-02 6.174821091148863239e-02 -8.750834376298374240e-01 8.888900961306632487e-02 -8.453308854657723970e-01 5.267963914527711289e-01
7.539270687137647475e-02 5.638825453147106037e-02 -8.873858521102847563e-01 1.786748368459931818e-02 -8.427936424934533433e-01 5.379401725093578834e-01
-8.340150739816062919e-02 -6.154171615533134826e-02 -1.030718962691161478e+00 7.377856375822396985e-03 -5.671755022884634734e-01 8.235639118120262614e-01
7.001482736165734466e-02 9.415310881702812495e-02 -8.190711558004829529e-01 -8.348415025258437705e-02 -8.711708237108031216e-01 4.838303344889038904e-01
9.654465902719029657e-02 -2.030993582498456101e-02 -9.828059867591107945e-01 7.437763937239029455e-02 -7.371836730431325924e-01 6.715863302361256837e-01
-3.509309469865300873e-02 6.506952120802082622e-03 -9.572525835600360633e-01 -1.916900772320694890e-01 -7.671217009387636399e-01 6.121921350683797725e-01
-4.565107954567219212e-02 1.192989668862942387e-01 -7.540495284934981557e-01 -1.617660335777151848e-01 -9.842642033343661501e-01 7.110364558234197330e-02
4.831854043598609975e-03 -2.294425366199387417e-02 -9.775908034290629045e-01 1.783676511041646651e-01 -7.046022435998740008e-01 6.868192333894028723e-01
-5.009932504770027439e-02 1.005105612022449274e-01 -8.141059227793696618e-01 -1.331782797890741499e-01 -8.633695548913140616e-01 4.866791114062709589e-01
-6.370660880453486719e-02 -6.262260895741941086e-03 -9.800131148654409596e-01 -1.437292837451663308e-01 -7.481720245489615895e-01 6.477503490361156135e-01
-4.364349306255557726e-02 5.649243660120734783e-02 -8.833207808881821110e-01 -9.189308427190225059e-02 -8.432713402231218902e-01 5.295744591851996308e-01
9.295695037242675263e-02 -9.233799699761137403e-02 -1.047613641688554864e+00 3.530064990421030724e-02 -5.525461666680971939e-01 8.327344101313046698e-01
-5.134493969507581551e-02 4.784137035826312449e-04 -9.694989491458051445e-01 -1.431723997112237245e-01 -7.478893445966489084e-01 6.481999631284504071e-01
-8.213060168737053302e-02 -7.954625252846994621e-02 -1.042856804270073656e+00 2.749048259045677040e-02 -5.439479228242034559e-01 8.386685463412696384e-01
6.093418756533569569e-02 -1.032337715964516262e-01 -1.054529622145756518e+00 2.114854880241056473e-02 -5.921547449239691341e-01 8.055467068690563837e-01
1.136150298931883351e-01 2.289778969638670350e-02 -9.339716935056913139e-01 2.657802208404815014e-03 -7.580861310811397580e-01 6.521490274084981165e-01
1.034888124927832997e-01 -4.933706710803251877e-02 -1.013841382262613777e+00 9.319952347323175179e-02 -6.814755847466157368e-01 7.258821365887307975e-01
8.408253347881659845e-02 4.780831082113560365e-02 -9.014992193344545379e-01 1.874375819296834542e-02 -8.175643702176565997e-01 5.755320773678996860e-01
-6.759384263308954033e-02 -1.218910412081616879e-02 -9.874081737019833049e-01 -9.005903967281576883e-02 -7.139509394865299896e-01 6.943798854946129362e-01
-3.000069549367126789e-02 1.169921410029286235e-01 -7.199397997154410866e-01 -1.694252957879821275e-01 -9.828754576922008601e-01 -7.246312036823449043e-02
-7.761440063289917757e-02 6.186114316322574580e-02 -8.792466495453624686e-01 -4.840048118804432531e-02 -8.415122987147307665e-01 5.380654649135321321e-01
7.081765133343279062e-02 5.571598976166925593e-02 -8.882871340160760631e-01 1.786748368459931818e-02 -8.427936424934533433e-01 5.379401725093578834e-01
-3.586339988034815268e-02 5.912480123476691884e-02 -8.777790966924431393e-01 -9.189308427190225059e-02 -8.432713402231218902e-01 5.295744591851996308e-01
-9.754221772577024996e-02 -2.638532099221559753e-04 -9.775016052349823070e-01 -6.281239594699748741e-02 -7.388658279536319817e-01 6.709186919424674489e-01
9.091754381286049069e-02 1.678281727698071463e-02 -9.408773765956062185e-01 9.706205504405375842e-03 -7.492551583544418969e-01 6.622103119507930513e-01
-1.686554049561680285e-02 -1.102756022598663233e-01 -1.058864782375514402e+00 -1.521157772295130828e-01 -5.574197758221208776e-01 8.161764416106834785e-01
1.372351631541558585e-02 6.015683015687119974e-03 -9.472419308539354876e-01 1.092820132722915477e-01 -7.707780240447049680e-01 6.276612774617332802e-01
-3.424529915789122775e-02 -1.643486897942431912e-01 -1.097243857397910638e+00 -1.405400112415118585e-01 -5.252859121762060157e-01 8.392396652383913302e-01
-1.984415612307610308e-02 -2.001333803731361050e-01 -1.113746173545443474e+00 -1.198542225004741307e-01 -3.205280068811880434e-01 9.396258628590317130e-01
-3.717233787510395432e-02 -5.281247139647432531e-02 -1.019623199858468166e+00 -1.643761647454726194e-01 -6.396882963012552326e-01 7.508524222766861378e-01
-3.169780341913359251e-02 -8.723380257653953751e-02 -1.045285381496296573e+00 -1.288439413148928236e-01 -5.917584737640715353e-01 7.957519384298483711e-01
4.371212602727707341e-02 -2.901546174200757625e-02 -9.877026532464029396e-01 4.733967315592348124e-02 -7.095008740149477688e-01 7.031126973092688415e-01
3.808035926646348174e-03 -4.111440255918237530e-02 -9.955857433757633324e-01 2.657304637805169567e-01 -6.705802879819356965e-01 6.926105673385699601e-01
1.048393659930273308e-01 2.274997483170157833e-02 -9.341531548296581056e-01 -8.508114565631968995e-04 -7.605130304752730774e-01 6.493221131281311509e-01
-1.030142489598784294e-02 6.839928276790559203e-02 -6.016176287459173988e-01 -8.485897647132704946e-02 -8.170256582419644920e-01 -5.703227401099517646e-01
-8.972104792483420743e-03 -9.552344811109650391e-02 -1.046512195149023716e+00 -2.022924810155628528e-01 -5.826119994727835261e-01 7.871727956394921621e-01
1.594751485227391408e-02 3.820767313752082561e-02 -9.051905314422348248e-01 1.403100599162796502e-01 -8.173020665895622816e-01 5.588652959656029706e-01
-5.574398024287249148e-02 -1.180021348393174158e-01 -1.068312195105236118e+00 -1.930487705561611742e-02 -5.518600876626954532e-01 8.337132392896189348e-01
-1.220857349012187398e-01 3.502966360134043833e-02 -9.280473634598763732e-01 -2.363672813445866563e-02 -8.882390863066388365e-01 4.587729619760138600e-01
4.828944526428292396e-03 9.101100686457337663e-02 -8.130795139605802024e-01 3.081960319744631582e-01 -8.608840902583457799e-01 4.048379787214336223e-01
-9.901775082873008615e-02 -1.298108983207077981e-02 -9.911005800645594777e-01 5.535114031172525982e-04 -6.915743256083655144e-01 7.223050918998571435e-01
-9.312840813179047716e-02 6.724900631805938445e-02 -8.721251589327889686e-01 -5.600012605158851547e-02 -8.242280234912209291e-01 5.634821657993813737e-01
-7.748900516039972097e-02 2.946798964183522385e-02 -9.336188595518292166e-01 -7.198279289322152830e-02 -8.480412063024022062e-01 5.250186567546512029e-01
-1.826852963501586491e-02 1.154171467150135050e-01 -7.270918989643869734e-01 -1.776940249384613146e-01 -9.840573019074031480e-01 -7.487326885586857196e-03
-5.533265982228481594e-02 2.987538290434590613e-02 -9.291238107498098753e-01 -1.036967051479532193e-01 -8.455207606104240270e-01 5.237763231745289350e-01
4.627534300517981147e-02 1.178577808530241744e-01 -7.438002960267460217e-01 1.270009060200600892e-01 -9.863213560365434729e-01 1.050759368091358781e-01
-9.867787297156692394e-02 -6.866933835417680931e-02 -1.034835198000175982e+00 5.464150814184132871e-02 -5.493493239967961461e-01 8.338043090631327425e-01
5.377422600152408777e-02 4.318261761987223640e-02 -9.054327336115377545e-01 7.130655401428735718e-02 -8.128572791813044596e-01 5.780816715971665021e-01
-1.476889448690717546e-02 -1.252048143703211880e-01 -1.068609907412915838e+00 -1.494965362332233150e-01 -5.438887092658949429e-01 8.257335269851572290e-01
-3.429564297881051993e-02 -1.173388206213372559e-01 -1.066386892203386116e+00 -7.491327902087216439e-02 -5.511998887079230247e-01 8.310034195565708659e-01
-6.328935815112162605e-03 6.945466841508540767e-02 -6.031015350081004867e-01 1.973960219785414558e-03 -8.227991794879334631e-01 -5.683287901514701979e-01
-8.407838160811020867e-02 7.356032696102142443e-02 -8.619939244203965734e-01 -5.600012605158851547e-02 -8.242280234912209291e-01 5.634821657993813737e-01
-8.061598695653331148e-02 -5.213244620927386802e-02 -1.024114777157855594e+00 7.418945894390563921e-03 -6.112976378030143820e-01 7.913660071409883701e-01
-8.996615779915434485e-02 -1.793511126396278880e-03 -9.784923957069182610e-01 -4.890475029074742991e-02 -7.468260699722009122e-01 6.632187773343551918e-01
7.806329339076245252e-03 9.975359643539852272e-02 -7.951061694905325883e-01 2.624696442559011356e-01 -8.949912693122760166e-01 3.606942107921632390e-01
3.887628724896627710e-03 -1.972433242755914085e-01 -1.105917935247667572e+00 -4.424345345506497940e-01 -3.515783702223448381e-01 8.250117164190758912e-01
9.467096678074374272e-02 -5.993848596219786967e-02 -1.022507459357508530e+00 9.292668041992915851e-02 -6.516045395920775363e-01 7.528453732667347298e-01
2.872275073894810064e-03 -1.071516008992446645e-01 -1.051012589201746561e+00 -3.712908815771480131e-01 -5.620034027449517522e-01 7.391178908406694781e-01
-4.133565743788290836e-02 1.188494649664686847e-01 -7.504539312989736421e-01 -1.617660335777151848e-01 -9.842642033343661501e-01 7.110364558234197330e-02
2.188773759388917481e-02 -2.110824687143492417e-01 -1.113084290774613461e+00 1.607818769207860488e-01 -9.861120177967826195e-02 9.820514339572019580e-01
-9.232643030759579705e-02 -1.134861248424507210e-02 -9.891375555750221427e-01 -4.918762641835090765e-02 -7.057490687255794093e-01 7.067523112097378046e-01
2.251777471308498077e-02 4.815852914289305703e-02 -8.923647979845347189e-01 1.517845915227529485e-01 -8.226364303994233573e-01 5.479331539120130268e-01
7.059689470060542815e-02 7.028359787908190770e-02 -8.626157137623851057e-01 -3.636641893803736758e-02 -8.855327577677823969e-01 4.631513991059612589e-01
-2.447921688642101801e-02 -2.767851330368078372e-02 -9.925734706855479095e-01 -2.210314225478989258e-01 -7.077593249596885183e-01 6.709857287447015262e-01
-9.978757578739684553e-02 1.970689881693420825e-02 -9.519886614140716796e-01 -6.665565428736984488e-02 -8.318094223808080168e-01 5.510445613469289183e-01
3.137267463499111148e-02 1.163462505674450198e-01 -7.372135289744121689e-01 1.390238561457041444e-01 -9.902890219710976938e-01 1.427792183183503190e-04
-3.520066056736368548e-02 -5.899788527524601339e-02 -1.024343556981167858e+00 -1.642000756762225511e-01 -6.173127635697033266e-01 7.693915044253206714e-01
4.377787075874431388e-02 -2.755767775224416197e-02 -9.862360509723878677e-01 4.733967315592348124e-02 -7.095008740149477688e-01 7.031126973092688415e-01
-1.198591137393285877e-01 6.305828446124646857e-04 -9.777663338330623288e-01 -2.809565713412094656e-02 -7.274320136877827636e-01 6.856043316026667611e-01
8.436953301074399947e-02 -1.201306069710436353e-01 -1.064649228062319875e+00 -6.814986180153406736e-02 -4.550824588498832979e-01 8.878375707208928658e-01
-5.012520755813759665e-02 1.210264655341585921e-01 -7.369777233623966417e-01 -1.709908728698174007e-01 -9.852704192044707820e-01 -2.079046864326600935e-03
6.681928173196276244e-02 5.358036447228118476e-02 -8.915002248045229560e-01 1.786748368459931818e-02 -8.427936424934533433e-01 5.379401725093578834e-01
-3.957235738607207953e-02 5.495295088668029904e-02 -8.850657573535575251e-01 -9.189308427190225059e-02 -8.432713402231218902e-01 5.295744591851996308e-01
1.158116622162021631e-01 7.292808596542416089e-02 -8.459039373082450908e-01 -1.255470580235149569e-01 -9.151079364356604628e-01 3.831649786894774090e-01
1.105264446050422018e-02 -2.226683282363884075e-01 -1.111491942901695840e+00 1.032591528247686768e-01 -1.042311094601972021e-02 9.945998723688426191e-01
-8.910468848453989565e-02 1.098647755949363342e-01 -8.066020348316456090e-01 -1.172821886969638433e-01 -8.868626068224882975e-01 4.468999942207098619e-01
5.967483239040386606e-02 -1.178573928588629860e-01 -1.064406623401125795e+00 2.086489904671679288e-02 -5.556801116391019146e-01 8.311343269992677030e-01
3.615860839822318540e-02 -1.676163062773278478e-01 -1.094611373075852434e+00 -9.664852161580281265e-02 -4.608815772546858147e-01 8.821832207748642185e-01
-8.227722829428249507e-02 1.015204315531856088e-03 -9.746248266187881315e-01 -9.738018271777765245e-02 -7.463598229287878860e-01 6.583799167134132269e-01
-1.308811201000617264e-01 -3.378018520252133901e-03 -9.822515794204047523e-01 -8.288287201536645096e-03 -7.142420336049385421e-01 6.998497136722617862e-01
5.697942058702531662e-03 -3.281668394081806855e-02 -9.879503778665343905e-01 1.746318069209292501e-01 -7.055546791909289572e-01 6.868015191329418512e-01
5.842206766792172037e-04 -1.383650123539963139e-01 -1.073528265018798500e+00 -2.373287591899520821e-01 -5.330858585771042213e-01 8.120926840247173484e-01
-5.203466393411176200e-02 9.441765477670632789e-02 -8.250809493797385263e-01 -1.333165178717172772e-01 -8.384072223462771811e-01 5.284884441311467063e-01
2.287382307963686367e-03 9.194097804880464742e-02 -8.087417952769504481e-01 3.952262282833293172e-01 -8.339772425749544249e-01 3.850690682773795781e-01
-5.994127015969590716e-02 1.144313493023182970e-02 -9.574249242649904845e-01 -1.358836265437961821e-01 -7.797164927485903396e-01 6.112101365104668504e-01
5.471205528583066892e-03 -1.084410538769663562e-01 -1.052594918946021973e+00 2.582355907108639936e-01 -5.433992767508420973e-01 7.987688061741474721e-01
-1.193497531166857334e-01 -1.168518385869036710e-02 -9.901848287580161667e-01 -8.529081250525970617e-03 -6.636237666007737124e-01 7.480178815881501908e-01
-5.541785507838696036e-03 7.964595054857129264e-02 -8.363713757763042711e-01 -1.922435138873912208e-01 -8.501583737442558464e-01 4.901766731707565827e-01
1.273006844884465583e-01 3.637173062299895593e-02 -9.177011244087204256e-01 -3.119042820194916146e-03 -7.838646997125270355e-01 6.209238311713246583e-01
7.215362425581177408e-02 3.259234308376018213e-02 -9.213321264105157615e-01 3.359173040575132163e-02 -7.892983670360804727e-01 6.130902734854990488e-01
-1.092654451352272904e-01 7.873129055329634862e-02 -8.570403315213586115e-01 -6.291824869083736949e-02 -8.084308021268451494e-01 5.852187045491828998e-01
-8.842294782237606829e-03 3.728268352396058027e-02 -9.053822759075296212e-01 -1.963736979087301326e-01 -8.212408881335876432e-01 5.357245322245444141e-01
2.885251787493581591e-02 -1.075207537852710532e-01 -1.055805173167692956e+00 6.778281394980119334e-02 -5.775975635682414344e-01 8.135026396349785971e-01
1.051138134792508338e-01 7.880667789969997283e-02 -8.374284030474441476e-01 -1.570384594094807740e-01 -8.693508516870922520e-01 4.685808563494932577e-01
-2.540377303611900117e-02 -1.908886039331588180e-01 -1.110912592809291777e+00 -1.384528508209633968e-01 -4.138719108381938572e-01 8.997448802403323898e-01
2.646634552218852035e-02 1.149404570973202311e-01 -7.472370085792343630e-01 1.515341097541235416e-01 -9.849243534922242915e-01 8.343519328766085819e-02
-1.828358208969092097e-02 -5.760242759009805147e-02 -1.018719376661710196e+00 -2.401050555068439951e-01 -6.525107694178540196e-01 7.187344837377537266e-01
1.965137810435564625e-02 -1.703800112387100218e-01 -1.095071911165175660e+00 1.552750145410202176e-01 -4.886615699851911687e-01 8.585450133096657055e-01
1.321900565844094377e-01 3.687994400388053956e-02 -9.170349868418217198e-01 -3.119042820194916146e-03 -7.838646997125270355e-01 6.209238311713246583e-01
5.370753025757424998e-02 1.176873175832079538e-01 -7.534752858207329762e-01 8.996830569626110274e-02 -9.779853787687385891e-01 1.882825081751111629e-01
-9.017999213783013668e-02 9.670987115791422617e-02 -8.289274113539969457e-01 -9.727431920808775334e-02 -8.226016291838128547e-01 5.602359025327989794e-01
2.234744745694149451e-02 3.945384066103158061e-02 -9.050377661594573020e-01 1.518245933385659330e-01 -8.115644132751532736e-01 5.641918963995630198e-01
-5.865439417581464268e-03 -7.769636136218972811e-02 -1.031619845251968703e+00 -2.647824793070762128e-01 -6.005953531343580787e-01 7.544371812453396497e-01
-7.035234934903109028e-02 -4.274904899125784447e-02 -1.016304608534261078e+00 -6.142999173517760259e-02 -6.186397459829887646e-01 7.832695709687178542e-01
-9.561807222692961239e-02 4.258968082346979017e-02 -9.126891246968726890e-01 -3.523394572503626282e-02 -8.700876308133052017e-01 4.916361294436512042e-01
-5.916180957484570846e-02 3.668401223676113349e-02 -9.184940638282339531e-01 -8.742389266339116449e-02 -8.511669517665323426e-01 5.175634098466096455e-01
3.438411061647604627e-02 9.047499898637410831e-02 -8.249842388782502312e-01 8.122085317534288862e-02 -8.775410544958635040e-01 4.725726089012746156e-01
-6.651110305360213859e-02 -4.691186255439883102e-02 -1.019362235551889206e+00 -4.438928882202296256e-02 -6.276491462643158936e-01 7.772297859909582662e-01
3.759057663065877380e-04 5.311049722381156607e-02 -8.770563986871320328e-01 -3.182159017042476279e-01 -8.007943519807807498e-01 5.074121064167014250e-01
-4.607670219306629622e-02 -2.355912019710388813e-02 -9.946741452413394580e-01 -1.845104462146349988e-01 -7.120839275584019967e-01 6.774159544553677303e-01
1.293270500251132438e-01 -5.462226239553769763e-03 -9.675685872909475238e-01 2.207744670996058048e-02 -7.651883687107177145e-01 6.434278100428980629e-01
4.611736400135860864e-02 -1.163930043494321165e-01 -1.063290007902007561e+00 3.545476588068768170e-02 -5.709564343901970540e-01 8.202144290396129467e-01
1.174099608407952987e-02 9.558065375001638386e-02 -8.075370628020955843e-01 1.814752824308601964e-01 -8.882074341583189314e-01 4.220832569204031604e-01
7.488353307071066167e-02 -1.051692549299079391e-02 -9.707446462576512225e-01 3.295714554815205172e-02 -7.358259304006395940e-01 6.763682626405167486e-01
1.024120491151736950e-01 1.070906393096235365e-02 -9.479299660013363882e-01 3.152475382058023308e-03 -7.500862380333610524e-01 6.613325165239688497e-01
-9.169920919593943509e-02 -8.984604196791071487e-03 -9.867178115256531878e-01 -4.890475029074742991e-02 -7.468260699722009122e-01 6.632187773343551918e-01
1.646519883183277097e-04 1.079170371093648578e-01 -7.629563592850587828e-01 -3.934764275138663003e-01 -9.050871291650575134e-01 1.612252759671374269e-01
1.213688060163096299e-01 4.772039945361559315e-02 -9.016926795301034581e-01 -1.244537649200341128e-02 -8.292405056224193549e-01 5.587533413224899936e-01
9.217547404869838590e-03 -1.945030026032756043e-01 -1.104380334651442919e+00 4.290826507589904359e-01 -3.518805760276271233e-01 8.319063282798752068e-01
-8.699911723197022162e-02 9.321711940552884768e-02 -8.337182475016301497e-01 -8.259363601734741323e-02 -8.339190769339406284e-01 5.456713886718620454e-01
-1.211199030649921793e-02 -1.561337817168479414e-01 -1.087842833298348744e+00 -1.773857042074445667e-01 -5.076242881479959834e-01 8.431203318774070921e-01
-1.994831827609734251e-02 1.157801316669787861e-01 -7.358909111216407339e-01 -1.798470517264600110e-01 -9.836780417311056235e-01 -5.705103097888689773e-03
-2.444592835150243438e-03 -2.095090490194544963e-01 -1.113109001672762943e+00 -3.134275636888295691e-01 -3.040738711373427994e-01 8.996122738222480653e-01
-6.096008128159180472e-02 -8.636892691834079094e-02 -1.047612989965594377e+00 -1.943773308117155776e-02 -5.568496890796652554e-01 8.303858129234539254e-01
-3.421210579403916822e-03 5.631764798117828291e-02 -8.739819338904959434e-01 -2.365955247516569049e-01 -8.203910357985462198e-01 5.205584559383090726e-01
-3.559288258026660490e-02 3.501033447563801221e-02 -9.163579410076401199e-01 -1.324680358988070128e-01 -8.372096273703214520e-01 5.305961357789558130e-01
5.788808386164211867e-02 1.239606593692879795e-02 -9.444456968847358969e-01 4.032711043393719108e-02 -7.551004310394220376e-01 6.543676819710215753e-01
-2.297237884381523113e-02 9.144846528699689114e-02 -8.220141347136090682e-01 -1.641794451127163157e-01 -8.585616116327340341e-01 4.857129490070065114e-01
