-1.004142392997068589e-01 -1.418847708138483155e-01 -7.662604900071521286e-01 -1.285853636541446068e-03 3.312338861091249087e-01 -9.435478044452613178e-01
-1.259528763120826809e-02 -1.161343612198644654e-01 -7.611286965370942514e-01 -1.006007305478756747e-01 2.496412754232499032e-01 -9.630985030713561379e-01
3.202615408891175408e-02 -9.994168093354785162e-03 -7.339631188753108493e-01 2.202851449064106848e-01 2.173083593849457762e-02 -9.751934298912068311e-01
5.412790762075460338e-02 1.295546107864279095e-01 -7.350739560937915584e-01 1.448693258336399003e-01 -2.035217382268462993e-02 -9.892414606420406598e-01
-2.535775736371045572e-02 1.196187790387207989e-01 -7.403373722147705838e-01 -9.391697624260947341e-02 -7.592399391221196780e-02 -9.926807889356293879e-01
3.624941013565567000e-02 -4.946757571056992903e-02 -7.364710471508107981e-01 2.146507269360451164e-01 1.053777831948681937e-01 -9.709894892504051800e-01
8.956532577705821063e-02 -1.622111292243786917e-01 -7.656621416152352699e-01 -3.114086248311070948e-02 3.943434697574364489e-01 -9.184353404260280351e-01
-3.465172304240130008e-02 1.709553013333970153e-02 -7.379961511528539964e-01 -5.539552984519311579e-02 7.204230338586095628e-02 -9.958620596227319988e-01
3.703801852332574973e-02 -1.893101608156521343e-01 -7.783138737002025520e-01 1.340016408145419391e-01 3.650357906433070454e-01 -9.212993171648540258e-01
4.244701665397371954e-02 2.003172310457228822e-01 -7.505493959188962450e-01 1.841019941979374075e-01 -4.265449846665235190e-01 -8.855313838527564263e-01
-3.149489050536974366e-02 -2.676676812930294802e-01 -8.258598784255459790e-01 1.150343569371314600e-01 6.921556624783596900e-01 -7.125220246583285899e-01
2.022888856246050568e-02 -1.558370944941087077e-01 -7.678022901461437622e-01 1.847710547311534335e-01 3.382018224729750888e-01 -9.227562975181993199e-01
6.912008671969557816e-02 1.743264593382450600e-01 -7.372475282905813776e-01 1.556277641552194779e-01 -2.461607444852270954e-01 -9.566529605340310383e-01
1.244728143777214247e-01 5.814536585295849297e-02 -7.278845859617706360e-01 4.143699022957936934e-02 -4.808786192377020180e-02 -9.979832330136185758e-01
-5.799419085629234707e-03 -2.399657941694240404e-01 -8.107020301503319315e-01 4.896296617885543268e-01 4.067808067778457271e-01 -7.712277027791409889e-01
-3.724522966873330954e-02 -2.107248713265816309e-01 -7.932470408531375750e-01 1.902106456498394577e-02 4.086842349709410294e-01 -9.124776135276039257e-01
1.975147596761443400e-02 -1.447753456361526858e-01 -7.639261327423947368e-01 1.989324910466705731e-01 3.281192968957514777e-01 -9.234519971339084643e-01
-1.042081764247906051e-01 1.199078507642404173e-01 -7.459518318220234034e-01 1.847669213179805592e-01 -1.084996667235691714e-01 -9.767747985628775220e-01
4.655239894068242262e-02 -1.460862403198234238e-01 -7.599471248055089667e-01 1.149066909010457299e-01 3.638670654276169314e-01 -9.243360920591958685e-01
-4.352250438873225130e-02 -1.924538168590557152e-01 -7.852311931497696351e-01 8.880001288801937440e-03 3.871711363005009843e-01 -9.219651060603595294e-01
1.737635319070332182e-02 -2.356996399937658360e-01 -8.012397130699822068e-01 1.937748277387781326e-01 4.081216307578975355e-01 -8.921255800851812801e-01
-6.642467551197688003e-02 -9.477102740183200157e-04 -7.387628754940568365e-01 -1.660658243242639151e-02 1.194488773748559052e-01 -9.927014592080551925e-01
-6.798229998952166897e-02 9.871894655854332457e-02 -7.380207563741899568e-01 6.427031112400348467e-02 -1.203853950665001865e-01 -9.906445799390953821e-01
-4.385174850877912762e-03 1.284114243517629483e-01 -7.440365538293391978e-01 -2.656021935171306025e-01 -7.870643521670424303e-02 -9.608645960042276890e-01
2.685933856218943733e-02 -3.476330494880754129e-02 -7.370613285129890002e-01 2.374051296315906057e-01 1.087298860272865181e-01 -9.653064882767034005e-01
2.019650925898830440e-02 3.188496712979779768e-01 -9.069733316173925752e-01 -7.461485510982340114e-03 -9.497942542740608340e-01 -3.127861902033883812e-01
-7.136881962227963061e-02 6.398911893439698795e-02 -7.353799024894734915e-01 1.152618017231615659e-02 -3.376352763200791973e-02 -9.993633830456657430e-01
-8.104556156659790955e-02 -1.946655054966295595e-01 -7.906837516057274584e-01 1.570865848718552005e-01 5.254047135847356165e-01 -8.362258617121569593e-01
-8.274075820362622111e-03 7.337716661968075871e-02 -7.401966596762437067e-01 -1.728872204734284712e-01 -3.097404321596885016e-02 -9.844544771820723517e-01
-4.806564763722517841e-02 -2.693530273104966302e-02 -7.423772663224570412e-01 -1.739104181135346303e-02 1.368909041786966485e-01 -9.904334566329302536e-01
-6.527948959673776641e-02 4.379176186402684856e-02 -7.352433667339939305e-01 -3.868297605939302608e-02 1.936645109405929488e-02 -9.990638457752386570e-01
9.087946503211187521e-02 -4.036228719930925329e-02 -7.268116998016249664e-01 9.429845763202811260e-02 1.335031368109936556e-01 -9.865519314003931006e-01
-5.643576729252914106e-03 8.937551794429615670e-02 -7.412224952414900869e-01 -1.792903186810087257e-01 -4.625542054756426325e-02 -9.827082057748527388e-01
2.356840365139272267e-02 -2.053554954639291441e-01 -7.868721697893215072e-01 1.634262246394483087e-01 3.797327366332526877e-01 -9.105464940513018357e-01
1.312783090555164935e-02 2.636372855120450720e-01 -8.035657373255165048e-01 4.138862350786486760e-02 -7.599460966389146588e-01 -6.486670271005007260e-01
3.318564129828951298e-02 -1.502662644412139717e-02 -7.339382171306949587e-01 2.218715573312582401e-01 6.723542071875603099e-02 -9.727550617951953305e-01
-9.413689710416265136e-03 2.559361735125004755e-01 -7.957042828251876809e-01 -1.250276309321224633e-01 -6.719336344627674373e-01 -7.299817000316904947e-01
5.478103418794245949e-02 -3.363222541960868978e-02 -7.308679886739127829e-01 1.741056055802427116e-01 1.085042481416014781e-01 -9.787308446354200386e-01
8.231233849084231002e-03 -2.214192545328209361e-01 -7.971099191433306252e-01 2.357962304019607658e-01 3.870379372548216623e-01 -8.914043823393277277e-01
3.590561880460333560e-02 9.601888022057109007e-02 -7.363185232657736279e-01 1.289419689260712376e-01 -4.277697750069105187e-02 -9.907290743918710785e-01
-1.798196457418157340e-02 -6.923743481188527824e-03 -7.409733638808949641e-01 -6.243768186510668255e-02 9.154818683033347226e-02 -9.938412676938858104e-01
5.430186121340905420e-02 2.249723668775935881e-01 -7.611157054736588101e-01 1.803131514946619829e-01 -5.691834864165269403e-01 -8.021953167332693813e-01
5.844924552211001358e-03 1.581405578330483119e-01 -7.473675737440385047e-01 2.857749433615626722e-01 -1.474687483196240878e-01 -9.468820676386996427e-01
8.574435296257870709e-02 1.545439486386996908e-01 -7.319879313039041602e-01 1.384688699085429298e-01 -6.919228792605519596e-02 -9.879467593741118048e-01
6.507257554131480517e-04 2.647733114774285523e-01 -8.053945932750754544e-01 -2.030652719836826062e-02 -7.293031116669157488e-01 -6.838893304227640080e-01
-9.638304183093290844e-02 -7.796547290935219865e-02 -7.494932227686297299e-01 -6.565073854890805805e-02 1.654204319496819231e-01 -9.840355995702410041e-01
-1.064901578300196938e-01 6.535754796957063406e-02 -7.363679402824206965e-01 6.155833492540790930e-02 -1.183209996506454642e-01 -9.910654430676529847e-01
-6.366533453229013088e-03 2.340104097570762376e-01 -7.786046977937267632e-01 -1.785299047500883973e-01 -5.446093304658025103e-01 -8.194679678178485860e-01
-1.279669704039507888e-02 1.972150972325576457e-01 -7.571813181619725386e-01 -1.600887686877854876e-01 -3.421687940609008383e-01 -9.259006979751865929e-01
8.072697169334878964e-02 -1.690688604814370444e-01 -7.682654996042794782e-01 1.025689317645458835e-02 3.584637745120218821e-01 -9.334872888823720904e-01
-6.594654318189852038e-02 -2.094315606809253327e-01 -7.964939490481155460e-01 1.946208846216739563e-01 4.851159522548821323e-01 -8.525169934593188614e-01
-5.635033711651730309e-02 1.926768626034147391e-01 -7.511999272746449074e-01 -1.165919235796586753e-02 -3.264272769762227577e-01 -9.451504092362487119e-01
3.445033780087089492e-02 -2.814656486389663717e-02 -7.345565890318069835e-01 2.218715573312582401e-01 6.723542071875603099e-02 -9.727550617951953305e-01
1.133067942863606389e-02 1.360332776918913023e-01 -7.429285404979891760e-01 2.148884778135273510e-01 -1.003029402354505412e-01 -9.714742725791090106e-01
5.183070032105069336e-02 -1.994778431804775931e-01 -7.809401832591337245e-01 7.027539929612780512e-02 3.799035622186300309e-01 -9.223527804844334765e-01
-7.486192371852430638e-02 -3.166089684602202414e-02 -7.428249211557007570e-01 -1.310574621426876868e-03 1.411065650921782821e-01 -9.899935452729218266e-01
-6.616832111304271624e-02 -1.733934827420916536e-01 -7.782102184708468151e-01 7.087264649145610940e-02 3.830453683950654775e-01 -9.210066849542332124e-01
8.587100454575186115e-02 -1.402280560787890207e-01 -7.561606416164559086e-01 -2.559026945907303188e-02 3.911969724200240472e-01 -9.199511220050875515e-01
9.545011047529661230e-02 1.219383110011607735e-01 -7.300280430993590919e-01 1.130751655701481423e-01 2.133354575908154305e-02 -9.933573811859601754e-01
-8.101228621860191714e-02 -1.257663454977048234e-01 -7.612985011900369470e-01 -3.596557459101096255e-02 2.807453747263849442e-01 -9.591081857715949566e-01
1.247234702875487516e-02 -6.922939179678128628e-03 -7.384730055767001478e-01 2.276246793970688465e-01 4.945030045466929786e-02 -9.724925054283579673e-01
8.346619951150373307e-02 -7.127766162535231764e-02 -7.325940691849678332e-01 6.317529108429770224e-02 2.416658271953295301e-01 -9.683008368076583272e-01
-2.557229799126349568e-02 -2.133998593920762576e-01 -7.947639859730458722e-01 -5.559829655551173228e-02 4.223947080073458538e-01 -9.047052227480034681e-01
6.124471445854100249e-02 -2.114505790292896814e-01 -7.846273012822024828e-01 9.681880023843381089e-02 3.180669941672036871e-01 -9.431116090589863887e-01
8.107737935975199315e-04 -4.864526085647795373e-02 -7.466899141408066543e-01 3.700945583568122643e-01 1.477441280335639595e-01 -9.171704806121259157e-01
-7.790802270875317459e-02 -1.047204363994542059e-01 -7.559869733894090116e-01 -5.346015826353098244e-02 2.541407759193922700e-01 -9.656886027563583719e-01
-4.057363114172483909e-02 1.495692332514745038e-01 -7.422284210304508356e-01 -3.318814883277775712e-02 -1.405333481770478787e-01 -9.895195424180374122e-01
-1.050229542787176930e-02 -1.691407337848656670e-02 -7.426533647758777335e-01 -1.053149804251471561e-01 1.113444892314749829e-01 -9.881857920532115536e-01
-9.327511143860704734e-02 -7.293800806625148903e-02 -7.488269072893275480e-01 -5.731233974487989768e-02 1.666043496852339101e-01 -9.843567881509874828e-01
8.790140967338695710e-02 -6.279426146897616745e-02 -7.305572121148438125e-01 6.278545683779826470e-02 1.995418992660475677e-01 -9.778757675936998739e-01
-8.417267934949183850e-02 1.085745185306534882e-01 -7.408160504709491168e-01 1.327479472527639814e-01 -1.499629709291476765e-01 -9.797392968796756474e-01
-1.513200893309884533e-02 6.209230031104374242e-02 -7.388997057873947227e-01 -1.281970218240437442e-01 -1.555047190960513574e-02 -9.916267979531585564e-01
-2.629081660446470903e-02 1.950125753558237807e-01 -7.542888117372585910e-01 -1.309246027449076366e-01 -3.381329080404881227e-01 -9.319468251441018758e-01
-7.140375569688539592e-02 1.003052269680192593e-01 -7.384354994868161937e-01 6.427031112400348467e-02 -1.203853950665001865e-01 -9.906445799390953821e-01
9.110061033179057965e-02 -1.876487988335915486e-02 -7.249259108256507211e-01 9.849083228426266934e-02 6.346015930197133892e-02 -9.931124629855985209e-01
5.171746640559352765e-02 7.986326344932812016e-02 -7.337358343379543069e-01 1.013769576831247132e-01 -4.279141873196559698e-02 -9.939273650191041698e-01
-1.248016017091460074e-02 6.227209768696096576e-02 -7.392453550259902029e-01 -1.281970218240437442e-01 -1.555047190960513574e-02 -9.916267979531585564e-01
1.083073858063070549e-01 6.815423141628557113e-02 -7.290491515946199153e-01 4.798887064182147388e-02 -2.721045524413429062e-02 -9.984771702046719710e-01
6.678537482033894412e-02 3.504163169927107524e-02 -7.295329044319587286e-01 1.316466160997274981e-01 -7.323268944311350781e-02 -9.885879534297490334e-01
-7.025487301214204672e-02 -4.368537210671984833e-02 -7.447147472938248081e-01 -1.695883426846531150e-02 1.536184069218256287e-01 -9.879847078751043954e-01
-5.744478055425988883e-02 -2.078896706919387549e-01 -7.938319859889210184e-01 1.579412924762494397e-01 4.765082963282978312e-01 -8.648666901096578874e-01
-3.993783903443381966e-02 -2.111249926500366192e-01 -7.934823776662072170e-01 1.902106456498394577e-02 4.086842349709410294e-01 -9.124776135276039257e-01
-1.044641743516140919e-01 -1.223420887396801382e-01 -7.593545845622456936e-01 -3.958757373720774714e-02 2.899965135974982289e-01 -9.562085787666294578e-01
2.679995533531973409e-02 2.839584955591454296e-01 -8.265041003397356478e-01 2.190787628545227406e-01 -8.745545177422020533e-01 -4.326186440305553882e-01
-1.395829902812180563e-02 -1.548229075541251998e-01 -7.726070574869056129e-01 -1.201786207766528808e-01 3.141598748604882974e-01 -9.417328029413990498e-01
2.348883970459542114e-02 8.602519182335548187e-02 -7.376258625418906645e-01 1.390894746395990866e-01 -4.665124136419926404e-02 -9.891803575302432483e-01
-2.705873910903622975e-02 -2.804788499329646245e-01 -8.444184987835261502e-01 1.533517695319825402e-01 8.735790961981836356e-01 -4.618904604632735889e-01
1.064487359996761084e-01 -1.096124363585885969e-01 -7.439521311694067274e-01 -2.565033450978166860e-02 3.777484853240354323e-01 -9.255528845911148439e-01
-8.227077991928199996e-02 3.050473150351385929e-02 -7.357256238802311055e-01 -8.704487329621111991e-03 6.516078196194205474e-02 -9.978368125071538364e-01
6.114497456643201018e-02 -1.793392413840021182e-01 -7.724543413625846178e-01 3.359304024095330354e-02 3.800887021858806447e-01 -9.243398109559183284e-01
1.497339709802474744e-02 2.740933440258123688e-01 -8.154233159156322186e-01 2.104622661831902775e-01 -8.013717143438557899e-01 -5.599187530013849390e-01
-1.083042928002073135e-02 -2.030367377966402209e-01 -7.923699886334875098e-01 -2.293386843157725064e-01 4.030941362560492292e-01 -8.859564804166739638e-01
-6.480914653237374035e-02 -1.419783785078160832e-01 -7.665288592961423397e-01 -1.308272682342804388e-02 2.850747973389086143e-01 -9.584159859794931791e-01
5.035517171091138250e-02 -2.095882540410172468e-02 -7.307743899952985345e-01 2.074468287598019711e-01 5.796913817320569623e-02 -9.765272101979326491e-01
-1.836752239613783158e-02 -4.471649689788862597e-02 -7.458763494056542820e-01 -3.651482952115517322e-02 1.454669705161140969e-01 -9.886890450055088042e-01
7.960348305022792170e-02 -1.194930386416219736e-01 -7.477620974225001049e-01 1.189333982267154304e-02 3.507920667009634119e-01 -9.363778480974063179e-01
9.134188432501312571e-02 -9.623077518789879825e-03 -7.247253170369609698e-01 9.620101048091646290e-02 -1.797189919871846828e-02 -9.951996666104957479e-01
-3.746890225465417806e-02 -1.916306963072064162e-01 -7.848593372100490795e-01 -2.248391065940963818e-03 3.797793234295265830e-01 -9.250743809191916966e-01
8.820674906990418063e-02 -5.274118466312997106e-02 -7.286553692021063844e-01 8.117314906929229412e-02 1.819848714651395305e-01 -9.799451139875086092e-01
2.391579947184311467e-02 5.061432090734937356e-02 -7.361097243141616620e-01 1.615577248093320317e-01 -3.674838336891118884e-02 -9.861788163787559292e-01
6.477036504519190219e-02 9.058749472519272983e-02 -7.327235844214475824e-01 8.506063980155230408e-02 -3.115775128878627009e-02 -9.958884887833461264e-01
3.260203790701846072e-02 8.458994055303441228e-02 -7.362767595259114284e-01 1.390894746395990866e-01 -4.665124136419926404e-02 -9.891803575302432483e-01
7.868216350797656300e-02 6.510136502808497316e-02 -7.306169288065998968e-01 7.708712950035259692e-02 -5.633333763046442094e-02 -9.954316297651025769e-01
-1.214342671491646236e-01 8.350174082114518448e-02 -7.405862401152949470e-01 1.092464906447438433e-01 -2.267569237711833385e-01 -9.678049916195090585e-01
-5.344826093631084574e-02 -1.436843992979185969e-01 -7.672501759712020419e-01 -2.086130620198838742e-02 3.079507557383499572e-01 -9.511735582656437593e-01
-3.949096797042697671e-02 6.908622554780761982e-02 -7.365834584548753838e-01 -6.713906313183092001e-02 -1.606140873759695498e-02 -9.976143429959013487e-01
8.130158950762142456e-02 9.133972007618863798e-02 -7.312601582878437423e-01 7.028195962943734054e-02 -2.068431072704089713e-02 -9.973126919078054708e-01
-5.963474009796210229e-02 1.315563304363684405e-01 -7.407616147823563590e-01 8.005440967131267904e-02 -9.150965616634673672e-02 -9.925811172496153967e-01
8.365291024182991073e-03 1.686218610899787584e-01 -7.487539815560698697e-01 2.840623059725309596e-01 -1.939055882935040165e-01 -9.389937322230209604e-01
-5.908946460545563134e-02 -1.088215308787972430e-01 -7.577916700674528494e-01 -2.663014056117388520e-02 2.386433503475468565e-01 -9.707420805489944682e-01
-1.135257483422612707e-01 -3.444518446866859374e-02 -7.431559429517458071e-01 -2.125033454326087992e-02 9.471253193127769643e-02 -9.952778303453596598e-01
7.751116036586437608e-03 -2.190092102837865873e-01 -7.961389873151034635e-01 2.099888338674379962e-01 4.047020181656314497e-01 -8.900117786544502474e-01
-8.332639314046040449e-04 -2.360864892485189659e-01 -8.065185114291650859e-01 3.046098908347840695e-01 4.141355692671457311e-01 -8.577322103508753237e-01
-1.908655807467008608e-02 1.654383445639055761e-01 -7.467990319640589458e-01 -1.268378895673397122e-01 -2.063378546072075215e-01 -9.702251488835973436e-01
-5.934376860505979900e-02 -3.929500329656241547e-02 -7.441963632362611492e-01 -1.417044443993397372e-02 1.537464529549281145e-01 -9.880087179312503354e-01
4.707420336015074452e-02 -6.646242051686260255e-02 -7.367250031810189670e-01 2.156295757625631970e-01 1.522239903376673142e-01 -9.645370614041406387e-01
3.058573698617609443e-02 5.782434832222776294e-02 -7.354434259227423665e-01 1.470059680773258270e-01 -4.381881265835226719e-02 -9.881645394400977445e-01
3.570173362237271525e-02 1.312896066065451228e-01 -7.380086446323381733e-01 1.571087668926437475e-01 -7.619215984848447254e-02 -9.846377964221645351e-01
6.148065706372800310e-02 1.564082303596822099e-01 -7.357092137149243705e-01 1.609673994913172201e-01 -7.543211034862527808e-02 -9.840729104234886560e-01
5.711937130314127808e-02 -2.466606152054813712e-03 -7.290805340218065034e-01 1.645428621113559642e-01 7.851991995020573753e-03 -9.863386805504048560e-01
-2.204491856794842802e-02 -2.487581949079181454e-01 -8.124912917525122236e-01 -1.010575006426332190e-01 5.035996636503612400e-01 -8.580062705686406499e-01
6.443664893229821000e-02 -1.918003152551065460e-01 -7.773583416648480737e-01 1.013322466534723708e-02 3.736344166359613639e-01 -9.275206954364882961e-01
3.689038034101462665e-02 2.338981000645296293e-01 -7.714134439385273989e-01 1.844256813434497211e-01 -5.686176767686983435e-01 -8.016614657866326654e-01
-6.482983469872286150e-04 4.941472238136461470e-02 -7.414729579195185050e-01 3.006497846032983867e-01 -1.649945561521306073e-02 -9.535918807238199513e-01
6.856165380426092193e-02 3.911991416797475085e-02 -7.296462033588666518e-01 8.610842103729725305e-02 -7.691754448930054888e-02 -9.933121519322112292e-01
-1.191380915016393149e-01 -5.035703080005952265e-02 -7.445371515525796013e-01 -2.207658405167708601e-02 9.217215170923295786e-02 -9.954983269126570500e-01
-8.569847141976401350e-02 -1.500766105738822465e-01 -7.695539784932436955e-01 4.139461253661987777e-02 3.584401857126302549e-01 -9.326345046797477334e-01
1.016316068863441779e-01 -3.243589652051908495e-02 -7.248012353084035686e-01 7.007982956342645453e-02 7.373427552198780210e-02 -9.948125824001267103e-01
1.018725462066141507e-01 1.155746790843099024e-02 -7.246166370328944728e-01 7.119344638605491771e-02 -7.460999854493598205e-02 -9.946682066442059655e-01
-1.073376467305518916e-01 -6.683627528272763352e-02 -7.470511063135462093e-01 -4.834107050711987374e-02 1.542163845690491253e-01 -9.868538126960227919e-01
-7.406715995250102991e-02 -1.028285638231292293e-01 -7.557539798639230089e-01 -4.365709156011826630e-02 2.102740893767501840e-01 -9.766672236198418178e-01
-5.660988341783677186e-02 1.471056858379120313e-01 -7.420701284622585048e-01 5.888428430991714257e-02 -1.406172158221150603e-01 -9.883114082493157371e-01
-2.633951376838138819e-02 -1.120520973992791408e-01 -7.594251289471772859e-01 -3.137595380400774736e-02 2.453540266065870890e-01 -9.689256685374906253e-01
6.405859580841263834e-02 1.924204258976066617e-01 -7.433966513011780464e-01 1.546750898622829828e-01 -3.424844793724786673e-01 -9.267038350870556718e-01
-2.261666308336169381e-03 2.275086452075145982e-01 -7.755392157342516635e-01 -3.372781510196740662e-01 -5.051294856029817648e-01 -7.944102539741145774e-01
-6.885116596776527653e-02 1.026395549486665421e-01 -7.385480275374365355e-01 6.506849239829581855e-02 -9.906443972095219097e-02 -9.929513221098942299e-01
-1.051332887686883266e-01 5.450349707559549312e-02 -7.354559102298401374e-01 3.436502689436744806e-02 1.668502289691436513e-03 -9.994079552548392753e-01
5.709953974477355830e-03 -2.759674553016501219e-01 -8.319968142811406953e-01 7.923415545218571998e-02 8.296337559672311013e-01 -5.526570180224654738e-01
1.182890312027940483e-01 -9.149104166861184162e-02 -7.374198257035696757e-01 -6.748022642152871030e-03 3.393667233625302648e-01 -9.406299438485896669e-01
2.511573587647071906e-02 -2.125560534646204203e-01 -7.896015049804977481e-01 1.620251609821524164e-01 3.801555602597939121e-01 -9.106204462959690549e-01
2.961582201032398470e-02 2.396162480400463035e-01 -7.776587572667582604e-01 1.808992267798059661e-01 -6.191894925224140644e-01 -7.641203060384559320e-01
2.948960665120983933e-03 -1.789561917884803233e-01 -7.803585255042131408e-01 2.698613187182568041e-01 3.379243237910594666e-01 -9.016551558384162668e-01
-8.817506916063254374e-02 -1.475632825519355151e-01 -7.685634367005119705e-01 -2.142650614710475514e-03 3.737919002833834381e-01 -9.275101208778697703e-01
7.197745459779479431e-03 1.307020910314387885e-01 -7.433974857262628522e-01 2.385364423066869966e-01 -1.081880914853279446e-01 -9.650884428654356029e-01
1.263261396328310970e-01 -1.309774167217340676e-02 -7.218704566747757845e-01 6.706468626402525834e-02 -2.071589717893650151e-02 -9.975335480375484565e-01
9.348748145613434979e-02 4.791230796044977647e-02 -7.285569775477048760e-01 5.560957691546858372e-02 -9.675401434537661549e-02 -9.937536091322322074e-01
-6.856722015309274498e-02 -1.511980150779760890e-01 -7.696162908264443381e-01 -6.954657216862467593e-03 3.248825854948801384e-01 -9.457287869073025544e-01
1.450565800482974538e-02 -2.404475232782732896e-01 -8.040214245924475200e-01 2.197643977443052843e-01 4.315228638285009133e-01 -8.749237838105282661e-01
-1.580075722841723165e-02 1.400744526298580150e-01 -7.432619753208664637e-01 -1.433045159151606351e-01 -1.051646515981651403e-01 -9.840753079782859070e-01
-2.369875920304296418e-02 -3.888851491955994111e-02 -7.447778672288306590e-01 -4.746099350329498895e-02 1.511135363760777728e-01 -9.873763989581664235e-01
3.625269721595721084e-03 -1.225950861927134761e-01 -7.612100616229217076e-01 2.965863405879152204e-01 2.478135695403153593e-01 -9.222933249939286871e-01
-1.039851887829077309e-01 -1.374286655590985576e-02 -7.407886988466485523e-01 2.818652955846212907e-02 1.144542160298910732e-01 -9.930285756132263275e-01
5.640896176609867113e-02 -1.069169114213314826e-03 -7.291956339088209171e-01 1.509813633586703785e-01 -4.712679605731430292e-03 -9.885253757841985234e-01
1.348947623018499457e-02 -2.414506048670849725e-01 -8.047714021650120841e-01 2.197643977443052843e-01 4.315228638285009133e-01 -8.749237838105282661e-01
4.131237179836611678e-02 3.858782874902327853e-02 -7.329741751240558267e-01 1.392995153582027301e-01 -6.257247725224751589e-02 -9.882713848490640718e-01
-2.368377184235514066e-03 1.650908971158792093e-01 -7.500363089258845761e-01 -3.190155704355716604e-01 -2.026016728059164551e-01 -9.258410381895539887e-01
-6.924932564451355410e-02 -1.209284384816612518e-01 -7.604335507758813728e-01 -3.249331104469065090e-02 2.378867400166255752e-01 -9.707492383008166081e-01
-5.321061710233258163e-02 8.262004904931238847e-02 -7.364472151610885753e-01 -1.684076521778316016e-02 -6.367209940717726002e-02 -9.978287690701056478e-01
-8.259355085845937472e-03 -2.082765198619946356e-01 -7.956136511785681931e-01 -3.332060016965338045e-01 3.963989401478323904e-01 -8.554774343505997525e-01
-3.313456034541362172e-02 -5.565315711408973763e-03 -7.400413422351158621e-01 -4.047527553020469071e-02 1.022974299863839837e-01 -9.939300719310866228e-01
-1.240199551569569694e-02 -1.465057344770349379e-01 -7.700310745373031285e-01 -1.201786207766528808e-01 3.141598748604882974e-01 -9.417328029413990498e-01
-2.754255556250384887e-02 9.807227464736860412e-02 -7.387298313452947962e-01 -9.369495713975198314e-02 -5.110608525029412125e-02 -9.942884003431649020e-01
1.693491113218926689e-02 -1.089787726495583670e-01 -7.535662419172497462e-01 2.714685946416881546e-01 2.595920529275581590e-01 -9.267776260679380096e-01
3.968316473664176836e-03 -1.489790634171223316e-01 -7.692518451339166452e-01 2.800180680276776468e-01 3.087878938744006985e-01 -9.089774024554511112e-01
-3.418529798863774449e-02 6.918247027178364705e-02 -7.369449362081452737e-01 -6.971951277421707671e-02 -1.343404685619999095e-02 -9.974761731107122387e-01
5.193194085227629403e-02 -2.134644693586017494e-01 -7.862430762834954345e-01 1.029347311853941876e-01 3.428147730108588309e-01 -9.337464712229461838e-01
7.904496289902615547e-02 1.330055669521027495e-01 -7.318780665079624992e-01 1.192499871806013551e-01 -2.167609738655635471e-02 -9.926276176691413156e-01
5.876913599741971639e-02 1.110735594445556168e-02 -7.290913971935356619e-01 1.499316280486588659e-01 -3.178847781408628698e-02 -9.881852051052686381e-01
6.072553242824398241e-03 2.944552068419594715e-01 -8.498603864108353889e-01 -2.538894748638015342e-01 -8.373889517777233227e-01 -4.840659851652342471e-01
9.686233953196765264e-03 1.942511956217953528e-01 -7.562338097945973114e-01 2.674434501763959804e-01 -3.378393717180254163e-01 -9.024070921014060165e-01
4.772902991966550962e-02 5.264564778135189665e-02 -7.329180579887969449e-01 1.265420166475105246e-01 -4.975601993257763173e-02 -9.907126003555473126e-01
1.349345205361233459e-02 -2.079319323562426030e-03 -7.379877091261335398e-01 2.276246793970688465e-01 4.945030045466929786e-02 -9.724925054283579673e-01
3.238072972285693102e-02 1.142256527529407761e-01 -7.376331849701509569e-01 1.558402818473905160e-01 -4.458097110957277842e-02 -9.867757311408977827e-01
1.123698900139227450e-02 -5.346548377438177513e-02 -7.438147095063250003e-01 2.779481811398042956e-01 1.529375991814151958e-01 -9.483432392112571829e-01
-6.130745043301823877e-02 1.974590265943471645e-01 -7.528491965026886668e-01 7.836514391092997550e-03 -3.350828642820003478e-01 -9.421560715225312244e-01
-1.220826058663962016e-01 -6.418862648482335544e-03 -7.404687009494265171e-01 3.217359048665902055e-02 1.162147755129376153e-01 -9.927028689530792427e-01
-2.484329875701702089e-03 -1.710953671619030170e-01 -7.791725558164821486e-01 3.468690834415462665e-01 3.254398908681588876e-01 -8.796423798249732862e-01
-1.042729953116196262e-02 1.811321298384927225e-01 -7.521390449294744762e-01 -1.884365582037705877e-01 -2.721419347352570517e-01 -9.436262135458446387e-01
-1.097729663680689811e-02 -2.289007007788963505e-03 -7.412470565198169270e-01 -1.216855138566959038e-01 8.246648004888161576e-02 -9.891369548175720228e-01
8.573056141524453000e-02 4.181894301086498678e-02 -7.284657841033211900e-01 6.370813186607729439e-02 -8.814909463161066383e-02 -9.940679106830487832e-01
-3.745864195392300394e-02 -1.721470149885879486e-01 -7.772459706424256209e-01 -3.755641834513347849e-02 3.424822384644811701e-01 -9.387733655027947766e-01
1.489962058319105852e-02 2.972276994111115456e-01 -8.594721261133607682e-01 4.249538935133410633e-01 -8.134575242728541156e-01 -3.971159082581948163e-01
-7.257795153035694058e-02 1.168834837580080268e-03 -7.384997723555251081e-01 5.486811137298444607e-03 1.193322783500807283e-01 -9.928392126861844691e-01
-8.192088682849012204e-02 -1.509214998357303328e-01 -7.697110288840540715e-01 4.139461253661987777e-02 3.584401857126302549e-01 -9.326345046797477334e-01
6.045418930679572617e-02 1.332597216232116744e-01 -7.343107829191635183e-01 1.461527512329931500e-01 -4.463268789661726382e-02 -9.882546718726656909e-01
-1.204515794961324299e-01 8.890269280462761645e-03 -7.386386766113428592e-01 3.722490679743084563e-02 1.076800836648674486e-01 -9.934884528246163971e-01
-9.289732354283243565e-03 -1.706409243396204978e-01 -7.791499108724895262e-01 -2.588433932110556501e-01 3.477195983388948197e-01 -9.011610170896345862e-01
2.010756652220557425e-02 -2.347075850109613115e-01 -8.001813900640415422e-01 2.196636312654565437e-01 3.841064117469906725e-01 -8.967776500081416913e-01
-2.509966288640463547e-02 -1.107891535788745607e-01 -7.591454719450808630e-01 -3.137595380400774736e-02 2.453540266065870890e-01 -9.689256685374906253e-01
-4.389236689636311778e-02 1.907864955291640185e-01 -7.509944484934409914e-01 -4.316721473444968399e-02 -3.363131667027635663e-01 -9.407603549652957531e-01
-2.368751077480056935e-02 8.368687321967849257e-02 -7.384172729112620237e-01 -9.584990206465132667e-02 -3.189725067475478876e-02 -9.948845971637055863e-01
-2.470369102051613291e-03 2.402377820587064672e-01 -7.842495159379370140e-01 -2.415691951903622126e-01 -5.748014704832533628e-01 -7.818232495042407582e-01
3.395858981237850210e-02 -1.158479789329499091e-02 -7.335620485274636504e-01 2.202851449064106848e-01 2.173083593849457762e-02 -9.751934298912068311e-01
8.490055834905285703e-02 -1.146960766318332603e-01 -7.457821244646037906e-01 2.573985561280680082e-02 3.575442196918342530e-01 -9.335414242538943030e-01
5.926821207440495509e-02 1.128992287197165822e-01 -7.339195578974561096e-01 1.280277342159601983e-01 -3.549213619688999094e-02 -9.911353124269707271e-01
1.718767341894376563e-02 1.702800898878593372e-01 -7.467282431502345608e-01 2.103284313275748107e-01 -1.915041420090314861e-01 -9.586908336730182167e-01
2.279178747571038860e-02 -2.179607993530851551e-01 -7.922767920856488288e-01 1.937576123160190678e-01 3.855121578565307017e-01 -9.021299040683644632e-01
5.671257798530784239e-02 6.630484250619856322e-03 -7.292594124133129352e-01 1.499316280486588659e-01 -3.178847781408628698e-02 -9.881852051052686381e-01
4.144324679785702133e-03 -1.058433709768215464e-01 -7.566113341668044834e-01 3.124290210905371068e-01 2.407118917207040909e-01 -9.189373710784912719e-01
-1.313271995948621200e-02 -2.840228889537951829e-02 -7.437353248153630858e-01 -9.228836917705676712e-02 1.158985522574372123e-01 -9.889642978890943459e-01
1.178739537178095098e-01 9.940541151027659783e-02 -7.283998203683936801e-01 7.441741168607225732e-02 3.709375305192019745e-02 -9.965370551677787958e-01
-5.689425403960012700e-03 2.778505035527759626e-01 -8.188349369060500260e-01 -1.958358793987858282e-01 -7.566914166418465815e-01 -6.237518804145281148e-01
2.924680900156254038e-02 1.126663656781650390e-02 -7.342255521945305619e-01 2.006161811692791508e-01 -1.440446990156113785e-02 -9.795640148044998385e-01
-7.639747074671467478e-03 1.542674836452699594e-01 -7.465964840232159894e-01 -2.064687660322584717e-01 -1.489098255438792984e-01 -9.670555891517343960e-01
-4.990365014980005509e-02 -2.172564579246724359e-01 -7.975634981843970905e-01 1.579301080883195041e-01 4.694013840822058303e-01 -8.687464656508948613e-01
8.668425611144349452e-02 3.603844637339660012e-02 -7.278920771699713965e-01 6.370813186607729439e-02 -8.814909463161066383e-02 -9.940679106830487832e-01
1.134712150135157582e-01 1.301132511809494768e-02 -7.239592678126893777e-01 6.046615177740559399e-02 -8.513584605522614424e-02 -9.945329216298938180e-01
-4.113526545901562137e-02 -2.204814062231609251e-01 -7.980583400334811950e-01 9.995164184335812718e-02 4.469644067183482505e-01 -8.889502170648997392e-01
9.238661705269182733e-02 -8.549060624472473724e-02 -7.357864354726749712e-01 4.305798658377094079e-02 2.604622805232672533e-01 -9.645234109216690443e-01
9.530347591876298097e-02 -7.052909423366231223e-02 -7.316602981564025443e-01 6.278545683779826470e-02 1.995418992660475677e-01 -9.778757675936998739e-01
-2.610776076014449665e-02 1.930535368122203443e-01 -7.536037416573047043e-01 -1.309246027449076366e-01 -3.381329080404881227e-01 -9.319468251441018758e-01
-6.179763321376011143e-02 6.062654656032144540e-02 -7.352882328340605289e-01 -3.231800257564249740e-02 -2.893423211494843689e-02 -9.990587354712631152e-01
4.823387556817107513e-02 3.719881194929935270e-02 -7.319106248089285449e-01 1.392995153582027301e-01 -6.257247725224751589e-02 -9.882713848490640718e-01
-1.553648407083291260e-03 1.353135918343676691e-01 -7.455614669366814606e-01 -3.515124214632500688e-01 -1.077391544740644441e-01 -9.299630595621829476e-01
8.991021329739301571e-02 3.310009953358303975e-02 -7.273881211090859056e-01 6.324506979142155427e-02 -1.022822775400590023e-01 -9.927428654230141536e-01
3.066232731445448986e-02 -2.102464310328726604e-01 -7.876802623540769543e-01 1.340337388043843780e-01 3.747796554325145690e-01 -9.173740604224669415e-01
2.584719868944727189e-02 -6.107762071520718428e-02 -7.409104756168589656e-01 2.519212998215941135e-01 1.488770159611352284e-01 -9.562276365043558268e-01
-4.716431370715007398e-02 1.019864717407156646e-01 -7.378742862009491921e-01 -7.893101898913176123e-04 -8.889211845638080034e-02 -9.960409470828802680e-01
6.345980155497368824e-02 -1.469484143288273814e-01 -7.589958968142559437e-01 5.255973832466714207e-02 3.789088492036951084e-01 -9.239402350273387965e-01
-4.285793384575111581e-02 -1.770751279097469988e-01 -7.789444056372176739e-01 -2.356269479129302017e-03 3.530506441808387574e-01 -9.356012455301867536e-01
-1.257166645864876697e-01 -5.271562545798726129e-02 -7.446096422047809860e-01 -2.207658405167708601e-02 9.217215170923295786e-02 -9.954983269126570500e-01
4.702691054564918371e-02 -1.369153199371740126e-01 -7.565322243466963137e-01 1.149585182333632688e-01 3.390610066034675518e-01 -9.337141815816193402e-01
1.274583747131256550e-01 1.617280258782704400e-02 -7.234274664344497729e-01 5.244801909652511973e-02 -9.503086441597320688e-02 -9.940917161415256942e-01
-5.822753483270891317e-02 -3.299737340804668323e-02 -7.432026091512620170e-01 -8.576005060770570260e-03 1.585293154045177844e-01 -9.873170252226853849e-01
9.159004487022477659e-02 1.606112465332630856e-01 -7.317478467574519696e-01 1.324384544422655963e-01 -1.313290105221202320e-01 -9.824524145118810337e-01
9.161101022156467599e-02 -4.225665259255393519e-02 -7.269981270269507689e-01 9.429845763202811260e-02 1.335031368109936556e-01 -9.865519314003931006e-01
-4.526014295267561521e-02 -3.115883247133264047e-02 -7.430717083332611939e-01 -1.706923333979628796e-02 1.566142367385848500e-01 -9.875123402388357174e-01
-3.224990431884455083e-02 -2.401933403889932872e-01 -8.074689995988252322e-01 1.442418851043170656e-02 4.770478504081185345e-01 -8.787589494319867356e-01
-1.004371882333679206e-03 -2.721441894137213713e-01 -8.293790419966891037e-01 3.240733513260529719e-01 6.866782497090225812e-01 -6.507299319509237678e-01
-5.533748125026067416e-02 1.005249320499125854e-01 -7.377674836709268158e-01 -2.471201394770613895e-04 -6.857689599913724399e-02 -9.976458030116501785e-01
-4.696503354446203427e-02 -2.454167496908569446e-01 -8.132486210401274063e-01 2.627497295053872750e-01 5.168372819663188400e-01 -8.147648762769010844e-01
2.194356286011178714e-02 -4.340280447045274242e-02 -7.393297709851067712e-01 2.472166834071047037e-01 1.152345889873050144e-01 -9.620836247157096288e-01
-6.584331793925815579e-02 -1.618453906388050423e-01 -7.733823740027810922e-01 7.087264649145610940e-02 3.830453683950654775e-01 -9.210066849542332124e-01
3.436482598037694097e-02 -1.424249338350374872e-01 -7.603412163759942777e-01 1.614861798676624216e-01 3.187248809267315686e-01 -9.339896487595512609e-01
5.596247364049990874e-02 -5.850518026431156260e-02 -7.338421293757081409e-01 1.756548852134662830e-01 1.605114791040872513e-01 -9.712782435411916326e-01
-9.476888485764717318e-02 -9.350355526147891005e-02 -7.525991563636659221e-01 -6.516434150796764080e-02 2.096138377245240214e-01 -9.756103974590625283e-01
3.841778547710662794e-02 8.004527663875007915e-02 -7.353340911512379341e-01 1.209921628044584585e-01 -4.252213372669277902e-02 -9.917422874331963678e-01
-1.129062457373197770e-01 -8.120331781356909806e-02 -7.489885501884904206e-01 -6.952911330564813530e-02 1.507335211285936727e-01 -9.861263144299042827e-01
-6.991016276652123329e-02 1.473941100238684854e-01 -7.431811146583463534e-01 1.117238623662254043e-01 -9.589573364885185802e-02 -9.891015048244145014e-01
-7.941522160035116573e-02 4.934383151163626580e-02 -7.350020644206209930e-01 -6.663986424410113171e-03 1.338208162724210254e-02 -9.998882493440240937e-01
-1.910457439012805403e-02 -3.038654134059240453e-02 -7.436975105186027779e-01 -4.746099350329498895e-02 1.511135363760777728e-01 -9.873763989581664235e-01
-5.747110498732607015e-02 -1.658156802970718324e-01 -7.748238610573466856e-01 1.229033146088557953e-02 3.704887900918913402e-01 -9.287556213390195659e-01
5.009386986029901179e-02 1.469983562060420829e-02 -7.305330365763363920e-01 1.581762712097086188e-01 -3.182850559171992305e-02 -9.868977725468786044e-01
-1.122724721049021823e-01 9.841854563688183510e-02 -7.430391154720158431e-01 1.513249018626703080e-01 -2.080340530659363085e-01 -9.663449729994008086e-01
-3.546353052788735888e-02 1.223282302583407061e-01 -7.398644526542094146e-01 -4.704559551807286494e-02 -8.057242662692082336e-02 -9.956378839767997535e-01
4.254872081463870193e-02 7.473644957635813303e-03 -7.316197716563107578e-01 1.771541861633251225e-01 -1.419024845250991054e-02 -9.840808052053785504e-01
-7.612837341447786788e-02 -1.258938286051777544e-01 -7.615189591385439494e-01 -3.596557459101096255e-02 2.807453747263849442e-01 -9.591081857715949566e-01
2.747626454001128246e-02 -2.022640361356942418e-01 -7.848849047020118874e-01 1.620251609821524164e-01 3.801555602597939121e-01 -9.106204462959690549e-01
6.916906634378705392e-03 2.609030013045461338e-01 -8.016256684877310912e-01 2.022582904881581878e-01 -6.536752615850437431e-01 -7.292463481708582052e-01
2.189015453059746721e-02 2.849385429235191669e-01 -8.310461080960219737e-01 2.285463772060960519e-01 -8.737576661769341779e-01 -4.293181736928992076e-01
-3.363016344721805190e-02 -2.208103193405286657e-01 -7.979256640667982126e-01 2.310520583657455287e-02 4.306141703351997196e-01 -9.022403148661545247e-01
-3.030915627794440736e-02 -2.710200932418493358e-01 -8.295389449829099204e-01 7.794431303432926283e-02 7.717153862589266611e-01 -6.311735471935132624e-01
9.849818761693349134e-02 4.820051782053971084e-02 -7.283046435824163112e-01 5.560957691546858372e-02 -9.675401434537661549e-02 -9.937536091322322074e-01
2.988921307539270725e-02 1.910202878490371015e-01 -7.497926530139616963e-01 2.201951084374529077e-01 -3.373598941836720155e-01 -9.152608458885368448e-01
-1.114653076585251784e-01 -8.292650298092622829e-02 -7.493535428973476797e-01 -6.952911330564813530e-02 1.507335211285936727e-01 -9.861263144299042827e-01
-1.089352104023415674e-01 -3.805741745172203788e-02 -7.435977032173743950e-01 -2.125033454326087992e-02 9.471253193127769643e-02 -9.952778303453596598e-01
-9.944517581930931160e-02 1.427269119325708657e-01 -7.472468303894113095e-01 1.627747690364218236e-01 -4.350511017631169403e-02 -9.857036471240667730e-01
6.344231950170826917e-02 -7.144825977047522536e-02 -7.347007964513513345e-01 1.095664547785852039e-01 2.226096605692524932e-01 -9.687311964670564102e-01
-3.055387280744053732e-02 -6.628487837953672690e-02 -7.493306964625884303e-01 -1.618725904603144847e-02 1.982813689835754567e-01 -9.800114649118019106e-01
7.573455739981134471e-02 1.772540482533933870e-01 -7.369866866948631134e-01 1.452586340292040812e-01 -2.508204179504219811e-01 -9.570731670980778816e-01
-5.859700002126880941e-02 1.834574205082661613e-01 -7.484436893362397258e-01 -7.841824516696082464e-03 -2.564516757755543885e-01 -9.665252421846826092e-01
2.969294358748915050e-02 1.017871055427727045e-01 -7.374647370379672218e-01 1.442690133134350572e-01 -5.455081456706000614e-02 -9.880337344583121073e-01
-7.662925211009909317e-03 2.823259540593299755e-01 -8.239697567431557568e-01 -1.534487937830238402e-01 -8.253044088805815415e-01 -5.434391413661779913e-01
-6.162419371458224826e-02 8.994953684150192030e-02 -7.368604346561922203e-01 3.785841546456977791e-02 -9.001542599804678024e-02 -9.952205602080889113e-01
4.912259972603721242e-02 -7.079656802575232111e-02 -7.371029562304066696e-01 1.712122442867837768e-01 2.140230847720655527e-01 -9.617070690137055067e-01
2.025096113344561008e-02 5.599663714175993900e-02 -7.369303464987108088e-01 1.705036577312344648e-01 -3.741272550835601091e-02 -9.846465308273352202e-01
-4.432090079685761796e-02 -9.320037602946588950e-02 -7.546751358400122234e-01 -2.154396896549164164e-02 2.137413315232493671e-01 -9.766527021412896303e-01
1.123414162974276619e-02 -8.271520009704190490e-02 -7.490569421965845853e-01 2.828799408468266052e-01 1.855915860620404867e-01 -9.410285342376565332e-01
-2.852239274104136427e-02 -2.715899909528958767e-01 -8.300150910082081390e-01 7.794431303432926283e-02 7.717153862589266611e-01 -6.311735471935132624e-01
-7.930224265275247209e-02 6.039693199965228028e-03 -7.379514905153967685e-01 5.486811137298444607e-03 1.193322783500807283e-01 -9.928392126861844691e-01
6.980427032976718738e-02 1.576746160115256312e-01 -7.345198403191162129e-01 1.480244996718379780e-01 -6.584755751304960381e-02 -9.867891601889776654e-01
1.126267825895106434e-01 6.298573222045517062e-02 -7.286044224858341245e-01 4.732875978587272603e-02 -5.241921850763425067e-02 -9.975029894833300492e-01
-2.811995243002192446e-03 -2.252919026872261254e-01 -8.021056653219499344e-01 3.422682910402992662e-01 3.928608809993232032e-01 -8.535295806993385970e-01
-7.305150955384681621e-02 9.778832895883488030e-02 -7.382365420482692731e-01 6.427031112400348467e-02 -1.203853950665001865e-01 -9.906445799390953821e-01
1.268489333906941408e-02 2.802508461013195062e-01 -8.277856790885221860e-01 3.558813413685816829e-01 -8.253785728951432699e-01 -4.382906367597602104e-01
6.673060310259693040e-02 -1.582583019167750626e-01 -7.637038433335203713e-01 1.068513270274306162e-02 3.868928088070569538e-01 -9.220627865999750927e-01
-1.001111488447112285e-02 2.548044562351223785e-01 -7.945602355737182432e-01 -1.250276309321224633e-01 -6.719336344627674373e-01 -7.299817000316904947e-01
-8.927480360774255053e-02 -1.533967714597421483e-01 -7.709118256920848289e-01 -2.142650614710475514e-03 3.737919002833834381e-01 -9.275101208778697703e-01
-7.990173548756500030e-03 -2.402222198656673302e-01 -8.123151758276735412e-01 -4.727111183740261291e-01 4.458338677212403955e-01 -7.601160180908550501e-01
3.128851426572393235e-02 -2.200122906081772023e-01 -7.916843999732031678e-01 1.354696566127165380e-01 3.909211517828017346e-01 -9.104002555063571700e-01
-1.160364556864200598e-02 -5.768965950863869790e-02 -7.484476451233617045e-01 -8.084891762777830782e-02 1.717824985160225360e-01 -9.818117058387568763e-01
1.450441364408092994e-02 2.421122708835171111e-01 -7.833044096300323389e-01 1.913893257308638129e-01 -6.109019918721728670e-01 -7.682244999496546933e-01
1.118344102600004886e-01 2.279398310150182200e-03 -7.232076685102695190e-01 7.119344638605491771e-02 -7.460999854493598205e-02 -9.946682066442059655e-01
-4.567390597801958274e-02 2.377531527802142705e-02 -7.369590641224672556e-01 -5.023298087989800514e-02 5.199926760478072035e-02 -9.973829373918958741e-01
-1.507251697909479070e-02 1.275792493744779821e-01 -7.421154061130936785e-01 -1.428325340094928897e-01 -8.082676056959277322e-02 -9.864410281432201000e-01
-6.512060896385657438e-02 1.742292922734259564e-01 -7.464486497675084653e-01 3.505714232738055269e-02 -1.389383538188176670e-01 -9.896803173802917186e-01
-7.097066774543860090e-02 3.070024353275337559e-03 -7.382623803024680464e-01 5.486811137298444607e-03 1.193322783500807283e-01 -9.928392126861844691e-01
-4.984416000696659937e-02 8.965788181324758910e-02 -7.370149236892673539e-01 -1.724835153532681964e-02 -8.210499844288739191e-02 -9.964744169320189915e-01
-5.885274168021212976e-02 -1.564346851977133634e-01 -7.713317074273459140e-01 1.186615550019717857e-02 3.287505258696274413e-01 -9.443422505077748719e-01
-6.294245468409916111e-02 -7.280581195938376493e-02 -7.500172481476973241e-01 -2.097636178137785717e-02 1.908618995310698008e-01 -9.813927488797787868e-01
-8.584016232146790548e-02 -1.121999569425548848e-01 -7.575162424633623548e-01 -5.346015826353098244e-02 2.541407759193922700e-01 -9.656886027563583719e-01
1.273976837346642021e-01 1.019699094731983495e-02 -7.228594067524125588e-01 5.244801909652511973e-02 -9.503086441597320688e-02 -9.940917161415256942e-01
-5.001616083562049342e-02 1.370431255689106842e-01 -7.408800427068933381e-01 -9.586786060721027083e-03 -8.922925149366807418e-02 -9.959649763977175274e-01
-1.097976395965017254e-01 -6.391910384915043541e-02 -7.465079190165783141e-01 -4.850234334247572471e-02 1.363922675009819618e-01 -9.894668625356937142e-01
8.131682919013144550e-02 -6.148204713009337852e-02 -7.308493504724170586e-01 8.117314906929229412e-02 1.819848714651395305e-01 -9.799451139875086092e-01
-9.319687298038646650e-02 7.919774325095397735e-03 -7.379408328908486636e-01 2.143775635987246048e-02 1.048220624211410323e-01 -9.942599045682337655e-01
-4.487803335068606819e-02 1.087972636092168245e-02 -7.380278301709107813e-01 -3.650874529428395354e-02 7.162918351333429079e-02 -9.967629465355593021e-01
7.123547177888288340e-03 2.429540310712621498e-01 -7.860869405699240087e-01 2.733025248378870842e-01 -5.896360091917290935e-01 -7.600230960843803452e-01
-1.785038853053446534e-02 -2.398977668102240668e-01 -8.084790326612101286e-01 -1.501692500466544344e-01 4.588202272462826303e-01 -8.757472211831991427e-01
-6.115628098863880313e-02 -1.838707851644257041e-01 -7.824699621170773112e-01 1.147947235773954244e-01 4.234366422880306846e-01 -8.986231587304145396e-01
-1.251864724472803204e-02 -2.825787453805555516e-01 -8.471682329174866632e-01 3.693870116058863284e-01 6.827035502358409502e-01 -6.304515034102555759e-01
1.310468179779540610e-01 8.222233402102558731e-04 -7.218728218521033302e-01 6.443387273319887976e-02 -2.312727124902850054e-02 -9.976539507109546401e-01
-1.706532446336172376e-02 1.722035133651549921e-01 -7.484825158044854376e-01 -1.393652658314625536e-01 -1.961542651137942461e-01 -9.706187855988536173e-01
-1.619943450437010598e-03 2.745599763443727116e-03 -7.424350056224854333e-01 3.439589417904416191e-01 6.084256852314048197e-02 -9.370114344115052507e-01
-1.215504864266162000e-02 -1.485154904345311055e-01 -7.707330384198913809e-01 -1.201786207766528808e-01 3.141598748604882974e-01 -9.417328029413990498e-01
-1.017829239921240747e-01 -7.453613364903351191e-02 -7.485564791852618027e-01 -6.565073854890805805e-02 1.654204319496819231e-01 -9.840355995702410041e-01
6.125510315826253327e-02 1.632966061348069264e-01 -7.366769085146792628e-01 1.737422473356984576e-01 -1.474277334692507546e-01 -9.736933269232468380e-01
-1.011621504222241924e-01 1.314918997048179494e-01 -7.466591985107003948e-01 1.835864148033226617e-01 -1.068908433242153483e-01 -9.771746905815257289e-01
1.059527438612964667e-01 8.690281491480161824e-02 -7.294012696818839014e-01 6.098230676855632276e-02 9.077242239762891088e-03 -9.980975713498688728e-01
5.235983878190793132e-03 -2.511555034882489990e-01 -8.120262310716634957e-01 2.880775491508221764e-01 4.602565780228162207e-01 -8.397471095883468628e-01
1.103000008835799545e-01 2.721607834345492888e-02 -7.256110797486731157e-01 5.950708622330513897e-02 -1.139452059526036010e-01 -9.917032805883174706e-01
3.492807852861750523e-02 8.160587254341157559e-02 -7.358267464158101401e-01 1.209921628044584585e-01 -4.252213372669277902e-02 -9.917422874331963678e-01
