-1.118173441034970295e-01 3.028255207383056397e-02 -7.792870297366735199e-01 -1.949535946590181257e-01 -7.889604873890333492e-01 5.826958428446065152e-01
1.354479629698078502e-01 -2.712635998825177822e-02 -7.680473401978785697e-01 -1.060690965413415426e-01 -7.401824734217840041e-01 6.639873890354497377e-01
-4.832919296016265770e-02 1.327530293602440237e-01 -5.586261275402152338e-01 -2.529816622586836816e-01 -9.672417813726269520e-01 2.106216816808430259e-02
1.035939602416989652e-01 4.516466469580733556e-02 -6.948822555817802948e-01 -1.508818154112935572e-01 -8.288886866992718483e-01 5.386819310503637714e-01
-1.185907979469537493e-01 5.685368267719273505e-02 -7.394724929894851417e-01 -1.519555677435859287e-01 -8.409244728648356260e-01 5.193799537609463668e-01
-1.279535181481540052e-01 2.596528669618465568e-02 -7.903585007009128471e-01 -1.865094226535553290e-01 -7.912606144353617754e-01 5.823408583508554726e-01
-3.766348469129358195e-02 -8.233490353981184895e-02 -8.538780899483323639e-01 -2.504839910707554185e-01 -5.137873403159709529e-01 8.205366165798492206e-01
5.285470683608934489e-02 -7.477182002839256360e-03 -7.627963713165019088e-01 -1.142430906464191320e-01 -6.914290992515148560e-01 7.133542716966042585e-01
-4.562166064632042217e-02 1.152679069415607910e-01 -6.262416435795618019e-01 -3.016522016151354513e-01 -8.491302989617462993e-01 4.335708530861789312e-01
2.203473447985818123e-02 -1.274196003021321466e-01 -8.617399716132366772e-01 -3.021409981252184268e-02 -5.166329312679989183e-01 8.556737243260155168e-01
-9.400985081279185362e-02 1.339351016807802386e-01 -6.181949254341665423e-01 -2.600694509380060415e-01 -8.826724653200722637e-01 3.914756693009028288e-01
-5.850668101272266802e-02 -3.534820333636607640e-03 -7.996569926278055407e-01 -3.012343656681283899e-01 -6.885414742564612833e-01 6.596730214047404894e-01
-4.561901183647339153e-02 1.004344941648465661e-01 -6.511173106344086969e-01 -2.936872104763565416e-01 -7.932987244982065977e-01 5.333150627088408813e-01
-7.227616018836252598e-02 7.483567592804359070e-02 -6.987125584640399012e-01 -2.062330992220922365e-01 -7.936058740520536281e-01 5.724138585458310446e-01
-4.278822432282071431e-02 -6.089210900132160931e-02 -8.417058672708727096e-01 -2.801990638225919650e-01 -5.405921172853788148e-01 7.932519444425295552e-01
7.629705675075403037e-02 6.120903373150967525e-02 -6.775439482193218454e-01 -1.934652706065974614e-01 -8.358752280773691368e-01 5.136962060943434105e-01
2.415058983577340196e-02 7.457252114481439931e-02 -6.681458918260548829e-01 -2.662676821860540319e-02 -8.234909322374001084e-01 5.667042436200828703e-01
-9.707400534118512669e-02 -4.428913320252879371e-02 -8.430451481800107505e-01 -1.286604620078294903e-01 -5.260902178012170083e-01 8.406399754055239315e-01
-7.010247795081957223e-02 1.062115717635638695e-01 -6.549795072243987937e-01 -2.649743696184354569e-01 -7.922830486535448191e-01 5.496145506275808001e-01
3.037637261287919749e-02 7.625827905497231662e-02 -6.650632021576753372e-01 -7.341377014275637936e-02 -8.258875835194746662e-01 5.590349879406378841e-01
-2.724043161169530623e-03 -4.864734697047851802e-02 -8.130521283128434584e-01 -4.461137340470882617e-01 -5.956168995512199915e-01 6.679992853765308602e-01
1.055491938791739276e-01 -9.018215600604967408e-02 -8.263464121562069664e-01 -9.950137651934208571e-02 -5.437458896349641746e-01 8.333305968076759607e-01
-2.142173681180297579e-02 -4.543708055619076480e-02 -8.209066373134660255e-01 -3.779275009556912202e-01 -5.734951452583950671e-01 7.268246847668551336e-01
-8.566736445839087666e-02 -9.818931185902400605e-02 -8.720214820713938497e-01 -1.072288220778373768e-01 -4.764201349514339268e-01 8.726544761408474571e-01
4.197897379129651024e-02 -1.213274753030902653e-01 -8.563374046939026263e-01 -1.030880289021913199e-01 -5.231870947998984445e-01 8.459598821054713502e-01
5.205519754742238270e-02 1.181954100429192939e-01 -5.864106996875513289e-01 -1.047000997233690361e-01 -9.445024731625645265e-01 3.113727144560292093e-01
2.365261547086459915e-04 2.409385289354713452e-02 -7.343008116157888621e-01 -4.873119481676255749e-01 -6.857745197271075677e-01 5.405926130332600055e-01
-8.261615439511676984e-02 -1.016631592211956897e-01 -8.735430844975473619e-01 -1.072288220778373768e-01 -4.764201349514339268e-01 8.726544761408474571e-01
1.570176816873537426e-02 -1.282914278687795617e-01 -8.620128512631073381e-01 1.232522594967559310e-01 -5.055579509285896833e-01 8.539438147687645753e-01
9.743770133661412355e-03 1.278597763068272108e-01 -5.315061693853125879e-01 6.924497678877747364e-02 -9.973837765715618531e-01 2.075416636173244012e-02
-2.590272023424980072e-02 8.987671729971938306e-02 -6.565996132836190435e-01 -2.930854166786968085e-01 -7.972611302211440876e-01 5.277079009914278362e-01
-3.037035231828792356e-02 1.221735810142883932e-01 -4.981544420140303631e-01 -4.345845795650158383e-01 -7.924448488566887550e-01 -4.279806125571558040e-01
-2.185507021178681106e-02 -1.171973204167495314e-01 -8.698978607964070742e-01 -2.857027934581479744e-01 -4.874519766348021643e-01 8.250845315996628848e-01
2.285294530631620455e-02 -1.485432959912940665e-01 -8.738190420345719467e-01 -7.408341143963277642e-03 -4.890088794650003789e-01 8.722473458176179806e-01
-6.246412418719245185e-02 -1.354098575752079314e-01 -8.904632143361274066e-01 -1.362941773366005693e-01 -5.095282846956096234e-01 8.495909747162389003e-01
-9.272849311232995648e-03 -1.902616740784684735e-01 -9.059794186535783389e-01 -3.718827017880101393e-01 -4.185926708355386383e-01 8.285429572651138441e-01
1.402485600791212456e-02 -1.944067934995319658e-01 -8.959407748581503794e-01 -6.054371342561907232e-01 -3.219970512458638634e-01 7.278487311609602717e-01
-2.445586807089997552e-02 1.140011441532774034e-01 -4.649862081533817637e-01 6.306080956757305345e-02 -9.040103020433122305e-01 -4.228341378084809477e-01
6.866964740541368906e-02 -9.820234974968378161e-02 -8.370899943020798650e-01 -1.234828791165728940e-01 -5.743104944398862433e-01 8.092709277746824581e-01
4.630261841854681204e-02 8.277770611349816177e-02 -6.523653761401341233e-01 -1.284328029755596734e-01 -8.311025754515005692e-01 5.410855054404284381e-01
2.728989948482273692e-02 1.186551000265940875e-01 -5.900138740765783485e-01 4.945476922024771502e-03 -9.465350889453462147e-01 3.225629669587621318e-01
-7.946411489984608889e-02 1.100843512978263439e-01 -6.537648392958187449e-01 -2.543108555471551568e-01 -7.867540844242565390e-01 5.624446634048757554e-01
-4.495734934429388568e-02 3.982001844314230626e-02 -7.383255093679187420e-01 -2.748749330877385266e-01 -7.970212284827576932e-01 5.377740533977509729e-01
-1.813672551439870356e-02 4.427979277684276904e-02 -7.186723682630836718e-01 -2.891533924703972858e-01 -7.830796968621709375e-01 5.506146601618149283e-01
7.038414792540475737e-03 8.643322113643669979e-02 -6.510562871123900530e-01 2.364728596227095789e-02 -8.307674965091126351e-01 5.561170493795352110e-01
-3.807305700714360558e-02 -3.942015491262685495e-02 -8.238415824380599384e-01 -3.451722197762259192e-01 -6.108609227790720020e-01 7.125342600298272266e-01
-1.753712046562824062e-02 7.611398583446335464e-02 -6.726473450200025628e-01 -2.824822789799011913e-01 -7.980316747792052245e-01 5.323055589709899671e-01
-5.557862146686171068e-02 -6.776966108547551049e-02 -8.498537441797584524e-01 -1.988227566291473347e-01 -5.287631466096029964e-01 8.251539530499131248e-01
1.080214348566795220e-02 -5.039574956662314260e-03 -7.656543464094525131e-01 -2.534048073335243290e-02 -7.108146505939898496e-01 7.029227500494964476e-01
-6.249171278707827543e-02 -5.515589709113134093e-02 -8.436545954503958944e-01 -2.135508917519378658e-01 -5.201928285095461790e-01 8.269192450289144514e-01
-5.012160396284119548e-04 -8.391624419460422257e-02 -8.395949527775367072e-01 -3.835296963237966872e-01 -5.325268580280549946e-01 7.545330460069620271e-01
-4.120322318295088077e-02 -1.649874469591660342e-01 -9.037749381011171979e-01 -2.387911678736220622e-01 -5.099854055282170284e-01 8.263738042156053565e-01
8.505724994488136903e-02 6.294327716053017829e-02 -6.713263142150427409e-01 -2.204868750542853528e-01 -8.611927274788322428e-01 4.579657455163713142e-01
-3.133609400182444521e-02 1.255075627435978947e-01 -5.090715779052052969e-01 -1.188228592230880648e-01 -9.811627878204587372e-01 -1.523177990992369002e-01
-5.540687799037863348e-02 2.617063441373507909e-02 -7.630214827016648105e-01 -2.694845243293007564e-01 -7.840431757096302245e-01 5.591550677318127827e-01
5.516896612033701103e-02 -1.446234308158923232e-01 -8.681245897182549021e-01 -2.078535380997556803e-01 -4.648861721783513756e-01 8.606263728336319696e-01
3.382422251007645431e-02 -1.740793694240917733e-01 -8.868237752604047897e-01 -8.299381233986698192e-02 -4.497759947974567241e-01 8.892769993749153334e-01
2.546532935463666908e-02 1.237144389956518625e-01 -5.725684857831060404e-01 6.644441817451796420e-03 -9.678166507026079168e-01 2.515686427512793810e-01
-5.689257298731041634e-02 -7.069108572438120852e-02 -8.520424086603054503e-01 -1.988227566291473347e-01 -5.287631466096029964e-01 8.251539530499131248e-01
-3.026942603647278518e-02 1.276661964157718536e-02 -7.673569299308903302e-01 -3.407804964286569316e-01 -7.364640932308028631e-01 5.843708519729312600e-01
-5.644040284090050263e-02 9.099702504160300798e-02 -4.215389941219540582e-01 1.775398579678165098e-02 -8.560072484600037557e-01 -5.166588686669968400e-01
1.008491256873449288e-01 -8.721464782955214157e-02 -8.249713190983057887e-01 -9.950137651934208571e-02 -5.437458896349641746e-01 8.333305968076759607e-01
-1.102297993865462844e-01 -1.506320679370539740e-02 -8.249853134033373614e-01 -1.510736595818821526e-01 -6.226731280303449134e-01 7.677596792027068240e-01
-3.347901180719156655e-02 -1.278493925475090304e-02 -7.972564724042792150e-01 -3.397324227340135505e-01 -6.816959236096457042e-01 6.479757315496231795e-01
-4.261476178926706937e-02 -1.584952082089135031e-02 -8.048478237145965108e-01 -2.993919964742872697e-01 -6.538961117240573717e-01 6.948268183650507801e-01
9.695347908644007251e-03 -1.345626441605947132e-01 -8.673001784602848430e-01 -4.719128568442217952e-01 -4.407768231027494044e-01 7.635535657441280266e-01
1.051195188684112963e-01 -8.540345067475223206e-02 -8.231858561800081686e-01 -9.760659306077315578e-02 -5.856800780736423073e-01 8.046438958562482924e-01
-1.458135980464937711e-05 5.064119974809953850e-02 -6.997618270324114098e-01 1.963536603792743751e-01 -7.709348838497454004e-01 6.058916115273755842e-01
4.144938814965925394e-02 6.148824784769454238e-02 -6.850636457972912874e-01 -6.226235390091471034e-02 -8.110025013910077130e-01 5.817201578286982366e-01
5.004301706001341998e-02 -1.601173728361846849e-01 -8.773114981767140552e-01 -1.470788463535761259e-01 -4.576309967738710904e-01 8.768931997381745891e-01
-3.671816598058017661e-02 1.278081526254988554e-01 -5.194198026447869321e-01 -2.064774697627094480e-01 -9.715014524191666334e-01 -1.164129822134932629e-01
-3.622109159864786432e-02 8.049573112601768332e-02 -6.756606320265756693e-01 -2.743879912591499770e-01 -7.905074520522876735e-01 5.475483526617248575e-01
-1.101170386452000466e-01 -4.089615272997412787e-02 -8.429053908720068877e-01 -1.120961272482884075e-01 -5.107321181341497596e-01 8.524008222439374283e-01
3.873477053912628698e-02 -1.361108490918312430e-01 -8.657308246535400098e-01 -1.007166736141988095e-01 -4.940662597137782108e-01 8.635708903550005644e-01
7.914174467084539311e-02 1.757924988573155572e-02 -7.330116009090912321e-01 -1.349093804129988527e-01 -7.161941825819713170e-01 6.847374328254025588e-01
5.276133616215025746e-02 1.231165823691321853e-01 -5.717879037558519784e-01 -6.694714913217537922e-02 -9.605654363552147412e-01 2.698742701755583173e-01
-6.916942294530240010e-02 5.123065915539230797e-02 -7.318706289181435842e-01 -2.041849146850327479e-01 -8.198739641386343369e-01 5.348973766459012014e-01
-1.098150504839716102e-01 7.528274723669725610e-02 -7.105099500966551851e-01 -1.832005061318970063e-01 -7.856559231087243411e-01 5.909165296699652181e-01
-3.381247486773911876e-02 1.282865011177127812e-01 -5.668253542975126846e-01 -2.848279908352017165e-01 -9.528237049960471827e-01 1.048808983294272357e-01
1.088919149165452765e-01 4.823921857076200054e-02 -6.881263244717992222e-01 -1.770890778726206261e-01 -8.452498436220617917e-01 5.041747319680994766e-01
7.918966358031304109e-02 -1.355590877622949719e-01 -8.577956170703976424e-01 -2.281133165193987844e-01 -4.202836709269970328e-01 8.782516443358636682e-01
1.067647616180728842e-01 -1.188574922653544280e-01 -8.429967471828451187e-01 -1.850682322038771088e-01 -4.771122168460932844e-01 8.591354270225027845e-01
9.457517994772288161e-02 4.906467279509695023e-02 -6.914072872561562999e-01 -1.508818154112935572e-01 -8.288886866992718483e-01 5.386819310503637714e-01
-1.266527703880507630e-02 -1.884244759096151411e-01 -9.064881391354161488e-01 -3.309763090505838390e-01 -4.150962241728327617e-01 8.474371997527071487e-01
5.984802470446087819e-02 4.013337231230423852e-02 -7.108849649016271144e-01 -8.712674988085736261e-02 -7.722774860083934101e-01 6.292824596790809188e-01
2.837161322471120489e-02 8.704385972810510519e-02 -6.492171033224412025e-01 -6.762131171562901777e-02 -8.293008434145481278e-01 5.546958349526133203e-01
-8.653633712295392966e-02 -5.531458169744134928e-03 -8.114053698870595799e-01 -2.099965771703764250e-01 -6.932275509666543378e-01 6.894468798663903053e-01
1.006214983049038419e-01 -1.243528610441264060e-01 -8.471266500859722104e-01 -1.858016534138144937e-01 -4.392593617101814285e-01 8.789362654587968837e-01
-2.695518165083541501e-02 1.247689673660604959e-01 -5.106364526276636617e-01 -4.044386568160736606e-01 -9.090931791035451459e-01 -9.989476753173698320e-02
-1.312991926310028423e-01 5.771370755750691861e-02 -7.418717448223571820e-01 -1.574593074331406550e-01 -8.434828792974510270e-01 5.135593430507882085e-01
-4.040331390154145406e-03 -1.213325420788009812e-01 -8.657936212737535886e-01 -3.158883652355894966e-01 -4.877496773772034833e-01 8.138272500520123964e-01
5.792861416758839088e-02 1.065184216477819967e-01 -6.094293366011385160e-01 -1.494242334476719170e-01 -8.585412345283784941e-01 4.904888857793450740e-01
4.432313172931802436e-02 -1.848798812922155810e-01 -8.905683009970342123e-01 -2.654476352370318537e-01 -3.900041010309303058e-01 8.817223792816668571e-01
-2.968358160570155890e-02 -3.467457733404803039e-02 -8.157236900521110945e-01 -3.389805362073809447e-01 -6.154707468025307771e-01 7.115391457276906140e-01
4.381268596857509218e-02 -2.232176132400094659e-01 -9.034636634195847282e-01 -3.140161375730101123e-01 -1.184624659026874138e-01 9.419981472996553640e-01
5.629645760033456792e-02 -9.543503226024779851e-02 -8.367925969480943804e-01 -1.150635854808787772e-01 -5.895159491545417518e-01 7.995194287750012618e-01
-2.877748260395758886e-02 -1.876518088439423637e-01 -9.120407944241394338e-01 -2.969257555621798161e-01 -4.045609908058716564e-01 8.649656064850208548e-01
-3.840228482741463167e-02 1.064968268415516367e-01 -4.524668963122133736e-01 3.004672890872809865e-01 -9.056042897725650187e-01 -2.993330562000602879e-01
-5.245687812077790696e-02 -4.980529057114865127e-02 -8.371992736929665391e-01 -2.124387514347278738e-01 -5.670975864595654281e-01 7.957826991840108999e-01
-2.726603197891166097e-04 -3.989466705150087299e-03 -7.680523489997751474e-01 -4.740653745398740182e-01 -6.516900177214794976e-01 5.920828839483089912e-01
5.357446904384770975e-02 1.216447214547441286e-01 -5.765444938621819837e-01 -1.176869466712518186e-01 -9.368975362959065523e-01 3.292002264061464900e-01
6.780410193762617665e-02 -2.625795636391172957e-02 -7.779238088729925060e-01 -1.191294506911221712e-01 -6.651334868551256330e-01 7.371605107722293271e-01
-9.315343357457381290e-02 -1.082178100031983871e-02 -8.176369699303686067e-01 -1.653896174157959698e-01 -6.378656913100312353e-01 7.521792567604032032e-01
-2.125230808518003764e-02 -9.990290626006299857e-02 -8.592305523450569638e-01 -2.957956648721085102e-01 -4.960774947535024904e-01 8.163406420373519046e-01
-1.264436099351665121e-01 7.858410614625370438e-02 -7.111343825602495228e-01 -1.791996187712401045e-01 -7.784815597499663564e-01 6.015429808097686459e-01
9.651305250335813490e-02 6.071544156823550226e-02 -6.700819604633199145e-01 -2.071129455449639833e-01 -8.794762622631693283e-01 4.285157312203296542e-01
1.613188306955142719e-03 -1.740183467882408519e-01 -8.928925189998946355e-01 -3.677974625735051517e-01 -4.436414618365089324e-01 8.172559451383982765e-01
-4.616778666568725764e-02 5.841905346117831632e-02 -7.117122685887548039e-01 -2.398536793717687132e-01 -7.997832986745653239e-01 5.502880042787192671e-01
9.542343604730954554e-02 2.505382198556018944e-02 -7.216809736004864417e-01 -1.433970239427032611e-01 -7.407679856021253118e-01 6.562774451642729989e-01
9.130612511956615052e-02 8.000697457313489525e-02 -6.361879225579807340e-01 -2.979298899172307946e-01 -8.205273630182681188e-01 4.878243815474931910e-01
3.399538648553358106e-02 3.159401137974602453e-02 -7.239967128510025329e-01 -4.258533183359462099e-02 -7.580932991062303561e-01 6.507542081023021119e-01
3.818647612054275331e-02 -5.989052478191398549e-02 -8.116730822379216725e-01 -1.182639549200606571e-01 -6.308481354523701734e-01 7.668404442665591736e-01
5.151980636470888247e-02 1.012182947659048676e-01 -6.212456845556304508e-01 -1.476004646730752212e-01 -8.429677325337360250e-01 5.173195383273512249e-01
3.294014394999878609e-02 -1.468858347829559707e-01 -8.724752459328773968e-01 -5.376188651315737949e-02 -4.939352808416763718e-01 8.678350061494412016e-01
-3.948801726844317767e-02 1.805283232981344174e-02 -7.657219285424855526e-01 -3.164569766161901554e-01 -7.417438666558386906e-01 5.913298726002139682e-01
-1.234898696474782259e-01 5.464255580203046525e-02 -7.445215132578361095e-01 -1.574593074331406550e-01 -8.434828792974510270e-01 5.135593430507882085e-01
-6.217328201444852383e-03 -2.188474841769033619e-01 -9.144922066642169334e-01 -2.230862509067864652e-01 -9.868285212030981912e-02 9.697908121619608357e-01
3.749966015409431086e-02 -1.439661844725789452e-01 -8.703690685135703209e-01 -1.007166736141988095e-01 -4.940662597137782108e-01 8.635708903550005644e-01
2.725851146309740680e-02 8.373425503973497275e-02 -6.543699609083656332e-01 -7.237864579182871905e-02 -8.320134623622680303e-01 5.500135726337048725e-01
7.899260141934962010e-02 -1.024948444651936214e-01 -8.385079758811907480e-01 -1.303797246753604644e-01 -5.393492615792346845e-01 8.319275818408183865e-01
5.396760005318520376e-02 1.225471033257830439e-01 -5.735156192467012470e-01 -6.694714913217537922e-02 -9.605654363552147412e-01 2.698742701755583173e-01
-2.378736084784855223e-02 -7.767825346248566180e-03 -7.867763776017299149e-01 -3.617639070263504730e-01 -6.737949082185916705e-01 6.443037305741212695e-01
5.784610806226606061e-02 -1.948320288905688868e-01 -8.897104878942209139e-01 -3.897977301929798633e-01 -3.054292378181865941e-01 8.687754083894195789e-01
8.190746511583121836e-02 6.906702896017772805e-03 -7.433757656350091780e-01 -1.386346561726113924e-01 -7.010420585881703692e-01 6.995144488846262165e-01
2.350200414985139860e-02 -1.097722877820656445e-01 -8.505724504515952411e-01 -7.090653998399834568e-02 -5.489222349124390776e-01 8.328605180978569944e-01
-6.030583818363106224e-02 -3.831070809865548543e-02 -8.312216772639456908e-01 -2.276575091915102045e-01 -6.041848544072857541e-01 7.636312724172343858e-01
9.876496084555751176e-02 5.429850960929295117e-02 -6.813773982988190481e-01 -1.750670702797922362e-01 -8.548222508734277802e-01 4.884981477092178448e-01
-7.631490925925576985e-02 5.827644782262508122e-02 -7.237750222326330141e-01 -1.967615647707749438e-01 -8.093285469492597084e-01 5.534186387554685949e-01
-1.233045932760294255e-01 8.980115157716450636e-02 -6.964047175032215264e-01 -1.998975079102987273e-01 -7.524759831748821792e-01 6.275514967524546961e-01
-6.230057648824579436e-02 -4.367046446077901822e-02 -8.355682733673968077e-01 -2.293652481011528854e-01 -5.564403333621890102e-01 7.986023656183799391e-01
-3.787157668036338076e-02 -1.428848359869192286e-01 -8.894381207854417104e-01 -2.072852846943264993e-01 -4.822965178884561221e-01 8.511303540479931984e-01
-3.097524909228580817e-03 -1.126945283228219796e-01 -8.601521753435310558e-01 -3.510256248413487490e-01 -5.056616745852487993e-01 7.880909094516841407e-01
-6.197585612679164246e-02 9.863035217312490777e-02 -6.619351577522997188e-01 -2.652933826600322176e-01 -7.780913977375186752e-01 5.693796605812961875e-01
-8.484748565555305655e-02 1.247245251016360773e-01 -6.326194303444128142e-01 -2.606710467107237750e-01 -8.462837364376488702e-01 4.646013805918660644e-01
-6.191878026587334383e-03 -2.216050508105156525e-01 -9.145688555037118084e-01 -2.073196431863202627e-01 3.462277114565742893e-03 9.782671302800063362e-01
6.799878409538485935e-02 -7.312510130804826536e-02 -8.181811443105999615e-01 -1.029410933099492026e-01 -6.143702480535833121e-01 7.822738201005648984e-01
-4.040668054340955384e-02 3.331234954479614374e-02 -7.456429532699653251e-01 -2.774873978551744003e-01 -7.825615878266648506e-01 5.573132918653324053e-01
3.151404234808156263e-02 7.152702955227800696e-02 -6.718491135062207853e-01 -6.997686737532483880e-02 -8.175635812383975631e-01 5.715706681286072399e-01
-1.386224503965650598e-03 -2.178930467431341167e-01 -9.129979494575490850e-01 -3.328247720565745138e-01 -1.753693436029624131e-01 9.265383232385778767e-01
-1.226328962640734488e-01 8.137897503192634274e-02 -7.065614912209224885e-01 -1.813674986411724366e-01 -7.618455786162805499e-01 6.218497766980936037e-01
-4.583825759426245899e-02 7.116263548232698577e-02 -6.933221290635823708e-01 -2.421572736448095176e-01 -7.915988839387688714e-01 5.610089676358197552e-01
-1.265689295671138795e-03 1.164264804309895901e-01 -5.937685425763484792e-01 9.410224805578987217e-02 -9.419405227656999502e-01 3.223240892063863328e-01
1.024079763156721390e-01 -1.123864837070866207e-01 -8.403416422800433772e-01 -1.850682322038771088e-01 -4.771122168460932844e-01 8.591354270225027845e-01
-4.264498951382827280e-02 9.440569914878985114e-02 -6.585990099783610718e-01 -2.771354549915197030e-01 -7.844398745993517164e-01 5.548423404222110333e-01
1.335412313931360062e-01 -3.302423414602310286e-02 -7.746581741416460609e-01 -1.075300272767365783e-01 -7.233796286903976247e-01 6.820258103837468777e-01
2.422395821609598862e-02 1.060437992564370602e-01 -6.186918556503747668e-01 -2.592390514600801180e-02 -8.894649296317966858e-01 4.562675641518729175e-01
-3.121976142988479655e-02 1.101329029813543636e-01 -6.258782224345418310e-01 -3.159801621061956167e-01 -8.562480328936300511e-01 4.086512490145253751e-01
1.693796223881356700e-02 -1.365498226301000151e-01 -8.669215201762541234e-01 1.584228618172960068e-01 -4.760268486684310352e-01 8.650437192422245625e-01
1.852672375098038436e-03 -1.496557785255069883e-01 -8.796959939597457367e-01 -3.561374561732168487e-01 -4.442527494722354753e-01 8.220739668039787063e-01
-5.129324558357143543e-02 1.333605705125956997e-01 -5.663276980499502011e-01 -2.529816622586836816e-01 -9.672417813726269520e-01 2.106216816808430259e-02
-5.295260781401244649e-02 1.008340458658425615e-01 -4.402941261758455682e-01 -1.590853931371073171e-01 -8.840645358521367347e-01 -4.394561799985955974e-01
8.792910616407187407e-02 8.106315075869134634e-02 -6.364055744320707975e-01 -2.811825635416508318e-01 -8.214438903911236434e-01 4.961514898690127517e-01
-7.582377784871369673e-03 -1.063471664135077766e-01 -8.580220794991506583e-01 -3.317134398171978082e-01 -5.074538394891954241e-01 7.952715225835237378e-01
-4.232872998386265351e-02 -6.989382813369401926e-02 -8.475609344302574844e-01 -2.642329842662594075e-01 -5.303558560320995596e-01 8.055455269556187625e-01
-4.910027582826717585e-02 -7.444575675739570353e-02 -8.524973300833617040e-01 -1.992532143430069402e-01 -5.016743388665602099e-01 8.417963021401195789e-01
3.435738804799943341e-02 2.805069806360289963e-02 -7.281007909986160209e-01 -4.258533183359462099e-02 -7.580932991062303561e-01 6.507542081023021119e-01
-4.897099909264410883e-02 -1.378963772118713405e-01 -8.892096197761198972e-01 -1.479848929576451366e-01 -4.938632249393634654e-01 8.568544721881343751e-01
-2.597388585631415364e-02 7.815463396663840587e-03 -7.708424848167814147e-01 -3.447983924534797628e-01 -7.062699031293903085e-01 6.183016193534494054e-01
5.593655263710121256e-02 3.418190357596419260e-02 -7.186015599243931185e-01 -8.953449065793707418e-02 -7.515192129681401711e-01 6.536072578562532875e-01
7.430623499895110118e-02 9.721237910190078102e-02 -6.183428159345665254e-01 -2.621159536387671074e-01 -8.101732073529864797e-01 5.243229929493978814e-01
-1.094899739470387295e-01 1.148967037089210635e-01 -6.601553539871649612e-01 -2.457157742334652173e-01 -7.653110855510750765e-01 5.949140279279718779e-01
-5.294262583260935656e-02 -1.260840159080013623e-01 -8.830388353520794986e-01 -1.711397444483234165e-01 -5.007942375465842533e-01 8.484788267896248293e-01
1.138338250828913878e-01 6.221601969821766165e-02 -6.572261751551367048e-01 -2.132497709496760929e-01 -8.961694511949566122e-01 3.891077613397613821e-01
-5.605404883420807283e-02 7.592998417325387550e-02 -6.909369689857662866e-01 -2.345791866909942291e-01 -7.931637953115590056e-01 5.620176144733854962e-01
-5.947907720765074208e-02 4.693264842974236364e-03 -7.914656482457400610e-01 -2.965573722135365631e-01 -7.260899979753009381e-01 6.203604112336871257e-01
4.708358927006313019e-03 1.240789662217002820e-01 -5.684613697189899728e-01 6.494747184129673334e-02 -9.838294890425504091e-01 1.669172321592289343e-01
-8.607256725339554326e-02 2.142664666458436902e-03 -8.036186113782421980e-01 -2.241719424616936407e-01 -6.837332863506815350e-01 6.944463502309218272e-01
2.511819512824350897e-02 1.148495072096410163e-01 -5.999493586439100801e-01 -4.012805518220591977e-02 -9.256974743522944360e-01 3.761301970928115357e-01
3.192417724787944416e-02 1.212686699669072443e-01 -5.817590673754550190e-01 -2.599981545907878444e-02 -9.504397799609497488e-01 3.098196802397727989e-01
-1.823550199287397866e-02 -5.147642323626627769e-02 -8.240151832838386037e-01 -3.779275009556912202e-01 -5.734951452583950671e-01 7.268246847668551336e-01
7.645256259525469444e-02 -3.675069325936385078e-02 -7.860733878037977629e-01 -9.883687854373271464e-02 -6.772415373306261976e-01 7.290920185777524098e-01
-1.123445502019114056e-01 1.523791606450786672e-02 -7.979649056586070044e-01 -1.969638259442112460e-01 -7.287321938060968840e-01 6.558617544726722537e-01
-3.605061023746018029e-02 -1.679817790885330120e-01 -9.039215674860157090e-01 -2.840916834070333352e-01 -5.037325357160633565e-01 8.158096885181145286e-01
-3.987199325617336171e-02 6.762009718401070651e-03 -7.794182225975285760e-01 -3.304214541455496312e-01 -7.158352545403341427e-01 6.151435206498687691e-01
-5.324939521332408554e-02 -1.590331446094957746e-01 -9.036845023605423188e-01 -2.323882586549235185e-01 -5.285786507281166058e-01 8.164559432288899243e-01
-2.673294235885339751e-02 -1.054875364863620685e-01 -8.646101169588302771e-01 -2.957956648721085102e-01 -4.960774947535024904e-01 8.163406420373519046e-01
6.009012987633184644e-02 -2.837222965987672499e-02 -7.810781222007406877e-01 -1.191294506911221712e-01 -6.651334868551256330e-01 7.371605107722293271e-01
1.059865477141242740e-01 -4.103524836245217577e-02 -7.863337548760566120e-01 -8.419222522428572442e-02 -6.797667053882301413e-01 7.285800542544478287e-01
3.386342984277651569e-02 1.226591839772745579e-01 -5.765752918358472145e-01 -3.674687606830112641e-02 -9.732188351314779995e-01 2.269245822835193327e-01
6.318827356997062938e-02 4.155513673617908937e-02 -7.086776545578432618e-01 -8.712674988085736261e-02 -7.722774860083934101e-01 6.292824596790809188e-01
-3.815389432171412826e-02 6.949196803493644381e-02 -6.923625615628024033e-01 -2.421572736448095176e-01 -7.915988839387688714e-01 5.610089676358197552e-01
2.999124853308378011e-02 1.150784624108696780e-01 -5.990365407886772964e-01 -2.298519272687296611e-02 -9.178324658123158120e-01 3.963019626701241860e-01
-1.026017067694672547e-01 3.394345697519662863e-02 -7.709679506476883049e-01 -1.897213686425362200e-01 -8.204080642954679758e-01 5.393852151471767442e-01
7.020166126532290107e-02 -1.818152377999215086e-01 -8.796566586282847933e-01 -3.884124870772637239e-01 -2.873253402676185231e-01 8.755454806705085247e-01
-7.788800394588819842e-02 1.301821335499083188e-01 -6.159056737037149620e-01 -2.631047840112803460e-01 -8.858207458687364921e-01 3.822269990711446574e-01
-1.469526019510523918e-02 -5.438396725741347082e-02 -8.245187379081347911e-01 -3.653872908029780486e-01 -5.822974757787692246e-01 7.262380996762243246e-01
-5.037996457761925034e-02 -1.035419250419154780e-01 -8.696742061933574464e-01 -1.897650719596602475e-01 -4.851455914338114739e-01 8.535941498021658580e-01
-5.308531161172838631e-02 8.532851639994781801e-02 -4.121329154605078426e-01 1.120120839553154640e-01 -8.569530155941108562e-01 -5.030753642468956954e-01
-3.480593335899026530e-02 -4.189947998197750267e-02 -8.244134351060475874e-01 -3.389805362073809447e-01 -6.154707468025307771e-01 7.115391457276906140e-01
-2.518116510567577210e-02 4.668055501900394977e-02 -7.189137253478803391e-01 -2.804496082975814764e-01 -7.848421576375297359e-01 5.526036597785071169e-01
3.960221069456326681e-02 -9.102060075873572020e-02 -8.358424222534638348e-01 -1.057670749082296746e-01 -5.882516092792114959e-01 8.017314825088103225e-01
-9.314025374483476949e-02 8.796006468036844661e-02 -6.885682530420608183e-01 -2.268318356879926445e-01 -7.674931606799704209e-01 5.995844949862232376e-01
2.755271340751808823e-02 8.614776857026437695e-02 -6.506802888924498873e-01 -7.237864579182871905e-02 -8.320134623622680303e-01 5.500135726337048725e-01
-3.874737056972091948e-02 1.280512728342996509e-01 -5.803753314147380715e-01 -2.998427989591825882e-01 -9.360651039687748476e-01 1.840554727364825671e-01
5.883759455633463115e-02 2.531218277835702371e-02 -7.283047576342563945e-01 -9.938531914506462672e-02 -7.453393058103945368e-01 6.592358284806074664e-01
1.297834152676992925e-01 -4.772818141955078447e-02 -7.900535042351283233e-01 -8.057157176777031415e-02 -6.908075779614974987e-01 7.185353937377342293e-01
2.467256782426780273e-02 -8.906937204187649615e-02 -8.361672207383318289e-01 -8.811587992463665309e-02 -5.781071872699117264e-01 8.111890480843404472e-01
4.991843585465510075e-02 3.428374535084988128e-02 -7.192973325380117577e-01 -7.745076785679301523e-02 -7.514447877533984022e-01 6.552343928066073353e-01
6.802124452184866998e-02 -1.882184557854789664e-01 -8.828457156956212026e-01 -3.889866552910384301e-01 -3.033924489549600367e-01 8.698519436792694348e-01
4.151517138551281266e-02 4.762974962156244635e-02 -7.036900831124033306e-01 -5.420866820826227006e-02 -7.932320892354393083e-01 6.065016676797078121e-01
-2.387885573860389771e-02 1.179712667129597797e-01 -6.004452001319804388e-01 -3.505369920174816745e-01 -9.006501187688502608e-01 2.568135136416924702e-01
2.077147888832535719e-02 8.455933696948231271e-02 -6.537012692055023111e-01 -2.587071212615830659e-02 -8.296548143646205187e-01 5.576769631746433253e-01
-1.147971530360784448e-01 1.113843734284398063e-01 -6.668657066284232604e-01 -2.457157742334652173e-01 -7.653110855510750765e-01 5.949140279279718779e-01
-4.840615315455795709e-02 -5.151387785339624215e-02 -8.370687354496221255e-01 -2.795588730154727197e-01 -5.660202807928793600e-01 7.755436017719884445e-01
1.167961644062565363e-01 -1.018317535960493042e-01 -8.320777873385505341e-01 -9.935544139923963014e-02 -5.221208529402205922e-01 8.470645259892181089e-01
-6.963613748473057585e-02 1.377302420652831965e-03 -7.988408807298134073e-01 -2.569974834719812029e-01 -6.894706777375226858e-01 6.771871809398272157e-01
-7.394411938139357210e-02 1.298382239379141656e-01 -6.139941346027852909e-01 -2.704325316807348889e-01 -8.912370228903135905e-01 3.640917670565467779e-01
-8.459800773793553497e-02 1.290397845990491343e-01 -6.231719068710820375e-01 -2.631047840112803460e-01 -8.858207458687364921e-01 3.822269990711446574e-01
2.843079713534391387e-02 3.068349370627905179e-02 -7.254507497954549855e-01 -5.512504933835340321e-02 -7.654585564404733367e-01 6.411196669168016671e-01
-1.000269264801341013e-01 -7.818068992376174531e-02 -8.627494266989446103e-01 -1.005884408521341561e-01 -4.717801416043854168e-01 8.759597385466312280e-01
-5.936410227793343514e-02 -3.729323817245969869e-02 -8.301359003978344697e-01 -2.276575091915102045e-01 -6.041848544072857541e-01 7.636312724172343858e-01
-1.474396120115607604e-02 -1.429256618012409927e-02 -7.883116338677416124e-01 -3.888360782473675448e-01 -6.625905600795128914e-01 6.401408079061391421e-01
1.231216624256424759e-02 1.163435040926711073e-01 -5.964357962688576764e-01 1.364153492871902039e-02 -9.199410463605001143e-01 3.918193202816019349e-01
7.067447312891950162e-02 -4.498837501647810072e-02 -7.942137740556003411e-01 -1.004647459166119750e-01 -6.524681207548319595e-01 7.511272769821161210e-01
-4.992780034508444847e-02 -9.102684038570045544e-02 -8.624599491733734302e-01 -1.898771753302469500e-01 -4.852268801230439910e-01 8.535230126333230860e-01
3.596542500277604554e-02 -1.432838138486815793e-01 -8.701576055717964442e-01 -1.007166736141988095e-01 -4.940662597137782108e-01 8.635708903550005644e-01
6.164696893561154994e-02 8.399482527115133268e-02 -6.452491281038854609e-01 -2.003907571185705727e-01 -8.271101003192005141e-01 5.251023009008892739e-01
-1.098023390699697649e-01 7.301268999335347454e-02 -7.135241747664996526e-01 -1.832005061318970063e-01 -7.856559231087243411e-01 5.909165296699652181e-01
9.782687665121909959e-02 -6.105523892790525042e-02 -8.049831892724402804e-01 -7.785105825206461994e-02 -6.364164030662629035e-01 7.674069159430566556e-01
-1.164171582598343413e-01 5.173696054615545964e-02 -7.471252155053351718e-01 -1.574593074331406550e-01 -8.434828792974510270e-01 5.135593430507882085e-01
2.578261008510766492e-02 1.219672849548888438e-01 -5.800008951024909765e-01 -1.276770562252614767e-02 -9.739867516732821917e-01 2.262449850451156708e-01
-2.023860579092516890e-02 -1.632091294842782231e-02 -7.936008395591361841e-01 -3.714734231217758920e-01 -6.666493149130973128e-01 6.462090891035873197e-01
-1.218382736432113145e-01 4.263079464525566797e-02 -7.639860427451485858e-01 -1.698502281420471161e-01 -8.337414455041741723e-01 5.253818630755202612e-01
9.047476086556932584e-02 9.259712769951997102e-02 -6.172163555414693636e-01 -2.808595874141950888e-01 -7.903898098820344442e-01 5.444279939460954232e-01
3.773316794199962909e-02 -4.657652510479180774e-02 -8.005565659891334951e-01 -1.174104510472920582e-01 -6.454004357150607829e-01 7.547668935265251511e-01
-9.604603707512210375e-02 1.181288444502093388e-01 -6.494316200123774196e-01 -2.437096639371433282e-01 -8.059584909286461318e-01 5.394779982572635024e-01
1.838195724752672219e-02 -5.376088773174412389e-02 -8.094453619346706486e-01 -5.973209455615711982e-02 -6.257619440642047115e-01 7.777236438741729208e-01
1.331089862710973237e-01 1.886215838602439340e-02 -7.194584571782545179e-01 -1.646491079984028216e-01 -7.069361004030811912e-01 6.878459283751084952e-01
-7.971364671345938790e-02 -3.458585127770633788e-02 -8.334004555074703280e-01 -1.783564290969190114e-01 -5.909416804903185882e-01 7.867508592045349136e-01
1.043024642663084589e-01 7.518708404565932479e-02 -6.363658007113934811e-01 -2.969076934026818604e-01 -8.199151038359536736e-01 4.894742527446938052e-01
-1.139128889915185516e-01 -2.818125915919934832e-02 -8.351396627703033815e-01 -1.538637682277285701e-01 -5.589098913798872248e-01 8.148286164246358876e-01
7.277257018226256091e-02 5.909837847180259701e-02 -6.820564733443029715e-01 -1.281417954047391894e-01 -8.367514680795644644e-01 5.323783062232565477e-01
-9.808126010543138928e-02 9.754883250028063835e-02 -6.780703068599559513e-01 -2.190393106055369687e-01 -7.726149576583423162e-01 5.958925302536094426e-01
7.786594462264248562e-02 -1.444640171921774130e-01 -8.624008510916434389e-01 -2.281133165193987844e-01 -4.202836709269970328e-01 8.782516443358636682e-01
-9.030188554783337429e-02 4.429545750449932068e-02 -7.506064976076571860e-01 -1.936205006954700159e-01 -8.277908951778041313e-01 5.265675033375730729e-01
-3.200224014232713743e-02 3.368338232678868595e-03 -7.792125253274740926e-01 -3.204452380202158501e-01 -7.112379593677938816e-01 6.256639789731415213e-01
-8.949064592598846013e-02 -2.814761986090646984e-02 -8.306233727959082547e-01 -1.452316440875889014e-01 -5.893371220999082949e-01 7.947260698319980055e-01
5.109118855844585472e-02 4.261274126382688827e-03 -7.515312724776439524e-01 -1.057096264575512340e-01 -7.165010328888137270e-01 6.895300898028078329e-01
-9.454171715154717492e-02 -4.164617053877454900e-02 -8.410035581747260514e-01 -1.286604620078294903e-01 -5.260902178012170083e-01 8.406399754055239315e-01
5.506033252809022088e-02 -3.985205221225627398e-02 -7.920884482486312272e-01 -1.128293763805601063e-01 -6.511354470736323563e-01 7.505279217922506962e-01
2.527963603772527545e-02 -1.385372735468395622e-01 -8.681370485682990967e-01 -3.063709692562947146e-02 -4.952307758188766451e-01 8.682210818528903751e-01
9.820127617899999939e-02 1.131365940502879371e-02 -7.354785474405899359e-01 -1.523055023773212668e-01 -7.001016448285170002e-01 6.976107230067474241e-01
2.113719734728229660e-02 -9.539402012860168090e-02 -8.410586166536220265e-01 -8.811587992463665309e-02 -5.781071872699117264e-01 8.111890480843404472e-01
-7.816461251037615243e-02 8.110536944196343467e-02 -6.923204967369723795e-01 -2.200167913794935093e-01 -7.832182660473612223e-01 5.815167746856810815e-01
6.654065920977696690e-03 -4.684343404287977242e-02 -8.045815353063162645e-01 -5.614003685611844707e-01 -5.569066668641305951e-01 6.121148508095931584e-01
8.105402304548835202e-02 9.241501815470745673e-02 -6.223436681803728998e-01 -2.636774036569461410e-01 -8.022945647010226722e-01 5.355349272007646766e-01
3.787796623601647275e-03 -1.531205812637933261e-01 -8.807300589586974926e-01 -3.561374561732168487e-01 -4.442527494722354753e-01 8.220739668039787063e-01
8.742319876376931920e-02 8.745103812650642516e-02 -6.264802431285921847e-01 -3.008960489860117993e-01 -8.018781279838297360e-01 5.161908906264779384e-01
-1.481972745834825474e-02 -1.765114805653381080e-01 -9.010657377384163613e-01 -3.523110508530454266e-01 -4.506389333425416255e-01 8.202447654223214979e-01
3.819856957024085620e-02 5.390270547197739334e-03 -7.523155087227748616e-01 -8.972495440496225383e-02 -7.169926779048698684e-01 6.912820932064065449e-01
-7.789026286432536306e-02 1.317351067421776156e-01 -6.114434147097606020e-01 -2.477585304518915565e-01 -9.281108772540169749e-01 2.778955021426181560e-01
3.412616984195097902e-02 8.136539626598368602e-02 -6.570257956608801519e-01 -7.341377014275637936e-02 -8.258875835194746662e-01 5.590349879406378841e-01
3.273343003146610836e-02 1.012471103623989038e-01 -6.261336695613779479e-01 -8.171825271757764131e-02 -8.635319351565886592e-01 4.976291029848467495e-01
-2.175012319485669296e-02 1.244928709772906150e-01 -5.364835564308574334e-01 -6.195423512534364852e-01 -7.814926803428040580e-01 -7.373239161985316314e-02
1.433449784604654866e-02 1.217990447857971725e-01 -5.799429886090359254e-01 4.553320035947381467e-02 -9.689425942786255019e-01 2.430575583223670011e-01
-1.320735354119037877e-02 -1.734643102994156902e-02 -7.905044593487710047e-01 -4.005176643613947429e-01 -6.547850777868512440e-01 6.409696579731060107e-01
-1.103133059956654533e-01 1.187116967573348114e-01 -6.550312474306022592e-01 -2.405949650296094200e-01 -8.009929377421003416e-01 5.482010365638511074e-01
-2.867718153376100018e-02 1.275282246537405295e-01 -5.520810667149514961e-01 -2.882475567618639767e-01 -9.571700193726876416e-01 2.718271573821971418e-02
-4.489068395900287778e-02 1.260822719930155544e-01 -5.977151695030735734e-01 -2.884867365088448210e-01 -9.198626235810476448e-01 2.657595842054770174e-01
2.004611252558967729e-02 8.798885240276399511e-02 -6.486328363448135015e-01 -2.587071212615830659e-02 -8.296548143646205187e-01 5.576769631746433253e-01
-8.965578031860396355e-03 -1.497978089551002881e-02 -7.854362737151749929e-01 -4.005176643613947429e-01 -6.547850777868512440e-01 6.409696579731060107e-01
-9.627830731516183460e-02 6.976504296697627096e-03 -8.020331950009920163e-01 -2.016626585411775696e-01 -6.849292914781981434e-01 7.001457261351224926e-01
-4.136092463958264409e-02 7.864817128113793521e-02 -6.807000429041193401e-01 -2.490369530487584748e-01 -7.897189602150799237e-01 5.606465552315498257e-01
4.877699225776119946e-02 -8.929610015895095287e-02 -8.333308096614011617e-01 -1.104448009072454689e-01 -5.901232684041308740e-01 7.997227482325265369e-01
-4.786550618682454405e-02 3.002600076320928110e-02 -7.539713037817257213e-01 -2.774873978551744003e-01 -7.825615878266648506e-01 5.573132918653324053e-01
1.244823404944953998e-01 4.736571697585720275e-02 -6.841071022641622701e-01 -1.831593313723171579e-01 -8.619339159540468920e-01 4.727817507681188469e-01
1.243420653429988254e-01 4.616330045058835568e-02 -6.863535855208944270e-01 -1.831593313723171579e-01 -8.619339159540468920e-01 4.727817507681188469e-01
-1.187733134399071022e-01 -1.695504403205757085e-02 -8.282117364310902508e-01 -1.758016789368017641e-01 -6.075964527157291517e-01 7.745452345281483852e-01
2.510439587832922689e-03 -5.727140471774511826e-02 -8.169099424821334443e-01 -4.470981109195722447e-01 -5.727974501399025753e-01 6.870271903828666371e-01
-6.099900578809875490e-02 -1.121727689937140476e-01 -8.764701826329314160e-01 -1.212293280034340698e-01 -4.854378320416135595e-01 8.658253641783509869e-01
-2.576274167314996505e-02 -9.933025090861016815e-02 -8.605168845645192466e-01 -2.957956648721085102e-01 -4.960774947535024904e-01 8.163406420373519046e-01
8.225838453423331420e-02 3.953640445550819782e-02 -7.076378887970201648e-01 -1.362776289140379959e-01 -7.747470413479986551e-01 6.174102605076224881e-01
1.285453135083394482e-01 7.104730880989544410e-03 -7.326562571174288774e-01 -1.671715024394347382e-01 -7.061596010443653704e-01 6.880351056632246776e-01
-1.016581659249339853e-01 8.232990088371690968e-03 -8.023535749710546394e-01 -2.016626585411775696e-01 -6.849292914781981434e-01 7.001457261351224926e-01
5.489805470489916156e-02 -3.722404513018592875e-02 -7.897773035724174884e-01 -1.121657823145290472e-01 -6.614366622513720984e-01 7.415661663719117502e-01
7.082733083197288726e-02 -5.160377782274672143e-02 -7.999398111182194349e-01 -1.004647459166119750e-01 -6.524681207548319595e-01 7.511272769821161210e-01
1.393309623698384993e-02 -1.002444764790750564e-01 -8.444679035441192694e-01 6.211211414838087308e-02 -5.418255788938649564e-01 8.381927745646264860e-01
-2.226499041239432541e-02 -9.022092164174476403e-02 -8.535706008394674527e-01 -2.953698875328470974e-01 -5.237863806645617348e-01 7.990021633069288587e-01
9.989763130635417876e-02 -8.031612603951415741e-02 -8.200906461997391483e-01 -7.554494433944303200e-02 -6.029000556681970435e-01 7.942320090880470307e-01
-2.425466743813081000e-02 7.707141427973797365e-02 -6.747838748616520332e-01 -2.940651477292577365e-01 -7.913823276328071366e-01 5.359474791445987263e-01
8.947010729044636845e-02 -4.896083067272066769e-02 -7.953352027237714506e-01 -9.114176319310193786e-02 -6.601281527328790588e-01 7.456031122329959127e-01
2.167864992298100188e-02 -8.993329061124348545e-02 -8.371081225493998135e-01 -8.811587992463665309e-02 -5.781071872699117264e-01 8.111890480843404472e-01
6.325765604505562134e-02 1.291015955087232610e-02 -7.407882009141276702e-01 -1.142480265176606113e-01 -7.039619563254048140e-01 7.009885537462997585e-01
-1.141325758696560416e-01 9.900603853850904051e-03 -8.042068986872857872e-01 -1.911860760797078895e-01 -6.739387926799578210e-01 7.136206191207798977e-01
8.805360421458975628e-02 -7.292421024755188497e-02 -8.156807296129052753e-01 -8.252852765439654126e-02 -6.016085582639582041e-01 7.945163212588896018e-01
9.921797955030127458e-02 -1.247851471114676258e-01 -8.476393855651297438e-01 -1.858016534138144937e-01 -4.392593617101814285e-01 8.789362654587968837e-01
-5.070431957933056039e-03 -8.471644740390701922e-02 -8.424822480470391950e-01 -3.835296963237966872e-01 -5.325268580280549946e-01 7.545330460069620271e-01
-3.077842147515493648e-02 1.145786773928656743e-01 -4.698839375102714100e-01 3.362559019098384505e-01 -9.065661988274014149e-01 -2.550876233266476945e-01
-3.600368053934788204e-02 -1.707321824800972845e-02 -8.027068880555705555e-01 -3.427303868532169950e-01 -6.475656873822326354e-01 6.805839863327822759e-01
3.356832654374273389e-02 6.665056401403850195e-02 -6.785964719700984249e-01 -6.071606489434863002e-02 -8.215919041891960317e-01 5.668335756062055086e-01
3.581432480035852926e-03 -1.777418731090592841e-01 -8.939864946509790133e-01 -3.681140558699167453e-01 -4.242638897761486505e-01 8.273404339828992482e-01
5.814230169104932927e-02 1.922424340797963468e-02 -7.348870985539601719e-01 -1.118483791779956021e-01 -7.292768176830907167e-01 6.750150096592515414e-01
9.181132276446783702e-02 6.413122202634888303e-02 -6.654444202617324500e-01 -2.491475546600113167e-01 -8.591375073732696599e-01 4.469991492512953579e-01
5.052495036485749047e-02 4.205802428152463635e-02 -7.097814016237896650e-01 -8.447172745091122148e-02 -7.738224946376417446e-01 6.277445930107529160e-01
-4.862438459983230155e-02 3.864579245526318391e-03 -7.872465866409187329e-01 -2.965573722135365631e-01 -7.260899979753009381e-01 6.203604112336871257e-01
2.571657481152490529e-02 -1.460841153656715630e-01 -8.724160272678430639e-01 -7.408341143963277642e-03 -4.890088794650003789e-01 8.722473458176179806e-01
-4.845820043416837475e-02 -1.148513315136685808e-01 -8.757189643297665915e-01 -1.712137131085536557e-01 -4.859560796301161667e-01 8.570487460548029679e-01
-1.218342387919124220e-01 2.227695641026502388e-02 -7.929936599356893767e-01 -1.969638259442112460e-01 -7.287321938060968840e-01 6.558617544726722537e-01
-5.121967364052996269e-02 7.259967933364633308e-02 -6.936172878556688959e-01 -2.421572736448095176e-01 -7.915988839387688714e-01 5.610089676358197552e-01
-8.428095156083643957e-02 -5.762326443058177206e-02 -8.492664632914546097e-01 -1.292189801756543077e-01 -5.030350042915465725e-01 8.545514844757848838e-01
9.450732710859815339e-03 -2.079940941006264699e-01 -9.049618035583985032e-01 -5.147051599392681309e-01 -2.926860161193620691e-01 8.058619573475774844e-01
-1.245420000710985428e-03 -8.487614142357699509e-02 -8.406506989490096782e-01 -3.835296963237966872e-01 -5.325268580280549946e-01 7.545330460069620271e-01
8.104564347204948338e-02 -3.639898858732052572e-02 -7.851240497615400438e-01 -9.883687854373271464e-02 -6.772415373306261976e-01 7.290920185777524098e-01
-6.458270794021614414e-03 5.023867823197903509e-02 -7.035506470273676927e-01 -3.795770009680700663e-01 -7.568042815556293990e-01 5.321358658793383656e-01
-2.588852950549339060e-02 -5.143330815650658250e-02 -8.278240982267988102e-01 -3.407199307267845256e-01 -5.787702882533685145e-01 7.409013984604482239e-01
-1.364524538497537826e-02 -6.371162020023510286e-02 -8.313731471611064405e-01 -3.666342765897822598e-01 -5.442414643400406149e-01 7.545730817637846810e-01
8.954927813181957907e-02 9.134419932935221309e-02 -6.195085906884898463e-01 -2.811875202353522063e-01 -7.885823816380093110e-01 5.468742139048233808e-01
-5.956256815560874440e-02 4.978309043502465725e-02 -7.300293208456984928e-01 -2.331027163286560899e-01 -8.150120762698663812e-01 5.304888680966673986e-01
-2.373874250310439513e-02 7.948986013018646823e-02 -6.709297083080291157e-01 -2.940651477292577365e-01 -7.913823276328071366e-01 5.359474791445987263e-01
5.114586205018183812e-02 -1.752407975139168989e-02 -7.725442624250974388e-01 -1.176235206021173652e-01 -6.755266228328954403e-01 7.278931853267665009e-01
-2.646480945635007465e-02 3.972754739172477262e-02 -7.294432109081016025e-01 -2.802329210673545346e-01 -7.860888321965172620e-01 5.509390690865676454e-01
