6.248301387393192380e-02 -2.226156200742678559e-01 -8.614921495107861205e-01 -9.964214208406702022e-01 8.265443943610799316e-02 -1.768037701416436125e-02
3.390938659629794821e-02 1.544632397384585951e-03 -8.718152164694165096e-01 -9.601939411058757479e-01 -2.589104620326113659e-01 -1.048473562548246502e-01
-1.337934428364832562e-01 1.755313494779676131e-01 -6.770776739788927356e-01 -4.585929561096581120e-01 -7.038412957062720743e-01 -5.424941760656251111e-01
-2.300787861107239998e-02 8.610495355404923501e-02 -7.760788544192082083e-01 -8.816107480050064948e-01 -4.245132944383662177e-01 -2.062788206460805518e-01
1.659304132185791120e-02 5.452357303234695030e-02 -8.819838618029007815e-01 -8.901169384064413492e-01 -4.282059828551149638e-01 -1.559854871743795723e-01
3.714594482282480847e-02 -5.718351948259093459e-02 -7.469484403242441228e-01 -9.418012761853239434e-01 -3.361031225780319875e-01 6.711718780742998228e-03
5.759648880933166543e-02 -2.020145023207954860e-01 -9.183248622467172773e-01 -9.979324607150293902e-01 3.519709145352310775e-02 -5.377702673501749686e-02
-9.673261637643936622e-03 4.622926856377588406e-02 -7.366294398541293198e-01 -8.571314716798860145e-01 -5.146912090505062487e-01 2.045970630289998399e-02
-1.058843521481649119e-02 3.532277793934896631e-02 -6.633221997907937650e-01 -8.381725691854323701e-01 -5.050400158651513483e-01 -2.059158241612804585e-01
-2.544155168788212601e-02 5.486215352508155840e-02 -6.537323872103968370e-01 -8.264205914307864997e-01 -4.954578762088869270e-01 -2.674892501798316613e-01
1.655580658337839003e-02 2.200288152739651379e-02 -8.181065631033325181e-01 -9.113112739778097549e-01 -3.356090383051107962e-01 -2.384917930010587994e-01
5.064912680640283604e-02 -1.159126543863133185e-01 -9.401229728880797776e-01 -9.882051808041854013e-01 -1.482322371136173544e-01 3.844118250079634619e-02
1.791352501077732653e-02 6.969480959255662869e-03 -8.045363299800083468e-01 -9.300571973455191710e-01 -2.624881104381517338e-01 -2.570867587885586891e-01
-1.820894867514660787e-02 1.019823257234419439e-01 -8.382890712170906200e-01 -8.703794277403790192e-01 -4.666379802324993609e-01 -1.571262141428476922e-01
-8.712738135159969755e-02 1.325486800942637378e-01 -6.270898693838657945e-01 -6.468881387436389296e-01 -7.347590726926145344e-01 -2.041196733504142546e-01
2.512985907437893796e-02 -2.958309138977678610e-02 -6.821810627258213522e-01 -9.330814776447217129e-01 -3.549596545678695425e-01 -5.798792723835904939e-02
-7.925381561342177694e-02 1.333427761508854947e-01 -6.537647743592712724e-01 -6.717141410216488362e-01 -7.183242263947293704e-01 -1.811364638220644141e-01
4.159400316865251995e-02 -7.142107778333545154e-02 -7.694390715610963660e-01 -9.472841860837103445e-01 -3.194512957648785734e-01 2.456705985384978821e-02
6.251124007515022896e-02 -2.202764316537947076e-01 -8.486797637333114430e-01 -9.928971434789470862e-01 1.143917067354235095e-01 -3.270779572983075617e-02
3.509790703507793819e-02 -5.791460581563510207e-02 -6.719675135198800442e-01 -9.370423975279853490e-01 -3.452912109426586329e-01 -5.220655974834477464e-02
-1.240845085624761313e-01 1.808347386860762740e-01 -6.925809939974654217e-01 -4.481766775412118209e-01 -7.249561906645750620e-01 -5.230451102201693070e-01
-2.966001060313184362e-02 1.079450405648827577e-01 -7.931160074152777684e-01 -8.870608657112116768e-01 -4.223882689370245247e-01 -1.863093416553757153e-01
-1.186917285443479936e-01 1.612850171897298457e-01 -6.592302732481692962e-01 -4.668461375168266314e-01 -8.617467778508922649e-01 -1.986131283405644654e-01
-3.796686972020499318e-02 1.314984885630087752e-01 -8.079292961094377556e-01 -9.030190286555161983e-01 -3.957243325705651626e-01 -1.672091100916115736e-01
-4.930924064204286576e-03 8.461678054668897442e-02 -8.551751394931202954e-01 -8.457936319044768725e-01 -5.048724705010131375e-01 -1.724439641159927761e-01
-1.520474495606202216e-02 5.506573039584343465e-02 -7.109608051511955296e-01 -8.578141482268283324e-01 -5.115617378005284932e-01 -4.959309952386811715e-02
2.267943851196020308e-02 4.315880473570992554e-02 -8.938711200784345001e-01 -9.265281455895963969e-01 -3.609980192404076416e-01 -1.059529401895301925e-01
5.072773081799013262e-02 -1.003198238996347302e-01 -9.179100358902845258e-01 -9.877460849785301145e-01 -1.171833205443529313e-01 1.030812349352969032e-01
-1.297045376465295607e-01 1.650361221260191746e-01 -6.536386137906212701e-01 -4.123160769294477168e-01 -8.793396895605997132e-01 -2.382376189206441564e-01
1.787962755390585731e-02 5.172182129930173733e-02 -8.819741419818623029e-01 -9.240208574106467676e-01 -3.636888511885352226e-01 -1.179655652775699476e-01
6.504400284961811551e-02 -1.639515309718273250e-01 -7.883153243950419276e-01 -9.896743085776299464e-01 -1.293730373370124698e-01 6.170397192714700829e-02
-1.881769456289492937e-01 1.947734667630210137e-01 -6.744154663048550491e-01 -6.589999699482090856e-02 -7.663095593404900541e-01 -6.390828190926952646e-01
3.306329539479606339e-02 9.671338229669019723e-03 -8.883446809055097759e-01 -9.617826120871989515e-01 -2.666807868407893856e-01 -6.209319621908796633e-02
-1.601994857793980973e-02 7.817295667834062156e-02 -7.894419872679631078e-01 -8.779322134495554097e-01 -4.303834860538566232e-01 -2.097738866486820730e-01
-4.897578570576535673e-02 1.050619048267715655e-01 -6.870087995675783210e-01 -7.999219432130847407e-01 -5.950522214095067541e-01 -7.770288644454378946e-02
-1.518505712502268568e-01 1.809184830161729984e-01 -6.707037559234036994e-01 -3.822020486901805403e-01 -7.699037837512636706e-01 -5.110477059360664098e-01
5.293151816764667117e-02 -1.562776390065810372e-01 -8.694309221924942932e-01 -8.362698836632658228e-01 -2.896988750962983250e-01 4.655397334769258988e-01
4.299284392616976869e-02 -3.648206248851476596e-02 -8.747915066549075691e-01 -9.831373501503469781e-01 -1.579837314264171677e-01 -9.209827003771441090e-02
-8.599802109790286031e-02 1.825927148013013757e-01 -7.424910431319199366e-01 -6.996550138331826263e-01 -6.079303255988093291e-01 -3.753712573378717998e-01
-8.920912688248537614e-02 1.696077020989618100e-01 -7.178201552595576684e-01 -6.362854926535466138e-01 -6.271672205218381535e-01 -4.492238298905632532e-01
5.574137423986869760e-02 -1.687776591523087455e-01 -8.910709714439198903e-01 -9.950199458710782263e-01 -2.048866272148652887e-03 -9.965495203809644764e-02
4.313902975128762474e-02 -7.660948645441736926e-02 -7.732686809056887878e-01 -9.508546263801427312e-01 -3.071790845248782431e-01 3.894213042370534700e-02
-4.585579999208564544e-02 1.131574744429830748e-01 -7.381752712589800813e-01 -8.729969570219302533e-01 -4.102248695374078324e-01 -2.638027093179048377e-01
1.191545660617198375e-02 6.771390602273538728e-02 -8.920832543501904244e-01 -8.877072463440891514e-01 -4.355629946457399981e-01 -1.492002764187448094e-01
4.287850069101310085e-02 -7.324982819341020746e-02 -7.100270201629808042e-01 -9.353754879917695053e-01 -3.525260952710189688e-01 -2.824975428437300970e-02
5.854947423597821853e-03 1.534875373491396619e-02 -7.739797275839881419e-01 -8.261707970697660386e-01 -5.323362189060163452e-01 1.845534180392035262e-01
4.995290443080336457e-02 -1.060005735179395392e-01 -8.612936981781033063e-01 -9.870100879354624102e-01 -8.463106680850868146e-02 -1.365601290438924198e-01
-8.529105669578454507e-02 1.806609118480473342e-01 -7.407365220116963744e-01 -7.034619296453811232e-01 -5.994796290471980926e-01 -3.817924670511857466e-01
-7.921076510907077263e-04 3.254419682469933406e-02 -7.715564424484405714e-01 -8.930549625403189085e-01 -2.937630691653685955e-01 -3.408168028085653001e-01
1.736267473959638222e-02 2.675293910959646373e-02 -8.279758063818312142e-01 -9.052599949936640522e-01 -3.564577123385802571e-01 -2.311757789614156122e-01
2.626030497219505877e-02 3.507862674823607196e-02 -9.049623630497563020e-01 -9.515490399447773529e-01 -3.019320933275719820e-01 -5.823603351021593849e-02
4.087545361370203273e-02 -7.090631224157566137e-02 -6.817057999124743750e-01 -9.192575183138020911e-01 -3.901435543168615960e-01 -5.247496592238735241e-02
1.839031625313379895e-02 4.844736596394019768e-02 -8.760481576951567595e-01 -9.250404036102993777e-01 -3.548625281574053214e-01 -1.355464414812472540e-01
-3.130160938453387109e-02 1.273922524698175573e-01 -8.370635532803933909e-01 -9.001129475502229749e-01 -4.159511518018932374e-01 -1.295427379945629232e-01
2.965466328812147931e-02 -3.731300168066895712e-02 -7.823839867526345415e-01 -9.348808957553790266e-01 -3.532801839179527947e-01 3.450829469153436635e-02
6.107445652436473138e-02 -1.893814521956061481e-01 -8.619418536257773544e-01 -9.786982383590474566e-01 -1.292150503507454584e-01 1.595406813190651529e-01
2.969351064401892521e-03 2.382875813159663139e-02 -7.472811848402272084e-01 -8.789928374889977025e-01 -4.758157486494189459e-01 3.116031097780171122e-02
3.156903248047013971e-02 -4.375994325021125703e-02 -7.960462960102800967e-01 -9.431359769627355449e-01 -3.305585075147816632e-01 3.500859991696841228e-02
-2.412537560026135897e-01 1.853891399228007053e-01 -6.574944797527312312e-01 -9.377752523104273055e-03 -9.348709639249728198e-01 -3.548638310219964787e-01
4.727643182434412839e-02 -2.460031834178814381e-01 -9.292121795074262947e-01 -8.138784404021324193e-01 4.684570210535783930e-01 3.437294047273229958e-01
2.543308271008385898e-02 -3.280075263113427231e-02 -6.669023403241752801e-01 -9.348490485151399465e-01 -3.498010544199510186e-01 -6.079867446768940503e-02
4.183037602939492644e-02 -5.704743086528515222e-02 -8.453105275305508037e-01 -9.749150560054171688e-01 -1.420513616528615852e-01 -1.713535649658977089e-01
6.635518573173602996e-02 -1.646997008704438881e-01 -7.744151965551583361e-01 -9.925648676873077836e-01 -9.843004218734488497e-02 7.159965242844988642e-02
1.719668726239207898e-02 -5.443959828956578678e-03 -7.632368204182127247e-01 -9.125657642820326210e-01 -4.085226704371953677e-01 1.824701617285120689e-02
-7.370029418189512349e-02 1.308212954601924993e-01 -6.653149756243937896e-01 -6.639254127184885945e-01 -7.283271878535967359e-01 -1.695362904509124247e-01
1.255136668157903583e-02 4.526044795108252750e-02 -8.395264698913690316e-01 -8.997762066576960871e-01 -3.803380268993910018e-01 -2.138825921550540077e-01
-5.459008978236896958e-02 1.377270085748489858e-01 -7.484203580616646256e-01 -8.528582534615127830e-01 -4.393845933672628212e-01 -2.820886006453705575e-01
4.199906453282210850e-02 -2.723125697972073392e-02 -8.976381101886854452e-01 -9.851127455817063616e-01 -1.676079066139157803e-01 3.821607165805181866e-02
-2.318499805790789556e-02 8.791384050726307187e-02 -7.790415170388476085e-01 -8.821402947174805664e-01 -4.232139895952806152e-01 -2.066843473671923503e-01
-1.077796274767759133e-01 1.482430272966656082e-01 -6.329934814781020824e-01 -4.730005596536963064e-01 -8.456333783503086066e-01 -2.473351167689984975e-01
6.367355519309420009e-02 -1.303030422146855272e-01 -7.294621605088191796e-01 -9.487283229072349666e-01 -3.053259423044680232e-01 8.179632185810140066e-02
-6.635123286429260581e-02 1.609177118282277275e-01 -7.508750311562387703e-01 -8.285748546032171147e-01 -4.717593144126950855e-01 -3.015076443212043045e-01
1.796815329761942623e-02 3.110155833016172225e-02 -8.375007462074756104e-01 -9.053840754558046822e-01 -3.634831324631457861e-01 -2.194531574751595326e-01
4.301719774111223416e-02 -3.327388011342499036e-02 -8.999513590616263770e-01 -9.814774130397246887e-01 -1.852881150310042857e-01 4.868677562857428448e-02
1.590559544366600478e-02 1.112331766950470230e-02 -8.022284427215455871e-01 -9.145217463742044695e-01 -2.957309467520952695e-01 -2.760311260379604281e-01
-5.537493437750599240e-02 1.422290502626085418e-01 -7.532216926619943465e-01 -8.595690020535807774e-01 -4.377812096009349174e-01 -2.636071759815231674e-01
5.714663881945692553e-02 -1.676201602674720625e-01 -9.259286945593291351e-01 -9.965038523385916225e-01 -6.378078057715036442e-02 -5.396373136946582688e-02
5.567250004781301720e-02 -1.474679501207598054e-01 -9.139825342459435564e-01 -9.977026802780033510e-01 -6.701564934908080251e-02 -9.912845626236380450e-03
5.609217886860386020e-04 7.895577798944475312e-02 -8.652542393309033963e-01 -8.411044772340307007e-01 -5.074418113480778647e-01 -1.872059466807873829e-01
-2.019184691001879237e-02 9.450440015051958520e-02 -8.070932852395270585e-01 -8.801849943603372584e-01 -4.415519795611571596e-01 -1.740868319216495042e-01
-5.074980616569619435e-02 1.573220529193382899e-01 -8.007633826268960586e-01 -8.986016490258154077e-01 -3.937328697130984545e-01 -1.936220640205383869e-01
1.055511008945475213e-02 7.338751373377879091e-03 -7.006325770419191690e-01 -8.939054397729875312e-01 -4.436161317282236172e-01 -6.432567461557754662e-02
-4.864209950966935647e-02 1.202361977916020924e-01 -7.401959567675578944e-01 -8.674727448436304611e-01 -4.206532805126521057e-01 -2.655971659250184747e-01
1.335832789909934849e-02 -8.306779995719973733e-03 -6.533514745125509338e-01 -8.900612583548941359e-01 -4.391642473249126599e-01 -1.221708649688855730e-01
4.265862792672005938e-02 -4.389584439266289162e-02 -8.614100519085392538e-01 -9.788493756275877811e-01 -1.462807005958595141e-01 -1.430239716504405345e-01
1.696557018946981063e-02 -1.046097326122825445e-02 -6.761212396030462646e-01 -9.186208616269972982e-01 -3.885497207021574306e-01 -7.186673170493236562e-02
-8.510500484786344411e-02 1.298752677107133657e-01 -6.239263978240018327e-01 -6.535489852371885178e-01 -7.190481980002847440e-01 -2.363121089745184311e-01
-1.884913110010704232e-02 3.876527437048650493e-02 -6.447597928258653743e-01 -8.117476915030426010e-01 -5.099280249370561346e-01 -2.846736635575446983e-01
-5.151407868112776317e-02 1.055423139504332586e-01 -6.688705644980825760e-01 -8.131479482659315083e-01 -5.697453591445470478e-01 -1.190824922654761531e-01
1.131746464136643669e-02 2.497196085925270075e-03 -6.808548692826719151e-01 -8.949490404769339102e-01 -4.379538010159831352e-01 -8.522137716012347097e-02
2.350841070423078522e-02 -2.151077059604714764e-02 -7.842030934020809418e-01 -9.140604643884830960e-01 -4.016328045426355020e-01 5.643188599655114129e-02
5.675444510278346982e-02 -1.378097280375623901e-01 -8.287911045879345906e-01 -9.714696068055220790e-01 -2.148942589684225690e-01 1.003357389743895905e-01
-1.972005923513333453e-02 5.048233398062026978e-02 -6.640212461245953435e-01 -8.399462276710384367e-01 -4.884022955845950809e-01 -2.365449899889874030e-01
4.509458038857655504e-02 -7.891498376173222695e-02 -7.036343723665222649e-01 -9.216687102801438547e-01 -3.876377369334252920e-01 -1.624110204601391522e-02
4.509501674939560278e-02 -8.240571869881933853e-02 -7.712303237100825992e-01 -9.508546263801427312e-01 -3.071790845248782431e-01 3.894213042370534700e-02
-2.159264666944306701e-02 1.150856683698929517e-01 -8.606803662031028423e-01 -8.722726533255280579e-01 -4.685128279301943310e-01 -1.401290416912048531e-01
5.598973403772081886e-02 -1.496328627299197411e-01 -8.527326716910103022e-01 -9.654871728626815974e-01 -1.995239053064353507e-01 1.674058847498948732e-01
-7.888356521734257720e-02 1.322984957943588724e-01 -6.509965329908822262e-01 -6.717141410216488362e-01 -7.183242263947293704e-01 -1.811364638220644141e-01
-6.664198116741434919e-02 1.358563333674605855e-01 -7.149188126675672939e-01 -7.961502828324913406e-01 -4.728059480186196928e-01 -3.776231754857723444e-01
5.243977837539088444e-02 -1.305631323430334612e-01 -9.496645878501072113e-01 -9.857062988515160606e-01 -1.637052269865728882e-01 3.979561611183404790e-02
1.882920958189882379e-02 7.152785545507537625e-03 -8.080361380004194016e-01 -9.300571973455191710e-01 -2.624881104381517338e-01 -2.570867587885586891e-01
6.336500966836072779e-02 -2.027914161356371148e-01 -8.515306495850247792e-01 -9.982619404444381672e-01 -1.501485338242971104e-02 5.698817805483254867e-02
2.956498970492336606e-02 2.408804162629680709e-02 -9.013500231908132543e-01 -9.510895288632530420e-01 -3.044332519444713503e-01 -5.243189103198057921e-02
1.001806581597354529e-02 4.406150048813240946e-03 -6.774131680348954854e-01 -8.925619697598503599e-01 -4.408412411536074549e-01 -9.482684343878101940e-02
-2.617601538831848193e-02 6.669143209384249815e-02 -6.763450765057346104e-01 -8.495081428521293887e-01 -4.940902143985896888e-01 -1.849615507706449946e-01
-1.430394148231375895e-02 5.396565696294303854e-02 -7.206973431770515859e-01 -8.539969893046615024e-01 -5.201516941742760913e-01 -1.146112150726190555e-02
4.411828894760857350e-02 -2.548535921769783941e-01 -9.246256543415906082e-01 -8.144217856885651585e-01 4.680750622013444828e-01 3.429619383270631761e-01
-2.086196893889062098e-01 1.819129668314295734e-01 -6.491021079710941333e-01 1.190353670726384747e-02 -9.017977020547531808e-01 -4.319944564258036968e-01
2.045275579114827838e-02 -1.279045056945143574e-02 -7.384392377791046957e-01 -9.249923118123390964e-01 -3.799517640376318117e-01 5.087248053353711150e-03
2.490635118295833617e-02 -2.486129075930017251e-02 -7.167733210812563538e-01 -9.343226706099944101e-01 -3.553698216670334031e-01 -2.744880748864469283e-02
4.607232360722445658e-02 -9.470591196596724048e-02 -8.449600927449210097e-01 -9.692122752814481546e-01 -8.699749897885762639e-02 -2.303453941696728680e-01
6.211668978932991664e-02 -2.277256825823177622e-01 -8.675000564784236534e-01 -9.948884337404035882e-01 1.006613571641246652e-01 -8.018452683848750762e-03
-1.079424314076110267e-02 8.915765179340333357e-02 -8.397284826818723902e-01 -8.497341919153659218e-01 -4.970852240614080375e-01 -1.756646894220919575e-01
-2.249339157739358927e-02 1.091848510725512700e-01 -8.358917055931768259e-01 -8.827499792787795174e-01 -4.497932927175976592e-01 -1.357883202251797816e-01
5.041400393884991338e-02 -8.690604916910769917e-02 -9.017496863014240471e-01 -9.917864339644600902e-01 -1.143746523662532155e-01 5.725476661517728272e-02
-3.401096281058994114e-02 1.294279789692729388e-01 -8.252306023419422321e-01 -8.957789045605417666e-01 -4.182326992274095212e-01 -1.505375814913701149e-01
4.216707603087494101e-03 7.767563209815904479e-02 -8.793657526424747406e-01 -8.564208259859622530e-01 -4.853063242945585554e-01 -1.761281931356451225e-01
4.986939096841657565e-02 -1.001305734080485677e-01 -8.644108639725383014e-01 -9.883634264254173019e-01 -9.174524809107521828e-02 -1.213282603407617316e-01
4.669171434818614186e-02 -7.961109266104395010e-02 -8.566082205967373575e-01 -9.833278401444852657e-01 -1.195075241838957775e-01 -1.370558662014042528e-01
2.964199115981176746e-02 1.501901656272356181e-02 -8.702074559260285502e-01 -9.459251559244691299e-01 -2.951684289440685283e-01 -1.345406925207371651e-01
-2.126057061481777533e-01 1.849609624975948607e-01 -6.621991174773887989e-01 -6.775081779791104764e-02 -3.908216901807253230e-01 -9.179696254081588513e-01
-4.454931091994824427e-02 8.749140168743811674e-02 -6.487461380339522021e-01 -8.373563885274840635e-01 -4.922208576328122587e-01 -2.378085488442917284e-01
3.935070855252263688e-02 -3.181360359854052550e-02 -8.552561048400177945e-01 -9.691779830363084214e-01 -1.791255758112575980e-01 -1.691391890957221755e-01
3.491044705034909018e-02 3.493067310660909197e-03 -9.159450289506814169e-01 -9.735652719888115980e-01 -2.182613395440794191e-01 6.732494959355883601e-02
-2.577660879012858564e-01 1.834766772018039671e-01 -6.559973675849908314e-01 9.204183740085582210e-02 -8.743835327944909919e-01 -4.764260044809686678e-01
5.475028714494136611e-02 -1.364104044732381005e-01 -8.988833654225077963e-01 -9.981895145206177711e-01 -5.553648526675794561e-02 -2.309527885323972574e-02
1.239792873534048372e-02 5.363650222884593782e-03 -7.347230655436541857e-01 -9.126035608031355384e-01 -4.088316360767103586e-01 3.381442336934238017e-03
-5.932938679661199644e-02 9.996243845883301393e-02 -6.210960595630328207e-01 -7.759902101024140908e-01 -5.803479823867012666e-01 -2.470534621592993807e-01
-2.094360348140179504e-02 8.382979080755577350e-02 -7.802191258517514605e-01 -8.816107480050064948e-01 -4.245132944383662177e-01 -2.062788206460805518e-01
5.576029169296749244e-02 -1.150058408643117175e-01 -7.664261931517968307e-01 -9.491984039919599825e-01 -3.069482799126130312e-01 6.931914106366376949e-02
-6.815438568559675780e-02 1.133281515032504710e-01 -6.254122879379009348e-01 -7.094838579183774252e-01 -6.604441723028289246e-01 -2.458579887343239345e-01
-3.606046136844895389e-02 8.702477745275123688e-02 -7.263489243350970126e-01 -7.942057484154381175e-01 -5.980213043999911271e-01 1.077392624237200475e-01
-1.133450449827972106e-01 1.865862695519580894e-01 -7.110891067289092371e-01 -4.956447005931942096e-01 -7.098194256595805607e-01 -5.004924712023010036e-01
6.351639471639226875e-02 -1.986503613341802088e-01 -8.475094791072348421e-01 -9.983123353058560578e-01 -1.910230416101674905e-02 5.484143645007835688e-02
-7.094310593064615152e-03 2.311898116735505368e-02 -6.487745083702500803e-01 -8.052062027707390657e-01 -5.356672758480831575e-01 -2.543689065216530043e-01
6.182004755573505816e-02 -1.462543286062892578e-01 -7.926059288080192777e-01 -9.765749282441411605e-01 -2.009186357766074016e-01 7.702669227363721782e-02
5.560929617231281930e-02 -1.281379802956328917e-01 -8.169957269691057178e-01 -9.665423424656923723e-01 -2.440469725076674645e-01 7.897452393509031554e-02
-1.297874721848523982e-01 1.848819100089995893e-01 -6.934013994273920956e-01 -4.399160274742573429e-01 -7.330031583341520829e-01 -5.188258461597943239e-01
2.036508815516271248e-02 2.868388243630281761e-02 -8.439413585482983260e-01 -9.263488944517832557e-01 -3.219372220907147919e-01 -1.955355486362330419e-01
2.376505501755359420e-02 -2.301730005576361343e-02 -7.898152306814734125e-01 -9.223389756593687316e-01 -3.802141639116720095e-01 6.876047949639949031e-02
4.687034216620925703e-02 -5.938549901450786844e-02 -8.795385166381805009e-01 -9.902325356248150579e-01 -1.271513345489925784e-01 -5.720195374687130074e-02
5.588504062344087919e-02 -2.049635002058565469e-01 -8.908616806223031981e-01 -9.101957074418058902e-01 -1.723502210312260474e-01 3.766154211725775691e-01
-5.873832862288817097e-02 1.242180028106023848e-01 -7.181145513176084849e-01 -8.292880064212363456e-01 -4.167974932876064575e-01 -3.722381656883922973e-01
3.298156725323812821e-02 9.447371962605855683e-03 -8.861168650703139527e-01 -9.617826120871989515e-01 -2.666807868407893856e-01 -6.209319621908796633e-02
4.846189777231190571e-02 -9.685382927575081347e-02 -7.964995192328082618e-01 -9.564508071967503522e-01 -2.887002555205342436e-01 4.305828462750357216e-02
2.224228621148105489e-02 -1.819754544623874634e-02 -7.805452346967248767e-01 -9.237982956313984806e-01 -3.824711355745354369e-01 1.767878505013251514e-02
5.493829438693825090e-02 -1.785395977576257620e-01 -8.790368354182649391e-01 -8.787535734700282486e-01 -2.395211035402293465e-01 4.128217509682917119e-01
6.288747625688397014e-02 -1.806247545853571779e-01 -8.399229724710468581e-01 -9.874962687269085437e-01 -1.177653524233256144e-01 1.047971422274629888e-01
5.601817219921130173e-03 5.272948744060671107e-03 -6.530876323573618913e-01 -8.385050615866728174e-01 -5.176649438376762502e-01 -1.700948782740550891e-01
-1.234820597238091427e-01 1.648134933438951955e-01 -6.642303914816537480e-01 -4.175630091991852644e-01 -8.882062455063478579e-01 -1.916528079419619335e-01
3.961787090765998137e-02 -2.007574092639512892e-02 -8.738250902946574916e-01 -9.735336849657418856e-01 -1.922282107967119291e-01 -1.236142354703480412e-01
-1.978190317664833484e-02 5.715263406055875323e-02 -6.802314173249969231e-01 -8.495081428521293887e-01 -4.940902143985896888e-01 -1.849615507706449946e-01
2.937794968356853553e-02 -3.831094619455552991e-02 -8.096711289012570312e-01 -9.352722705163498684e-01 -1.245308784263207680e-01 -3.312972084421486607e-01
4.947972648025480980e-02 -9.130098652361345879e-02 -7.385119310482212152e-01 -9.440710248711200459e-01 -3.267276064052846984e-01 4.448562926908797288e-02
3.035846153696991970e-02 -3.839864087531752457e-02 -7.327518861431306929e-01 -9.375520228740790163e-01 -3.477878562492762726e-01 -6.309631546716316756e-03
2.340902155487705610e-02 -2.022873587423118860e-02 -7.343076911417706354e-01 -9.296776623244290549e-01 -3.679165698736552303e-01 -1.835325004974668744e-02
-1.154826027698506452e-01 1.568089603023867240e-01 -6.484612176595443422e-01 -4.693944240614197905e-01 -8.538871712485442966e-01 -2.248234272428191183e-01
6.458442252145049634e-02 -1.652956017877987016e-01 -7.979128868952835019e-01 -9.880376244286290799e-01 -1.373393349604317970e-01 7.013957360903913529e-02
-2.094857621781043289e-02 1.078191616020136023e-01 -8.407911003705182962e-01 -8.709008612830967389e-01 -4.688588863575222088e-01 -1.473194980304526613e-01
5.407223839307034874e-02 -2.399746361248339399e-01 -9.040093930538203315e-01 -8.187896944735220117e-01 8.127233477059321587e-02 5.683117488006853568e-01
6.315517077935037249e-02 -1.369032707023544460e-01 -7.531899303818118119e-01 -9.655889406579412082e-01 -2.447561383526220269e-01 8.793423916647709337e-02
6.762204754850041633e-02 -1.749469133885264427e-01 -7.715759088062935644e-01 -9.869096908913037591e-01 -1.071663245777819545e-01 1.205182181303758454e-01
-1.679370893103186019e-02 8.369304811804953448e-02 -7.977731980229528785e-01 -8.766821423212493025e-01 -4.392275546066971570e-01 -1.962334747418130465e-01
4.272807385175247247e-02 -3.438744504951019715e-02 -8.757321684035057618e-01 -9.718742984007431307e-01 -2.037099934974661297e-01 -1.181633896658597360e-01
4.681373136756000058e-02 -9.843268771575534870e-02 -8.469999421551942520e-01 -9.781111315013580887e-01 -6.400717501776721774e-02 -1.979941816806186083e-01
3.531791846722857203e-02 -3.399585863077280324e-03 -8.725053047720724431e-01 -9.601939411058757479e-01 -2.589104620326113659e-01 -1.048473562548246502e-01
-7.066787765843635105e-02 1.754088905269617360e-01 -7.629992853261698960e-01 -7.647180017890573556e-01 -5.562177410446366155e-01 -3.253124686927214015e-01
3.677670971460729465e-02 -6.135827745843235037e-02 -6.782268262620557708e-01 -9.301837259929165436e-01 -3.618405178643687159e-01 -6.188437225649156409e-02
-6.908715660644407838e-05 2.884995012138049514e-02 -7.098638073042121688e-01 -8.729177549532602942e-01 -4.849591502495221862e-01 -5.319037202935621850e-02
4.266600625405326391e-02 -3.557429081950663763e-02 -8.731755876562026231e-01 -9.718742984007431307e-01 -2.037099934974661297e-01 -1.181633896658597360e-01
-2.758476904895799595e-02 7.498706293750119489e-02 -7.259026570886333296e-01 -8.385468876380365311e-01 -5.447126240635425942e-01 1.128159644605881799e-02
-5.532359266375269646e-03 9.259835198293960012e-02 -8.754159819558079425e-01 -8.385684601225340540e-01 -5.170950798413255223e-01 -1.715098133974130024e-01
-6.109622386172064434e-02 1.055581491956052859e-01 -6.287934134220943827e-01 -7.849716754769169302e-01 -5.895590311707397113e-01 -1.903670598186059659e-01
3.505236785728390453e-02 -1.123416339187778903e-02 -8.567984704450388733e-01 -9.585889368417405132e-01 -2.411017038822282632e-01 -1.515823820557913593e-01
5.256218318289277575e-02 -1.211634665385925708e-01 -9.255102877664157512e-01 -9.892415770955785836e-01 -1.277097140472734371e-01 7.135356391530994769e-02
6.288604514609621998e-02 -2.152864973587615416e-01 -8.257836778671963085e-01 -9.900846587990339565e-01 1.401213254511442796e-01 9.918798546945134520e-03
5.252671798998272135e-02 -1.090948530855406773e-01 -9.041560139126949558e-01 -9.964267681536969068e-01 -8.375793932376342232e-02 1.087673236848161681e-02
-1.731565703439632729e-03 8.392602326868982276e-02 -8.684266213211352392e-01 -8.411044772340307007e-01 -5.074418113480778647e-01 -1.872059466807873829e-01
-4.125813078035225900e-02 1.011201369021485774e-01 -7.349737905237421209e-01 -8.667106954363028581e-01 -3.809237241610508584e-01 -3.220398838460789004e-01
6.089567676838160415e-02 -1.914802776004735640e-01 -8.647384523297156900e-01 -9.786982383590474566e-01 -1.292150503507454584e-01 1.595406813190651529e-01
-7.663520506118869091e-02 1.690478061880834881e-01 -7.392752471479859810e-01 -7.619389929101554326e-01 -5.390042765666901436e-01 -3.590589936568598373e-01
-3.767566643870275209e-03 6.541435142717200169e-02 -8.137392124240576674e-01 -8.653043358953337316e-01 -4.516205313502543173e-01 -2.174564368871371167e-01
1.179427468611980029e-02 5.273320048290211504e-02 -8.519399166903984799e-01 -8.989180861423368141e-01 -3.977693127423909680e-01 -1.836459861980228592e-01
5.924293026956541086e-02 -2.448646217410069825e-01 -8.882386919265646830e-01 -9.785730000108313620e-01 1.939164349167747103e-01 6.921921639956508943e-02
4.436872268291135180e-02 -5.760440726180395682e-02 -8.590931466200441013e-01 -9.788493756275877811e-01 -1.462807005958595141e-01 -1.430239716504405345e-01
-6.935558458451364372e-02 1.526551925272254806e-01 -7.306475798220133377e-01 -8.096178050994865538e-01 -4.731885910704031195e-01 -3.472917605511205985e-01
4.738501801740831881e-02 -7.175725756728547344e-02 -8.681124508722554145e-01 -9.867393688634873428e-01 -1.184797746322778095e-01 -1.109412499387464751e-01
-7.504806417471018842e-02 1.621781475536351602e-01 -7.325535659857720372e-01 -7.657385342523321814e-01 -5.244584969045144041e-01 -3.722738000259319113e-01
4.998761607237819232e-02 -1.186231678170853732e-01 -8.563427845736680810e-01 -9.728345122593603511e-01 -1.661301171772332219e-02 -2.309047847030452350e-01
5.674598729505165445e-02 -2.437421944762936388e-01 -8.978593350545208684e-01 -9.259775404285522926e-01 1.525975148848847385e-01 3.453687783700871150e-01
-8.085904103202805338e-02 1.807522637113544994e-01 -7.490889034909745670e-01 -6.996550138331826263e-01 -6.079303255988093291e-01 -3.753712573378717998e-01
-1.577301071392887832e-02 5.579867104124022759e-02 -7.409263215478244513e-01 -8.340200424855567229e-01 -5.488790696593388585e-01 5.605653951403764823e-02
2.391938173111477287e-02 4.179760828019280644e-02 -9.015482036079649486e-01 -9.515490399447773529e-01 -3.019320933275719820e-01 -5.823603351021593849e-02
4.750429264257783474e-02 -6.696995997446672511e-02 -9.102675542579394818e-01 -9.873578813709225077e-01 -1.251647245629772531e-01 9.725330750055491413e-02
1.437726149876094109e-02 1.494690328032938394e-03 -7.882938748881230806e-01 -9.122277874862052549e-01 -2.223904825122125506e-01 -3.440682156578954709e-01
-1.087337536976677819e-03 2.914533615089144949e-02 -6.971133322979408131e-01 -8.699248294224924960e-01 -4.886574917521875894e-01 -6.666818513135162882e-02
6.321235443440187396e-02 -1.488064922449827410e-01 -7.816108473815149837e-01 -9.765749282441411605e-01 -2.009186357766074016e-01 7.702669227363721782e-02
-1.923582564865969347e-01 1.943153891930282651e-01 -6.735576038603122706e-01 -3.933743845072173312e-02 -7.567468278977542706e-01 -6.525234129154466878e-01
5.245217787976696328e-02 -1.183805156362562755e-01 -9.226040717867709517e-01 -9.904257087530066173e-01 -1.127580568046093606e-01 7.964004059989550355e-02
-1.239642243170796174e-02 5.039997882318754396e-02 -7.118383684828568647e-01 -8.598110996088514923e-01 -5.091160578941235082e-01 -3.906037101417787760e-02
-6.584116553904342806e-02 1.207223708385096045e-01 -6.568902262574444206e-01 -7.324956337663921513e-01 -6.583529134079687539e-01 -1.732673885080841802e-01
-4.660875379823472414e-02 1.563567046118773118e-01 -8.205640409218158959e-01 -9.152245878690401515e-01 -3.704654378527340586e-01 -1.584907351125857955e-01
3.865256361943371355e-02 -6.520969067772702799e-02 -8.002971420200964969e-01 -9.513176150544937482e-01 -3.054133594297306353e-01 4.144243198554382890e-02
-1.259845086090407296e-01 1.679006997068598073e-01 -6.753833052950799498e-01 -4.469946913275729128e-01 -4.846093445387743559e-01 -7.518972862769670584e-01
5.265416028651198621e-02 -2.373997441714372769e-01 -9.237175544058390253e-01 -9.388548527140484490e-01 3.328330865453882903e-01 8.816860005666711519e-02
-8.174697581890441947e-03 4.355110533527025568e-02 -7.412219131872528344e-01 -8.571314716798860145e-01 -5.146912090505062487e-01 2.045970630289998399e-02
-8.866868241316507027e-02 1.660275795418404143e-01 -7.136845272467512435e-01 -7.019799352069029386e-01 -5.684321081590099078e-01 -4.290793737536400254e-01
-2.247777831962211384e-02 5.059665167777148420e-02 -6.549883137697074531e-01 -8.264205914307864997e-01 -4.954578762088869270e-01 -2.674892501798316613e-01
5.117895709734614912e-02 -1.134371741168573866e-01 -9.304454680179343740e-01 -9.831649580256716092e-01 -1.324865173247982142e-01 1.258331754249464862e-01
2.850843609164540812e-02 -3.329871848535495560e-02 -7.387670420104438529e-01 -9.377022528085210418e-01 -3.473798395469092082e-01 -6.460042893688656973e-03
4.401981335981872828e-02 -8.548449218390601068e-02 -8.177474813451928171e-01 -9.559452294238536263e-01 -2.873815162817499602e-01 5.983796822568463597e-02
3.334787557402683900e-02 9.976629710168306853e-03 -8.991422928749024379e-01 -9.620883812068331542e-01 -2.726081435440804723e-01 -8.411112902904421471e-03
1.247717103674280932e-03 6.894463598055805553e-02 -8.423526533624728918e-01 -8.566979433600042659e-01 -4.763541855476898235e-01 -1.978770420082540393e-01
4.459843851018420458e-02 -5.752889227467405248e-02 -8.607425455047092999e-01 -9.788493756275877811e-01 -1.462807005958595141e-01 -1.430239716504405345e-01
4.027209488581617175e-02 -2.633298346751671362e-02 -8.692470620780828883e-01 -9.735336849657418856e-01 -1.922282107967119291e-01 -1.236142354703480412e-01
2.489460727268677856e-02 2.408994800976095932e-02 -8.585178852741193190e-01 -9.239034465487860892e-01 -3.457869975897544523e-01 -1.638101759755406228e-01
5.787693514973907966e-02 -1.721279255683903220e-01 -8.649443530752773945e-01 -9.569535659892006718e-01 -1.850295382753564533e-01 2.236156132879830172e-01
2.521572604703763848e-02 -2.779262671017442704e-02 -7.956510610624791813e-01 -9.074112811959424985e-01 -4.034320730099105190e-01 1.176746753777734855e-01
-9.645618792294109733e-02 1.673221358144078019e-01 -7.045989906040186490e-01 -6.374795720792099107e-01 -6.159488254059118928e-01 -4.628464536569175114e-01
3.722144260002176880e-02 -9.660960274920669250e-03 -9.243782929624414502e-01 -9.809924819820269315e-01 -1.698678000489127204e-01 9.380128358015797641e-02
5.657015323364626008e-02 -1.205543478134407653e-01 -7.764767832814563064e-01 -9.591208566233998534e-01 -2.722576282468296971e-01 7.722024508771395401e-02
4.017437216856293430e-02 -4.232529378621354560e-02 -9.416504366947974214e-01 -9.796196112729790295e-01 -1.370724826005720320e-01 1.468214961206070202e-01
-6.582525653700876944e-02 1.089356697735160417e-01 -6.203341148313580300e-01 -7.094838579183774252e-01 -6.604441723028289246e-01 -2.458579887343239345e-01
-8.592220475980218153e-02 1.314530900572134231e-01 -6.269655292017927151e-01 -6.468881387436389296e-01 -7.347590726926145344e-01 -2.041196733504142546e-01
-1.001106196143559598e-02 5.320361626985922743e-02 -7.679497113295850053e-01 -8.902859095759830810e-01 -3.778520309437937708e-01 -2.542023641159038561e-01
-4.328713592162903440e-02 9.825291701842038539e-02 -7.032999154389650842e-01 -8.063029679911933867e-01 -5.914766246534068905e-01 -5.561141717801529501e-03
6.149504629959860053e-02 -1.295834295720831308e-01 -7.502774254141849619e-01 -9.573980550638321319e-01 -2.721120551779572794e-01 9.666433461634085789e-02
2.565559025108592184e-02 3.259306059367258340e-02 -8.851676700600494829e-01 -9.487856737028341758e-01 -3.004975098908453379e-01 -9.750380467274313845e-02
-7.202838591673944857e-02 1.570512225470186984e-01 -7.313407916695526811e-01 -7.579530212441693005e-01 -5.385156716636674279e-01 -3.681142335735811399e-01
-4.553252212032769114e-02 1.552107521366029586e-01 -8.241002596664322999e-01 -9.152245878690401515e-01 -3.704654378527340586e-01 -1.584907351125857955e-01
5.386404671366962910e-02 -1.367735749458220684e-01 -8.792464151108041470e-01 -9.942373771696578766e-01 -4.602044716871283442e-02 -9.682022661195963109e-02
-1.417667139241566947e-02 5.120273326371409250e-02 -7.537057396090124373e-01 -8.821693276527372563e-01 -3.127431127976072478e-01 -3.520923497413436798e-01
6.377111847770275399e-02 -2.004118056390488956e-01 -8.434861302961885743e-01 -9.983123353058560578e-01 -1.910230416101674905e-02 5.484143645007835688e-02
6.429965172077836688e-02 -1.454076151417961760e-01 -7.617166146898299850e-01 -9.732696645447597161e-01 -2.005697969647005086e-01 1.118834957554943749e-01
-3.803870052916044631e-02 8.365064950863233817e-02 -6.663598226935650848e-01 -8.561584059932505486e-01 -4.792433084724018744e-01 -1.931803176607868600e-01
-5.764983416437946540e-02 1.074921899337231285e-01 -6.466304302333212295e-01 -8.246848438279954507e-01 -5.369152987472293193e-01 -1.778113335295821162e-01
3.641218307740822641e-02 -1.990758219293435258e-02 -8.525798821891760193e-01 -9.563427012672568450e-01 -2.199507504658007317e-01 -1.924325988557488432e-01
-8.757009315847880115e-02 1.456235233933551587e-01 -6.922333970427092531e-01 -6.566307446151569138e-01 -3.495090629489991940e-01 -6.683408412948119715e-01
-4.434001920995590124e-02 7.584550583555055292e-02 -6.265111067567329384e-01 -8.809332731738273026e-01 -4.054645534650111460e-01 -2.440390626491306392e-01
3.054411244840544992e-02 2.059885988262617762e-02 -9.245300705076123782e-01 -9.716999126460584835e-01 -2.362105214831336508e-01 1.967054729415225901e-03
6.360948291585183378e-02 -2.056505150437729634e-01 -8.461442855138864294e-01 -9.990935488924143071e-01 3.812728802983943871e-02 1.893120358167019873e-02
-3.654150604660175161e-02 8.854906398438487647e-02 -7.108176036672063658e-01 -8.228825883454379264e-01 -5.682105251782502142e-01 1.022191063268960802e-03
-4.102928589797219354e-03 3.528251581860768205e-02 -7.573232987956547424e-01 -8.323038461085793260e-01 -5.435483100184730354e-01 1.087453099169263804e-01
5.222534245768254563e-02 -1.285155634902145072e-01 -8.667884781891291857e-01 -9.856999657592765418e-01 -5.360133941313854899e-02 -1.597575472873779268e-01
4.904191737495604969e-02 -7.287193449583181937e-02 -8.956869800277666993e-01 -9.920698058457332325e-01 -1.175746951616735980e-01 4.442624659870228476e-02
5.667777875919968733e-02 -1.193284840741989927e-01 -7.708179480891212965e-01 -9.591208566233998534e-01 -2.722576282468296971e-01 7.722024508771395401e-02
-5.652269407760950742e-02 1.393256735367285892e-01 -7.450674796840867087e-01 -8.528582534615127830e-01 -4.393845933672628212e-01 -2.820886006453705575e-01
5.544756964541173137e-03 1.110452655605615076e-02 -6.707917112547342464e-01 -8.531973633873611851e-01 -5.042249430788309228e-01 -1.334596039481799334e-01
5.459327846474307938e-02 -1.356558391457810819e-01 -9.180424820008195042e-01 -9.935098117570699827e-01 -1.046697947064472584e-01 4.452513917486889544e-02
-1.149683055437710107e-02 9.330430834732844625e-02 -8.481153029767157792e-01 -8.477010981353543251e-01 -5.043873200836189730e-01 -1.643054459200288253e-01
-1.650774916462658531e-02 5.766407728902426394e-02 -7.235033399168626644e-01 -8.549717360436940305e-01 -5.185267201321237529e-01 -1.238430762918670165e-02
5.569594961238178571e-02 -1.093846344089235423e-01 -7.430681626118988969e-01 -9.469007200779465672e-01 -3.116266743599670486e-01 7.916970470586194575e-02
5.271535168284182532e-02 -1.165841643753668250e-01 -9.160190883996043310e-01 -9.921953393367416441e-01 -1.091819819334278879e-01 6.023041938702156095e-02
3.747056645210630060e-02 -5.873037294275950532e-02 -7.126136219692966733e-01 -9.370570231780287473e-01 -3.485027406507683612e-01 -2.167890845117943430e-02
1.621542811020638616e-02 7.679803272196384159e-03 -7.995656811984807044e-01 -9.145217463742044695e-01 -2.957309467520952695e-01 -2.760311260379604281e-01
4.661477921053239909e-02 -5.628207090120075640e-02 -9.014102281336200395e-01 -9.911965776916991100e-01 -1.308625064184634201e-01 2.010842574994558749e-02
-3.972677823907753980e-02 9.315346958740358674e-02 -7.117987210894279881e-01 -8.189828335375289869e-01 -5.737906877972464015e-01 5.600443554169124739e-03
-2.844161620263611218e-02 1.203197971719747322e-01 -8.337406858630899142e-01 -8.904254488261682532e-01 -4.331261571845507197e-01 -1.398007583858570102e-01
-8.747536806999739456e-02 1.693659634474631304e-01 -7.202970759736568862e-01 -7.031230013221740904e-01 -5.770218013241273924e-01 -4.155284416358969724e-01
4.453595111898536046e-02 -7.696632048075484345e-02 -7.193070305072536419e-01 -9.422579089373740446e-01 -3.346186790702035951e-01 1.343028898719009212e-02
3.350382038145519048e-02 -4.358445750705063765e-02 -8.198179560471245964e-01 -9.460629161060150061e-01 -1.570681630828791309e-01 -2.833629314408526167e-01
-4.841792144960018612e-02 1.035696474433566855e-01 -6.821240602223642702e-01 -8.094950949699400988e-01 -5.805958082115308949e-01 -8.732810948833732989e-02
-3.196562297403658659e-02 1.093233749794117332e-01 -7.854405754976604426e-01 -8.837110987430872866e-01 -4.240231988525761109e-01 -1.981388926816598228e-01
-3.368004777595608873e-02 8.433476412915094644e-02 -7.108029212972418742e-01 -8.397210668782084664e-01 -5.421913417282845371e-01 -2.995127369254980271e-02
2.553334814717006865e-02 -2.744925866438534257e-02 -7.906024236072458633e-01 -9.223389756593687316e-01 -3.802141639116720095e-01 6.876047949639949031e-02
6.183940603113191603e-02 -2.285484474454368697e-01 -8.584561609187719711e-01 -9.885089556056825266e-01 1.450624793814656588e-01 -4.250790236020245139e-02
1.371016729653421785e-02 2.617856038373060634e-02 -8.131090427126634879e-01 -9.113112739778097549e-01 -3.356090383051107962e-01 -2.384917930010587994e-01
4.969248430347439349e-02 -1.125922232081657537e-01 -8.372241636418288335e-01 -9.534424078693011229e-01 -2.640624511326517543e-01 1.456660453853438897e-01
-8.574222262893950453e-02 1.755939557972600318e-01 -7.322416314868274156e-01 -7.016270094624942333e-01 -5.933240067609059087e-01 -3.945708587743165241e-01
3.134144664122855833e-02 -3.511183026473083807e-02 -8.173367795093130495e-01 -9.464890846839811855e-01 -1.626574627431514319e-01 -2.787489235639127871e-01
-8.182987989358350700e-02 1.849335135198987567e-01 -7.540033274072590608e-01 -7.131578302013404924e-01 -5.887670439094526698e-01 -3.804724395125627101e-01
4.395675700834807131e-02 -7.764708123493593850e-02 -6.875358730110655570e-01 -9.274452803246024946e-01 -3.716494957188418713e-01 -4.149583515908797371e-02
-1.217082421043421542e-02 5.753602522048532203e-02 -7.671033108607747675e-01 -8.877150460264502385e-01 -3.946485477920928520e-01 -2.370960159594619754e-01
-4.174926695005627512e-03 6.153740274957811285e-02 -8.044068567666764480e-01 -8.727455705373597938e-01 -4.297144647245406124e-01 -2.316476805709908882e-01
-8.819658367998092774e-02 1.915219791699083740e-01 -7.523550244762141626e-01 -7.192665238638896730e-01 -5.857864985469380947e-01 -3.735101682268835432e-01
5.720812959389100227e-02 -1.241786549298175280e-01 -7.815454045237231195e-01 -9.599102563284734879e-01 -2.727261145991073943e-01 6.475157303941816989e-02
6.270168172775486548e-02 -1.764471935038638972e-01 -8.369791846710176175e-01 -9.874962687269085437e-01 -1.177653524233256144e-01 1.047971422274629888e-01
4.521299670374921004e-02 -7.907936148151401001e-02 -8.484561396319033610e-01 -9.779001777488246505e-01 -9.518106054461826504e-02 -1.861499612474276921e-01
-1.858105338121724889e-02 6.033762686041561213e-02 -7.382616193761299961e-01 -8.340200424855567229e-01 -5.488790696593388585e-01 5.605653951403764823e-02
6.033976369981586957e-02 -1.173517237125488027e-01 -7.180753666197282614e-01 -9.301445698365360393e-01 -3.632512906884640125e-01 5.366170903698967709e-02
9.141556675222712279e-04 5.801844828750445104e-02 -8.178045449206801099e-01 -8.745635013370636202e-01 -4.375121703035652621e-01 -2.090975441398585932e-01
2.329198693669741818e-02 -2.064721348164413883e-02 -7.786907845462865962e-01 -9.237982956313984806e-01 -3.824711355745354369e-01 1.767878505013251514e-02
-4.758456990231963585e-02 1.036890288349503475e-01 -6.935177179116454038e-01 -8.137196713279293281e-01 -5.801807333049138204e-01 -3.536400989338234907e-02
2.126623679110179604e-02 4.478980040565451459e-02 -8.871298741178637037e-01 -9.240208574106467676e-01 -3.636888511885352226e-01 -1.179655652775699476e-01
-3.667173743884268033e-02 1.384142700766067824e-01 -8.346390848369034110e-01 -9.024449967185529387e-01 -4.076236988855397869e-01 -1.394128688626758428e-01
-1.495482612864052208e-01 1.725784367490386939e-01 -6.527859612857732641e-01 -3.084974082100077619e-01 -8.985592921607897798e-01 -3.121226483278787822e-01
4.657775715127072252e-02 -9.331152635405540186e-02 -9.451190930642255905e-01 -9.800071020995355653e-01 -1.475358628233888192e-01 1.334887598842263989e-01
-3.550251474772391641e-02 7.687856681544487369e-02 -6.607997400091559781e-01 -8.561584059932505486e-01 -4.792433084724018744e-01 -1.931803176607868600e-01
-4.715657394818626412e-03 6.373164055016296292e-02 -8.064400107256557426e-01 -8.727455705373597938e-01 -4.297144647245406124e-01 -2.316476805709908882e-01
5.258501354508959141e-02 -1.351555218061157859e-01 -8.679310412532103003e-01 -9.893320898961409648e-01 -2.518976219291216290e-02 -1.434834198867540600e-01
6.452630015125260243e-02 -2.032837243355999080e-01 -8.119573154551216199e-01 -9.942437769863563535e-01 9.508940012013848697e-02 4.936920000057572200e-02
-3.912206365734406666e-02 1.334502716301795844e-01 -8.063098026781467809e-01 -9.030190286555161983e-01 -3.957243325705651626e-01 -1.672091100916115736e-01
5.707355612185670279e-02 -1.119800900868441751e-01 -7.368076444466715724e-01 -9.469007200779465672e-01 -3.116266743599670486e-01 7.916970470586194575e-02
6.712683856886770412e-03 6.927689630876616989e-02 -8.686068590835313019e-01 -8.625487233475701565e-01 -4.733973976981168397e-01 -1.786185984272859184e-01
6.121059233660802040e-02 -2.342735359980981369e-01 -8.630424660915197999e-01 -9.880572768053487165e-01 1.473274988969427712e-01 -4.513785352417692270e-02
3.848028940336312154e-02 -6.077719018573247978e-02 -7.221522831010324106e-01 -9.367865969406206084e-01 -3.498715095199397274e-01 4.560550257389647810e-03
5.934702097098046303e-02 -2.451768843699639877e-01 -8.861073077092053163e-01 -9.843938381912383795e-01 1.561659704251381897e-01 8.112312255021435214e-02
-7.260796793524261494e-02 1.630594893364076814e-01 -7.388318119594829980e-01 -7.619389929101554326e-01 -5.390042765666901436e-01 -3.590589936568598373e-01
-1.531588858731771415e-03 2.942833188503375663e-02 -7.651052592872289448e-01 -8.154829963659490089e-01 -5.526698894482188207e-01 1.718821571173324014e-01
2.742945338849621037e-02 -3.579109085256029082e-02 -6.811829155765140031e-01 -9.330814776447217129e-01 -3.549596545678695425e-01 -5.798792723835904939e-02
4.889267964401809025e-02 -8.417305589401123667e-02 -8.685210411944934705e-01 -9.883634264254173019e-01 -9.174524809107521828e-02 -1.213282603407617316e-01
4.245904075577010273e-02 -3.011204387777828909e-02 -8.836034494568595354e-01 -9.760245284049402503e-01 -2.128470184700045620e-01 -4.552215592811530848e-02
3.754803117893356496e-02 -6.077799102868342018e-02 -6.960567714688897789e-01 -9.264266133398267877e-01 -3.742336028954996729e-01 -4.102365853446684335e-02
5.609695401926226982e-02 -1.544015955111610050e-01 -9.350720114899542246e-01 -9.935719390242562232e-01 -1.132017075548333584e-01 4.187961912756691112e-04
-2.474951620365357149e-03 3.367795939173919700e-02 -7.187617893384748990e-01 -8.693417463398093181e-01 -4.935033217665535932e-01 -2.644616184304365153e-02
5.368026959955445043e-02 -1.719273020580283640e-01 -8.782066825052115000e-01 -9.563150829176672030e-01 1.036934753409870097e-01 -2.733297008301210917e-01
2.889521898639066388e-02 -3.418245625594770742e-02 -7.490776491560665606e-01 -9.361750916830269276e-01 -3.515320992322393256e-01 1.175126227721246886e-03
-3.421734069019900792e-02 1.322488635657938782e-01 -8.323981082702155421e-01 -9.001129475502229749e-01 -4.159511518018932374e-01 -1.295427379945629232e-01
5.773185075872220434e-02 -1.883782695845239719e-01 -9.194269657942610863e-01 -9.968647613754935133e-01 -1.084176085160643878e-02 -7.837795448604806259e-02
4.232546455478442687e-02 -4.986897321052939647e-02 -8.532153425685682357e-01 -9.753977072732763487e-01 -1.287438219246505311e-01 -1.789534603249398337e-01
