-7.900612598092085492e-02 5.777335265468274556e-02 -9.808799655554436558e-01 8.318615226181380606e-01 -8.987027525689526841e-02 -5.476584161799057382e-01
-2.007805697552358937e-02 -2.177637256972622393e-01 -8.937225917498443639e-01 8.777383881689204692e-01 1.034301280783054555e-01 -4.678434893640509573e-01
-4.044468037805683258e-02 -1.599317065553569339e-01 -9.218330187068954906e-01 9.387365126718495434e-01 8.336738031798197890e-02 -3.344004181749946070e-01
-4.441805867165087018e-02 -3.709904260273114152e-02 -9.216137398736269359e-01 8.228468626982948786e-01 -6.375197831853769877e-03 -5.682274169733261271e-01
-5.090723241598859444e-02 5.810310143263584803e-02 -9.390173917050761432e-01 8.184234773084674286e-01 -9.182012381629414688e-02 -5.672319425532004189e-01
-3.597981774593016213e-02 8.549802580344609271e-02 -9.252655767631710049e-01 7.864221557947675967e-01 -1.702143990874980806e-01 -5.937737373936239349e-01
-7.246200251830678223e-03 7.616522449525058025e-02 -8.887620038621405483e-01 7.342449074049168800e-01 -1.597171581444577215e-01 -6.598294062439197250e-01
-4.019473865673433427e-02 -2.668940611509108551e-01 -1.020612899905543713e+00 9.143676621346013000e-01 4.048194456562248522e-01 7.279756938958246298e-03
-6.632369146932660942e-02 7.242630475404209824e-04 -9.543518680900343609e-01 8.116691891647229706e-01 -4.056183161558570699e-02 -5.827073580938121333e-01
-4.426797661468825917e-02 -2.063619494558384670e-01 -9.469644914243122713e-01 9.409083482432003542e-01 1.159350854435979156e-01 -3.181988940418213341e-01
-5.994320474062424936e-02 -2.337267121970779404e-01 -1.000365545845579796e+00 7.776278587147820165e-01 4.224210007160340008e-01 -4.656773684695527660e-01
8.338669736204869579e-03 -8.656728570541347492e-03 -8.338713738678152909e-01 8.481700836067076477e-01 -2.570543115955453151e-01 -4.631744705450970834e-01
-3.010615502938085788e-02 1.366070423098600384e-01 -9.467669413693361458e-01 7.146012028393895488e-01 -4.272056710700405380e-01 -5.539317968000156966e-01
8.086427572806953457e-02 9.809140418053906296e-02 -7.723341842109415767e-01 8.086492941252720890e-01 -2.806823562051489196e-01 -5.170142493450494703e-01
-3.491813915858200251e-02 -1.166450471636861497e-01 -9.011356817942742792e-01 9.397404599386874890e-01 -1.262119452595275929e-02 -3.416556356961820140e-01
-3.359326208661406882e-02 -2.158948359697765995e-01 -9.217913627714771074e-01 9.111768994223281570e-01 9.142705320959559900e-02 -4.017433906121199993e-01
-4.876387573929968217e-02 -9.768799854586623921e-02 -9.309509215981163210e-01 8.206305034440973811e-01 7.477348319488401340e-02 -5.665461173002525053e-01
-5.451225535546312673e-02 7.625566393637255025e-02 -9.478324619072590052e-01 8.126323745103037899e-01 -1.270022354674561760e-01 -5.687697742355990460e-01
-5.951656251843916168e-02 7.280877039276747488e-03 -9.451163453456421504e-01 8.212663892649532116e-01 -4.691007820929216088e-02 -5.686131922723076659e-01
-5.321110276411979145e-02 -7.908228575414427697e-02 -9.357499350917557468e-01 8.290196627703264598e-01 3.460927689968894272e-02 -5.581474685893101917e-01
3.653001460292652075e-02 1.218122826117075674e-01 -8.569725088832857995e-01 6.319502698498741244e-01 -1.646424368805169958e-01 -7.573187733145906320e-01
5.190290873573921715e-02 2.044798323053423073e-01 -8.816268845477527316e-01 5.172493674085952842e-01 -5.192619175245666296e-01 -6.803088658279546896e-01
6.395509913976508802e-03 7.360237243918570094e-02 -8.739858243734250909e-01 6.936003369670424856e-01 -1.499551440273562131e-01 -7.045793265054972609e-01
-4.082144062288995540e-02 -7.905739731969631257e-02 -9.176939695072177106e-01 7.952621794377856546e-01 6.242636268027466906e-02 -6.030431288045441374e-01
-1.061360647686774954e-02 6.657103284683626998e-02 -8.902039273896857896e-01 7.205886701286378093e-01 -1.476976097710600566e-01 -6.774491748833684213e-01
-2.427042099977748391e-02 -1.616439427966021303e-01 -8.835083190418159260e-01 8.868823898112097037e-01 1.568889464008999257e-01 -4.345405448746676447e-01
1.943685132431093310e-01 2.392631847535178768e-01 -8.637218472993741791e-01 1.200655496204047906e-01 -9.477082561125521609e-01 -2.956912665102834903e-01
-3.838339009393192114e-02 -2.362341093563806449e-02 -9.133363755410821572e-01 8.138775069022624598e-01 -2.945047062306127908e-02 -5.802896462445611414e-01
4.968184505693030040e-04 -7.646423104034581752e-02 -8.226406692634736784e-01 8.817312962788107500e-01 -5.534348231088723896e-02 -4.684944184600206007e-01
9.650211720885716604e-02 1.780355037692639419e-01 -8.221576822905968251e-01 6.371522300068476197e-01 -6.180266382971916217e-01 -4.605215631785047337e-01
-4.518895100230477940e-02 -2.588439234177074000e-01 -1.014237220228772163e+00 6.287808532345678936e-01 7.180701258163891820e-01 -2.983453251110931292e-01
1.592518123424355170e-02 3.253129809200546591e-02 -8.437841473171692197e-01 8.334164627590086027e-01 -2.714473114817175237e-01 -4.813869095557228306e-01
2.411003200310624373e-01 2.496712521654160244e-01 -8.862949790365115543e-01 -8.768515250682465401e-02 -9.020756417225431756e-01 -4.225764435468651326e-01
8.835920873991581770e-02 1.491282313666509596e-01 -7.985215071335705073e-01 6.789045974858642918e-01 -5.396168665255961505e-01 -4.978977654836921340e-01
4.193056746982995464e-02 -3.854599639303262631e-02 -7.689247644313608188e-01 7.715718462106659903e-01 -2.766641455605966526e-01 -5.728296751184329683e-01
4.230784078178984053e-02 1.045706760115519898e-02 -7.925972942748289451e-01 7.707604206825398041e-01 -2.797984659447561029e-01 -5.723995041614163837e-01
-3.546789245710288419e-02 -1.847597533281800652e-01 -9.161821707277744142e-01 9.141206113729750671e-01 1.347696296135952321e-01 -3.823880944759039946e-01
-4.086829302373244655e-02 -2.656146730739100126e-01 -1.005608430805681186e+00 8.019359699470469671e-01 5.960217833289581657e-01 -4.070299623439976172e-02
-6.177714473306866044e-02 -8.284015215254733611e-02 -9.489718476177989581e-01 8.304318020839882575e-01 5.273621812700928640e-02 -5.546187099126752562e-01
3.484190943666708173e-02 1.026258800547346639e-01 -8.535685536210424473e-01 8.814063979653592451e-01 -3.700611200274351864e-01 -2.935600944777255195e-01
1.289176894027279918e-01 2.157372538746411827e-01 -8.468896621833326144e-01 4.461284914548447333e-01 -7.849282272438546926e-01 -4.299500519688815858e-01
-5.453605762618012054e-02 -2.514997152309956796e-01 -1.020724847884424191e+00 7.611758090839055857e-01 6.485285952222904493e-01 -4.695619710352513625e-03
-2.420929962379505043e-02 -1.843365578614401534e-01 -8.915276611658029537e-01 8.780641607675300220e-01 1.654863749881836377e-01 -4.490184731933459794e-01
-4.094498921924540069e-02 -1.385103242023887626e-01 -9.196578230440449753e-01 9.513730461322813525e-01 2.795586558016665765e-02 -3.067699409535556421e-01
2.395891488770708275e-02 5.858585228552624230e-02 -8.446109408852793266e-01 8.321094544666369774e-01 -2.752745774545800050e-01 -4.814745712853779058e-01
-7.636668104403664115e-02 5.158215133611061820e-02 -9.758708119511645407e-01 8.308808835105321311e-01 -8.319373219707582034e-02 -5.501961108003933232e-01
5.195635577373831221e-02 1.353808758035768001e-01 -8.480741287286254204e-01 8.507718567054294301e-01 -4.575146279467222077e-01 -2.585877279624244074e-01
1.846823492209283962e-02 -2.157932191205878467e-02 -8.104118758147924595e-01 8.038739854071786928e-01 -2.766970684942429703e-01 -5.265219348443815894e-01
8.502380716359161927e-02 9.618172469063868135e-02 -7.647679399918708709e-01 8.111738137750833522e-01 -2.705810907926040065e-01 -5.184427809807665710e-01
5.289199491937535830e-02 3.760612713960054948e-02 -7.900016590566028007e-01 7.962669816321124028e-01 -2.347932897757677440e-01 -5.575222013864180592e-01
-1.623550755740304358e-02 -1.934812081506192549e-01 -8.799913165727711872e-01 8.652295884407343873e-01 1.537954732892334586e-01 -4.772051044178153290e-01
9.927571337256668738e-02 2.246932045635109121e-01 -8.697491979663721784e-01 3.122600893496090269e-01 -6.367227534507089448e-01 -7.050374258417221318e-01
1.998593634686265247e-03 3.150125009620434804e-03 -8.524973132465230030e-01 8.562430170262289586e-01 -2.435284630009197926e-01 -4.555675400006355957e-01
8.071372226173090247e-02 1.624424098119545967e-01 -8.247018175631495307e-01 6.982279686426167142e-01 -5.579995819589832484e-01 -4.484575457485411309e-01
5.254524640582004802e-02 2.174352848175566469e-02 -7.838855578186196826e-01 7.816752700240238161e-01 -2.483476412042112669e-01 -5.721077008231701955e-01
1.120183118012107876e-01 1.755530105915499295e-01 -8.001148942132134678e-01 5.626774694069155425e-01 -6.646611066657814870e-01 -4.915482465716347060e-01
-8.179795504810892515e-02 -4.722838832296519934e-02 -9.749614544906829439e-01 8.086325549019423020e-01 4.075357727792820045e-02 -5.869007898203999485e-01
-9.058894912454140301e-04 7.274645726056358508e-02 -8.812447133570168178e-01 7.185274603536169202e-01 -1.482712293785786173e-01 -6.795100670750555683e-01
-1.879467081106171375e-02 -1.418941945021828521e-01 -8.657153853061565485e-01 8.900583762611036232e-01 1.348650985999969298e-01 -4.354394240615574452e-01
-4.115046165082820312e-02 1.062878053620242291e-01 -9.406748276890589677e-01 7.559614254024707991e-01 -3.055312349606246758e-01 -5.789412645224905063e-01
-6.575800052399552453e-02 2.719340173098167349e-02 -9.563509911766511218e-01 8.245591770763932571e-01 -8.034397637851702079e-02 -5.600419707118294843e-01
7.574905836206857930e-03 -1.332603892631653575e-01 -8.154888836249368778e-01 8.549877416548810061e-01 1.421906798010720840e-01 -4.987762746939706782e-01
1.875773747492804622e-01 2.381980746187774278e-01 -8.631335405660138793e-01 1.357677925628341109e-01 -9.512871760740962968e-01 -2.768028452519709637e-01
7.074774884084389370e-02 4.118251362494981110e-02 -7.656084736139959768e-01 8.159501253135438281e-01 -1.946846433268892007e-01 -5.443558419393458303e-01
-4.886735606218925443e-02 1.083490555573020514e-01 -9.516427235417765917e-01 7.474215679355235009e-01 -2.935734187163672737e-01 -5.959661463606705789e-01
6.458895497293329346e-02 7.661610123154703744e-02 -7.886910663629665974e-01 8.256354565886787622e-01 -2.140600916215176230e-01 -5.220195111282638356e-01
-4.348260038016604767e-02 1.229358959785236544e-01 -9.536707655994921540e-01 7.210632969927855962e-01 -4.180433953726242491e-01 -5.525463250400114434e-01
1.947596496058414881e-02 -1.029078778230353985e-01 -7.898195248964795523e-01 8.644333668501363865e-01 2.895563188453332409e-02 -5.019128665996769323e-01
3.358781486415046702e-02 1.204440506538704547e-01 -8.591493250027646411e-01 6.633477619206256115e-01 -1.890343373675466010e-01 -7.240412737205731419e-01
-1.291916904889792682e-02 -2.177357374872514531e-02 -8.713247756683978329e-01 9.120176716045675924e-01 -1.974359986983979243e-01 -3.595035369769672418e-01
7.010701467443736234e-02 8.507444802188750266e-02 -7.835636697082607460e-01 8.278019117540701410e-01 -2.308400912126115923e-01 -5.113285120011008544e-01
6.245122168663718581e-02 1.573547030445337780e-01 -8.482537010303602409e-01 4.456906786884642924e-01 -2.699275171942622786e-01 -8.535215020089169657e-01
-1.389546982325128195e-02 -1.076507271309311113e-02 -8.809346674741055372e-01 9.334309568820629011e-01 -2.179029315785360466e-01 -2.849999318310734719e-01
-2.778273849894063920e-03 -1.425025212769537863e-01 -8.363566194022274969e-01 8.561602588305444739e-01 1.677420946261007628e-01 -4.887250770010305723e-01
2.035930856433461333e-02 -9.070241082537922050e-02 -7.876924798710377429e-01 8.494715235286733890e-01 -3.471933511246496490e-02 -5.264909291556910675e-01
2.360643702434169280e-02 2.472329782221813904e-02 -8.270269897254286517e-01 8.140639394388623495e-01 -2.861034666768216272e-01 -5.054153824932370309e-01
5.552825261214425039e-03 -5.471558420332907346e-02 -8.185089798500484459e-01 8.543182426563774579e-01 -1.748005058658988198e-01 -4.894743337638296499e-01
-4.745656940726755008e-02 -1.628876684699925026e-01 -9.451468186191782639e-01 9.808701644082263860e-01 -1.420375098553846053e-03 -1.946579130381249356e-01
1.711139147920886366e-02 -2.571458825392011760e-02 -8.106394975841936246e-01 8.285209527267404228e-01 -2.248990570517329646e-01 -5.128093651933590680e-01
-5.264039755948157762e-02 -9.332426878291041894e-02 -9.362147429185396774e-01 8.290602719610037363e-01 6.257257985768582831e-02 -5.556471341651103568e-01
-6.442745301418356663e-02 -1.439583349866449535e-01 -9.644908860830194719e-01 8.408332040792175777e-01 1.582128879569646429e-01 -5.176564546127033761e-01
-6.172425195009743903e-02 -2.273950752265312958e-01 -9.985401568982702480e-01 8.404418125377222104e-01 3.289606129937781565e-01 -4.306303227097067476e-01
1.061322216361769155e-01 2.250729035078683216e-01 -8.671259102223207726e-01 2.710067434310301504e-01 -6.685117290967719228e-01 -6.925658185869066896e-01
8.741305795303260309e-03 8.524617069333767852e-03 -8.426973208839695362e-01 8.562430170262289586e-01 -2.435284630009197926e-01 -4.555675400006355957e-01
1.062453336938432163e-01 2.021467091618885936e-01 -8.494366081297460846e-01 3.221108170293954243e-02 -2.296728232239823031e-01 -9.727347225671816311e-01
-8.442065411184508650e-02 -1.662855724264249505e-02 -9.779651919876871657e-01 8.000352491378114328e-01 -1.570913450426601396e-02 -5.997472994771437804e-01
3.713356646946685581e-03 -1.309672759788670926e-01 -8.214489117639177662e-01 8.539108824342881432e-01 1.435006738837583395e-01 -5.002437020645064125e-01
-2.840431742404294843e-02 -1.257227409622164449e-01 -8.838566733048467405e-01 9.306155228007291225e-01 3.035313895736340903e-02 -3.647374887199841820e-01
-4.458015441415225794e-02 1.847264100834099254e-02 -9.247864466114463777e-01 8.093079460830886473e-01 -7.048574581481914514e-02 -5.831401272796282731e-01
1.806756945705835227e-01 2.343983852945885349e-01 -8.533467169049449019e-01 1.170741912860801398e-01 -9.532138863273649232e-01 -2.787057958625761556e-01
1.264594272262868357e-01 2.120557226675605367e-01 -8.428508054268405436e-01 4.299243980462299497e-01 -7.835660814480862602e-01 -4.485411998564659553e-01
5.660807839757704685e-02 8.327275274664961216e-03 -7.728155162057723793e-01 7.747054504214707649e-01 -2.442007872110343869e-01 -5.832644688413457512e-01
1.122562664255625717e-02 -5.712212100131636855e-02 -8.081329114552948667e-01 8.407311462170337091e-01 -1.594528462102406952e-01 -5.174417161536611909e-01
3.093130123970928499e-02 7.986886784847511966e-02 -8.448485622700133701e-01 8.278934207400380219e-01 -2.822221144733811915e-01 -4.847093582731122341e-01
-1.864406022175372005e-02 -1.106188364951939951e-01 -8.594008853715958685e-01 9.151136002072586262e-01 1.962457298426801069e-02 -4.027182325781819006e-01
-4.218288767449023674e-02 3.546799849688492268e-02 -9.233900185859549303e-01 7.963478071256190338e-01 -9.359953715898433613e-02 -5.975527564406694081e-01
-1.490472608408613051e-02 -5.146370861264235735e-02 -8.619203756282134421e-01 9.103771169650860529e-01 -1.674131681862588705e-01 -3.783997040487448449e-01
3.839246033166668348e-02 1.128559685903858800e-01 -8.539310478396697768e-01 5.166612943256678747e-01 -9.419863210150597466e-02 -8.509922001146255077e-01
1.324149474843770991e-01 2.201175336250527081e-01 -8.518569675785431228e-01 4.626642633613252120e-01 -8.119778121735263809e-01 -3.558564485100926822e-01
-2.337399151292512967e-02 9.442534687011003292e-02 -9.127626290443220380e-01 7.690502368961261714e-01 -2.109108019860616579e-01 -6.033890674644416530e-01
1.245235433806862468e-01 2.235658803297069785e-01 -8.585326163257781529e-01 2.676609012697091505e-01 -6.966157912975118327e-01 -6.656456123542230374e-01
-1.560399461875155297e-02 -1.293141653140614522e-01 -8.560643922780198922e-01 8.947692943827415535e-01 1.076219368107266122e-01 -4.333652368925299814e-01
-3.704347964815118965e-02 -1.184380983884310706e-01 -9.072611227202536099e-01 9.531628362675937938e-01 -9.423385785407540488e-03 -3.023107794284810024e-01
1.956822271019837550e-02 8.874650054770483187e-02 -8.646202947615970746e-01 6.572899242428024147e-01 -1.430356103246824828e-01 -7.399397067788272553e-01
-7.015545751037073445e-04 -1.478955612466259784e-01 -8.347866135134116572e-01 8.503396971575197805e-01 1.842900674131175975e-01 -4.929092923560339790e-01
-2.524960118080289175e-03 1.526852258750322766e-01 -9.162951266725808397e-01 8.062566642386593818e-01 -3.349163668513594483e-01 -4.876281560634450063e-01
-5.100804789307205461e-02 -1.342793298367498389e-01 -9.414611741165884728e-01 7.890796095154943846e-01 1.648308712514543195e-01 -5.917635961508290743e-01
-6.235732273875208703e-02 -5.934526516836421267e-02 -9.482298460724183364e-01 8.250326769645047742e-01 3.073395824067701176e-02 -5.642486205137267063e-01
1.195677712249033388e-02 -1.073557113565494769e-01 -8.025653083493918816e-01 8.625673440809374926e-01 9.562658258930128996e-02 -4.968230405561411267e-01
-4.694028738488936758e-02 -1.738904519414612160e-01 -9.450494026509105305e-01 9.688820868272639553e-01 5.176532916817639524e-02 -2.420492770519191428e-01
-3.420445633440832855e-02 7.254949284247104446e-02 -9.195676809883467362e-01 7.777869965552607345e-01 -1.569803753282367487e-01 -6.086087000292986771e-01
-2.797168499214282636e-02 1.325587247876840180e-01 -9.404492258707131125e-01 7.482323930373975251e-01 -4.178318168548960099e-01 -5.153298543974201840e-01
3.511717373660510656e-03 2.997475173030576465e-02 -8.655287040902016615e-01 8.697731997546375160e-01 -2.640325400142129464e-01 -4.168709618121927973e-01
-1.227773471003333963e-02 -1.793243239613339091e-01 -8.677745309906895743e-01 8.536510128824247312e-01 2.002673418749668088e-01 -4.808044716754886205e-01
1.182707491914136294e-01 2.029158567722139650e-01 -8.353896268098873756e-01 4.626370772599490144e-01 -7.611875825614646818e-01 -4.544891625755288489e-01
-4.755140622267323147e-02 1.127872443184064488e-01 -9.523931285408714364e-01 7.432860107535150807e-01 -3.392142497654350719e-01 -5.765930965370628103e-01
4.475734784850032844e-02 1.595164665752068778e-01 -8.621593312607165327e-01 6.093043917009848265e-01 -2.913152693854743625e-01 -7.374846249765221184e-01
-4.474700967968917031e-02 7.907032115928133709e-02 -9.350346617394731386e-01 7.864221557947675967e-01 -1.702143990874980806e-01 -5.937737373936239349e-01
-4.800397717137660364e-02 -1.651590667927400058e-01 -9.491269397252842799e-01 9.930022218530597522e-01 -7.840203808748330908e-03 -1.178351331272809444e-01
-2.005440670892175495e-02 -6.090319642119194909e-02 -8.715055677053190619e-01 9.254215350019640018e-01 -1.311603213952402813e-01 -3.555164590368581345e-01
-1.872949524998685986e-02 -1.162060094600580878e-01 -8.598672874976988068e-01 9.151136002072586262e-01 1.962457298426801069e-02 -4.027182325781819006e-01
-4.672862369000164995e-02 -2.524329319861078891e-01 -9.904213384942088805e-01 9.577301380195560876e-01 2.876656952935975342e-01 -1.196026878163527563e-03
-3.843858321938690027e-03 -1.220625990930618715e-01 -8.323346055479270422e-01 8.770253153222148379e-01 9.981306864117503452e-02 -4.699616448311519923e-01
-5.013669523839243275e-02 -4.151156724659531977e-02 -9.298560016645299742e-01 8.234402523230653914e-01 -6.799731357550855941e-03 -5.673622427581794803e-01
-7.694594559973112757e-02 -1.434383999758886419e-01 -9.865721058682045408e-01 8.826688009638894439e-01 1.893631112918748860e-01 -4.301597376403683559e-01
-8.644220910535614644e-02 -1.359144261569334398e-02 -9.807414040631904362e-01 8.000352491378114328e-01 -1.570913450426601396e-02 -5.997472994771437804e-01
1.936628880177331258e-01 2.400873966754842326e-01 -8.722121195734182653e-01 3.758129748484799748e-01 -7.277265056815084288e-01 5.737410050398323857e-01
-6.128411959329943537e-02 -5.020923733199449818e-02 -9.462899874364378849e-01 8.210470723266551918e-01 1.393854776550042078e-02 -5.706903029752802281e-01
-9.307212061459055330e-02 -5.154836600782583544e-02 -9.906973984283337087e-01 8.146324960398897419e-01 8.139696586573694215e-02 -5.742372596267777407e-01
5.601652473453667958e-02 -7.583552158446004929e-03 -7.662258958987555602e-01 7.496466285416986119e-01 -2.836386758527092433e-01 -5.979791249505174155e-01
-7.955194015588977485e-02 5.810843816725224341e-03 -9.732882010510324200e-01 7.978022237579363019e-01 -8.154972710174479555e-02 -5.973786519256633065e-01
-4.420145755291468581e-02 -8.849970542210974789e-02 -9.231573608430476696e-01 8.224735585860271092e-01 4.292383758091917328e-02 -5.671814432738114808e-01
8.830865121384012459e-03 1.744092568759381956e-01 -9.112521450873707352e-01 8.107954583420713401e-01 -3.000142369082894334e-01 -5.025954460440396065e-01
4.356971809772779147e-02 -4.333024045744757365e-03 -7.837127212602548187e-01 7.565365508651449300e-01 -2.879512440801310080e-01 -5.871426813286316770e-01
9.945615751679368066e-02 1.803909634849368560e-01 -8.218258023941089618e-01 5.708321127525088912e-01 -6.745911789353007393e-01 -4.680570909121963274e-01
4.567946036685345546e-02 8.174113317182167895e-03 -7.870436557386091270e-01 7.631823007763887112e-01 -2.842305317483724281e-01 -5.803152424361223138e-01
7.939038326684583202e-02 1.936997720480543306e-01 -8.554479351169556045e-01 4.583766876225357501e-01 -4.581724450504125468e-01 -7.615568415034550398e-01
-4.153658693094892940e-02 -1.153656841225111085e-01 -9.245927775960341988e-01 9.814389786367080371e-01 -8.536739477791900621e-02 -1.717263495255345329e-01
-9.157473333263048410e-03 -3.002747693842673996e-02 -8.580987753476794211e-01 9.007534002983077492e-01 -1.954783984285071718e-01 -3.878550084746394400e-01
-8.796881651505461530e-02 1.494042927965061893e-03 -9.840004849876331505e-01 7.870451107976726979e-01 -5.247726059647953023e-02 -6.146593615082817097e-01
-4.188750466407485662e-02 -5.428309658896450507e-02 -9.179624655487694795e-01 8.209786395510539903e-01 1.703350482819291842e-02 -5.707047687852001561e-01
7.078184195115554134e-02 1.644495978366607714e-01 -8.458222452960825199e-01 8.020904006067698377e-01 -5.692827434235565587e-01 -1.804664713862949577e-01
7.393449290497217108e-02 6.014004344911619976e-02 -7.674904505473109095e-01 8.208715873185816747e-01 -1.889719850519580580e-01 -5.389428782334864110e-01
4.698079321681999931e-02 -2.213390853319441298e-02 -7.704315161359951425e-01 7.480313453566999060e-01 -2.943630071690994110e-01 -5.948104961869876695e-01
-3.719663098662347178e-02 -1.080535923822904670e-01 -9.089692734630665516e-01 9.485068220381831505e-01 -3.846478660838861807e-02 -3.144125772582856415e-01
1.579026576546864458e-02 2.186437372476066412e-02 -8.380353391223835935e-01 8.242821283576784452e-01 -2.654346983055213549e-01 -5.001033831175236699e-01
4.540327081356276134e-02 1.831867894560297583e-01 -8.731793491391071083e-01 6.092928685316106874e-01 -3.676736582309440005e-01 -7.025512660294594980e-01
-1.299516357825737829e-02 1.265949820323029884e-01 -9.151948715396059919e-01 7.556870128934135566e-01 -3.619068738388946938e-01 -5.458576309005750415e-01
3.077165602982274983e-03 -1.187918571962654907e-01 -8.193133845767934798e-01 8.615562938273190197e-01 1.191563131597761643e-01 -4.934800154015396290e-01
-3.509222548634968047e-02 -1.827106718575977340e-01 -9.145619349496045825e-01 9.141206113729750671e-01 1.347696296135952321e-01 -3.823880944759039946e-01
8.711500803536231796e-02 1.051250787134848236e-01 -7.663357734812487054e-01 8.138132169998524290e-01 -2.808901349874566300e-01 -5.087325229460758491e-01
-1.880989551523564590e-02 -2.589630658633244875e-02 -8.854948263435578060e-01 9.454531932742700207e-01 -1.961721577682546402e-01 -2.600668065017771591e-01
6.687102925005111720e-02 1.680268315669672663e-01 -8.494261504683294772e-01 4.964425889803320002e-01 -3.011038344768374175e-01 -8.141751879723739815e-01
-5.028894124246680031e-02 -1.041475355466630129e-02 -9.308207114385553815e-01 8.220937359966405955e-01 -2.786238184040056715e-02 -5.686700070456200962e-01
-6.220571803592685059e-04 8.321234204544655788e-02 -8.833730934649446365e-01 7.105962893548853909e-01 -1.657450651665985653e-01 -6.837993031058074989e-01
6.905572969793770388e-02 1.292509525851017194e-01 -8.107862740541458280e-01 7.836044198886576995e-01 -3.853524242321556548e-01 -4.873064972574865927e-01
-2.484187280151188906e-02 -2.678627144102348548e-02 -8.952631657657608155e-01 7.724545470460205676e-01 -9.280862123774068217e-03 -6.350022349143087386e-01
-8.244597314140024447e-02 -1.609699746090578198e-01 -1.011299893251223159e+00 9.461186938593915130e-01 2.325977854085845842e-01 -2.252946678304246497e-01
-3.624247245472866918e-02 -1.715133047904039143e-01 -9.138460622032031910e-01 9.269111355437171795e-01 1.020663704572632030e-01 -3.611346048590990399e-01
1.019566829239732103e-01 1.869345588054673601e-01 -8.282926850615999204e-01 5.777083412996542044e-01 -6.749398199254761366e-01 -4.590308397828710696e-01
-4.894716365730920199e-02 4.701185307280430353e-02 -9.344841863968695872e-01 8.130002477515686499e-01 -8.695936979928821364e-02 -5.757331544734928253e-01
-2.879004323355075987e-02 -1.302158479812563774e-01 -8.853294075241135985e-01 9.340331814714767367e-01 5.856378467085326250e-02 -3.523525209719626239e-01
8.559250810513724383e-02 1.680829539019452201e-01 -8.241850954892769865e-01 6.945411229739115733e-01 -5.527207068815571667e-01 -4.605566726066288030e-01
1.928210796030029386e-02 -7.021050221327171381e-02 -7.916826025074957807e-01 8.544802246264988632e-01 -8.039429632112869706e-02 -5.132253918516490598e-01
-3.527432389393829471e-02 -1.431428826960949308e-01 -9.041789735558324326e-01 9.251163164760161095e-01 8.685019868539807508e-02 -3.696171586630613848e-01
-7.963473539754578612e-02 -1.363898525391235295e-01 -9.894340265852744620e-01 8.954087112192176123e-01 1.537790880338372190e-01 -4.178459428500191919e-01
-5.531340022931721667e-02 -1.950391031094903249e-01 -9.711792908069817321e-01 7.743140014949658756e-01 2.883933662392247910e-01 -5.632646743743675577e-01
-1.726798697048677333e-02 -2.200303903244631154e-02 -8.832766697532329347e-01 9.354608988485337839e-01 -2.273003987967911754e-01 -2.706426341733930707e-01
-4.865382064575723281e-02 -7.386786706348594245e-02 -9.286576450286027073e-01 8.290196627703264598e-01 3.460927689968894272e-02 -5.581474685893101917e-01
-7.586753087795053418e-02 -1.454289296791359265e-01 -9.852355090615301236e-01 8.826688009638894439e-01 1.893631112918748860e-01 -4.301597376403683559e-01
3.186388553612388291e-02 5.939013138121226193e-02 -8.320013929023281074e-01 8.230173154402385949e-01 -2.678122772320847278e-01 -5.009182394855548059e-01
-1.017063969561561726e-01 -5.449189643916797776e-02 -1.003787730999274430e+00 8.318827133108411820e-01 1.082370674816779677e-01 -5.442939357714354776e-01
1.155973047142779125e-01 1.858206503299410228e-01 -8.109301045662686835e-01 5.010367767082393176e-01 -7.262688645457052727e-01 -4.706332805670568331e-01
-7.060419001800448402e-02 -3.019275799672165809e-03 -9.600537078689721504e-01 8.116691891647229706e-01 -4.056183161558570699e-02 -5.827073580938121333e-01
-4.049848726307265362e-02 -7.521265527892224967e-02 -9.168700717955906576e-01 7.952621794377856546e-01 6.242636268027466906e-02 -6.030431288045441374e-01
-2.175527828514835227e-02 7.062844226355989574e-02 -9.038415540420062788e-01 7.613184603754242774e-01 -1.440190334397685457e-01 -6.321809233903443737e-01
-1.840723056465623855e-02 -9.550412222188861544e-02 -8.589545779925192859e-01 9.086405945793409877e-01 -4.814047652469072985e-02 -4.147948461619038185e-01
-3.016509083936324762e-02 -7.297185304613268420e-02 -8.962672932516415614e-01 9.524924079948183797e-01 -1.304608667912801889e-01 -2.752056957046862817e-01
-3.334823307905634970e-02 9.481445966143307869e-02 -9.255958954752259160e-01 7.745417954630239299e-01 -2.443699855309968139e-01 -5.834109334358548171e-01
-3.460737772182217314e-02 8.205412570672240835e-02 -9.225809836027535349e-01 7.780621509028093907e-01 -1.613251281265914161e-01 -6.071190100527513733e-01
1.464420072407150025e-02 8.290670339652481124e-02 -8.678941012065337635e-01 6.637890757654254514e-01 -1.289220711390911822e-01 -7.367246177966971787e-01
9.842704208703659252e-02 1.760033833503088230e-01 -8.169191268255344696e-01 6.303452253440742226e-01 -6.160491502353714344e-01 -4.723857971829858449e-01
1.737483939095696428e-01 2.336859824083077353e-01 -8.540077697727158634e-01 1.309902066712532176e-01 -9.556032646064612779e-01 -2.639393233864479327e-01
-5.126215997015445835e-02 -2.553462073205692850e-01 -1.022057223864335729e+00 7.605139975782512218e-01 6.493144808915944921e-01 -3.027274686411078088e-03
-1.545836780533596001e-02 -1.679939941169728557e-01 -8.688813888192267187e-01 8.673000790137752603e-01 1.811917696283598944e-01 -4.636379142840268974e-01
7.542517571929069353e-02 1.345904256781667585e-01 -8.047663519506049745e-01 7.836044198886576995e-01 -3.853524242321556548e-01 -4.873064972574865927e-01
-4.816324297055445819e-02 -2.988626647511199910e-03 -9.281115591509582208e-01 8.220937359966405955e-01 -2.786238184040056715e-02 -5.686700070456200962e-01
-5.266656916843363151e-02 1.110316810073672250e-01 -9.579542720718927651e-01 7.432860107535150807e-01 -3.392142497654350719e-01 -5.765930965370628103e-01
7.506909195931396606e-02 4.135838229457004106e-02 -7.591939901809144908e-01 8.159501253135438281e-01 -1.946846433268892007e-01 -5.443558419393458303e-01
-5.283239086200192114e-02 -2.711322634462969353e-02 -9.339439559993202300e-01 8.202319841373059139e-01 -5.234339578625498389e-03 -5.720070750326031739e-01
-3.530585773482283057e-02 1.793850918495631247e-02 -9.121799891906874347e-01 7.984064793000635873e-01 -7.341664869434230689e-02 -5.976262121980334685e-01
3.508375336786444254e-02 1.015327948765633592e-01 -8.518940165859447688e-01 8.612933559373509018e-01 -3.429583791333208898e-01 -3.749043947467422533e-01
1.013006028829223359e-01 1.582737326904692932e-01 -7.911904671527305588e-01 6.201933151838195935e-01 -5.985509561865162143e-01 -5.070473396533214938e-01
-3.523777752787497775e-02 -1.225947277932078611e-01 -9.019597985819631791e-01 9.441314957540732911e-01 1.683229340738537708e-02 -3.291388652587597385e-01
-5.005798658957935632e-02 -1.733250583265114053e-02 -9.301482396433317090e-01 8.187975155867263100e-01 -2.550577554467664890e-02 -5.735155480742168965e-01
-4.338736998592959693e-02 1.176093503784652744e-01 -9.499948043791066610e-01 7.302363942914823491e-01 -3.604329593999421322e-01 -5.803816763392644074e-01
-6.521199523840065515e-02 -9.275806239257899238e-03 -9.521445496078979609e-01 8.212071272926838583e-01 -1.214073843858830791e-02 -5.705010574520116284e-01
3.924189720837280293e-02 7.486428318561823281e-02 -8.281723677225782954e-01 8.182121815496912198e-01 -2.645864303147613117e-01 -5.104143873922317720e-01
1.252510272396387958e-01 2.291190537792653359e-01 -8.639288887008264028e-01 2.340780848333028075e-01 -7.165415879731310556e-01 -6.570963421795292803e-01
5.850183186412013549e-03 -8.589918436111676492e-02 -8.123604369369982203e-01 8.662554893188996186e-01 -1.795276563293939434e-02 -4.992786050202859816e-01
1.888195408348619098e-01 2.392776389974041185e-01 -8.699172952856463192e-01 3.464160025018828692e-01 -8.606248842831885071e-01 3.732569647885538577e-01
-4.186200055169360390e-02 -1.709972628879854462e-01 -9.285391395059724440e-01 9.377586825488420930e-01 8.358189845386015948e-02 -3.370796931811653740e-01
-4.071391006785315958e-03 -5.360671570497065053e-02 -8.373568394154189409e-01 8.887645819241906109e-01 -1.445912980339055520e-01 -4.349607734612270793e-01
-4.740048880508375417e-02 -1.146062669243339827e-01 -9.318167562483216093e-01 7.966179163207411928e-01 1.245052200284924859e-01 -5.915220584073405119e-01
-5.797271127956347275e-02 -1.873942901305724051e-01 -9.711301983572164787e-01 7.735384340092377187e-01 2.584556771741159387e-01 -5.786527059013942820e-01
1.930173721065774617e-01 2.496188911870347305e-01 -8.810073250568396519e-01 -2.322537751538547579e-02 -8.884305458384680332e-01 -4.584231092129081864e-01
-3.473074100619093219e-02 6.026278696005664404e-02 -9.175041339969315368e-01 7.830056312154050069e-01 -1.100168435334379913e-01 -6.122078696193836711e-01
1.011263310636213459e-03 1.439650891119425014e-01 -9.053374369913861353e-01 7.954023376456356154e-01 -3.162125282588291175e-01 -5.170539219849489276e-01
1.113867478423959112e-01 2.170532413926046511e-01 -8.577478406042871040e-01 3.074748510521799205e-01 -6.154130125204039237e-01 -7.257589406896762796e-01
-9.396718564586442612e-02 -8.416000616224297848e-02 -9.987075390184732004e-01 8.569422603914026437e-01 1.321750804058751949e-01 -4.981763849029521296e-01
-7.367083777958183255e-02 -3.204156174462217260e-02 -9.634318519644639034e-01 8.096129435318387690e-01 5.920640507259622778e-03 -5.869342618059502081e-01
8.021862282689026097e-03 3.423651101919237411e-02 -8.589276567162057452e-01 8.464882043763447550e-01 -2.711744852807440043e-01 -4.581725858063040446e-01
-7.294092458277531832e-02 -8.445451906544095000e-02 -9.657775888299477973e-01 8.270951280035832021e-01 5.598683896699339912e-02 -5.592665939381866735e-01
-7.399190108422522283e-02 -2.027266990568013239e-01 -1.019286514523990439e+00 9.645700740971469012e-01 2.147987277931567851e-01 -1.531864181142239267e-01
-5.490437297220543411e-02 5.701550169932108336e-02 -9.446119491767916987e-01 8.223728876625867601e-01 -8.940362572776580641e-02 -5.618806148500125053e-01
8.437216384185039497e-02 1.237192298697047388e-01 -7.826249005885835830e-01 7.859906388293543822e-01 -3.624848908858003260e-01 -5.008227426466705934e-01
-6.953917166321361976e-02 -1.975366229527869277e-01 -9.967219781105053356e-01 9.181825053385807012e-01 2.157758942755134135e-01 -3.322373403754758647e-01
-4.864307557592144338e-02 -2.583604711887286798e-01 -1.025496175321287895e+00 7.655107390928710398e-01 6.426141637084961111e-01 3.225437853558270340e-02
-7.899163520535910921e-02 -1.301000332675703586e-01 -9.857636137335876736e-01 8.671185327637888074e-01 1.646230114203877937e-01 -4.701113849381411414e-01
4.611818007512120954e-02 1.370316581850852256e-01 -8.532043699064101316e-01 5.904899582219425014e-01 -2.213030011607962089e-01 -7.761099090439919079e-01
9.492101635877655402e-03 4.491243482482190630e-02 -8.630109849683355039e-01 8.796876582209178785e-01 -3.011276684352295341e-01 -3.680648737336397747e-01
1.887696469002207418e-03 1.455241621117255857e-01 -9.049426646876206348e-01 7.954023376456356154e-01 -3.162125282588291175e-01 -5.170539219849489276e-01
3.812660897668556943e-03 9.299897863419077232e-03 -8.523751849327848573e-01 8.562430170262289586e-01 -2.435284630009197926e-01 -4.555675400006355957e-01
-4.012401525037344319e-02 -1.466562573195129560e-01 -9.182284882850736407e-01 9.412254030781644909e-01 5.260983783761357530e-02 -3.336569279410316335e-01
4.739968977049766052e-02 3.138185355659701276e-02 -7.951959923730700375e-01 7.905752878879241941e-01 -2.568082596656728889e-01 -5.559138709804011258e-01
-2.149137739498392305e-02 -1.515584699577130212e-01 -8.743050775232890093e-01 8.862296027591346492e-01 1.469092101033608877e-01 -4.393344684635989705e-01
-5.655450451399142474e-04 1.660439379163255180e-01 -9.216342844250108302e-01 8.262206646761205420e-01 -3.138538980970530523e-01 -4.678195634124703850e-01
1.266020211064535286e-02 -5.371511892011228417e-02 -8.068519244802663248e-01 8.407311462170337091e-01 -1.594528462102406952e-01 -5.174417161536611909e-01
-1.018481285467485314e-02 -9.125901385577571412e-02 -8.415384311682728713e-01 8.914706143052238962e-01 -1.436852481223988183e-02 -4.528506258414431440e-01
-1.665337978156475676e-02 8.366500062517133463e-02 -9.012648419613737971e-01 7.476057932743095380e-01 -1.755276335184511316e-01 -6.405276166833892004e-01
-3.315812014335866448e-02 -3.669113975455594312e-02 -9.056408858488965707e-01 8.111247465168612836e-01 -4.017847770718996174e-03 -5.848593869360813047e-01
6.587274751656076177e-02 4.822233083242183360e-02 -7.753483352997263545e-01 8.114929633652794294e-01 -2.108233086194356842e-01 -5.450070668820646835e-01
-5.541132747817408000e-02 -1.416071877032717974e-01 -9.497537428938427340e-01 8.118909886707856849e-01 1.811987041484020844e-01 -5.549775239864350729e-01
-3.554727056623772918e-02 -1.186704959212157157e-01 -9.027913157031619562e-01 9.397404599386874890e-01 -1.262119452595275929e-02 -3.416556356961820140e-01
-6.996525148226283297e-02 1.116982478764744560e-02 -9.604559066385529587e-01 8.184979706558240808e-01 -6.728335624415671123e-02 -5.705558885900835486e-01
-6.319318291604709981e-02 -1.469675555154696389e-01 -9.634057690986851386e-01 8.408332040792175777e-01 1.582128879569646429e-01 -5.176564546127033761e-01
2.683133057018816450e-02 1.037414428915644782e-01 -8.612558399006650101e-01 6.486282386350338269e-01 -1.562162815708035557e-01 -7.449012561523877807e-01
-2.889501627272939369e-02 -1.084495080980021064e-01 -8.842896913664421987e-01 9.347259715313328554e-01 9.398142024348778156e-03 -3.552450324371841384e-01
-6.347377116632213490e-02 -1.698194053779347734e-01 -9.720008969457768488e-01 8.400777622049192539e-01 1.894759442840487640e-01 -5.082993409266266527e-01
2.732536844781570731e-02 3.885202651378967531e-02 -8.286243387076647204e-01 8.166524218962343262e-01 -2.651920673308892362e-01 -5.125933956224797416e-01
-2.544688571476686617e-02 -8.899518636939193761e-02 -8.772043516188141599e-01 9.351038518284767731e-01 -9.474473327399406120e-02 -3.414736033903439938e-01
-9.647527516076651044e-02 -2.352385206974240764e-02 -9.935258237248759672e-01 7.874616038446337063e-01 -1.021398863488946589e-02 -6.162790738834182935e-01
-1.163469427173105357e-03 -3.321825714937094026e-02 -8.396269748666643773e-01 8.848180695369864956e-01 -2.030052353512399876e-01 -4.193874798331829190e-01
1.605686439268072530e-02 -7.122575508364364927e-02 -7.968933468519732166e-01 8.544802246264988632e-01 -8.039429632112869706e-02 -5.132253918516490598e-01
-5.436797267707635384e-02 -1.270050146157367110e-01 -9.444785250660601150e-01 8.076232201981227155e-01 1.445485199403233889e-01 -5.717083693456627147e-01
-4.284912948052129605e-02 -9.544986719106361706e-02 -9.223634603416485112e-01 8.016706520652628898e-01 9.280838197417450031e-02 -5.905173747254114369e-01
-4.943913056813542539e-02 9.437900262745800573e-02 -9.461852468437949026e-01 7.939799148762660685e-01 -1.882265374229919186e-01 -5.780715054237047790e-01
6.122614078112881275e-02 -2.456988503084452363e-03 -7.621266234055127375e-01 7.496466285416986119e-01 -2.836386758527092433e-01 -5.979791249505174155e-01
6.795849434287498658e-02 5.468228858432173933e-02 -7.746789018864463916e-01 8.208715873185816747e-01 -1.889719850519580580e-01 -5.389428782334864110e-01
-8.682649143874919540e-02 -1.277225112278860264e-01 -1.001165358140966077e+00 9.057165477285298305e-01 2.015641502737269275e-01 -3.728933205290008712e-01
1.130347774887226209e-01 1.826837980373088310e-01 -8.088174665260937646e-01 5.010367767082393176e-01 -7.262688645457052727e-01 -4.706332805670568331e-01
-3.623910638891199992e-02 -4.461167920578547330e-02 -9.098594052413859767e-01 8.111247465168612836e-01 -4.017847770718996174e-03 -5.848593869360813047e-01
5.508859884430569037e-02 1.160916847181680117e-01 -8.254184536421707019e-01 8.215771272824328175e-01 -3.088604953350541638e-01 -4.791828652484668161e-01
4.136878293853264721e-02 1.728658406641449541e-01 -8.710294293958446010e-01 6.083682733198156889e-01 -3.922332602506068966e-01 -6.899573273551387054e-01
9.546008435275263673e-03 -1.103389009791588826e-01 -8.070796542047097288e-01 8.669203506389927538e-01 6.943930302844175673e-02 -4.935861513888837315e-01
-4.649068757077759462e-02 -1.404870429294147183e-01 -9.379576573908294801e-01 6.405497981796495210e-01 2.567938363708011096e-01 -7.237077322054648043e-01
1.960423788647483109e-02 1.190917496469575815e-01 -8.722097946647523470e-01 6.947328354475377221e-01 -2.053443486801841134e-01 -6.893330006724873726e-01
-3.899081958239962453e-02 -1.169504027724354855e-01 -9.134604019758371107e-01 9.638820898958071481e-01 -3.007368461178511199e-02 -2.646259440643758398e-01
3.128044850932857474e-02 7.761472928392619541e-02 -8.429330245597286275e-01 8.313126559479161459e-01 -2.810634173241008948e-01 -4.795024749705886213e-01
-6.713575762247490919e-02 -1.854412650108443750e-01 -9.851480444564966188e-01 8.726850701598019011e-01 2.217629592645561087e-01 -4.350194917683675166e-01
-3.127148162823360084e-02 -8.728373839158001801e-02 -8.947897438843098739e-01 9.514831957040003063e-01 -7.645299971032372410e-02 -2.980514504715523483e-01
-3.077298575503727845e-02 -6.636234066981912261e-02 -9.025495413323628702e-01 9.712815400628710405e-01 -1.839624562995756107e-01 -1.508972650690671713e-01
-4.400175820807755017e-02 -4.854661882543048756e-02 -9.209420138364944330e-01 8.275761256560091317e-01 1.221228128987945048e-02 -5.612206486132581551e-01
-5.793489618678111797e-02 -2.398667630014387764e-01 -1.002883065826552178e+00 7.200014848226486963e-01 5.475749382742723936e-01 -4.263326738910680480e-01
4.497936580642443102e-03 1.935089901501280130e-02 -8.568194604007793869e-01 8.597778096155438421e-01 -2.634089049835403040e-01 -4.374904191728888336e-01
4.894577397434182742e-02 2.832073955932155884e-02 -7.916989932818957465e-01 7.817946930778102432e-01 -2.510986467407845257e-01 -5.707420849037849742e-01
-6.871287903162492938e-02 -1.498013760017426754e-01 -9.733358410909663805e-01 8.604265625639483384e-01 1.794541386456602050e-01 -4.769301233486222813e-01
8.701979369212017867e-02 1.257547615065758850e-01 -7.799823896258823996e-01 7.801368779692821054e-01 -3.622830766602348485e-01 -5.100366888743751437e-01
2.604415181522314743e-02 -6.888631248566215448e-02 -7.812585739357887915e-01 8.353484308614803622e-01 -1.366589849062342932e-01 -5.324634456013486172e-01
-3.211540707102131936e-02 -1.600313223323138745e-01 -9.003740223066473147e-01 9.099188027941597090e-01 1.182840381414769909e-01 -3.975634020412202041e-01
1.438026593158876851e-03 -1.690401085945978212e-03 -8.507175597394960320e-01 8.564247716323388770e-01 -2.658618063349735272e-01 -4.425540763192690741e-01
-1.510634703724793998e-02 5.992969074455989364e-02 -8.939028718331182288e-01 7.443943326455547682e-01 -1.363219493723790698e-01 -6.536768342571839252e-01
-5.395001166974922741e-02 8.843084859812994081e-02 -9.503202197028394194e-01 7.860709041141914488e-01 -1.922114337949119844e-01 -5.874923815877119981e-01
1.631312609851005846e-02 1.904743542666738620e-01 -9.095276116564156021e-01 7.637075492472178428e-01 -3.056816663053800731e-01 -5.686031112362778250e-01
9.147999347870285070e-02 1.099044547765809232e-01 -7.623964561300886622e-01 7.801436649510560262e-01 -3.441371661018293171e-01 -5.224418369006607055e-01
-1.189153282859775271e-02 -4.029434124766888975e-02 -8.596126491626789878e-01 9.103771169650860529e-01 -1.674131681862588705e-01 -3.783997040487448449e-01
8.303835288349960264e-02 1.074141805048596798e-01 -7.740504706902869847e-01 8.108952351364178135e-01 -2.916641627321119312e-01 -5.073272452873294203e-01
-4.741749328700611832e-02 -1.824897374726278110e-01 -9.488333959952365282e-01 9.525357737538389102e-01 8.302530742027590394e-02 -2.928863227379253087e-01
-4.756987369471692845e-02 -1.739578990383243429e-01 -9.475295558472416335e-01 9.655847324443084245e-01 6.205306856700180257e-02 -2.525777922776907269e-01
-8.067279189338087686e-02 -1.702124564348431457e-01 -1.013541929324383917e+00 9.432567313863350345e-01 2.559333581866953256e-01 -2.115770660105863732e-01
-2.560980778095535426e-02 -1.548631739513470218e-01 -8.837937949793678305e-01 8.868823898112097037e-01 1.568889464008999257e-01 -4.345405448746676447e-01
6.975058368362768713e-02 1.853986538375271831e-01 -8.562358731357453401e-01 4.589496447666969181e-01 -4.627764090851739232e-01 -7.584215310516668751e-01
-6.919681326130722177e-02 -1.577741908484457944e-01 -9.772088287598515999e-01 8.604265625639483384e-01 1.794541386456602050e-01 -4.769301233486222813e-01
-7.542533140032676997e-04 -1.897894681783100432e-02 -8.456951517893479542e-01 8.682551705757266536e-01 -2.306670628823023761e-01 -4.392330416416411754e-01
3.052206054219159734e-02 1.753213863141031281e-01 -8.834283538558453941e-01 7.025008859059944655e-01 -3.176723859916460446e-01 -6.368490876806431888e-01
-1.326537904059051434e-02 5.706673985004209054e-02 -8.913109697627782380e-01 7.305504168968283141e-01 -1.246105485414826797e-01 -6.713928057136606675e-01
-7.575524071358255562e-02 -9.811107657803445903e-02 -9.720843019547041886e-01 8.451184686404639157e-01 9.279348504744926174e-02 -5.264638098630771701e-01
-6.013570596748164798e-02 -2.564787030391102104e-02 -9.444781113574016729e-01 8.227036151141283726e-01 -1.309961264927630986e-02 -5.683195947937950132e-01
-4.408381790515094635e-03 -4.752551422091108591e-02 -8.400669557319304648e-01 8.887645819241906109e-01 -1.445912980339055520e-01 -4.349607734612270793e-01
-8.751399187858165118e-02 -1.251592862983600752e-03 -9.831836895676804300e-01 7.870451107976726979e-01 -5.247726059647953023e-02 -6.146593615082817097e-01
8.676065465937768395e-02 8.717491470096859485e-02 -7.577574281534642520e-01 8.350712883013696741e-01 -2.183455215569569119e-01 -5.049566087008974247e-01
1.125974932091065341e-02 -7.930531396027254432e-02 -8.036145449228019322e-01 8.544802246264988632e-01 -8.039429632112869706e-02 -5.132253918516490598e-01
-7.386548020415835414e-03 -8.995016858556340034e-02 -8.360713642067446605e-01 8.914706143052238962e-01 -1.436852481223988183e-02 -4.528506258414431440e-01
5.256905337109835097e-02 1.769891410523951880e-01 -8.639041734063497291e-01 5.841696526586680482e-01 -3.586223675594534255e-01 -7.281042606651215721e-01
-5.481472828980811333e-03 1.244114151716997629e-02 -8.745504350214448053e-01 9.073935111074615811e-01 -2.711538249281641999e-01 -3.211115370504455946e-01
-9.604340885691958762e-02 -1.457715494069568123e-02 -9.932876858522201591e-01 7.944931664198627841e-01 -2.828036052015545782e-02 -6.066142346837819499e-01
2.893234122789891533e-02 1.258821419519166873e-02 -8.123545265931044757e-01 7.988433758003086194e-01 -2.886907090414152499e-01 -5.277375630492222580e-01
3.253764597567829903e-02 9.035428847301347002e-03 -8.053701077798880448e-01 7.857175067639137200e-01 -2.785528703665382522e-01 -5.523190182994441866e-01
-4.508453712407674285e-02 1.011127828295653730e-01 -9.431567610655933187e-01 7.584759638752702759e-01 -2.627067485092792753e-01 -5.964053793445882601e-01
-3.579407892803251195e-02 -8.334852645497154225e-03 -9.104670711242665027e-01 8.021746977328015893e-01 -5.172469556312726813e-02 -5.948447782289009167e-01
-4.790547519930966891e-02 -1.964523913149400225e-01 -9.554755560861711849e-01 9.586999183894512333e-01 8.710545268018206333e-02 -2.707528514964154254e-01
-4.218106090924691326e-02 -1.290973152112833422e-01 -9.235141549833023600e-01 9.593806704126637275e-01 -2.700022083792059935e-02 -2.808197238679139285e-01
-6.995250641610499531e-02 -1.318660216555578579e-01 -9.699623714992490209e-01 8.526252092287852635e-01 1.508475489447767548e-01 -5.002751938332778980e-01
-6.758640362701633097e-02 1.179062761199915418e-02 -9.571165099509852947e-01 8.184979706558240808e-01 -6.728335624415671123e-02 -5.705558885900835486e-01
-4.785775558066653057e-02 -1.305889116505833114e-01 -9.362625361901959486e-01 7.747182001885893898e-01 1.798178245595331293e-01 -6.061990269434863743e-01
1.262503462977719870e-01 1.964597878585441215e-01 -8.167769145462325797e-01 4.504086842826051096e-01 -7.649330192298328113e-01 -4.604448861858982944e-01
1.969755672001873362e-02 1.904846220853563532e-02 -8.301105689187416870e-01 8.140639394388623495e-01 -2.861034666768216272e-01 -5.054153824932370309e-01
-9.048922420682652124e-02 -1.360475439490919369e-01 -1.016122038151178408e+00 9.279011544190836069e-01 2.516456655638369400e-01 -2.750889067750019734e-01
-5.656117492164489807e-02 -2.280247966710820806e-01 -9.910546693180470879e-01 7.570676829935324426e-01 3.765702936967340597e-01 -5.338945001327133344e-01
-9.487538364268784108e-02 -1.114853977027800008e-01 -1.010887149637136773e+00 8.865131190864429245e-01 2.056132302821313540e-01 -4.145089736309375827e-01
9.752310108446293757e-02 1.309747782457660603e-01 -7.692260931785722677e-01 7.406320912514635646e-01 -4.337065114720785042e-01 -5.131888222820171208e-01
-6.811219516657897322e-02 -5.465936933674200859e-02 -9.563217936468415559e-01 8.156381603573087391e-01 3.459964271411543335e-02 -5.775268444782464261e-01
