5.237587952063428587e-02 9.874430177064204284e-02 -6.506179276545398515e-01 7.891811840684264112e-01 -2.568052494631943850e-01 -5.578925725984376083e-01
2.338186985343589097e-02 -8.639603934796509510e-02 -6.243767001816588058e-01 8.255309334789525666e-01 2.578686258318541730e-02 -5.637674304067989972e-01
-2.087312876480702101e-02 -2.157817057699281116e-01 -7.274913292892053462e-01 8.680405239011174112e-01 1.281930513723526788e-01 -4.796584101684436829e-01
6.293942068901253739e-02 2.264437223023914592e-01 -7.173488306624086208e-01 3.454125102859606500e-01 -6.064981999678492608e-01 -7.161355536305329395e-01
-6.648240490285655530e-03 -1.632778268459052495e-01 -6.867952812391945328e-01 8.193878560479644912e-01 2.103322431096803224e-01 -5.332578071341951276e-01
1.384284545098231518e-02 -9.433112058938473987e-02 -6.381641348338957798e-01 8.101641333426538027e-01 1.935309315620202530e-02 -5.858835505716420977e-01
-1.371348526210028514e-02 1.528882820655467212e-01 -7.487810264912372338e-01 7.799739118501431978e-01 -3.120981546581870214e-01 -5.424347321956248802e-01
8.998372610526522708e-02 9.130816304979545717e-02 -5.947586660647598000e-01 7.889366331351244099e-01 -2.088127172786360397e-01 -5.779067727584843439e-01
2.698557882276649347e-02 -1.043715080195402600e-01 -6.204940629600756985e-01 8.057464379101851870e-01 4.459077668245485515e-02 -5.905796647615827455e-01
-1.556665705523821962e-02 1.465145685037037848e-01 -7.477595927931467434e-01 7.798067870904916710e-01 -3.142770119113647564e-01 -5.414160457464005649e-01
5.534577984631668807e-02 -3.623027127490834054e-02 -5.924892330940765284e-01 7.269352822811335768e-01 -2.645682632304618420e-01 -6.336945079973991257e-01
-2.575744212145674936e-02 -1.501705811118482503e-01 -7.148903457946865769e-01 8.719528696903224851e-01 1.443531069255727661e-01 -4.678251527651604014e-01
1.470081740427854333e-01 2.460995782739835436e-01 -7.083774655973628098e-01 4.569057752481838625e-02 -7.028522439521994736e-01 -7.098669553492445994e-01
-1.150370261730961915e-04 -1.132289290797255064e-02 -6.791556269218995689e-01 8.514891389795402610e-01 -2.157646639714669579e-01 -4.779245295872154853e-01
-7.014269956270330342e-02 -2.216940945417954778e-01 -8.271577880214971978e-01 9.317004338037057076e-01 2.717754899289001602e-01 -2.409821253203081604e-01
-3.808622873180009943e-02 -2.382995645765362547e-01 -7.703485880693982102e-01 9.148072055373243083e-01 1.782293272054570887e-01 -3.624390757367113025e-01
1.084742609995400023e-02 -1.590082925869723898e-02 -6.587910096942212190e-01 8.285020248861442171e-01 -2.147928160658901520e-01 -5.171541751992758673e-01
4.205210376562667357e-03 -1.403878730858114376e-01 -6.620786663660304106e-01 8.095582130087700667e-01 1.897796470161593196e-01 -5.555170432385208024e-01
5.258706692181082387e-02 -3.591652038859055596e-02 -5.958202827470688856e-01 7.365180758614459089e-01 -2.592119376544387288e-01 -6.247801975949499598e-01
-1.739140172320358113e-02 -1.758381325840948362e-01 -7.084242088862243714e-01 8.443525454244047435e-01 1.766672600441166197e-01 -5.058235445922150131e-01
-3.511606560258309379e-03 -1.041376617088541207e-01 -6.654936292979408696e-01 8.495132227763524391e-01 2.926716448523150257e-02 -5.267548931060154205e-01
6.432582558469579492e-02 1.034832230964674027e-01 -6.354559228268437110e-01 7.869019162752748375e-01 -2.663321454055738169e-01 -5.566440177402111056e-01
7.018813586588397435e-02 9.337910034859209230e-02 -6.229104030516364743e-01 7.922627342106007831e-01 -2.091445785703123506e-01 -5.732175025553472025e-01
1.121718263783056876e-02 1.543511267845225354e-01 -7.169816388431606846e-01 7.283189573766971625e-01 -2.738436645107951151e-01 -6.281410221701968499e-01
-6.955152434544710494e-02 -9.743030721583391396e-02 -7.774646811994221363e-01 7.886750302095566489e-01 1.043021130861016277e-01 -6.058983131926749532e-01
-7.633600027770717777e-02 -1.361819782370052301e-01 -7.953861883665463983e-01 8.368853670068328032e-01 1.674916115327820532e-01 -5.211232508303483835e-01
-6.719706649533849219e-02 -3.975133279557188648e-02 -7.694923280236009022e-01 7.697321076969741993e-01 3.002986871110804520e-02 -6.376603244405026905e-01
4.875162353064731863e-02 4.251374781041650230e-02 -6.327365940224346508e-01 7.650400733751998583e-01 -2.181006195477163123e-01 -6.059255778418428662e-01
-3.926842504434228248e-02 9.772980573309096586e-02 -7.508923021099072059e-01 7.374015489326660733e-01 -2.270604166491290710e-01 -6.361466205387155126e-01
3.296344739791135653e-02 -3.099280687437215229e-02 -6.218341676551837338e-01 7.797823550567813955e-01 -2.026474174730977518e-01 -5.923457629911634825e-01
4.753552185847671752e-02 1.169153147777341958e-02 -6.219849032988316040e-01 7.358660497940768819e-01 -2.623650169197196957e-01 -6.242321320287638198e-01
6.418939959644075210e-02 1.630140508069244654e-01 -6.784001535098466151e-01 8.030742960296549660e-01 -5.357601559043135842e-01 -2.608308463388864240e-01
-2.608071643390792380e-02 -1.977213704071478506e-01 -7.309438770851487410e-01 8.679701786470739311e-01 1.630034839130693747e-01 -4.691030091691678616e-01
1.110216089419771845e-01 2.267109223078637992e-01 -6.976730080640964893e-01 2.545156828333687837e-01 -6.633341461160249253e-01 -7.037112886606184947e-01
3.908760215943916233e-02 7.368467839850631473e-02 -6.582355330755433886e-01 7.872178814159284110e-01 -2.440433622110058653e-01 -5.663310379449152387e-01
2.059361116178770046e-01 2.546353810984469113e-01 -7.233234840618461003e-01 1.771118646729884227e-01 -9.569080863338673693e-01 -2.301267079261186954e-01
1.282214791358092520e-02 -9.380706067180295815e-02 -6.396356930770479288e-01 8.261681192659430240e-01 4.421232194517275317e-03 -5.634063288732712449e-01
8.138145576579540463e-02 1.158356830925812014e-01 -6.171501682289614044e-01 7.870835130914902722e-01 -2.715461408270388177e-01 -5.538612071823587613e-01
-6.997567811488544787e-02 -1.486671003017375203e-01 -7.898112400580424852e-01 8.123650886356522660e-01 1.757416713399189423e-01 -5.560376135844055101e-01
5.034480587055120693e-02 2.849210839484451335e-02 -6.253757936412043250e-01 7.559424954949047759e-01 -2.382919391702393586e-01 -6.097277222100226934e-01
2.339872749259934090e-02 1.323719113823357274e-01 -6.977916393716283583e-01 6.335100478825973491e-01 -2.137826425877527303e-01 -7.436141479019791056e-01
1.166576395897155581e-02 -1.011110043735241604e-01 -6.419456241420401499e-01 8.267374557370266164e-01 6.962835396750284567e-02 -5.582625471991147226e-01
3.249583513369454918e-02 6.069260263216711554e-02 -6.618424022562676701e-01 7.928493025238720904e-01 -2.468813373821819313e-01 -5.571710587779973300e-01
-1.932908782177024040e-02 8.204624182988662362e-02 -7.247897692194247288e-01 7.035323867678876519e-01 -1.605232020846308616e-01 -6.922965277691173203e-01
4.718197310032981595e-02 3.978464556991293671e-02 -6.337103195626246910e-01 7.559419900792857527e-01 -2.382869542153540909e-01 -6.097302970049451876e-01
8.397935209263632239e-02 1.684469218108713418e-01 -6.539274188149819533e-01 6.791561864399680015e-01 -5.355509112666601013e-01 -5.019283772230548335e-01
-7.484718697028745760e-02 -1.364597007277602025e-01 -7.930845257910655866e-01 8.368853670068328032e-01 1.674916115327820532e-01 -5.211232508303483835e-01
6.532867670290905260e-02 7.138501564217879236e-02 -6.216409705532935925e-01 7.768263392539034307e-01 -2.019076900475670344e-01 -5.964680405026197008e-01
4.160612972047408181e-02 9.208129229986139475e-02 -6.630469054888360469e-01 7.898675217739227206e-01 -2.600112173308845587e-01 -5.554308822066281737e-01
2.356437742263415569e-01 2.608256393954865304e-01 -7.411220199390569086e-01 6.567509778411062538e-02 -9.890080849338743763e-01 -1.324756183849619684e-01
-7.620466988301845268e-02 -7.237942900723860762e-02 -7.826099528731973454e-01 7.742351403535253640e-01 8.530861601710043596e-02 -6.271223066316518047e-01
-9.168492061585041542e-02 1.643316635189280561e-02 -8.005362211795704619e-01 7.714143122638099648e-01 -7.262206585457885166e-02 -6.321756040733984561e-01
-3.596706697883260417e-02 1.272725539864094993e-02 -7.324872701995767121e-01 7.533436256040410006e-01 -5.566351288375361028e-02 -6.552670868395563675e-01
-1.504986175613636130e-02 9.193723593851926834e-02 -7.230173073064884992e-01 6.984877861614273709e-01 -1.893708705293152272e-01 -6.901112127608690638e-01
-4.793076876320477575e-02 5.645180927720580555e-02 -7.506400278991478547e-01 7.529988406674991142e-01 -1.040284754910847237e-01 -6.497467369986577035e-01
9.402404507818952484e-02 1.615778383345582991e-01 -6.341329503904274967e-01 6.594207260562102713e-01 -5.238911587473256137e-01 -5.391682110750641854e-01
-5.142884711594694971e-03 8.399743643966546547e-02 -7.115140516712443741e-01 6.630071318254779911e-01 -1.530786722605295413e-01 -7.327949667181854476e-01
1.207753679100494193e-01 2.220797408462396039e-01 -6.909683640211984335e-01 6.184988266792474931e-01 -7.848866579718386527e-01 3.757839185212943217e-02
2.457501323014886496e-02 1.687262194386312808e-01 -7.095120088807523873e-01 6.364139151297382169e-01 -3.117193968716610586e-01 -7.055553459815935291e-01
1.484419315555764347e-02 -6.849462151319321568e-02 -6.378217764175880822e-01 8.171833179274110570e-01 -7.411652167734202046e-02 -5.715926575067247217e-01
3.890142097175134511e-02 1.412710120031652750e-01 -6.878792168241812943e-01 5.738330602215042653e-01 -2.388724130231744402e-01 -7.833617231479397258e-01
-3.316421016188240284e-02 -2.405735858676132932e-01 -7.594601017183526537e-01 9.073385304278930308e-01 1.457163974809138618e-01 -3.943393496801144149e-01
-6.273062616760009813e-02 -1.298533943848779459e-01 -7.747259772265971955e-01 7.882146172475728019e-01 1.401202363006705809e-01 -5.992362109688519345e-01
8.717063428828547567e-02 2.065318653698956231e-01 -6.902939205049759552e-01 3.073866712034613591e-01 -5.660285022685531686e-01 -7.649347481884147815e-01
1.988235402496437224e-02 1.393938853193380234e-01 -7.031072688581635477e-01 6.611593281345368167e-01 -2.362427162255951174e-01 -7.120798563721911778e-01
-5.943615283395945609e-02 -2.196863033714626934e-01 -8.051719348876141824e-01 7.707092923254540429e-01 3.196466081153002126e-01 -5.512106971418294643e-01
3.774596411250763506e-02 -6.756596384900101504e-02 -6.056228373057639391e-01 7.951486102986018434e-01 -1.020288828645618262e-01 -5.977698508637011576e-01
-1.552482060150056631e-02 -6.593348709208843306e-02 -6.909407027238988475e-01 9.011900591780509506e-01 -1.076808662094325963e-01 -4.198348583562911407e-01
-1.436166497369540003e-02 -1.779904593011465974e-01 -7.043128857206856219e-01 8.213567308806786205e-01 1.921101081662562327e-01 -5.370910788472974540e-01
-1.430784543518078510e-02 -1.956488899579029717e-01 -7.105407852650921230e-01 8.209759753703824714e-01 1.913460121706042905e-01 -5.379453052969755955e-01
8.856961340752896039e-02 1.113723273034186861e-01 -6.049443854194854753e-01 7.778288850819011779e-01 -2.606283022196184684e-01 -5.718873259780858920e-01
5.254878782860482322e-02 1.351642288007031123e-01 -6.709212484900030082e-01 7.823005352083672870e-01 -3.632173560239471688e-01 -5.060425129331279637e-01
-2.705059626729562974e-02 -1.124472364311658035e-01 -7.116839668084050663e-01 9.194859169379556718e-01 1.811750022921598466e-02 -3.927052390002087057e-01
-1.737234487144848072e-02 1.405507393588189546e-01 -7.467225924655613856e-01 7.550423191643453880e-01 -3.592682267279324604e-01 -5.484864971306894210e-01
1.175791407768309385e-02 7.984899504645794066e-02 -6.958864271310976068e-01 6.109218941964064120e-01 -1.191976155034400187e-01 -7.826661917125135037e-01
-1.810842665119877584e-02 -1.258054406446895146e-01 -6.945584629956247369e-01 8.845838094727310752e-01 7.451884356418705946e-02 -4.603894286064427743e-01
-5.744892073032076274e-02 -2.473469486669307993e-01 -8.232233381194783428e-01 7.139152750601206465e-01 5.272795686945679350e-01 -4.607615831133304307e-01
-2.705742004431058167e-02 1.327807050690937296e-01 -7.547079427021358145e-01 7.335794594185959250e-01 -3.668950902551050275e-01 -5.720569634798782221e-01
1.136359672007543342e-01 1.865725841488361791e-01 -6.411294649563566983e-01 5.562551867066753974e-01 -6.557837902432049892e-01 -5.104192274162269172e-01
-2.300926034549845983e-02 -9.807020022765679246e-02 -7.026623564428596813e-01 9.183410220949167480e-01 -2.367162179879655354e-02 -3.950815377350329061e-01
-2.617941383728063925e-02 -1.802571788362844485e-01 -7.252175902656317064e-01 8.757153068086397374e-01 1.462576130575695132e-01 -4.601428170076680146e-01
-7.016479000690582779e-02 -1.816521424537129448e-01 -8.029590572714626617e-01 8.219394287891633732e-01 2.292922902151019737e-01 -5.213833724330464436e-01
1.214717620524280034e-01 1.956842961162046091e-01 -6.464170553409950282e-01 4.991267848608603730e-01 -7.121926757569242428e-01 -4.936132547173472940e-01
8.786999091371448800e-02 1.756121171746133081e-01 -6.569367974964591683e-01 6.242583763936736529e-01 -6.021037348798072841e-01 -4.977675882840517096e-01
5.967947746401370407e-02 -2.027585844154354902e-02 -5.944223745046005591e-01 7.131095010861963068e-01 -2.914827107457769739e-01 -6.375834602598234868e-01
-5.472291448114114526e-02 -1.065801016483624020e-01 -7.597927542622291419e-01 7.865969513817180347e-01 1.112861396740557479e-01 -6.073554405728441852e-01
-3.548171248626393048e-02 -9.604423963606993631e-02 -7.344706970693111181e-01 9.683253006141040453e-01 -1.250184406121864211e-01 -2.161400048521840978e-01
-7.673885092868691638e-02 4.744658600358837852e-02 -7.854421607512982462e-01 7.897414866954021173e-01 -6.323816707930079994e-02 -6.101715483506143789e-01
3.166630245062658500e-02 -4.012075282342373456e-02 -6.203167630073942451e-01 7.804884208415123759e-01 -2.100456968732077601e-01 -5.888281839020367281e-01
-8.793704696090223760e-02 -1.345256446140137285e-01 -8.136438310104965321e-01 8.399251835446448489e-01 2.049330333749839472e-01 -5.025217785123569092e-01
8.460218137967545626e-02 1.768358182007901402e-01 -6.625687754820105413e-01 6.352062561035887178e-01 -6.048667581207182176e-01 -4.802595310115093108e-01
-5.713090578466401177e-03 -1.312487047016154262e-01 -6.742121803681802028e-01 8.545804175175567563e-01 1.323632926681706512e-01 -5.021675703881706143e-01
-8.842561668382274698e-02 -5.482429209409636801e-03 -7.945185908095829808e-01 7.593364235186036426e-01 -4.337135506394651507e-02 -6.492512005979602652e-01
6.700104030862084892e-02 1.571499930724450933e-01 -6.665253860064208613e-01 7.359575771205404404e-01 -4.808815997706850642e-01 -4.765703848130414810e-01
9.923332097803823360e-02 2.244556710526719734e-01 -6.998458604826233165e-01 2.804190451227122072e-01 -6.316713225436009216e-01 -7.227423464890406768e-01
-4.618688766845251148e-02 -4.867417563283695653e-02 -7.437415646034641892e-01 7.817646776940880837e-01 3.176833315761413284e-02 -6.227638089342099059e-01
6.843032068513095478e-02 1.910898141532358929e-01 -6.895653907786482018e-01 4.183996762724327967e-01 -4.609926640832748834e-01 -7.825774559470317637e-01
5.017373624762812984e-02 1.924510819793453509e-01 -7.013916569604411455e-01 5.103282755071016918e-01 -4.183378113479704341e-01 -7.513710979366572396e-01
7.491956719332129588e-02 1.133512214624748105e-01 -6.248403229216340504e-01 7.739680395244736832e-01 -2.958743081795416341e-01 -5.598498616182022714e-01
-6.090158912452334899e-02 1.098948686168951389e-01 -7.806627518172447600e-01 7.105260478769400700e-01 -3.228592314732857127e-01 -6.252316786127007919e-01
7.557796213943378250e-02 2.082885642133934789e-01 -6.969299312734337226e-01 3.840797480603792002e-01 -5.354442222309627741e-01 -7.521849719379902766e-01
7.638994949951462277e-02 1.266711888494076454e-01 -6.297161199822494115e-01 7.891252661699756921e-01 -2.846318823733214876e-01 -5.443032296696250771e-01
4.566883044403814013e-02 1.621108808601908202e-01 -6.898585419590632650e-01 5.662984538270470214e-01 -2.973795755469845759e-01 -7.686816306121744269e-01
5.988787229936062828e-02 5.908584179148682058e-02 -6.245516278258391729e-01 7.819478208274192044e-01 -2.096440725392300364e-01 -5.870323401248147555e-01
-4.335769714687121718e-02 9.460951365641942501e-02 -7.544259693282041601e-01 7.130896849037259289e-01 -2.381652975215828305e-01 -6.593787927590337716e-01
1.556435473112561044e-02 9.811092039308540180e-02 -6.962032061212779510e-01 6.346653953636851586e-01 -1.519996677431914578e-01 -7.576911883701806794e-01
1.127781545653153486e-02 -6.442565116566555117e-02 -6.436473474762599567e-01 8.400851742049341153e-01 -9.509082081254306706e-02 -5.340548996856621100e-01
1.075917459256011816e-01 2.200446317606867541e-01 -6.929922420709652142e-01 2.643944825978719049e-01 -5.993852980587717205e-01 -7.555347920796242622e-01
-5.128246483930151006e-02 -1.611665440998727716e-01 -7.696877193988175270e-01 7.038296118286083702e-01 2.343403067227498304e-01 -6.706030854076635572e-01
-4.176957348352258043e-02 -7.549567409566752818e-02 -7.398236764723811199e-01 7.787581142051412941e-01 5.644052072737937298e-02 -6.247801750853450020e-01
-4.670322992274446999e-02 -2.449747331217835833e-01 -8.030589935403559254e-01 9.688552579693134881e-01 1.935406777498859532e-01 -1.544716645904027907e-01
2.781449516026537547e-02 1.068478217544227005e-01 -6.882800905934388647e-01 5.920655246323653920e-01 -1.467568607434856232e-01 -7.924145621873180945e-01
3.304352333028200139e-02 3.613116478697127321e-02 -6.505280739597775197e-01 7.720853292654866751e-01 -2.431003384375029497e-01 -5.871852090989491124e-01
-8.319344964790635838e-04 -5.922761182837486121e-02 -6.642897160173317772e-01 8.585519026080470351e-01 -1.205608431775186257e-01 -4.983509944009624770e-01
-4.682075124525800214e-02 -2.450898205977273536e-01 -8.085593112760965928e-01 9.959686651020931425e-01 6.047823559502824714e-02 6.624802754850002418e-02
1.190219186189714340e-01 2.079011776500174769e-01 -6.677421427208654059e-01 4.497029399307669872e-01 -7.552037325125053879e-01 -4.769010255983997526e-01
-4.021377623671520962e-02 9.942582739987984586e-02 -7.525934866873427165e-01 7.374015489326660733e-01 -2.270604166491290710e-01 -6.361466205387155126e-01
-1.434879564983142751e-02 1.436404140228136339e-01 -7.443644003822259547e-01 7.679185798734370350e-01 -2.959291287806797843e-01 -5.680906665526825883e-01
1.146924729118016517e-02 -2.183598508207752406e-02 -6.554632379400223696e-01 8.225924660250282239e-01 -2.099098419238570878e-01 -5.284690086489123306e-01
-2.415315231559360051e-02 -1.571312000762670191e-01 -7.140479838052358197e-01 8.719528696903224851e-01 1.443531069255727661e-01 -4.678251527651604014e-01
-1.602038506730534342e-02 1.475370003952481968e-01 -7.490065950354422020e-01 7.798067870904916710e-01 -3.142770119113647564e-01 -5.414160457464005649e-01
-9.486665712362537042e-03 -3.729088583410031937e-02 -6.866496679190959851e-01 8.851585468530719369e-01 -1.406475329388147122e-01 -4.435229626650498136e-01
3.306034929996701927e-02 1.589124600321316638e-01 -6.980827414359364047e-01 6.247335638726617679e-01 -2.600614351459575868e-01 -7.362581232969777068e-01
-1.395887508591311596e-02 -1.332439175069214110e-01 -6.884801834836699053e-01 8.460849049109141484e-01 1.302418552991264078e-01 -5.168920514093157115e-01
-3.020986119416265922e-02 2.612879063249159972e-02 -7.271583248773841879e-01 7.371349110792870807e-01 -7.964233576335875975e-02 -6.710359313943536907e-01
-2.407234264891542144e-02 -1.742723343679505599e-01 -7.193052442328543572e-01 8.757153068086397374e-01 1.462576130575695132e-01 -4.601428170076680146e-01
1.633763874636853493e-03 1.684842300228106028e-03 -6.815148723176041035e-01 8.284134108129879159e-01 -2.203916982078412135e-01 -5.149356466066954408e-01
-7.138322128915663978e-02 -1.913287831679114925e-01 -8.098004815979933380e-01 8.705885639010100263e-01 2.319402680966696495e-01 -4.339115859711767942e-01
-5.140669418765051596e-02 1.235237408578528651e-01 -7.779665811010436638e-01 6.933163920681166825e-01 -4.019480098834279369e-01 -5.981222097869309806e-01
-2.224089741431656796e-03 -5.116699858982345916e-02 -6.686681074474130071e-01 8.750218615592301186e-01 -1.363161747771075849e-01 -4.644939636718179998e-01
-3.712864707384656154e-02 -1.756251913976236700e-01 -7.457267823449624800e-01 9.056257446645543663e-01 1.120296346922509817e-01 -4.090126789617797298e-01
8.368817401700862080e-02 1.383869410733334915e-01 -6.271807821021724294e-01 7.631506708211773793e-01 -3.536800645465476567e-01 -5.408432911366627405e-01
-2.116146115783124060e-02 1.288085377232910111e-01 -7.447292786869290637e-01 7.446126962964663143e-01 -3.111193910196436985e-01 -5.905562268282948946e-01
-5.204918468961651501e-02 -7.514333285511047567e-02 -7.527284298179918176e-01 7.853138059084140421e-01 4.919437188040617220e-02 -6.171402920122247560e-01
5.732171253186287355e-03 1.843417904198002208e-02 -6.823321816286932462e-01 8.340851557453411447e-01 -2.397343380235996968e-01 -4.968192831781556573e-01
2.827229410056140632e-02 -7.179569176218200677e-02 -6.181147439430189072e-01 8.108314490170721589e-01 -3.603875306773000886e-02 -5.841691275325991972e-01
1.520274998458377366e-02 3.341600860976431248e-02 -6.744994000383544019e-01 8.048273634970676271e-01 -2.497018183136653358e-01 -5.384254051372466821e-01
-8.321740549755893279e-02 -1.480104023503492072e-01 -8.113229392264167394e-01 8.562409833084710931e-01 2.305259001370080496e-01 -4.622869107696696012e-01
6.144208187293124547e-03 1.432724462808570853e-01 -7.181364406236173670e-01 6.962385504233199462e-01 -2.561168271025799359e-01 -6.705639803772202034e-01
-4.282239130252057935e-02 -2.249957410249963097e-01 -7.771566840508775664e-01 9.213325998517645221e-01 1.605258536263897140e-01 -3.540871231320158463e-01
-3.853205978142715954e-02 1.800582514941029711e-03 -7.347795634989247038e-01 7.616057318003043308e-01 -2.832998249310109129e-02 -6.474211313981520499e-01
-3.805217400801971794e-02 -2.418156585950502757e-01 -7.719916712921540691e-01 9.148072055373243083e-01 1.782293272054570887e-01 -3.624390757367113025e-01
-5.713985605783507282e-02 -6.823352082508826744e-02 -7.586394009409722639e-01 7.844570728229343093e-01 4.965476974213854644e-02 -6.181921260740292912e-01
7.806712319058952375e-03 1.885653492839935164e-01 -7.375099933035037525e-01 7.301491808250747395e-01 -2.884113421875383332e-01 -6.194360914881010816e-01
5.040417410625478573e-02 1.652278947710582035e-01 -6.877566980884255443e-01 4.952709788244647471e-01 -3.317789824257169617e-01 -8.028881393785889387e-01
-1.546789192614643135e-02 -9.992454844692004456e-02 -6.867426694037521706e-01 8.854079589934893413e-01 2.756101070815048307e-02 -4.639969146877258033e-01
1.005272737182212467e-01 1.562380753626670671e-01 -6.212671573965435901e-01 6.660466041419441652e-01 -5.079161355221772922e-01 -5.462628674797522788e-01
-3.715595138882588772e-02 -9.405887210055248471e-02 -7.370520969064506822e-01 6.306218014313541564e-01 1.456212767902081984e-01 -7.623060981688806192e-01
4.219451399716249440e-02 1.662491489916413101e-01 -6.939141993940886044e-01 5.630030669621904904e-01 -2.835264187607796638e-01 -7.762991153259510835e-01
-2.330476927331451287e-02 -9.443622123828331050e-02 -7.035669802051315314e-01 9.183410220949167480e-01 -2.367162179879655354e-02 -3.950815377350329061e-01
3.332851515286331529e-02 1.528698472333249458e-01 -6.958030749199111131e-01 6.000246552220156460e-01 -2.394021472070633760e-01 -7.633197397148516750e-01
1.280082382551134546e-01 2.287500656365460405e-01 -6.947390848658719920e-01 -3.716185075286076306e-02 -3.454403834569463871e-01 -9.377046114452781689e-01
6.565996292598576256e-02 1.730342924394153714e-01 -6.821874747121506877e-01 4.027313429514798870e-01 -3.588191465171610695e-01 -8.420547995808785879e-01
-3.289476649060784665e-03 -2.060623334443768273e-01 -6.971671918911225285e-01 8.341542125032420651e-01 1.172219786588507145e-01 -5.389301972263195184e-01
2.917940394740154569e-02 2.940702689228357272e-02 -6.528215282808385034e-01 7.843130282016200772e-01 -2.655915458895199421e-01 -5.606373199718509559e-01
-7.818625285980687623e-02 1.443878828770368654e-02 -7.838771045274661731e-01 7.773402228709699324e-01 -4.930619756885894212e-02 -6.271451799928078330e-01
-3.878759501036778412e-02 -1.271833208795606074e-01 -7.405265162803427170e-01 9.357870654737469041e-01 3.571858842336681546e-03 -3.525475995045825317e-01
9.868261659149561715e-02 1.295664499200769870e-01 -6.016626843678778425e-01 6.996016716308181005e-01 -4.273174306798560029e-01 -5.726755752505352515e-01
5.743463266428152497e-02 1.727141941513996859e-01 -6.865251093297067841e-01 4.877421235939120026e-01 -3.310033981723825014e-01 -8.078021857301674880e-01
-1.596696810238049449e-02 -7.153911404646939864e-02 -6.904520347880955811e-01 9.011900591780509506e-01 -1.076808662094325963e-01 -4.198348583562911407e-01
1.396377556985605416e-02 5.087412325326882978e-02 -6.848238958698236178e-01 8.293265406450051058e-01 -2.593146083409852420e-01 -4.949478991598508237e-01
-1.369504045162121299e-02 -1.877929117020656347e-01 -7.067996402125417132e-01 8.213567308806786205e-01 1.921101081662562327e-01 -5.370910788472974540e-01
-2.734026841046314008e-02 -6.302024617622930050e-03 -7.217100436512463579e-01 7.364036048825451930e-01 -2.170576693353407777e-02 -6.761941957735362330e-01
4.246758416686778614e-02 8.039607634754854237e-02 -6.564293277186844522e-01 7.872178814159284110e-01 -2.440433622110058653e-01 -5.663310379449152387e-01
1.155151617807858022e-01 1.990402885122682652e-01 -6.572777303970844809e-01 4.947867706646128516e-01 -7.172667671544924461e-01 -4.906265752189000739e-01
7.386569331821488116e-02 7.301295356893507116e-02 -6.107471783633555695e-01 7.934435261700147901e-01 -1.892828201202432503e-01 -5.784629502277742752e-01
-3.022304552119884150e-02 1.086330170809248347e-01 -7.452812439071817563e-01 7.361001206492012727e-01 -2.814850649559599294e-01 -6.155670317576878992e-01
2.719635901120821819e-03 -1.877283977751577904e-01 -6.828167658947608132e-01 7.969386822002417770e-01 2.079618405991660313e-01 -5.671336788337905110e-01
-6.186165428259701032e-02 3.850163018021744710e-02 -7.655155005045348737e-01 7.852781569035063303e-01 -5.447563277612896965e-02 -6.167419409476482262e-01
-4.134935317019273852e-03 1.750822968087065558e-03 -6.919468879328698474e-01 8.636334691473793734e-01 -1.925908926764106355e-01 -4.658819367893175523e-01
1.337180737541405692e-02 1.258163301555052238e-01 -7.050506538250951305e-01 6.758827544117395059e-01 -2.152149392144852846e-01 -7.048865385490813429e-01
-6.575174539140611618e-02 -2.385579708688545797e-01 -8.321951455754185156e-01 8.723561229054961341e-01 4.545703453530478555e-01 -1.798905110196249990e-01
8.183338800706388416e-04 1.949078767500625128e-02 -6.913719249179829385e-01 8.591996349610897532e-01 -2.296190788984237841e-01 -4.572210252039700107e-01
-1.021647711567270633e-01 -1.107457518307803229e-01 -8.278399767156818800e-01 8.165553841533068624e-01 2.235352793845908070e-01 -5.322304796614886202e-01
9.293398529732593838e-02 9.056037502696057118e-02 -5.902997844816681994e-01 8.025977518602381844e-01 -1.970886688646111551e-01 -5.630212298964107909e-01
1.592953263590601298e-01 2.517449013294435489e-01 -7.149707496155903730e-01 -3.879130698310075120e-02 -8.215824889964712385e-01 -5.687683608261859813e-01
-2.133494895815844089e-02 2.852445022258081817e-02 -7.180804998971803688e-01 7.123875261971875927e-01 -7.741004885486482689e-02 -6.975039045445829977e-01
-1.323478041887413831e-02 -5.862741891060898464e-02 -6.878989407741310513e-01 9.011900591780509506e-01 -1.076808662094325963e-01 -4.198348583562911407e-01
8.354651518534952914e-02 1.704656244057210501e-01 -6.566670166140926579e-01 6.791561864399680015e-01 -5.355509112666601013e-01 -5.019283772230548335e-01
-5.160860190741224651e-02 -1.902702689792150625e-01 -7.820929312066610128e-01 6.629061132224427499e-01 3.124456953643244272e-01 -6.803919256580119868e-01
3.312420015135276313e-02 -9.881170918019656357e-02 -6.113588700678972421e-01 8.222979893143125274e-01 5.115965992082134595e-02 -5.667527732322309442e-01
4.386754386908173556e-03 8.402960409556199661e-02 -7.028814561103157166e-01 6.645783399869057417e-01 -1.526250834805261136e-01 -7.314651146246218261e-01
3.903420960146888191e-02 1.331523123863776088e-02 -6.329342251100046335e-01 7.522337972103222414e-01 -2.601243429703480881e-01 -6.053756193709691757e-01
-1.117976953537603950e-02 -5.830980933788692394e-02 -6.837414028771754415e-01 8.876002118846227917e-01 -9.266349168034436479e-02 -4.511976741650818301e-01
-5.131858526723164643e-02 -1.688065945957192004e-01 -7.727131968036857756e-01 7.067261024418708404e-01 2.683661489742633077e-01 -6.546127299495829721e-01
4.881669693507027785e-02 1.279844007349298096e-01 -6.717653216957283346e-01 8.020663530478049363e-01 -3.251315753210297643e-01 -5.009780674219775909e-01
6.593917008508028144e-02 1.750849921440185974e-01 -6.829277885776320334e-01 4.027313429514798870e-01 -3.588191465171610695e-01 -8.420547995808785879e-01
-6.010481479235819935e-02 9.191044954124659438e-02 -7.724122234837820233e-01 7.465172886358286686e-01 -1.745994056437083775e-01 -6.420490521110319149e-01
2.545986181812815580e-02 2.278892561743140963e-02 -6.548898415400248307e-01 7.843130282016200772e-01 -2.655915458895199421e-01 -5.606373199718509559e-01
2.915106467635642309e-02 6.245442214619843085e-03 -6.424024079043612057e-01 7.763274896103095069e-01 -2.726244682164237765e-01 -5.683234362623689195e-01
-6.412036977667408266e-02 -1.541387207185594688e-01 -7.834206617577168519e-01 7.906317829883512394e-01 1.783994750359254866e-01 -5.857260545985358835e-01
-1.520310325529166534e-02 -1.376789159238007432e-01 -6.917061106882558263e-01 8.486522954532425000e-01 1.593571353975112570e-01 -5.043754403416579324e-01
-2.569923560562242457e-02 4.791970873050702823e-02 -7.250063627851089931e-01 7.118421023893692912e-01 -9.801940970931274921e-02 -6.954660427268325451e-01
-2.160056308780428785e-02 4.953470106306170906e-02 -7.210387973003179463e-01 7.118421023893692912e-01 -9.801940970931274921e-02 -6.954660427268325451e-01
2.928653261226663376e-02 7.528217983905742539e-02 -6.730315936682927935e-01 7.995001529983910560e-01 -2.607472418466238451e-01 -5.411195627815792442e-01
-8.676883802716729710e-02 -1.707912311230839683e-02 -7.921367769579543694e-01 7.479858330419326684e-01 -1.469941456428131704e-02 -6.635518975785038576e-01
-8.408286688026099520e-02 -1.548296467972135881e-01 -8.163544637607167420e-01 8.663308241281215683e-01 2.288215034636023326e-01 -4.439725472573120557e-01
-2.677355963586005097e-02 -7.737957792286888348e-02 -7.140955139694883380e-01 9.213059713598853451e-01 -8.431151883810768244e-02 -3.795877697289908870e-01
-5.900291046347985041e-02 5.579846365989387519e-02 -7.638059992098901185e-01 7.763081055608601622e-01 -7.264133911166441304e-02 -6.261541033104971454e-01
3.647777121265226991e-02 1.845395023423923864e-01 -7.068844447232125461e-01 5.686471200823808303e-01 -3.590698912261793274e-01 -7.400738247207734322e-01
1.143602096138383352e-02 1.740056502060592925e-01 -7.257873864544807097e-01 7.430005554485964447e-01 -2.675525953118975120e-01 -6.134865795964447033e-01
-7.278538674300955025e-02 -8.782999667214672068e-02 -7.802999431096262484e-01 7.833454905317644990e-01 7.407820175470530843e-02 -6.171565947863949519e-01
-9.209353716048494787e-03 -2.957964773602484929e-02 -6.888014472545741507e-01 8.759671889686844182e-01 -1.692534230547445284e-01 -4.517020728694443599e-01
2.117048820051854394e-02 -1.353351519176588524e-01 -6.361208405658274057e-01 7.988934355287670153e-01 1.887680328142671282e-01 -5.710831011827224302e-01
2.062762453339183830e-02 -1.149261821869072692e-01 -6.314172885209045072e-01 8.022490203673308118e-01 1.129398994113370164e-01 -5.862090825299577368e-01
3.128959637227772886e-03 -1.672595958525832094e-01 -6.740301804490919091e-01 8.010916641567638052e-01 2.217067913565973214e-01 -5.559660459820446876e-01
4.147572153194658412e-02 1.394241181382491479e-01 -6.855296671205904913e-01 5.385741267670228760e-01 -2.151181064925614950e-01 -8.146545956638271413e-01
5.514803198981253762e-02 -2.778171996531232993e-02 -5.962433581664233762e-01 7.269352822811335768e-01 -2.645682632304618420e-01 -6.336945079973991257e-01
-8.668587348721953911e-02 -3.805201082993021205e-02 -7.922873335021167751e-01 7.499403736712861868e-01 1.704241372477140887e-02 -6.612858625981696825e-01
1.010477095250133517e-01 2.207876924876966407e-01 -6.959901012573220802e-01 2.759774606905218142e-01 -6.185552832986640492e-01 -7.356805031357847025e-01
-8.458703504750965385e-02 -8.735463158253740923e-02 -7.951305925248755013e-01 7.844481831012319883e-01 1.179559802630714416e-01 -6.088739071017525983e-01
6.475256058476605570e-02 7.694464409374468516e-02 -6.244445639864554254e-01 7.930080666259896605e-01 -2.073436706257698325e-01 -5.728409975879362737e-01
1.028647794947844425e-02 8.229166770918981688e-02 -6.975169695543408377e-01 6.415009133062795632e-01 -1.387296176024666872e-01 -7.544737711988949158e-01
3.919655020094815062e-02 -1.465074985249666291e-02 -6.206195836908284802e-01 7.533954260315666174e-01 -2.440767354545402834e-01 -6.105914175981912440e-01
3.204067757893113572e-02 -8.963517614865092187e-02 -6.121025984507845186e-01 8.222979893143125274e-01 5.115965992082134595e-02 -5.667527732322309442e-01
-3.715136423175566249e-02 -1.553381865079463686e-01 -7.402575367812006535e-01 9.054893687568884575e-01 9.582243491106430533e-02 -4.134090758993643200e-01
-7.245592942702061556e-02 9.635176192124840847e-03 -7.764462196148754769e-01 7.751608471592327243e-01 -4.819574096487887899e-02 -6.299228774891628690e-01
3.191786926710545036e-02 8.148987329430931736e-02 -6.721218258356300712e-01 8.032537757680631163e-01 -2.593487915171845959e-01 -5.362103841338080601e-01
-8.540813263536173316e-02 5.475186957738415600e-02 -7.974971337122080950e-01 7.910962359216068274e-01 -6.976568034846336586e-02 -6.077001689617843594e-01
-2.434659588388039808e-02 -1.394819358556404765e-01 -7.095621888147862766e-01 9.017519115772112404e-01 8.656877769353657492e-02 -4.234965604293525754e-01
1.821046966153229462e-03 -1.865032520222842383e-01 -6.836302191124423722e-01 7.969386822002417770e-01 2.079618405991660313e-01 -5.671336788337905110e-01
8.919446627780763803e-02 8.518640936659523100e-02 -5.936241854511705718e-01 7.889366331351244099e-01 -2.088127172786360397e-01 -5.779067727584843439e-01
-6.559354262341786368e-02 -1.335780536475580371e-01 -7.793627009151874452e-01 7.882146172475728019e-01 1.401202363006705809e-01 -5.992362109688519345e-01
-3.742887314064725912e-02 -2.127294392164430503e-01 -7.589964142777446687e-01 9.124041682596444325e-01 1.392170709112880989e-01 -3.848860102800663596e-01
-4.772077165364971979e-02 1.007978954796637516e-01 -7.614922506337290509e-01 7.211396738920741178e-01 -2.462675465717732715e-01 -6.475414011816947868e-01
-3.960354597738081905e-02 -1.221440412155956196e-01 -7.431278508905651004e-01 9.556794853258996358e-01 -2.819791258106258205e-02 -2.930556245037695962e-01
-3.695101436701821174e-02 -1.634690986695039039e-01 -7.419958122469744177e-01 9.068105556621387509e-01 1.119095061742188674e-01 -4.064122027788601987e-01
-9.350088881113965966e-02 3.225993542775067169e-02 -8.048156255741644172e-01 7.645051967210464428e-01 -9.385454318669382567e-02 -6.377484840512996911e-01
-1.856328878247914121e-02 -2.002462966642432618e-01 -7.188182512754269782e-01 8.335287130867525818e-01 1.735668999992633077e-01 -5.245039710856227444e-01
4.700112510396470267e-02 2.054796219881851183e-01 -7.117870654527621577e-01 4.846130306354511919e-01 -5.135445674130583171e-01 -7.081117057490703415e-01
-9.014379407919383136e-02 -1.582109929512447721e-01 -8.333748882766340849e-01 8.927831844143828688e-01 2.914118967391449710e-01 -3.435364493991981405e-01
3.514040279307827086e-02 1.672038275180979805e-01 -6.997646426922412566e-01 6.009446289411870534e-01 -3.010528901111879652e-01 -7.404273835444228347e-01
6.445353334184600325e-02 1.734705495244925205e-02 -6.045995477089943781e-01 7.417082334340991956e-01 -2.241579794193071795e-01 -6.321567026605993123e-01
-7.496308417173899730e-02 -1.397151523391295114e-01 -7.943169664998687152e-01 8.368853670068328032e-01 1.674916115327820532e-01 -5.211232508303483835e-01
-3.243577811803069477e-02 -1.054765455061792978e-01 -7.244508401434348599e-01 9.303492055944043715e-01 -8.583587798744702485e-03 -3.665742457816176247e-01
-3.948689498749525378e-02 1.583378477358392267e-02 -7.367978183533955283e-01 7.533436256040410006e-01 -5.566351288375361028e-02 -6.552670868395563675e-01
3.224338001653194452e-02 -7.643157596195224168e-02 -6.122775499929188348e-01 8.140222521729884031e-01 -3.894100388628628229e-02 -5.795268511324940253e-01
-2.106589100361398390e-02 -8.564858754246458539e-02 -6.993564381491461646e-01 9.097048756005174930e-01 -6.632190203614581059e-02 -4.099249255887650878e-01
-8.181303046533497381e-02 -1.223160563526546896e-01 -7.993112837553589811e-01 8.183103188055144139e-01 1.468675325033275136e-01 -5.556960950310894098e-01
-1.019410141025036687e-01 -2.218180486358008879e-02 -8.091289161717684086e-01 7.469808769367242141e-01 -1.091019939631472993e-02 -6.647559981226006665e-01
1.645255664842604215e-02 -5.081609751061029294e-03 -6.549475714002683802e-01 8.013714661806200512e-01 -2.412257601468527635e-01 -5.473699898908379602e-01
-5.586751269502045897e-02 -1.980842290422998586e-01 -7.903621550458590495e-01 7.176145282481470877e-01 3.056160113190770078e-01 -6.258020793131058301e-01
-5.954763954896769799e-04 1.136440966942292990e-01 -7.148611716655821624e-01 6.761212363392350433e-01 -2.068660332092334964e-01 -7.071538150044732740e-01
6.141153990911096816e-02 4.600054122755860980e-02 -6.180891744173607760e-01 7.606211846284466338e-01 -2.161154547750556154e-01 -6.121678884928458686e-01
3.227708709776628410e-02 -3.297308644542342598e-02 -6.220568737029692485e-01 7.804884208415123759e-01 -2.100456968732077601e-01 -5.888281839020367281e-01
-9.564115951160126472e-02 -3.547568939942159078e-02 -8.022144781158734306e-01 7.444749445897969053e-01 1.905308651571093956e-02 -6.673784809028857623e-01
5.945526414972401863e-02 1.344239616655052427e-01 -6.596483126175646250e-01 7.951048852033686387e-01 -3.363380137459213715e-01 -5.046632164475495230e-01
-6.140267647519026539e-02 1.868932987176147309e-02 -7.633454785007711685e-01 7.794114194830887854e-01 -4.280442708370641586e-02 -6.250484942797577270e-01
3.656263182808402318e-02 1.622574947044074997e-02 -6.372560063192370672e-01 7.522337972103222414e-01 -2.601243429703480881e-01 -6.053756193709691757e-01
5.549087845290472110e-02 1.533461782937275628e-02 -6.143141309219156687e-01 7.278938882218036754e-01 -2.672496191109098862e-01 -6.314650652050499691e-01
8.792868104461730450e-02 5.554516132750868251e-02 -5.867617588244447013e-01 7.885784650003546670e-01 -1.517960674527432108e-01 -5.959043198732211222e-01
1.448063565552000775e-01 2.321297929911858571e-01 -6.882895643876514313e-01 3.172132575662801601e-01 -8.168326779190850928e-01 -4.818299757255928850e-01
1.218776801023256293e-02 -1.296450806414181645e-01 -6.470801725686936567e-01 8.074075179193334062e-01 1.652307517646964541e-01 -5.663849386050219259e-01
8.612652349640603777e-02 2.131882207696148557e-01 -6.957761922218709261e-01 3.175787610409110950e-01 -5.796547239869600521e-01 -7.504292981322898681e-01
1.358905556127566402e-02 8.107148380132674081e-02 -6.946432832602617014e-01 6.109218941964064120e-01 -1.191976155034400187e-01 -7.826661917125135037e-01
-2.447369128519516490e-02 7.598201495464200483e-02 -7.286117529089024547e-01 7.035323867678876519e-01 -1.605232020846308616e-01 -6.922965277691173203e-01
1.717606020595168759e-01 2.431812649614322752e-01 -7.025818429204603310e-01 1.470089470551652899e-01 -9.519564485668754461e-01 -2.686397020502997446e-01
-3.734230640434434145e-02 -2.480865033363230387e-01 -7.734925775992255170e-01 9.062418315132048097e-01 2.506137114325902582e-01 -3.404680755336312314e-01
-6.021338819626880640e-02 -9.162824120529577607e-03 -7.606790031959875797e-01 7.729015942448631549e-01 -1.108900397781106134e-02 -6.344290028084537125e-01
-1.079288237947437744e-02 -1.811836181504648258e-01 -6.999974062719239720e-01 8.213567308806786205e-01 1.921101081662562327e-01 -5.370910788472974540e-01
-2.799767243088020427e-02 -1.423116728918054873e-02 -7.220924424043785317e-01 7.428588381803699070e-01 -3.400761285876718887e-02 -6.685837485348856690e-01
-6.864979423502426403e-02 -2.074223375246386433e-02 -7.709376905789453449e-01 7.756825264823901112e-01 6.998727392168819714e-03 -6.310844919064213521e-01
-4.217965801845043050e-02 1.336500110571443301e-01 -7.742365531277486390e-01 6.871358079096142601e-01 -4.113769991864039133e-01 -5.988433401389640087e-01
-3.730052677378600801e-02 2.595229496094463364e-02 -7.349630756112219832e-01 7.493551062897941817e-01 -4.201161132474028753e-02 -6.608342826997629649e-01
-5.899357316302568377e-02 -1.868848573968925342e-01 -7.892147585179647429e-01 7.537209619219763512e-01 2.530971402639607404e-01 -6.065035442185110481e-01
9.228998225989597237e-02 1.058257881091600877e-01 -5.972727656965232113e-01 7.836067989251682686e-01 -2.604632432368098605e-01 -5.640206411123738217e-01
1.065139599423407975e-02 -4.198346064699520763e-02 -6.496120218740341068e-01 8.212194132753558584e-01 -1.525232768842811337e-01 -5.498502753188008185e-01
7.083239679612782225e-02 1.942237532829312052e-01 -6.901221650238363869e-01 4.174102049776848844e-01 -4.564815489067879373e-01 -7.857437981226109702e-01
8.884602823080486877e-02 1.646488249404000626e-01 -6.436395660260202378e-01 6.731248936502544078e-01 -5.299908498385620392e-01 -5.157640707103706701e-01
1.942416660786915050e-02 6.479358445491784080e-02 -6.830503848635113284e-01 8.225710293269843376e-01 -2.660657230863421874e-01 -5.025792800250398207e-01
-1.948163825600057047e-02 1.299309633987144608e-01 -7.432025670434460052e-01 7.446126962964663143e-01 -3.111193910196436985e-01 -5.905562268282948946e-01
2.208959132694019237e-02 -7.675353578356838846e-02 -6.263905241999485618e-01 8.108314490170721589e-01 -3.603875306773000886e-02 -5.841691275325991972e-01
-7.442048610018849042e-02 -1.650700315609842650e-01 -8.028343947862185415e-01 8.551467900749506468e-01 1.937711233899639118e-01 -4.808084017201650906e-01
-4.002895517799217456e-02 -1.749435344526255043e-01 -7.520541963039216737e-01 9.067321843639835066e-01 1.280345512805922403e-01 -4.018008207021188105e-01
5.871623338719375584e-02 1.864620326458740207e-01 -6.924880520988846433e-01 4.721922571548651248e-01 -4.034108049346356029e-01 -7.837692228870583033e-01
-7.377418309670155661e-02 -1.026346199735299752e-01 -7.838570514233795805e-01 7.886750302095566489e-01 1.043021130861016277e-01 -6.058983131926749532e-01
-1.611420179650755943e-02 -1.019337066145281218e-01 -6.880953127362796629e-01 8.854079589934893413e-01 2.756101070815048307e-02 -4.639969146877258033e-01
5.801395460496697187e-02 8.097281397111753820e-02 -6.350694002040572217e-01 7.876022055814521083e-01 -2.218479977672673520e-01 -5.748619239868705266e-01
-1.954144243163084479e-02 -1.849061116644340752e-01 -7.151803344160126974e-01 8.443525454244047435e-01 1.766672600441166197e-01 -5.058235445922150131e-01
-8.144449009804009820e-02 -1.462979743946376809e-01 -8.071852451313528132e-01 8.562409833084710931e-01 2.305259001370080496e-01 -4.622869107696696012e-01
-1.476549783651429255e-02 -5.441214062036993371e-02 -6.922044062417347376e-01 9.004395709021414396e-01 -1.033699799335123515e-01 -4.225200899390613163e-01
5.047520423104927267e-02 7.628992254475784607e-02 -6.435908314047050771e-01 7.876022055814521083e-01 -2.218479977672673520e-01 -5.748619239868705266e-01
-1.960284653516396452e-03 -4.340072993018984082e-02 -6.704086060380352041e-01 8.741086326198223011e-01 -1.294356967745823594e-01 -4.681671696947394823e-01
-5.200791128578204081e-02 1.042476439918216778e-02 -7.513045516655779688e-01 7.720123617529436322e-01 -2.887658940279919789e-02 -6.349512232330167816e-01
-7.749849658934225387e-03 -2.105065986581087789e-01 -7.050376072424798801e-01 8.341542125032420651e-01 1.172219786588507145e-01 -5.389301972263195184e-01
-4.091303868675057187e-02 -2.030512286671856959e-01 -7.636538849904602744e-01 9.186575364188568349e-01 1.266014009425458220e-01 -3.742197430123392343e-01
-9.555142937148765336e-02 2.570030954038216367e-02 -8.063189170823465979e-01 7.714143122638099648e-01 -7.262206585457885166e-02 -6.321756040733984561e-01
6.860072177794079851e-02 1.040983579425269479e-01 -6.295453313146193164e-01 7.946575439419308884e-01 -2.516374314201323403e-01 -5.524472743750812320e-01
7.151065261120732874e-02 3.062026287576675651e-02 -6.006851757034141759e-01 7.637139112159238019e-01 -1.930113934609804516e-01 -6.160257006079590258e-01
-6.999852176731841125e-02 -2.172844222455129759e-01 -8.230497446854933008e-01 9.159232368394901735e-01 2.517883726166973979e-01 -3.125495794790100201e-01
-3.957857370903859057e-02 -2.457653188337522443e-01 -7.779903503966101308e-01 9.176185748684924093e-01 2.280381236328161976e-01 -3.255376556196558080e-01
-3.539936941040299628e-02 -2.138954459854640888e-01 -7.549350336894962155e-01 8.984706630926584392e-01 1.451345847967140112e-01 -4.143506001657581983e-01
-2.178946199398161792e-03 -2.254807525030506909e-02 -6.780691875245424827e-01 8.668612060104131656e-01 -1.742188714729801247e-01 -4.671182230836784521e-01
1.249289774093762483e-02 -1.191207165719910116e-01 -6.437482064376949253e-01 8.164984166948121569e-01 1.413443572640808443e-01 -5.597786242832685222e-01
-3.832558677479975390e-02 -2.071066170416289154e-01 -7.590341996679614844e-01 9.087232493246873988e-01 1.409651524814992951e-01 -3.928751480084348158e-01
2.059543960113327521e-02 5.167737738737173542e-02 -6.749543290326727174e-01 8.086207162476339860e-01 -2.533345590856626584e-01 -5.309935389701423425e-01
-4.874216529793988853e-03 5.831369061802610387e-02 -7.065078212526203494e-01 6.617483418416472141e-01 -1.065157566125922856e-01 -7.421209643064108352e-01
-9.599837244405884373e-03 -3.327373206061440963e-02 -6.881745170823990732e-01 8.759671889686844182e-01 -1.692534230547445284e-01 -4.517020728694443599e-01
-5.440242057263254549e-03 -7.917071541840475790e-02 -6.691251538151946621e-01 8.692979073419938585e-01 -7.330387510377332771e-02 -4.888227594799576803e-01
-3.059887852180835296e-02 -2.115403402236480657e-01 -7.443739421099971887e-01 8.847486470697384364e-01 1.271851357975667673e-01 -4.483790502916275567e-01
2.128012143106931542e-01 2.566832390809430375e-01 -7.268165303702446289e-01 1.406333291623772519e-01 -9.691093055057653505e-01 -2.026065663073130518e-01
-6.217628697003360627e-02 9.721942177411126151e-02 -7.763824630392525128e-01 7.552710633010917274e-01 -1.830555995141956160e-01 -6.293300155137500074e-01
1.037053337925631369e-01 1.530730908699090842e-01 -6.145551035288443487e-01 6.506182682629428893e-01 -5.107106576069244674e-01 -5.620235699765908643e-01
-8.625419033468831320e-02 1.816816671247027670e-02 -7.941588099558847258e-01 7.530820268349714963e-01 -6.380659397659790844e-02 -6.548253045074211576e-01
-2.380917645263970484e-02 -4.897805877914315070e-02 -7.154321191520353063e-01 9.401990082824230877e-01 -1.456629162533525923e-01 -3.079093042655851598e-01
7.715868235118174268e-02 4.379027109800754519e-02 -5.975892372792811491e-01 7.796387697650511983e-01 -1.750158022110988587e-01 -6.012760245142348969e-01
-3.835141149943558508e-02 -1.165363866333915185e-02 -7.340028912826345175e-01 7.564496415592428802e-01 -3.378961745407890738e-02 -6.531785372600663608e-01
3.422415308596350736e-02 -8.288622030500233939e-02 -6.091884982922618486e-01 8.080564155067522236e-01 -1.354682970968817783e-02 -5.889493295379454318e-01
1.334975888031055269e-01 2.341166540573157984e-01 -6.972877173453573274e-01 1.100810600622662699e-01 -6.744094619034757265e-01 -7.301054977951009217e-01
-6.788229536825172994e-02 -2.109276210813442742e-01 -8.136174622680953927e-01 8.844770815184574975e-01 2.392678386215352782e-01 -4.005635950382544497e-01
-2.507108586486801044e-02 -2.072114746864519574e-01 -7.323564366259160963e-01 8.540847105518637461e-01 1.759530271589565542e-01 -4.894689361288809271e-01
1.011129586805455116e-01 1.758247979705157005e-01 -6.413041055062935758e-01 5.994669958672289578e-01 -5.960228548682994232e-01 -5.342247442234043797e-01
