8.446632624504582521e-02 -1.155615445531146639e-02 -9.694294937597055517e-01 3.635010059544195316e-01 -6.944810272909527349e-01 6.209372926496103950e-01
-9.051590951692910225e-02 2.252268797517376075e-02 -8.567057720343930205e-01 2.141234006047599836e-01 -8.504454402127296087e-01 4.805140190825132329e-01
5.839732962651558029e-02 -1.200643498099098578e-03 -9.442499040507266184e-01 3.358496527526773634e-01 -6.882264515727478660e-01 6.430780373341093981e-01
-3.088940838093816657e-02 -9.979046450382456079e-02 -9.965720891756159050e-01 1.180297617030609675e-01 -5.715345748492158817e-01 8.120450757835087074e-01
4.969028687492427210e-02 -6.029599717598725650e-02 -9.980742255487825565e-01 3.680834871245983742e-01 -6.155414204119006305e-01 6.968667779880851620e-01
-3.952065844060712735e-02 -1.041786354199504272e-01 -9.981251320832027485e-01 1.531134263651616478e-01 -5.602111922526021859e-01 8.140759784821304246e-01
7.260720530239533899e-02 1.275252281098248064e-01 -6.908694586284280792e-01 2.628674320475724024e-01 -9.590312374322919053e-01 -1.056399488725831975e-01
1.567788440802392325e-02 -2.397561295380897656e-02 -9.460089908836595285e-01 3.413502060958317763e-01 -6.717425974269873867e-01 6.574510777239456205e-01
5.965669355660266696e-03 -6.102328969013026683e-02 -9.767091089086118449e-01 3.608393312589349144e-01 -6.160445269406531477e-01 7.002029119070207752e-01
-7.171051392515510881e-02 -1.171052189639883861e-01 -9.979756725123644090e-01 2.840047045537483217e-01 -5.201126662719920413e-01 8.054962086656752840e-01
9.105372416913670719e-02 1.273518205335371842e-02 -9.449868906660563450e-01 3.066425905547821018e-01 -7.326368775951307422e-01 6.076294325043097855e-01
1.699152732622139991e-02 1.183048345240425708e-01 -6.902198617800923142e-01 -2.559087484177857350e-02 -9.990133537265076802e-01 3.629636622237204790e-02
-1.435584625655896701e-02 -1.431757022236345711e-01 -1.027129841426520862e+00 -3.408210350411237238e-02 -5.184195175936118227e-01 8.544469638302552017e-01
3.487030281132798976e-02 5.498533475871169446e-02 -8.599236273772793426e-01 3.873574352821612665e-01 -7.790985021534565513e-01 4.929094655957284576e-01
6.395072938203419377e-02 -6.882753026565317789e-02 -1.012534808335940451e+00 3.381292007309459891e-01 -5.716634759926834120e-01 7.475757579195664304e-01
-1.180100510333628311e-01 -3.399742345734946269e-02 -9.197773532299414745e-01 2.740558438504075434e-01 -6.503567976751665203e-01 7.084697807028493832e-01
9.413215314630117569e-02 5.485318271399331619e-02 -8.966213387929053980e-01 2.850702713105106589e-01 -7.545281972765330858e-01 5.911193956634963609e-01
4.153396653258471100e-02 1.153150160794799567e-01 -7.399148309362160170e-01 3.795267757616897497e-01 -9.085976837800955330e-01 1.743837019603083349e-01
-7.078277140586662630e-02 -5.502802308828481231e-02 -9.548796486531268002e-01 1.884031630503419374e-01 -6.144861374801064979e-01 7.661011910951487369e-01
-1.202890087361657701e-01 2.347500974217897607e-02 -8.399166899737736669e-01 2.439667098061361894e-01 -8.576972015432908769e-01 4.525878422706203219e-01
-1.238819664547304716e-01 8.155780400276963979e-03 -8.664853777790471057e-01 2.279591702359821392e-01 -8.469879637206902956e-01 4.802561879014169977e-01
5.980765484934583154e-02 -1.245095011829754489e-01 -1.045498039854851458e+00 1.808879146948186023e-01 -3.880153197312981028e-01 9.037276547562204110e-01
-8.270828721936421268e-02 -3.507684823110814032e-02 -9.339152940375106127e-01 2.176404198808810919e-01 -6.857714629866917821e-01 6.945143254009713552e-01
-1.093491531787553345e-01 -1.638692594513591408e-02 -9.054700182106681927e-01 2.502086048185373501e-01 -7.130544933187937806e-01 6.549419391309730942e-01
-1.045848207114819517e-01 1.746988635532151571e-02 -8.592789039061009548e-01 2.299415792915447954e-01 -8.467639099909781697e-01 4.797059003699043478e-01
7.648085492205150548e-02 1.295044175159051902e-01 -7.236534933361101762e-01 2.964141765695385566e-01 -9.530744620130320310e-01 6.154434000922934245e-02
1.141880978824933758e-02 1.186234097173312074e-01 -6.816839029475969536e-01 -3.406022472606995422e-02 -9.989679760592082847e-01 -3.004802655381775059e-02
7.508338749836301895e-02 3.548264345361219763e-02 -9.112280344152111633e-01 3.093362357672717056e-01 -7.286866158196846355e-01 6.110048356327387742e-01
8.062761036485807664e-02 7.216134776540428231e-02 -8.615948087566103197e-01 2.105494464015165157e-01 -8.582849786133875947e-01 4.679912671264621626e-01
2.624506093405647514e-02 -1.057581129241319667e-01 -1.023189867369419304e+00 3.448359298369501613e-01 -5.360595107683130411e-01 7.705377228976677539e-01
2.498226304076641910e-02 -5.852787396195582338e-03 -9.319220903798016709e-01 3.469269599939659998e-01 -6.841884956566665066e-01 6.415043155275050868e-01
-1.061258640141504173e-01 3.816540312639812166e-02 -8.211609165398755517e-01 2.480004118070810448e-01 -8.276916478629310348e-01 5.034106989342440608e-01
8.866305489699537537e-03 -8.384662224373706785e-02 -9.977406796998471439e-01 3.700493117997473158e-01 -5.958019757477772682e-01 7.127997702942798774e-01
-1.219732718873948714e-03 1.165047540336438536e-01 -7.108716024093567620e-01 1.204568136399704337e-02 -9.805178350370274964e-01 1.960603905300037086e-01
5.572198235559745749e-02 1.215039992117220996e-01 -7.371441657052375529e-01 3.544545829734545572e-01 -9.156985928173925204e-01 1.893621813387291186e-01
1.060876961858777112e-01 8.622078122236423448e-02 -8.440825252957238067e-01 1.381628594367180773e-01 -8.933032849651384444e-01 4.276917877897148390e-01
1.910956867411893467e-02 1.831239186972489705e-02 -9.005669599584851248e-01 3.645496436312780086e-01 -7.237232660648502680e-01 5.859421400486005682e-01
-1.542976557970617869e-02 -9.732825514735377048e-02 -9.962338803387703612e-01 -1.494879455824131738e-02 -5.857380176886758383e-01 8.103625782175507553e-01
8.869993777030008020e-02 1.324223620629583209e-01 -7.314587039397856261e-01 2.604505330327229751e-01 -9.622260342122307408e-01 7.928794944487654872e-02
-2.082182723064640584e-02 -1.933223864834867911e-01 -1.055571686796405784e+00 4.133669892100780979e-02 -4.334797500201331699e-01 9.002147430723386190e-01
7.457083973513929653e-02 7.267324990501579374e-02 -5.604634988038597054e-01 -2.697780940284840584e-02 -8.281879886447316430e-01 -5.598007263878973516e-01
-1.044245289601005572e-01 -2.631151384338382276e-02 -9.179402605520348146e-01 2.451049736248919475e-01 -6.809400284229663036e-01 6.901045062855848400e-01
3.459525442786232086e-02 -1.515628254691172294e-01 -1.052980544362487336e+00 1.813371787722782846e-01 -4.357417211256305323e-01 8.816155511703408498e-01
5.685490321842370104e-02 1.046770527769761089e-03 -9.410391690637999185e-01 3.358496527526773634e-01 -6.882264515727478660e-01 6.430780373341093981e-01
1.124461638471696417e-01 1.493719725286689337e-03 -9.699533993606853643e-01 3.339472531270946676e-01 -7.296035007384363835e-01 5.967897149240145582e-01
2.141017663238885260e-02 1.177903253276381818e-01 -6.990412947441614344e-01 -5.149539648457241575e-02 -9.972908390833787884e-01 5.252814884676006851e-02
-9.976955896280885472e-02 6.790447148982554915e-02 -7.808664407048874212e-01 2.153600816967396747e-01 -7.885964385047276037e-01 5.759650096917633411e-01
-4.492245742160044797e-02 4.289626108023184003e-02 -8.403378307438881256e-01 1.773066651796346149e-01 -8.334321438360096090e-01 5.234053955623595433e-01
4.317572000555033179e-02 1.191958620231728522e-01 -7.054473908328927623e-01 3.897918194944752224e-01 -9.206488482534026518e-01 2.163413194167178311e-02
-5.116834566504324666e-02 7.442142297254468464e-02 -7.892939044745634902e-01 1.900559968397912414e-01 -8.102935229495191738e-01 5.543492804462638590e-01
7.637273908616601381e-02 1.019357139466110646e-01 -8.047176626394174637e-01 2.103119959221500523e-01 -8.507748301448520012e-01 4.816129698868580888e-01
-1.140753896766101838e-01 -1.146371506250636191e-01 -9.783810851388068386e-01 3.726480404987597139e-01 -4.893666258897192423e-01 7.884502161695093880e-01
-4.316135456024779854e-02 9.879861415488983001e-02 -7.533567501687707946e-01 1.078138489721262167e-01 -8.852861865865545576e-01 4.523765486946155767e-01
-1.185895300585519258e-01 -5.104639740254864055e-02 -9.342318357828488518e-01 2.991897633242650012e-01 -5.993469069153040119e-01 7.424747609804847048e-01
1.094682731621829663e-01 1.192848011634588951e-01 -7.863077713868784624e-01 1.696009576314466971e-01 -8.564905830367923745e-01 4.875032270044906690e-01
-2.641928844048221578e-02 -3.514633093213346410e-03 -9.103436185198122699e-01 6.816821953515343757e-02 -7.583413241090248835e-01 6.482835259313457499e-01
-5.287139243707087571e-02 -1.998955310028098786e-01 -1.054097216344350052e+00 1.829785147975294402e-01 -3.672518388961866220e-01 9.119456946276238707e-01
3.028454164720487118e-02 1.089435463777933683e-01 -7.446232287213301326e-01 4.659721154805525622e-01 -8.589278680588535719e-01 2.123979874350306052e-01
-7.561645775202222031e-02 -8.052999208568155376e-02 -9.727261034789084215e-01 2.730905096562410983e-01 -5.602426268665968712e-01 7.820164784563745641e-01
2.449110930318390902e-02 8.496063470118703220e-02 -7.989218083080604771e-01 4.197117287006597031e-01 -8.050622294783822408e-01 4.191859628594457599e-01
1.865367868809839069e-02 1.135654898738775315e-01 -7.244716076056075815e-01 -4.490413206251671341e-02 -9.750303290278731216e-01 2.174844279471742359e-01
-6.699967157447275085e-03 9.153215695031738028e-03 -8.966542074971618481e-01 -1.124953420636807915e-02 -7.674363200351385084e-01 6.410264757957071513e-01
5.649572629510499905e-02 -1.329420418527122172e-01 -1.048419318670514633e+00 1.805334936974164473e-01 -3.768325637209450352e-01 9.085179561092364686e-01
-1.013100682709314332e-01 -6.425696765766504559e-02 -9.515819386017686510e-01 2.906144642168619896e-01 -5.703202731774161816e-01 7.682955285505593812e-01
-5.419136131633958686e-02 1.673798033448691686e-02 -8.790433823388139611e-01 1.433638926842238370e-01 -8.250126181392399838e-01 5.466269058374851886e-01
-6.287980970709894368e-02 -2.620581359219379888e-02 -9.298910022784012686e-01 1.550452013120230677e-01 -7.045221553403387960e-01 6.925384597152114408e-01
-8.490899882231874030e-02 4.804710848685557478e-02 -8.156099060231485343e-01 2.401795617693445184e-01 -8.141922092208812023e-01 5.285875751020886470e-01
-6.080117380199091814e-02 5.645977806413593827e-03 -8.931327696024689011e-01 1.429995682036747096e-01 -8.021819034541752824e-01 5.797027835574010135e-01
6.472875372660445714e-02 -1.231894062451614341e-01 -1.045916252413196634e+00 1.808879146948186023e-01 -3.880153197312981028e-01 9.037276547562204110e-01
-6.528271895244565359e-02 2.448418506219942822e-02 -8.634591568569609521e-01 1.628169866627756646e-01 -8.465063764533539148e-01 5.068703813381347789e-01
-9.506207286353669794e-02 1.485059019172164062e-02 -8.678190013913404943e-01 2.176987986832593369e-01 -8.366176704608562220e-01 5.026709724307900640e-01
-5.010516641110182579e-02 -3.719535788124422176e-02 -9.429917432421320855e-01 1.130978104906411597e-01 -6.727529441765546236e-01 7.311719095835126359e-01
-2.157754824792416579e-02 6.609242660834781236e-02 -8.116304854082246889e-01 1.551434416377588665e-01 -8.301165948463498090e-01 5.355716119040407897e-01
-3.518858901438062792e-02 4.138696866295233506e-02 -8.459087502895198396e-01 1.723749175947622281e-01 -8.305612549715125636e-01 5.295799179768290177e-01
-3.706510171738794379e-02 -1.233267124264554593e-01 -1.011450620152734903e+00 1.536537863170152896e-01 -5.455906394978543572e-01 8.238454758283054735e-01
-1.365498268169782446e-02 3.110557538908507655e-02 -8.671824649605167634e-01 9.980031940539356439e-02 -8.130872598978272636e-01 5.735233247553447322e-01
1.907097666533209834e-02 1.084939813695913746e-01 -7.411324309913064345e-01 -6.589177439968578465e-02 -9.255494960509766944e-01 3.728490370461536862e-01
1.172657511138055497e-01 9.608100111788339670e-02 -8.265529138466721770e-01 1.040458733381617595e-01 -8.665301000221524719e-01 4.881598529138769238e-01
4.671718378064134564e-02 1.129069260731158791e-01 -7.584240443655415609e-01 3.458583297191544781e-01 -9.019332234440147200e-01 2.586473974579399093e-01
1.119013687120403999e-01 4.420184313504662427e-02 -9.182600981022456255e-01 2.797283973272198243e-01 -7.284179363366485305e-01 6.254273209189085136e-01
-1.119039467983068831e-01 5.546644885030391908e-02 -7.928007977296348541e-01 2.512359052215766275e-01 -7.834853170178098791e-01 5.683584062411647375e-01
2.997082030417564866e-02 -1.336128130289019889e-01 -1.042455104519950604e+00 2.669547282361814378e-01 -4.761461703356857922e-01 8.378663363251959151e-01
-7.859336797352098336e-02 -3.185465618935996723e-02 -9.319797191877202680e-01 2.041237894449143553e-01 -6.954353342039401031e-01 6.889870641189880240e-01
-4.879984631892979319e-02 -8.917333839830307585e-02 -9.856452725810852522e-01 1.755884668668213355e-01 -5.768388778412711915e-01 7.977628716067087788e-01
-2.875117230371051179e-03 8.262430375807069960e-02 -7.904609696929445484e-01 1.202043864775095006e-01 -8.427937692436322514e-01 5.246423238699643443e-01
-5.801074829368648572e-02 9.176118488029039177e-02 -7.607789867041544474e-01 1.596720625566389329e-01 -8.521448270115929979e-01 4.983513080511490223e-01
7.131606515016712666e-02 -2.636582492008611445e-02 -9.776656967256202035e-01 3.746834061215207901e-01 -6.711916117127036951e-01 6.396203292138850083e-01
7.333562787397096550e-02 2.996327146990721349e-02 -9.168745841441221511e-01 3.111451075737941552e-01 -7.159147617641348216e-01 6.250238202829504486e-01
7.723384980976402692e-02 5.898734521635595057e-02 -5.436808189683752790e-01 9.281217331537267023e-01 -3.990200142164172792e-02 -3.701322449210145415e-01
-2.962004974751292902e-02 -9.067544052876691518e-02 -9.901148916859578986e-01 1.009472778206405991e-01 -5.960505570038217016e-01 7.965760356651687690e-01
-9.748663169119932978e-04 1.136450140779557971e-01 -7.243734362767377810e-01 1.867200121231360824e-02 -9.586178048637907789e-01 2.840831930418523665e-01
6.881747833672058334e-02 1.260964507575293159e-01 -7.339720634443408498e-01 3.058534202176113603e-01 -9.422733145691415402e-01 1.362889797161640215e-01
-1.065287455814689643e-02 2.533303735763216963e-02 -8.757657794415114605e-01 6.062389997886907106e-02 -8.124688549840008989e-01 5.798440328505060082e-01
7.642112966600228541e-02 3.694582134060920425e-02 -9.101603079780254957e-01 3.093362357672717056e-01 -7.286866158196846355e-01 6.110048356327387742e-01
2.176356901556067425e-02 7.340649806790768006e-02 -8.178076083073324565e-01 4.134314960153382401e-01 -7.988005557639071830e-01 4.370263953284655445e-01
-1.675780661705003963e-02 -1.141734748343105899e-01 -1.008263518500852829e+00 -1.448199366599156775e-02 -5.597525648291890032e-01 8.285332449736717564e-01
5.112637388835632180e-02 1.038470496996828363e-01 -6.191786035496625873e-01 -3.084380416222894383e-01 -8.878691688141521210e-01 -3.414005177932119550e-01
-1.247781681568863738e-02 7.979001664109290626e-02 -7.927056761110105043e-01 1.428157011089311035e-01 -8.355283771772018531e-01 5.305619722976724351e-01
8.355584723934808555e-02 -1.304004823004348279e-02 -9.705561389892261026e-01 3.635010059544195316e-01 -6.944810272909527349e-01 6.209372926496103950e-01
-3.387477548459552623e-02 -1.541532517974301963e-01 -1.031588869736513203e+00 1.539825273832670649e-01 -5.185072365633817126e-01 8.410943032098520122e-01
-1.345385739739766474e-02 -3.459364512532986380e-02 -9.432484579893337662e-01 -5.904219957221192028e-02 -6.961379485174800097e-01 7.154760480292469138e-01
-3.829316999668020555e-02 -2.031616669497345734e-02 -9.276462033882538760e-01 7.349697410208508308e-02 -7.329514755751213029e-01 6.762989939738854872e-01
5.281936335197005145e-02 1.629750617883105046e-03 -9.383291222609121407e-01 3.284674650680046715e-01 -6.861511852021319191e-01 6.490806386247464088e-01
5.402958034003405713e-02 1.135876493813810367e-01 -7.654220626163933394e-01 3.596507786532091022e-01 -8.733522942576016357e-01 3.284921422638966693e-01
-2.830780944085488013e-02 1.012571251524006510e-01 -7.523410291195157251e-01 1.017031218385351793e-01 -8.908593995924615205e-01 4.427482412907529641e-01
-7.213572016028892316e-03 1.189612978947555966e-01 -6.837602447962202179e-01 -1.168575481441612614e-02 -9.995364379540658817e-01 2.811320573174365053e-02
9.061679615589310344e-02 -3.592613618037903550e-02 -9.984977357923537911e-01 3.893523081368004402e-01 -6.350611356065508639e-01 6.671597516267477879e-01
1.698489697291605260e-02 9.980447480962384432e-02 -7.616203727146186875e-01 -3.838163418762946533e-02 -9.037128150983344543e-01 4.264152881688584307e-01
1.241663324768045168e-01 8.772987506193320739e-02 -8.463043368390323895e-01 1.178626064110484678e-01 -9.116226823188710027e-01 3.937670518107644346e-01
5.683730536271524442e-02 -8.102832094308880240e-02 -1.018635948555797199e+00 3.387506694704946475e-01 -5.553515430229702954e-01 7.594949951087877071e-01
-2.563880770630561426e-02 -1.362353610878645482e-01 -1.021801413409297421e+00 1.223896509811797928e-01 -5.336222420773359953e-01 8.368202173065980576e-01
5.441266406095088271e-02 1.084779978112715565e-01 -6.339994107447090022e-01 6.842624647514443659e-01 -6.160789059496979414e-01 -3.901687596106350742e-01
4.305184080753049480e-02 -1.212583325411382279e-01 -1.039267458506256236e+00 2.664762443530422908e-01 -4.644098411965997819e-01 8.445791322281448466e-01
6.387621849621406833e-02 4.140983043927903146e-02 -8.981439171280701794e-01 3.118102553058600956e-01 -7.546462752530883611e-01 5.773069927973626392e-01
1.080223035092962580e-01 6.286695956671002616e-02 -8.918910823771402097e-01 2.765543171451333437e-01 -7.989661182905543058e-01 5.340139057104347220e-01
-3.892233381986872492e-02 1.141627561167509464e-01 -7.151552789571887780e-01 7.229154811515829671e-02 -9.549953950197486163e-01 2.876764285828576351e-01
1.711249637307905511e-02 7.096997377316038857e-02 -8.173894983333259701e-01 4.555867496183662602e-01 -7.841552882740309149e-01 4.213563781931438101e-01
4.333825394800516068e-02 4.095489264526433471e-02 -8.864282567474013330e-01 3.551718945950944062e-01 -7.502624053325740450e-01 5.576372014440138525e-01
-7.594039717034986592e-02 -1.472302053170131261e-03 -8.986415124374886876e-01 1.864866296168798676e-01 -7.707425425683003262e-01 6.092443434694230220e-01
5.753795267780253270e-02 9.960951581988593262e-02 -7.987425888415022879e-01 2.795939076008986945e-01 -8.493210587608935880e-01 4.477510312413972016e-01
1.149987062072445332e-01 2.546676830757000840e-02 -9.413328997296789291e-01 2.834989772795264984e-01 -7.355565887593635832e-01 6.152924789188883858e-01
2.597830160083073464e-02 1.177396874838606139e-01 -6.709257951329103964e-01 -3.984209182746911021e-02 -9.967525781127605233e-01 -6.997789468380093136e-02
1.130067340518953710e-02 1.074993429171438031e-01 -7.440245906333972092e-01 5.037114049817364297e-03 -9.323821098972245869e-01 3.614391077701041288e-01
5.125618080353105434e-03 -1.646789597962219909e-02 -9.324845730011782630e-01 3.532978131789359932e-01 -6.904425247772063567e-01 6.312446238838459456e-01
-2.553347122362427130e-03 3.778513582718765612e-02 -8.592499910815624142e-01 1.847011276971808127e-02 -8.164047841617361190e-01 5.771846180660943348e-01
-1.261366026510037930e-01 -6.461762782689542406e-02 -9.411415077176851218e-01 3.391394726486082201e-01 -5.428044418797896009e-01 7.683409112934138641e-01
-6.146252878260082680e-02 -5.783883777069511031e-04 -9.010491604986254899e-01 1.483800904509802177e-01 -7.699731636867086504e-01 6.205841409188924684e-01
-9.128339748302859158e-02 6.540123354030993874e-02 -7.875169631388967417e-01 2.292989194401949260e-01 -7.894122433481588486e-01 5.694298162158232257e-01
-1.023142504538985670e-01 1.223117111407267567e-02 -8.692805255115994001e-01 2.047885544884370246e-01 -8.440279404450014011e-01 4.956596450173298418e-01
-7.692863950373955706e-02 -1.196893023362470415e-01 -9.977707361332039948e-01 3.021767608718045617e-01 -5.123884910220714017e-01 8.038328429823882182e-01
6.540298862125847046e-02 -5.084276791404150619e-02 -9.981090873806055530e-01 3.782364681296895847e-01 -6.053911345547047240e-01 7.003133215778103438e-01
4.476876338738832589e-02 -4.631869004828666203e-02 -9.826845553088968677e-01 3.523124303083631781e-01 -6.431088065439143353e-01 6.799169172743659839e-01
3.330919728705140220e-02 -1.426751309016293101e-01 -1.048334078210028109e+00 2.240495163555538960e-01 -4.574959978901794178e-01 8.605226470786873083e-01
1.018126269993137739e-01 1.107648360619642308e-01 -7.981605280417189974e-01 1.488770392606791060e-01 -8.484953848826940481e-01 5.078299016538343480e-01
-1.164399316217986924e-01 -2.443210241986727227e-04 -8.827206312997688542e-01 2.252003189781354164e-01 -8.112652349255481399e-01 5.395679150332617358e-01
4.994819731554146769e-02 1.099051535767473081e-01 -6.351443089293477007e-01 -3.131903606093015546e-01 -8.992719132634292567e-01 -3.053224918622060580e-01
-9.345976835549681117e-02 -1.102483426095002828e-01 -9.850506523991042762e-01 3.502629363724950040e-01 -4.907742017838711557e-01 7.977822749767768951e-01
-6.091000879276012303e-02 7.233467019822123478e-02 -7.889993772308943054e-01 1.903057415609989422e-01 -8.091403762220339413e-01 5.559456594813773078e-01
-4.866390227239131977e-02 1.092238666730585700e-01 -7.284731172827774159e-01 1.042767992490344908e-01 -9.223816929198495052e-01 3.719386531468449886e-01
5.367774479331433556e-03 1.075971264424725737e-01 -7.435128244050024371e-01 1.961341538608830579e-02 -9.339575017225382192e-01 3.568454832460228321e-01
5.165838730688786240e-02 3.509561501307317810e-02 -8.991141002697042861e-01 3.397028428469781591e-01 -7.271273346007578464e-01 5.965633393346250202e-01
-1.295380420046311210e-01 1.075590906869522932e-02 -8.591553830170881589e-01 2.359173573310275329e-01 -8.509616593167587117e-01 4.692624584204589944e-01
5.376765405813157400e-02 1.229354103621522892e-01 -7.047097049958005455e-01 3.099369059084207123e-01 -9.496357488242613831e-01 -4.616339362416196912e-02
-4.186710096923779156e-02 7.216982252947086451e-02 -7.958168811984971391e-01 1.725137089606857688e-01 -8.256689529876919398e-01 5.371310829702897749e-01
-6.851870980315746817e-02 -1.101106157939416193e-02 -9.121405918326106477e-01 1.464189728993801898e-01 -7.383122667913402104e-01 6.583741193884546927e-01
8.332945970785748946e-02 3.632903006093338855e-02 -9.142454104613414456e-01 2.944194257064390863e-01 -7.281708934510653375e-01 6.189380838964166909e-01
8.556879462106880413e-03 -5.995375928389194697e-02 -9.770673626364719810e-01 3.465343377983171047e-01 -6.384281767334668567e-01 6.872578961928798025e-01
3.463796819066713648e-03 1.107398228109696958e-01 -7.346281215056301717e-01 2.316466999079749498e-02 -9.603249327716090189e-01 2.779198113870658404e-01
8.120345208078619259e-02 -4.156537703411924273e-02 -9.984393687249849547e-01 3.821991868619583066e-01 -6.355077134659220528e-01 6.708604383084258993e-01
7.190379599273311051e-02 4.920545768026118871e-02 -8.923564050710637297e-01 3.180996393430229330e-01 -7.495467309306833581e-01 5.805103940507563287e-01
4.542994530313596013e-02 8.425785562612152224e-02 -8.183601069663377636e-01 3.338443054662851295e-01 -8.218851354424174804e-01 4.615764333742924386e-01
7.851722947276364162e-02 7.068638041490246660e-02 -8.631944087755905048e-01 2.764260351467597854e-01 -8.446279391192832442e-01 4.584673287728960878e-01
-1.492770089117738744e-02 2.185939155969292627e-03 -9.047015540239335962e-01 3.046059871115211481e-02 -7.463911581652441507e-01 6.648100412440410834e-01
-1.904324176636987276e-02 -1.000399080033772259e-01 -9.980738010126777304e-01 5.490909595583054470e-02 -5.820139535125490315e-01 8.113228390092355191e-01
7.199031502084768386e-02 -3.415082304688742826e-02 -9.861020662479754728e-01 3.781596551602603440e-01 -6.382711755567950229e-01 6.705260484592823200e-01
5.323043260677009364e-02 1.226164111451070321e-01 -7.164611680543848671e-01 3.256522617742554915e-01 -9.448709806250235044e-01 3.419699364005991671e-02
8.612553414906751192e-02 6.666065395283043982e-02 -8.739843669296284423e-01 2.513497602260970631e-01 -8.298287216915388731e-01 4.982043663900084796e-01
1.035779825738865068e-01 4.468402954232617713e-02 -9.138992879343963427e-01 2.879541771391047611e-01 -7.269742874647787678e-01 6.233704975640234069e-01
-2.793768551999679245e-02 -1.576105243201125772e-01 -1.034667265700559780e+00 1.290511392359168508e-01 -5.240656225840957250e-01 8.418438255920488444e-01
1.356502259115752174e-02 -2.091453020295745979e-01 -1.072805796242685794e+00 1.795313238138221967e-01 -1.841559225194089877e-01 9.663617852391938046e-01
1.163452055904635454e-03 9.681756161250094916e-02 -7.665512172908989230e-01 9.326498243866562787e-02 -8.783221012171660291e-01 4.688837057993993640e-01
6.073928194196591239e-03 -7.170902203409866560e-02 -9.861662172867233789e-01 3.571150363858823784e-01 -6.166952235723951459e-01 7.015382042412966479e-01
4.932311402098947528e-02 -5.209911502236985736e-02 -9.906388614637976486e-01 3.658877568688747028e-01 -6.415403967943014152e-01 6.742047675999283118e-01
-8.348878719949058558e-02 -2.175700281102823513e-02 -9.202495625022660830e-01 1.994085741022731117e-01 -7.333629282065690091e-01 6.499346398729530794e-01
1.324251386966782129e-02 5.149108394183891241e-02 -8.471816765979205410e-01 4.572614658997358750e-01 -7.594541407787483989e-01 4.627541030150220669e-01
1.044750043815604879e-01 -2.038616930218223322e-02 -9.910123717929016918e-01 3.664401443584640039e-01 -6.918757216199754589e-01 6.221170359629981661e-01
-4.984373036205572149e-02 -1.365764126502312104e-01 -1.017063242315262350e+00 2.234588189490614996e-01 -5.195620577977073662e-01 8.246947461521154654e-01
-1.789266164408964688e-02 -3.562527096742176130e-02 -9.443182865598588327e-01 1.990531267964572651e-03 -6.803045058585528437e-01 7.329268838662021945e-01
-5.422822221990040298e-02 1.386917161535386120e-02 -8.833474442373238089e-01 1.272120262099974697e-01 -8.154341910640737767e-01 5.646983092158384121e-01
7.923072078272135055e-03 -3.275060423658217312e-02 -9.508565056497306767e-01 3.514943503858390383e-01 -6.537551507112798754e-01 6.701163515131595139e-01
-1.048962653832807013e-01 6.898592213932417620e-04 -8.860799552775758814e-01 2.062910405874530118e-01 -8.134179156663389199e-01 5.438706657343955753e-01
-4.181484323316976559e-02 1.105261395036803984e-01 -7.268264515530564740e-01 8.310894965627070585e-02 -9.601371139741098348e-01 2.668887874312044217e-01
-3.954791768554614256e-02 9.989636565887338726e-02 -7.520822475262631812e-01 1.194694433658776700e-01 -8.929192730557674595e-01 4.340762881192742340e-01
3.478191749549361389e-02 -1.073354833154201576e-01 -1.027747628419102721e+00 2.952487877648351522e-01 -5.310832912220052604e-01 7.942157711278451382e-01
-6.900571858697005304e-03 6.538801755036484364e-02 -8.168381531069522916e-01 1.336058667734821570e-01 -8.330408920927616645e-01 5.368354910631396582e-01
-7.038274159553420395e-02 8.697724896902478409e-02 -7.642593067815502961e-01 1.781573463844885186e-01 -8.084708590852648369e-01 5.609231943316046465e-01
-1.205195243454248027e-01 -4.562904059812129820e-02 -9.290810740610004892e-01 2.991897633242650012e-01 -5.993469069153040119e-01 7.424747609804847048e-01
-7.615340464354371230e-02 -8.882484354590329534e-02 -9.781540108449181536e-01 2.741473328543943544e-01 -5.339377605084691947e-01 7.998460525576295277e-01
-3.114241771237411666e-02 -9.251571866499799790e-02 -9.912989844329368472e-01 1.009472778206405991e-01 -5.960505570038217016e-01 7.965760356651687690e-01
-1.195105567508231714e-01 -1.649162217349431359e-02 -9.017020254356519215e-01 2.502086048185373501e-01 -7.130544933187937806e-01 6.549419391309730942e-01
2.367164739743873956e-03 -1.445284421727451307e-01 -1.037283674860536964e+00 4.129493380896613330e-01 -4.700724617098884228e-01 7.800671284660801730e-01
2.236592416709059714e-02 -5.565669313444636390e-02 -9.800122232857749749e-01 3.455524861411640725e-01 -6.430460735632542724e-01 6.834363369009159861e-01
-1.387481684301440921e-01 -1.713279829688101052e-02 -8.947449063177004280e-01 2.628765883644915147e-01 -7.000182006786712652e-01 6.639807361727003698e-01
-9.392024476982641437e-03 2.680873078892098346e-02 -8.738298842013733081e-01 6.062389997886907106e-02 -8.124688549840008989e-01 5.798440328505060082e-01
1.014278292528258095e-02 -2.053685386734210166e-02 -9.395728944800476601e-01 3.554831233208761709e-01 -6.713341480371951553e-01 6.503400731257515943e-01
7.218218144252321056e-02 -9.048857016971108280e-02 -1.031084497099641339e+00 2.889677951867943295e-01 -5.068474295524577622e-01 8.121596496385110608e-01
1.215935096977555641e-01 4.019277292329558049e-02 -9.272642549826997094e-01 2.797283973272198243e-01 -7.284179363366485305e-01 6.254273209189085136e-01
-1.089188850063154135e-01 5.434757034922361313e-02 -7.956626883266860739e-01 2.512359052215766275e-01 -7.834853170178098791e-01 5.683584062411647375e-01
-3.171563757675020107e-02 -1.995952873183219900e-01 -1.057871212397934579e+00 9.829930412489015779e-02 -4.408329660376690828e-01 8.921903064161779140e-01
6.718142715510266871e-02 7.911927062274824729e-02 -8.417637000544671011e-01 2.507390025533757227e-01 -8.465444236544122925e-01 4.695662800693394812e-01
-9.382711704422913579e-02 2.109857629204135113e-03 -8.881547389628202671e-01 2.062910405874530118e-01 -8.134179156663389199e-01 5.438706657343955753e-01
-1.193410869930899704e-01 -5.390562830438708208e-02 -9.362370393723126183e-01 2.991897633242650012e-01 -5.993469069153040119e-01 7.424747609804847048e-01
-3.465459174756475164e-02 -9.532910157986629329e-02 -9.928080664031104785e-01 1.385033964788521810e-01 -5.689927866433053261e-01 8.105948543580249188e-01
-5.883701976182596077e-02 8.512555308957696354e-02 -7.709255041536718922e-01 1.668991583178893734e-01 -8.239506869315860182e-01 5.415255639928255871e-01
-5.146676760486242758e-02 -4.843931311254805888e-02 -9.531972037170497458e-01 1.191078157933247728e-01 -6.758702302563478481e-01 7.273326337173211531e-01
5.899837386521784854e-02 -5.251964269775413752e-02 -9.960995672217323182e-01 3.782364681296895847e-01 -6.053911345547047240e-01 7.003133215778103438e-01
9.727589111147121048e-02 3.494012874702995958e-02 -9.224136757226835126e-01 2.853656922393810746e-01 -7.219660042348301499e-01 6.303423755562779229e-01
-4.428820310171528198e-03 -1.070345292858153607e-01 -1.008680569351368517e+00 4.426746159815354020e-01 -5.402736910389197567e-01 7.156420356133238458e-01
6.936386567487319577e-02 1.042628949358472557e-01 -6.132420143162596871e-01 1.138383018758626491e-01 -8.629117740835745565e-01 -4.923658306320190525e-01
2.474083745905468479e-02 5.901509909205973625e-02 -8.453224834337068616e-01 4.149685625655974430e-01 -7.811988706699557472e-01 4.664004894360934128e-01
-1.188101969335667897e-02 6.843321668480592535e-02 -8.108050890993392379e-01 1.534879173514657746e-01 -8.370781628565295840e-01 5.251110439667472374e-01
-6.941899941698892462e-02 -1.359864198555043591e-01 -1.010957089498427441e+00 2.685311728058640823e-01 -5.251219402977916895e-01 8.075505910154417988e-01
3.378269484254450145e-02 2.134063971725856657e-02 -9.057452474330995873e-01 3.490356673005514110e-01 -7.135642134024022809e-01 6.074538799805871969e-01
-4.875101954805454579e-02 -1.332445424302844406e-02 -9.185088833964036859e-01 1.117960292576404557e-01 -7.370129190866516744e-01 6.665685298164005790e-01
1.118462864910040461e-01 7.090792102029855326e-02 -8.800740180154766890e-01 2.448784829454303535e-01 -8.592460005011018920e-01 4.491445638246165384e-01
1.204043590766391489e-02 -1.698544491172923887e-01 -1.056506695832852394e+00 3.128747130499909268e-01 -4.463403099261291085e-01 8.383851988608413963e-01
4.899736050601133375e-02 5.519326260033881326e-02 -8.699319804974215975e-01 3.621233223120022271e-01 -7.683854566709719114e-01 5.276840810695919703e-01
8.294935038378055403e-02 1.128612829170135140e-01 -7.873622395455266432e-01 2.128925756017859550e-01 -8.503124450658270383e-01 4.812956440897969146e-01
5.835553860121900360e-02 -5.855269207244925139e-02 -1.001076763974767969e+00 3.618424640524347535e-01 -6.159602082200147377e-01 6.997592822521316869e-01
8.045893402912451808e-02 -4.967326491731728633e-02 -1.005316135745024431e+00 3.658500245286985253e-01 -5.932197554781111215e-01 7.171081377747994257e-01
1.114200330715235145e-02 -1.946985390606470745e-01 -1.068185704713447093e+00 2.423044249290785546e-01 -3.836216705764503576e-01 8.911357806327394604e-01
7.698971934148035601e-02 -4.838936254842839818e-02 -1.002316022491495762e+00 3.845737429132797813e-01 -6.050975240432647784e-01 6.971083292131727838e-01
4.122223579406649602e-02 -1.396765211665121909e-01 -1.048526879761349395e+00 1.441750837762232340e-01 -4.195417046493244984e-01 8.962133134907436238e-01
-8.054795912371445765e-02 5.402337544640686134e-02 -8.082864474220167184e-01 2.309548607704573486e-01 -8.125137357964133944e-01 5.352394617632882934e-01
-8.342527025552940595e-03 -1.732814655835931972e-01 -1.046941770568672991e+00 5.727598744112986084e-01 -3.726152583535973783e-01 7.301397095805945980e-01
-5.499096610231293814e-02 -2.082354548935092323e-02 -9.258495658001104633e-01 1.054242849164168938e-01 -7.405658556406132798e-01 6.636625148440645772e-01
8.419739058008310351e-02 -4.222118319250186408e-02 -1.000766306852492793e+00 3.821991868619583066e-01 -6.355077134659220528e-01 6.708604383084258993e-01
2.076289140550776485e-02 1.026668578879651704e-02 -9.114663511700220599e-01 3.522938001492436633e-01 -7.194236446428763365e-01 5.985972752236389249e-01
-2.345847942150705925e-02 -8.961951036823975758e-02 -9.900426590706383756e-01 8.069078657360657936e-02 -6.049330542867562555e-01 7.921773771027730282e-01
1.146529591107999929e-01 1.154892450587103603e-01 -7.944102256498043468e-01 1.366035631502867942e-01 -8.333866725454628366e-01 5.355428279402565384e-01
8.949020906688236188e-02 1.334764102267914643e-01 -7.212628796086175686e-01 2.604505330327229751e-01 -9.622260342122307408e-01 7.928794944487654872e-02
8.697102360354566630e-02 1.233885379061122473e-01 -7.660535869725014768e-01 2.033621339475314982e-01 -9.214733140496300656e-01 3.309543381959185182e-01
6.179546297203901417e-02 -1.317012383429979339e-01 -1.048957783328295035e+00 1.805334936974164473e-01 -3.768325637209450352e-01 9.085179561092364686e-01
-8.681157988251173062e-04 -1.769237226169333987e-01 -1.054117991960661138e+00 4.721782314535811764e-01 -4.169206069864111464e-01 7.766755598133950889e-01
-1.175042861241311215e-01 4.054283626486485798e-02 -8.116046426767559163e-01 2.585538938350201987e-01 -8.065834193091743209e-01 5.315760262448540052e-01
-8.406166579119651872e-02 -4.115753158142369805e-02 -9.390853628353852400e-01 2.209148861279547349e-01 -6.526721333290564919e-01 7.247176687943871487e-01
5.849835443919321892e-02 -3.201862624213454300e-02 -9.762754342570463262e-01 3.643367809089497755e-01 -6.640606178014916150e-01 6.529029069946044039e-01
-8.816841620401284774e-02 -1.641512741184186427e-02 -9.128421488135954887e-01 1.925105740690815914e-01 -7.297702236780210239e-01 6.560298007747239479e-01
1.063024390549540815e-01 2.191468857677025817e-02 -9.415724164002279295e-01 2.834989772795264984e-01 -7.355565887593635832e-01 6.152924789188883858e-01
-6.516313662397679382e-03 -2.768004068375878521e-02 -9.364449818645653734e-01 5.280563636711651521e-01 -6.234768153109064848e-01 5.765701497269485332e-01
5.393158448093488683e-02 -7.073574888529754988e-03 -9.482035919174549576e-01 3.332480064988928015e-01 -6.886191823100406006e-01 6.440103942632952050e-01
1.827291078793405812e-02 1.028389070481359885e-01 -7.550734888363321851e-01 -3.838163418762946533e-02 -9.037128150983344543e-01 4.264152881688584307e-01
-7.069132158015030420e-02 -6.316585696549374684e-02 -9.614294564349332717e-01 1.884031630503419374e-01 -6.144861374801064979e-01 7.661011910951487369e-01
-6.318130329136062429e-02 -1.789469826138898600e-01 -1.041023550015453658e+00 1.678517201455811403e-01 -5.329414707191850731e-01 8.293365956183539334e-01
7.150875331605342777e-02 7.514683316106447741e-03 -9.413538588742004221e-01 3.097615786079041533e-01 -7.098981585145203166e-01 6.325285518899776971e-01
6.780027203173485950e-02 5.872515244271574869e-02 -8.765946748885831141e-01 3.092214650585144997e-01 -7.820514685593935589e-01 5.410892588761688771e-01
3.434503702578143441e-02 -1.326873380720940132e-01 -1.043287187176998865e+00 2.242561067318523116e-01 -4.795494830067342229e-01 8.483757964142103480e-01
-7.557649245004509353e-02 -1.462888313092730319e-01 -1.015606652400875998e+00 3.016811001932589997e-01 -5.268335509654034077e-01 7.946287959565576653e-01
-8.063680174310253190e-02 -1.597721326863041358e-01 -1.023315313956669748e+00 2.391765444413357922e-01 -5.740237199349123021e-01 7.831292036063952633e-01
-4.724077591807448323e-02 5.282605827252046665e-02 -8.236676241862097569e-01 1.974006109313072854e-01 -8.278906291444413368e-01 5.250048618620285490e-01
-1.131073280633924372e-01 -4.714336897601868748e-02 -9.332997281172080717e-01 3.202269655866158415e-01 -6.073672784020086590e-01 7.270210998573047867e-01
-5.965391279185501550e-02 8.056153866491844173e-02 -7.774364409623668593e-01 1.848718490292124428e-01 -8.099926340677621184e-01 5.565378084124099622e-01
5.301705120258869836e-02 9.710633148833842931e-02 -8.005240357133628359e-01 3.464732297471765365e-01 -8.312634654068095097e-01 4.346922499290990505e-01
4.743261670504576866e-02 -4.544591752973950460e-02 -9.832820389967493746e-01 3.658877568688747028e-01 -6.415403967943014152e-01 6.742047675999283118e-01
-8.441259154413925658e-03 -9.963300554987254698e-02 -1.000500798775312505e+00 5.125930411754706650e-01 -5.149744342894879701e-01 6.870587356017707759e-01
7.322272424619891140e-02 1.091412413496889861e-01 -7.896266109911858067e-01 2.541688439787548326e-01 -8.550054261830738467e-01 4.520662782690206272e-01
8.792719206454721603e-02 1.259300103612414623e-01 -7.599076985337874790e-01 2.507388754637871475e-01 -8.964740461865327026e-01 3.653276623048165028e-01
7.675875287775092704e-02 6.958691050904483588e-02 -5.560355870089003227e-01 -2.890058496369695210e-02 -8.244377607892627857e-01 -5.652142379430498131e-01
-5.858496052354497836e-03 -8.114403957858705441e-02 -9.875863552054338079e-01 4.226507168042819007e-01 -5.733349027425355127e-01 7.018927702163868521e-01
6.437691940192240281e-02 6.098670931281278268e-02 -8.710118166829455832e-01 2.850269695290503780e-01 -8.123864101769984192e-01 5.087120474303861162e-01
3.246309513595277418e-02 -9.805248682538023064e-02 -1.020429763861809613e+00 3.510180327166997905e-01 -5.674091419796329916e-01 7.448712682777032246e-01
-1.141308378665089329e-01 3.193937812378554175e-02 -8.273679014294011980e-01 2.582033330298331708e-01 -8.270205839477622334e-01 4.993675925998679044e-01
-5.905007397840225658e-02 -1.646203925391627465e-01 -1.032689505865395763e+00 2.231313083473470960e-01 -5.188083352358607847e-01 8.252577358165118504e-01
9.171338296669152845e-02 6.970243890206957726e-02 -8.717776566665531579e-01 2.731400291026072069e-01 -8.384195335642764535e-01 4.716430962493654566e-01
-1.112356546621163650e-01 -7.882468722456588417e-02 -9.574132992350589122e-01 3.541191826292861555e-01 -5.068339338813721007e-01 7.859509959026065307e-01
-3.072153663217868161e-02 -1.807334928731939294e-01 -1.047871447912787968e+00 9.774429843116246019e-02 -5.109483133707601876e-01 8.540362247514886596e-01
-5.295814891179254774e-02 -1.053116424867513307e-01 -9.959462394140129460e-01 1.768132468116432876e-01 -5.499288418021379687e-01 8.162814126917773416e-01
6.207740141360622299e-02 1.074398054806556119e-01 -6.229095071443776499e-01 3.845720249751681807e-01 -8.174668046913876607e-01 -4.287801077873727995e-01
-1.374094866721978225e-02 -2.245901787628676594e-01 -1.065987189823194514e+00 -2.601582221996585551e-02 -1.297674641921932603e-01 9.912030983765873771e-01
-9.604090934744421992e-02 -1.254575331988758979e-01 -9.934981903530314407e-01 3.237580790550350085e-01 -5.286252213494180285e-01 7.846885252123113608e-01
5.140347523796792023e-02 9.468613042755933198e-03 -9.290186624595114795e-01 3.265736621691112118e-01 -7.015399595052079773e-01 6.333966596019323658e-01
1.028034574678232810e-01 6.261908208702904322e-02 -8.895979573738532764e-01 2.687005975706098782e-01 -7.951943206530560637e-01 5.435678258196686707e-01
-3.328554122424712963e-02 5.337619757307024426e-02 -8.276870699914998797e-01 1.782981267703011574e-01 -8.291636862430066257e-01 5.298087951385012095e-01
-3.049817193334918193e-03 -1.377477408142766327e-02 -9.239497814335211334e-01 4.613567663784122752e-01 -6.661396945272213266e-01 5.860101035750454601e-01
4.728352035229368977e-02 1.133208923471754892e-01 -6.432078442202218138e-01 -1.761528501505470190e-01 -9.449710265856016145e-01 -2.756808522505564407e-01
7.166369009014518510e-02 1.279038503939307521e-02 -9.355087196034769237e-01 3.097615786079041533e-01 -7.098981585145203166e-01 6.325285518899776971e-01
6.161138846233692179e-02 1.183924740501967193e-01 -7.585843473539432003e-01 3.295741352841014549e-01 -9.002168942326528311e-01 2.845881808681688385e-01
7.380312202774357011e-02 1.085811216823172748e-01 -7.910362171158289435e-01 2.214450544663968123e-01 -8.743249959887842149e-01 4.318771691599209150e-01
-4.958999345437309358e-02 7.613357508602747181e-02 -7.873323785856494172e-01 1.900559968397912414e-01 -8.102935229495191738e-01 5.543492804462638590e-01
7.117104666667496693e-02 8.473788025323809869e-02 -5.791910873786504377e-01 -7.317629502614027628e-03 -8.641686966655515167e-01 -5.031489998020708398e-01
2.865084100900385997e-02 -3.931327733758709086e-02 -9.677558812409468025e-01 3.409559493953213116e-01 -6.556127831954841056e-01 6.737365353627530196e-01
-3.201350860854511315e-03 1.040805972994438972e-01 -7.512951626168162811e-01 4.685039367078955297e-02 -8.978541357815580382e-01 4.377933204982042414e-01
7.629344059430630265e-02 -1.977151272063938994e-02 -9.737034375539695974e-01 3.621067311890086571e-01 -6.643308385656079285e-01 6.538679164466836280e-01
-4.755972366056582419e-03 -2.066736407907104334e-01 -1.063808283280601952e+00 6.805942606867239064e-01 -9.721020692771392691e-02 7.261829163436459567e-01
4.259097147858341426e-02 1.188624789055130471e-01 -7.090989628599312367e-01 3.897918194944752224e-01 -9.206488482534026518e-01 2.163413194167178311e-02
-4.688018584206118944e-02 -1.316754183667541711e-01 -1.014694383140731571e+00 1.754367045698266014e-01 -5.334895259451524208e-01 8.274121635536281216e-01
7.186212872950543951e-02 -5.438635748007429604e-02 -1.004692740716817578e+00 3.845737429132797813e-01 -6.050975240432647784e-01 6.971083292131727838e-01
-2.280128180058262760e-02 -1.202189718993864065e-01 -1.011795509332822363e+00 1.217912558528987943e-01 -5.523827561558639632e-01 8.246454878912664599e-01
2.761300989205817472e-02 7.395660180771929104e-02 -8.223054222924226497e-01 4.160647644988319516e-01 -7.894389966969763694e-01 4.513049769685714141e-01
-1.068562319924210441e-01 -1.308876865872356243e-01 -9.923461088801619479e-01 3.342968400392972161e-01 -5.385306118027017863e-01 7.734535557427789643e-01
5.399420338444766571e-02 1.068233229720345484e-01 -7.818216708699249340e-01 3.404866013166312211e-01 -8.510611447923809303e-01 3.997046436414411485e-01
-1.821898605648436184e-02 -2.153353257750883487e-01 -1.064314561592004438e+00 2.232316288364971993e-02 -1.965035165446023524e-01 9.802489706112804679e-01
2.501702581567871730e-02 -9.588516220085042951e-02 -1.015317179701754169e+00 3.432600370116962174e-01 -5.719535915855440411e-01 7.450111650593737034e-01
-7.747932159033280031e-02 -1.267355054941380343e-01 -1.002055196645581070e+00 3.021767608718045617e-01 -5.123884910220714017e-01 8.038328429823882182e-01
-1.241281066763340879e-01 2.729813911199316379e-02 -8.306020353123405586e-01 2.439667098061361894e-01 -8.576972015432908769e-01 4.525878422706203219e-01
1.140234751265341018e-01 7.280124522654643320e-03 -9.634425205191716746e-01 3.311469971875682372e-01 -7.456498711272990798e-01 5.782282732117989266e-01
-7.522572414052237921e-02 6.870920039686863323e-02 -7.889676573845580965e-01 2.028043361638339204e-01 -7.990855523926156945e-01 5.659793999701178135e-01
-3.171189771667826812e-02 1.483278502035163121e-02 -8.867071802170654049e-01 1.037119693628896916e-01 -8.157677411551734759e-01 5.690051141259250267e-01
7.850500349982653114e-02 1.147771675676556996e-01 -7.814378630991735131e-01 1.994340804756505603e-01 -8.961136213343097179e-01 3.964926546658097406e-01
1.182497788561561458e-01 2.034151499563707430e-02 -9.492178499870431718e-01 3.027502048925147515e-01 -7.465003954702087441e-01 5.925195971445686993e-01
-3.422190454252298231e-02 1.080134675573964087e-01 -7.356684486045589333e-01 9.134068949819219851e-02 -9.292803318635813881e-01 3.579035390346212431e-01
-4.942789996461882142e-03 -2.284292676697653388e-02 -9.326554270514922917e-01 5.268417162128447018e-01 -6.238547515156790402e-01 5.772720806250848380e-01
-5.366500430381651587e-02 6.305489767885638641e-02 -8.054977750406493442e-01 2.150678772878074352e-01 -8.199483772742998111e-01 5.305002043017129632e-01
1.045269711142504249e-01 8.664402949555827238e-02 -8.426943216209256127e-01 1.381628594367180773e-01 -8.933032849651384444e-01 4.276917877897148390e-01
-4.854242303356388899e-02 -1.238831401064417470e-01 -1.009270765645751133e+00 1.876541020296219331e-01 -5.392807246447574032e-01 8.209520314964092735e-01
6.641675881877499854e-02 5.455970892970447850e-02 -8.817957938903896453e-01 3.125518835949202545e-01 -7.794559709784972812e-01 5.429177740387908235e-01
1.747054394456074369e-02 -7.908919023212297728e-02 -9.981784176046837320e-01 3.579217608886176016e-01 -5.975393896683038886e-01 7.175226065269456610e-01
-2.688869693075714509e-02 -1.608045706756184093e-02 -9.242029344538825741e-01 5.475661022325688243e-02 -7.328506626034269056e-01 6.781825860036340137e-01
-3.076592277120910116e-02 -1.431148901245429816e-01 -1.025317386217538873e+00 1.481770732472296737e-01 -5.127408452086155144e-01 8.456597309903313153e-01
5.166954570341229791e-02 6.960975184769754853e-02 -8.485385018009183877e-01 3.245523417060956484e-01 -8.118345811750253826e-01 4.853765448612661904e-01
1.047386432986484595e-01 1.161830577111847146e-01 -7.900880670085704827e-01 1.729250118489271959e-01 -8.427721038459380365e-01 5.097373061255570104e-01
-2.617610171253537468e-02 1.910053826507654776e-02 -8.817637204256775219e-01 1.252605368796081975e-01 -8.056165920374326328e-01 5.790437846438083458e-01
2.337990413153180277e-02 3.958915121851769303e-02 -8.745329160722535855e-01 3.855802426668673011e-01 -7.489903733400542496e-01 5.388332739436995089e-01
-8.093482964908554900e-02 -1.517680932067783373e-01 -1.017475711533432525e+00 2.829013403985138897e-01 -5.493462369926856992e-01 7.862477621606944744e-01
-3.486264246319591836e-02 1.088870991082356299e-01 -7.332365808915434213e-01 9.134068949819219851e-02 -9.292803318635813881e-01 3.579035390346212431e-01
2.942942716775197656e-02 1.066212076400635811e-01 -7.521386575500912386e-01 4.659721154805525622e-01 -8.589278680588535719e-01 2.123979874350306052e-01
1.001134144708307194e-01 1.112685406332387938e-01 -7.968207787828229804e-01 1.488770392606791060e-01 -8.484953848826940481e-01 5.078299016538343480e-01
-6.215455169496635068e-02 7.070742072532230915e-02 -7.909417066157610199e-01 1.903057415609989422e-01 -8.091403762220339413e-01 5.559456594813773078e-01
2.369704385731810289e-02 -4.351392695654886233e-02 -9.693122313286999248e-01 3.422886227130668146e-01 -6.416294237117573518e-01 6.864038034484583051e-01
1.836379808530633206e-02 1.183094798972953721e-01 -6.791188875049271045e-01 -3.553376857297661784e-02 -9.989957725639161401e-01 -2.729098185164655077e-02
-7.327347405665717017e-02 -1.568238845625463396e-01 -1.023563147038378141e+00 2.342136719866849681e-01 -5.529974098861873966e-01 7.995860307144451173e-01
8.772003842194123213e-02 -3.380134213975521940e-02 -9.947970760471771534e-01 3.821991868619583066e-01 -6.355077134659220528e-01 6.708604383084258993e-01
6.135986175675065685e-02 1.167444179536418769e-01 -7.636945462185739109e-01 3.075809942293081245e-01 -9.116838450197591870e-01 2.724454050243799164e-01
