4.940141235156030736e-02 7.330166875018413741e-02 -5.722274771567066320e-01 8.901872300299192853e-01 -3.338591741090452536e-01 -3.100076569294473727e-01
-5.342882826891691417e-02 -1.672072742331654205e-01 -7.600827899131911147e-01 9.968698012682986054e-01 -7.894910003711401447e-02 4.199871740029368500e-03
-3.936153328212169122e-02 -1.691921241527202802e-01 -6.722885079382062701e-01 9.648071164533627009e-01 8.756609095813291943e-02 -2.479504139041907307e-01
1.344236530557481601e-01 1.978659714658520807e-01 -6.128118253638777935e-01 3.601784358211856385e-01 -6.380958497095104986e-01 -6.805183178672721267e-01
-3.026358650100047579e-02 2.789806436134081857e-02 -7.297560902967900054e-01 9.123860133018849572e-01 -1.729220241699945260e-01 -3.710117737862833054e-01
-4.272722978262952220e-02 -1.039907210031168761e-01 -6.948445533255109829e-01 9.866468792256829490e-01 -1.145107310434458625e-01 -1.158241261141909756e-01
4.088424297256931794e-02 1.666700176344083559e-02 -5.422814124611776698e-01 8.844351674626832471e-01 -2.992788361260960706e-01 -3.580595101407930692e-01
-5.613304656338487936e-02 -2.190133369302951771e-01 -8.066154774085183554e-01 8.735240582425877198e-01 3.126856204399394712e-01 -3.730729452017261805e-01
-6.689411573272356637e-02 -1.683197626230187871e-01 -8.302896431310722303e-01 9.959194877456264416e-01 8.065126063618591190e-02 4.049380306025683607e-02
1.962978021708339932e-02 1.034315870193815573e-01 -6.703689508483092752e-01 8.343884084983586025e-01 -2.931589036860557940e-01 -4.667481558112105411e-01
-5.313008234465161489e-02 -1.772081480558977407e-01 -7.497472757367854568e-01 9.959925156557420944e-01 -2.634688434627490208e-02 -8.546783279684977419e-02
-5.658089488704574205e-02 -2.317281564854498932e-01 -8.380044749913725388e-01 9.051946654476876741e-01 3.984903356119161577e-01 1.477432572706828262e-01
-1.374364761673731346e-02 1.173725729227493991e-01 -7.490472364469974442e-01 8.271236791531840771e-01 -3.851109125504322273e-01 -4.093360531625256926e-01
-5.142447034690401930e-02 -2.042052154675695064e-01 -7.343462015203119364e-01 9.903894445749681363e-01 -2.222861942512188368e-02 -1.365087416722435831e-01
-6.109025926283776636e-02 -5.214883470941695381e-02 -7.834664928497900860e-01 9.382692501958296294e-01 -3.976356434591973854e-02 -3.436126788805431986e-01
1.053964283483870557e-01 2.068581493223464740e-01 -6.398636129584037713e-01 4.506017880902230544e-01 -6.426187025829545041e-01 -6.196767154416036316e-01
-2.835280947019085465e-02 -1.375901231933196467e-01 -6.216504572481199586e-01 9.598630924493567473e-01 5.637759438391441724e-02 -2.747442640075323794e-01
4.450853968636651892e-02 1.318778443836849112e-01 -6.469397194026583753e-01 7.894518942694516150e-01 -3.062459418762929486e-01 -5.319578270113869412e-01
9.228994326906245910e-03 1.280650877102507967e-01 -7.125992690071957236e-01 8.137342468357703362e-01 -4.546663063024146689e-01 -3.620982262314199618e-01
-5.356874356963621520e-02 -1.727260563715141972e-01 -7.712923737342463060e-01 9.906183701697720556e-01 -1.013537489997237695e-01 9.166603649054157199e-02
2.573508235195399660e-02 2.176541685842999299e-02 -5.828946626708371159e-01 8.633991078077759562e-01 -3.552552829553648484e-01 -3.582396747556583771e-01
4.178899825014702890e-02 1.651370973807215342e-02 -5.399184688151779099e-01 8.844351674626832471e-01 -2.992788361260960706e-01 -3.580595101407930692e-01
6.010810925176333919e-02 7.231265590241807428e-02 -5.402883018698718676e-01 8.886525460009017108e-01 -3.328359723947039162e-01 -3.154629423025580581e-01
-3.880052625580589221e-02 7.643915257429098609e-02 -7.779160973681769065e-01 9.215622364121947019e-01 -1.987294701454628554e-01 -3.335110824465325474e-01
6.334852880872629544e-02 1.401493304492167913e-01 -6.275025648363780073e-01 6.835746023988407138e-01 -3.172074917864270982e-01 -6.573470697506991200e-01
-5.283362219523968922e-02 -5.796097445081622307e-02 -7.603808152634068396e-01 9.359688747392239661e-01 -7.513498726108615300e-02 -3.439723814620400666e-01
-3.383559767301087817e-02 -1.264428392165747317e-01 -6.402043940106244557e-01 9.714813845257992408e-01 -1.530322231960696937e-02 -2.366214929089767161e-01
-3.695564758923008345e-03 -6.522401582024346667e-02 -5.660649604918851496e-01 8.779015497022846226e-01 -3.212947162915842370e-01 -3.550472846163416629e-01
-4.686996620094521088e-02 -1.218459190947430576e-01 -7.152882494530877766e-01 9.901673824214055619e-01 -1.088345192147198576e-01 -8.788402708139152197e-02
-4.250430727372468687e-02 -1.911802685459400575e-01 -6.905907818425642830e-01 9.689807659665330419e-01 3.989230898683476800e-02 -2.438952210901427498e-01
-6.846887169758866798e-02 -8.730113781157977648e-02 -8.025799268460872549e-01 9.612480297253860329e-01 1.675083238376950598e-02 -2.751756438413733297e-01
6.783712747666718890e-02 1.828816377640698765e-01 -6.525473953251789139e-01 6.678122402708678296e-01 -5.165809708199156081e-01 -5.358833010377895834e-01
-1.901251974208788623e-02 -3.662405151054538843e-02 -6.431837531475839143e-01 9.270037736127064720e-01 -3.170123689400132228e-01 -2.004174684174087895e-01
-4.995427811768398535e-02 -2.101891946221519925e-01 -7.253965084299841548e-01 9.850671849137682123e-01 -1.756421842708493983e-02 -1.712721210153879681e-01
-7.740578845318272106e-04 4.306993721218482785e-03 -6.328062592024611410e-01 8.860245093756889956e-01 -3.712450104379430016e-01 -2.777367656802049445e-01
-2.846074939173163024e-02 1.065948934041915791e-01 -7.710838492232199304e-01 8.713206344116013469e-01 -3.033880245402604259e-01 -3.856890698660290773e-01
-3.532972040142919046e-02 -9.408325854073837369e-02 -6.549390628021097838e-01 9.714359452690554120e-01 -1.653612129724528756e-01 -1.701995108203777363e-01
4.403597026453551916e-02 9.411124366349966908e-02 -6.141177305229967853e-01 8.726812435308840543e-01 -4.034090591034084072e-01 -2.751155724830799953e-01
8.166268969976009373e-02 1.353246981621866463e-01 -5.725657158216167497e-01 7.049995405748701316e-01 -6.207613103466503857e-01 -3.429738231497144740e-01
-4.865199774612508771e-02 -4.799828565063312541e-02 -7.511311910518339019e-01 9.346911624694873577e-01 -9.327480823025385837e-02 -3.430047243859005168e-01
-4.245707814245552186e-02 -9.358251861540607675e-02 -7.124017772552253547e-01 9.846107758969091517e-01 -1.657413154889208762e-01 -5.542054066579060051e-02
-3.348186879339034444e-02 -1.730957953326942855e-01 -6.520660457232104745e-01 9.581386091990867770e-01 9.613348139056404618e-02 -2.696827011837608645e-01
9.066813145895726012e-02 1.906574378761702049e-01 -6.357454399238809950e-01 5.192288318546617321e-01 -5.827599927456694751e-01 -6.251337545085134950e-01
-4.908818370116914236e-03 -8.108936578964696463e-04 -6.396776906305963184e-01 8.956504891122415435e-01 -3.648274594853677111e-01 -2.543838166205840134e-01
-2.741727695493778594e-02 7.308430743697062748e-02 -7.457407882224058593e-01 9.013656836661740890e-01 -2.265338084550871101e-01 -3.690831043760258168e-01
5.203188228585454295e-02 9.108352770459152148e-02 -5.857556497342178981e-01 8.706134485623779895e-01 -3.895374630286292383e-01 -3.004875839024679363e-01
1.393588274451850947e-02 9.005839225545829441e-02 -6.724318216513845980e-01 8.313075700443204319e-01 -2.519970327924485609e-01 -4.954040971275962546e-01
-5.489536689779211942e-02 -4.753738724119683373e-02 -7.682460905392700656e-01 9.351801706343471077e-01 -7.554965093098439666e-02 -3.460206622392947295e-01
-4.134064064562409380e-02 -9.428172894825542771e-02 -6.975176616379011874e-01 9.785651233421016615e-01 -1.785747157989135692e-01 -1.025737308271197079e-01
1.004663349853100740e-02 -2.116080354765912178e-02 -5.760551035377180495e-01 8.350922090348013027e-01 -3.799056735884626668e-01 -3.978601281665102851e-01
-2.840777085196280471e-02 -1.359694134733866744e-01 -6.215099035828013374e-01 9.598630924493567473e-01 5.637759438391441724e-02 -2.747442640075323794e-01
-1.113655992169327105e-02 2.671198636137281368e-02 -6.872306956028609859e-01 8.658371441728384132e-01 -1.833510020530931262e-01 -4.655195482648930572e-01
-3.836297448235079233e-02 -7.579213274707732872e-02 -7.093661669969543171e-01 9.726221583605658694e-01 -2.306923838432629881e-01 -2.805639147764546482e-02
1.968699731004966980e-01 2.093281469097535985e-01 -6.048750814824290778e-01 9.117525089731889909e-02 -9.735632111205139161e-01 -2.094319640755074874e-01
-1.997212225232114155e-02 2.629273006244589247e-02 -7.049131589529514796e-01 8.930020838301349073e-01 -1.683244967906633860e-01 -4.173896765077048654e-01
-1.434421336464137414e-02 -4.791394948030564677e-03 -6.773032258341236123e-01 9.259547908631522439e-01 -3.662660027256346984e-01 -9.196162528447078544e-02
-6.110124049340210500e-02 -4.084228485993806473e-02 -7.855709288197687545e-01 9.275676518433594309e-01 -6.547757707521885406e-02 -3.678735355446966504e-01
5.328191484228372160e-02 1.737298560565941896e-01 -6.645569574589974549e-01 7.910066377235104307e-01 -4.021667881042168546e-01 -4.610535474576515358e-01
-3.248658991138506785e-02 -1.626730376053116822e-01 -6.445323506452319551e-01 9.593969039010376010e-01 1.018449720219903737e-01 -2.630307633318638705e-01
1.366761606378395222e-01 1.848686380321078460e-01 -5.859342194499619350e-01 3.938706320320416454e-01 -8.309890397717796251e-01 -3.928398414135914063e-01
-3.537664107405661534e-02 -6.503246641714645337e-02 -7.045539331659784743e-01 9.656437263725624609e-01 -2.566417767770150515e-01 -4.083126412503633451e-02
1.008465425700947604e-01 1.499204579615441013e-01 -5.625268120564166363e-01 6.441845337498817159e-01 -6.768863042813285658e-01 -3.561617856449680874e-01
-4.297757664590515225e-02 -1.567660182284473236e-01 -6.832097212748788895e-01 9.702441428530105272e-01 7.309935592628134804e-02 -2.308306466277596780e-01
8.350080458669653649e-02 1.561526946074354438e-01 -6.132029373872989186e-01 7.098000762924981943e-01 -6.723256200250045111e-01 -2.101478345193134034e-01
-3.646481760880113110e-02 -8.768599077196444214e-02 -6.669960374947241366e-01 9.688893013626297401e-01 -1.670065500567466665e-01 -1.826535900090073550e-01
3.424674409242840084e-03 1.732716990152063236e-02 -6.371416645368392917e-01 8.831687455997069280e-01 -3.784590885703034147e-01 -2.770950830931063757e-01
-4.146768896783096375e-02 -1.365846348333516619e-02 -7.420089664654978545e-01 9.286036125605587888e-01 -1.099766873154477548e-01 -3.544015504856036225e-01
-2.082005831669355225e-02 -2.298303750935137141e-02 -6.777424512890231068e-01 9.389841079847000005e-01 -3.161410493579552838e-01 -1.355126631094981937e-01
7.080365931106950839e-02 1.113538983227842921e-01 -5.601055576275679737e-01 8.209422404192219247e-01 -4.671215318181959342e-01 -3.284072356195745779e-01
-6.625046014582733345e-02 -1.698359091350045147e-01 -8.396644684171387096e-01 9.940212801100365425e-01 8.482621387327894669e-02 6.874742270317477089e-02
-3.417278455056294711e-02 -1.542679944512138634e-01 -6.475144497149989409e-01 9.635489573511787365e-01 8.755695340839581009e-02 -2.527987078631859230e-01
-6.627315730528104531e-04 -4.970210910965475182e-02 -5.726306593997968486e-01 8.788714746499390884e-01 -3.241344364377643505e-01 -3.500311388459810824e-01
-6.061623189766499054e-02 2.918482420554805931e-02 -8.066064603666611710e-01 8.935758803943091300e-01 -2.048463641721620099e-01 -3.994497628776130238e-01
1.179799694412883293e-01 1.718331198425253337e-01 -5.808907827757494591e-01 5.046342944347319559e-01 -7.827514089926409513e-01 -3.642038723028564462e-01
-1.700334269478344373e-02 1.053397170992497467e-01 -7.442193821350239213e-01 8.418618108807208733e-01 -3.560634951782528645e-01 -4.055705595603307789e-01
2.429359774765846303e-02 -1.239148978292074418e-02 -5.546806926255845038e-01 8.310520340839856468e-01 -3.755498975159890507e-01 -4.102618567702828734e-01
-2.099241060251228440e-03 -6.615885095246012981e-02 -5.612858609941431265e-01 8.763457701602390681e-01 -3.220825609819518154e-01 -3.581632519306867657e-01
-4.495079889220683633e-02 -1.355953418438675673e-01 -6.926566236813445077e-01 9.863660086352132872e-01 -2.643939414483510372e-02 -1.624286164636407070e-01
-3.327349592030387493e-02 8.088998462574841300e-03 -7.288719779668916265e-01 9.180240935660360924e-01 -1.473909043811227060e-01 -3.681136848012749319e-01
6.768100655796761844e-02 1.238419053508008488e-01 -5.880863307719468303e-01 8.189010563873805326e-01 -4.966378693855769688e-01 -2.876662763338563855e-01
-5.557853396909583771e-02 -1.442376673601419856e-01 -7.666206547672473892e-01 9.343173879626056610e-01 9.145381141013805837e-02 -3.445101144078245858e-01
8.494196666844508470e-02 1.192200580807342147e-01 -5.387372825156059308e-01 7.818332151559819199e-01 -5.241752598199672653e-01 -3.376049772611920408e-01
-2.389728406046924894e-02 -6.019614815872246366e-02 -6.338728636306670827e-01 9.421296369544547300e-01 -2.601802621266177673e-01 -2.114189640779458867e-01
5.295554111674004305e-02 9.983788651904293432e-02 -5.948536567215374493e-01 8.764376142333626385e-01 -3.993013255482775747e-01 -2.691013931073563681e-01
3.363844245035398084e-02 4.367554750706799382e-02 -5.846628743591953947e-01 8.764073051713178186e-01 -3.381699103751769075e-01 -3.428576193687308260e-01
-4.157970814412075000e-02 -1.162394770170163821e-01 -6.769020801210456906e-01 9.856180813882219338e-01 -7.374312146045741700e-02 -1.520491686194576086e-01
1.169158137229649088e-03 1.135973222489771173e-01 -7.141406223393719221e-01 8.398119894814396469e-01 -3.940877660559608531e-01 -3.733773626885387165e-01
2.311569778541932088e-02 1.042751497854462334e-01 -6.649714575146328244e-01 8.164987140509153418e-01 -2.801629958340265958e-01 -5.048153580453993428e-01
-2.909853680954174043e-02 -1.301360351785913472e-01 -6.232783490602407106e-01 9.624904074861050374e-01 3.160190880210096004e-02 -2.694689868190680571e-01
5.656207540543305851e-02 9.058887333022136445e-02 -5.714190676167300031e-01 8.788618784114581306e-01 -3.765545748405236814e-01 -2.929307953113769458e-01
2.267044979942714478e-02 1.099887314915473230e-01 -6.692448478349262153e-01 8.285998501110185543e-01 -3.074225402846436084e-01 -4.678821113495728601e-01
-3.766075252477724122e-02 -7.367243061183020858e-02 -7.042662521862262937e-01 9.656439936984091421e-01 -2.566541896612999363e-01 -4.074683255773651341e-02
-7.245107164293049240e-02 -6.059062779163457840e-02 -8.149164773751261803e-01 9.526360036514458507e-01 2.854713232178607979e-02 -3.027700543039301140e-01
-3.850883848411330856e-02 -8.426008787469708994e-02 -6.866939690723521394e-01 9.801807123382776377e-01 -1.778102021259277965e-01 -8.734588244424154602e-02
-3.566852350919015591e-02 -1.785787788957386713e-01 -6.618154026209021046e-01 9.610101194305548100e-01 9.374748474522688613e-02 -2.601364247006059949e-01
-6.101485564595704458e-02 -1.278938619684065470e-01 -7.795590020332828773e-01 9.561706713708347793e-01 4.823565718587929235e-02 -2.888095714932130131e-01
6.312033192989702224e-02 1.923157012892441897e-01 -6.682510518720340409e-01 6.819311969396020245e-01 -5.403257576527608075e-01 -4.929684759266982907e-01
-2.612147800950098773e-03 2.176523502461825618e-02 -6.701332140174605101e-01 9.114128861533620229e-01 -4.083861005725506477e-01 -5.047121766655669056e-02
-3.667099340997101442e-02 -1.804531694043020607e-01 -6.661942708089848564e-01 9.610101194305548100e-01 9.374748474522688613e-02 -2.601364247006059949e-01
-5.308049296419071333e-02 -1.478932367848106721e-01 -7.620013894331996163e-01 8.709037368124180611e-01 1.684260474852904421e-01 -4.616918319990608310e-01
1.208264046378274836e-01 2.097690664433718155e-01 -6.327045537293746191e-01 3.959168213338060127e-01 -6.567821392231146804e-01 -6.417843034715356998e-01
4.528226201049020960e-02 9.844565319021551797e-02 -6.165201498233515709e-01 8.731442202970578492e-01 -4.048714008474927906e-01 -2.714743437926162573e-01
1.659653508374832609e-01 2.056751164070468874e-01 -6.062559532989573174e-01 1.273461797174009202e-01 -9.885822589560334661e-01 -8.054854305801843750e-02
-5.008827266268556233e-02 -1.615864296645450893e-01 -7.245940132746967466e-01 9.926669835153698607e-01 -2.157415830963367587e-02 -1.189403864619886925e-01
-5.738842076738372849e-02 -1.652871869746290190e-01 -7.787213144412128418e-01 9.283900752840795745e-01 1.303191614452214597e-01 -3.480068738893459801e-01
-4.463857476558558829e-02 -2.041682102825299883e-01 -7.009124108590774060e-01 9.660951092495424497e-01 4.462564122821090218e-02 -2.543005938433599011e-01
-5.524966002616252259e-02 -2.268216402217873573e-01 -7.747569304569328352e-01 9.998984208343346669e-01 -1.076276548366212303e-02 -9.344029759551718620e-03
-5.392416947034463226e-02 -2.135933581545394200e-01 -7.967568187689185732e-01 9.642360959385279928e-01 -1.047876645071391527e-01 2.434508095208663125e-01
1.947202248229203958e-01 2.207755680055645819e-01 -6.183817592184391865e-01 -9.498580745432879877e-03 -8.365775288896983852e-01 -5.477662047996647576e-01
-6.434304636977353220e-02 -8.894768918902203059e-02 -7.890323894407322847e-01 9.539546157202725141e-01 -1.701090123773151691e-02 -2.994682293417238461e-01
2.464840556802297064e-02 1.287836067603130852e-01 -6.792560103455812515e-01 8.363558185297488290e-01 -3.460417563600428070e-01 -4.251635540197332142e-01
6.920516982825467012e-02 1.793487050906365787e-01 -6.477243393728482346e-01 6.510193723088063544e-01 -4.855172987357186387e-01 -5.834781311300525353e-01
5.951031910711902795e-02 8.969096372205075107e-02 -5.616920072553400756e-01 8.833229726710842833e-01 -3.607878365514751162e-01 -2.992869241180194928e-01
4.580321988762641253e-03 9.941346163534776209e-03 -6.241499465385890177e-01 8.746194099163286939e-01 -3.908767947768134188e-01 -2.868034502976172240e-01
9.112575846973086646e-03 3.607283868443910552e-02 -6.446946582331709585e-01 8.850187931939212937e-01 -3.806026045475731090e-01 -2.681107851340165382e-01
3.896318440851117421e-02 1.141167950088738392e-01 -6.455406439624951087e-01 7.917930706873347324e-01 -2.680760349318769276e-01 -5.488159734434890913e-01
-3.715990327121010406e-02 -8.925397891756689517e-02 -6.695089410719197165e-01 9.711532643814180243e-01 -1.968661655291401580e-01 -1.345550071575514206e-01
3.435089171902274557e-02 8.384109316655434518e-02 -6.300898845599828269e-01 8.733189403205160461e-01 -3.980522272744700385e-01 -2.808352770562924650e-01
-4.079321125355116207e-02 -1.313651010450678225e-01 -6.699825569945540016e-01 9.769410423301559954e-01 -1.080893910933712447e-02 -2.132354722981122386e-01
-2.089482093068161656e-02 -1.098469981956596425e-02 -6.932982450530146279e-01 8.838918459273470418e-01 -1.260580600543245722e-01 -4.503826930494634895e-01
-3.815146066533938590e-02 -1.222863272003735791e-01 -6.574955902699244348e-01 9.804529927126250932e-01 -1.056295883124269003e-02 -1.964697253563166546e-01
-4.631901390493169124e-02 -1.119107755840980795e-01 -7.246677493380649926e-01 9.887647697770275412e-01 -1.364806302970114904e-01 -6.096939889413535707e-02
-5.170385194953709684e-02 -2.224788164973292015e-01 -7.343618541015901613e-01 9.853114676265374294e-01 -1.523645531543121011e-02 -1.700857495296408395e-01
2.368886542830247934e-03 1.222170381787631432e-01 -7.206727511442330147e-01 8.137342468357703362e-01 -4.546663063024146689e-01 -3.620982262314199618e-01
1.558721924626192967e-01 2.016051692918123250e-01 -6.026788550704799130e-01 3.154709236161296615e-01 -8.259718253377216213e-01 -4.671708896122040433e-01
-6.560818700229834564e-03 -1.791127153989299781e-02 -6.218055695587796361e-01 8.851637143005608444e-01 -3.676197230117717596e-01 -2.852033277126740929e-01
-6.633400242769987853e-02 -1.446529311643449389e-01 -8.029353885994939821e-01 9.839908623485060790e-01 4.927062212260472501e-02 -1.712728484328289169e-01
-6.198313809905992011e-02 -1.852976539493931263e-01 -8.015259815121424936e-01 9.549857302340514220e-01 1.326053391348795130e-01 -2.653640500939402069e-01
8.238218599631291772e-02 1.916006746106964920e-01 -6.446383990850155232e-01 5.998208157354726344e-01 -5.384801241995030852e-01 -5.918227309359788135e-01
-4.094101252560391341e-02 -1.352118029922561027e-01 -6.704647204946035943e-01 9.769410423301559954e-01 -1.080893910933712447e-02 -2.132354722981122386e-01
-1.415384284699510581e-02 -1.819561024403272900e-02 -6.496016185807633736e-01 9.135929925239877347e-01 -3.530422401713222968e-01 -2.017647656700233827e-01
2.522561109685763081e-01 2.137656005325720421e-01 -6.094183598012608005e-01 -9.022976270025621914e-02 -8.748949600033906204e-01 -4.758333730243402560e-01
-7.074782204721351275e-02 -5.990525081924867601e-02 -8.094927493285033471e-01 9.526360036514458507e-01 2.854713232178607979e-02 -3.027700543039301140e-01
-2.096738510618492007e-02 -1.057719373498580834e-01 -5.969408770375204121e-01 9.492931577767513840e-01 -8.624566975772847421e-02 -3.023312505287613083e-01
-2.751767715611723800e-02 -5.393412306045233806e-02 -6.596680418382588895e-01 9.440189976246859960e-01 -2.793684444763443464e-01 -1.754463004869311060e-01
-2.918253737865250663e-02 -6.440980624032131840e-02 -6.535060206615991296e-01 9.566979583272559040e-01 -2.158141914611814149e-01 -1.953285726575005599e-01
-5.269570459703424442e-02 -1.579289024549154208e-01 -7.604207504864569644e-01 9.921743467349665169e-01 -1.075754336058929866e-01 6.338447574561299758e-02
-7.159319111216963516e-02 -5.570655201401466389e-02 -8.120148219630660691e-01 9.450165671555402769e-01 -1.568953399272236121e-02 -3.266458729643608727e-01
1.551226251102821169e-02 5.915664807107933604e-02 -6.570506256924180111e-01 7.443405800857056942e-01 -1.199462784861545644e-01 -6.569398687208723997e-01
7.837892070507650882e-03 9.375427151699598782e-02 -6.852829518773667639e-01 8.373003133385074070e-01 -2.794812911679088741e-01 -4.699131762042383920e-01
-6.578959389711190597e-02 -1.628885817736977493e-01 -8.071664105004956458e-01 9.718486806569646141e-01 9.103229870512025146e-02 -2.173091403916980469e-01
1.483266265491319791e-01 1.951025189433862050e-01 -5.961884666890781004e-01 3.743192948044581914e-01 -8.396322789450159085e-01 -3.935768053260916277e-01
3.705905673125182292e-02 7.672801414775778928e-02 -6.122169912065705821e-01 8.799446811456778095e-01 -3.807410935523049544e-01 -2.841365478146491985e-01
-2.547310276335862031e-02 -1.336408810070179309e-01 -6.107793550984189634e-01 9.598630924493567473e-01 5.637759438391441724e-02 -2.747442640075323794e-01
-6.163563391079810577e-02 -1.448837326600696529e-01 -7.848757926144142028e-01 9.581546966477840765e-01 7.937793841745920120e-02 -2.750249446584561719e-01
-2.844794014916329425e-02 5.396579277947410186e-02 -7.377037071316238093e-01 9.119489810077696657e-01 -1.898556806282575837e-01 -3.637359984550218028e-01
7.305209668792456146e-02 2.040845586313493332e-01 -6.670691993770103689e-01 6.397056090672630368e-01 -5.570238544159583638e-01 -5.296236015695214849e-01
1.440244259722951725e-02 1.040864088766528875e-02 -5.984322426453732024e-01 8.550139489909184265e-01 -3.761715757320459042e-01 -3.569959280471204921e-01
3.768037068231652742e-02 2.038180839510407918e-02 -5.532047888951128201e-01 8.799834322928117292e-01 -3.119500095053516775e-01 -3.582127167756239960e-01
1.075181346632951146e-01 1.708527660980674323e-01 -5.945838911791583303e-01 5.806009421390830871e-01 -7.413738062292123399e-01 -3.365522625453870043e-01
-1.460168574499294027e-02 1.136115201749251513e-01 -7.472149001540494551e-01 8.295419959995771197e-01 -3.983845452322453684e-01 -3.913436226555054298e-01
-7.039509663880615109e-02 -1.216675355121193680e-01 -8.178022308309952360e-01 9.881835336910941292e-01 8.093844720996994091e-02 -1.301624811726526942e-01
-7.515824059425335602e-02 -8.925566699827591766e-02 -8.314080793155700366e-01 9.791727254029101157e-01 5.029253087625126101e-02 -1.967013857732031190e-01
-1.230994530774299871e-02 1.058531856001105609e-01 -7.349278678829995748e-01 8.418618108807208733e-01 -3.560634951782528645e-01 -4.055705595603307789e-01
-5.514841075616436911e-02 -2.273613564632999684e-01 -7.709045137490659894e-01 9.989129752455906397e-01 2.071642737793177522e-02 -4.175760436970372275e-02
-1.192090540725699276e-02 7.306634944132296694e-02 -7.106380472019596661e-01 8.705626850733313438e-01 -2.376772804256873095e-01 -4.308481423046416903e-01
3.225887417724989520e-02 1.253017209731741299e-01 -6.625350691468120390e-01 8.241968609190132300e-01 -3.095416033865138750e-01 -4.742188632099643142e-01
-2.238488040404670865e-02 -8.083108486635642853e-02 -6.115214749761752611e-01 9.346833021375680062e-01 -2.054890266538820787e-01 -2.900713440346216476e-01
-7.407184303318227470e-02 -9.817684829941550340e-02 -8.293520820708287777e-01 9.806036846672162577e-01 8.733920038956094478e-02 -1.754658875462426770e-01
1.532261759040192683e-01 2.022340046783837886e-01 -6.065246204668562902e-01 4.369228904089066390e-01 -8.773018747055451039e-01 -1.985945831961755115e-01
2.670408944596212170e-02 -1.890844350389797937e-02 -5.437391117723020528e-01 8.292979567827742926e-01 -3.830423475384286403e-01 -4.068703219309136032e-01
-5.166124515300326431e-02 -1.541013486781739328e-01 -7.417056782932963666e-01 9.947072286680574971e-01 -4.173408899538143951e-02 -9.389246535925133141e-02
4.646413083683386541e-02 1.742248429373312035e-01 -6.780489361014089278e-01 8.131604337540908611e-01 -4.025458799593644721e-01 -4.203890144908639104e-01
-6.465675342045337781e-02 -1.901234116224715387e-01 -8.160333406237648690e-01 9.927789096387614753e-01 8.701519249361279462e-02 -8.257356024643355830e-02
-3.545833644205461516e-02 -7.765217286834472099e-02 -6.741248643357646841e-01 9.698743050777438590e-01 -1.978143058459264636e-01 -1.421736007585717998e-01
-5.966746342423562971e-02 -2.243040596913376816e-01 -8.370838251956326248e-01 9.510873630222903552e-01 2.882813027774964176e-01 1.110257554273577918e-01
-6.058328247509647130e-02 -9.249916029713568799e-02 -7.774525126861842050e-01 9.488380381505404637e-01 -2.916141307893397108e-02 -3.144137232149277761e-01
-5.405689494944174861e-02 -2.372191999556946262e-01 -7.570241795223039416e-01 9.965015021634321402e-01 5.325379949941199537e-02 -6.441109395825848905e-02
2.134259691309490226e-01 2.159791991646674014e-01 -6.124961442579950344e-01 5.203624194937089484e-03 -6.616704457808232354e-01 -7.497767290836949705e-01
-3.869778143836587192e-02 -1.104167708500366357e-01 -6.629557405941135517e-01 9.731001403728647414e-01 -5.998395116320628245e-02 -2.224366031235897601e-01
-1.917223087069156243e-02 -1.662091210330482113e-02 -6.835632454294755522e-01 9.355585295533450640e-01 -3.502707368259412313e-01 -4.517353985902793079e-02
6.937855846003819493e-02 2.008234359929506607e-01 -6.682193754938803298e-01 6.985750176966506464e-01 -5.311810135739589711e-01 -4.794159733140582191e-01
-4.386806537357253177e-02 -6.523855671894661715e-03 -7.507640052524923169e-01 9.290378601573825446e-01 -1.181617181175829145e-01 -3.506087032087091826e-01
-2.295655171299419359e-02 -9.097384692364693382e-02 -6.088004659785357653e-01 9.478265087033675984e-01 -1.119654212883326588e-01 -2.984772249852762904e-01
-4.843451733199033438e-02 -1.433457959183291330e-01 -7.157738133538830150e-01 9.926551927793302310e-01 -3.701897595952851477e-02 -1.151749263821709168e-01
4.204871515713808072e-02 1.475604884564078907e-02 -5.378078323122637006e-01 8.844351674626832471e-01 -2.992788361260960706e-01 -3.580595101407930692e-01
1.939515704612237643e-05 1.265704659560319412e-01 -7.313158069441784148e-01 7.915860755678014726e-01 -4.774796339595792083e-01 -3.813196613354644660e-01
-5.500363910949618990e-02 -2.032954771702261132e-01 -7.750354350485706423e-01 9.991173639267523221e-01 -3.263990214093774600e-02 -2.644106443181727314e-02
1.967955159923258715e-02 3.698513054699957558e-02 -6.143366474872059557e-01 8.730568766380206736e-01 -3.699663737355088911e-01 -3.176422082470489738e-01
-2.813048122173699914e-02 7.284592211970637721e-02 -7.473362433130229521e-01 9.013656836661740890e-01 -2.265338084550871101e-01 -3.690831043760258168e-01
2.240522442548000329e-02 1.562533088330980702e-01 -7.184361861932515581e-01 8.511412490459386859e-01 -4.452113727470843885e-01 -2.781104236614951875e-01
-9.706859019226410368e-03 4.809077001746871194e-02 -6.937704465030578582e-01 8.660298362982257192e-01 -1.956289451549723946e-01 -4.601321967204872188e-01
-4.727318712129877781e-02 -6.210728879017038406e-02 -7.439629774799850770e-01 9.395540414337213431e-01 -7.748695661054440242e-02 -3.335175779187606881e-01
4.116192873795572471e-02 1.611175909016526742e-01 -6.750695337493044512e-01 8.285316910296047777e-01 -3.761191092904964672e-01 -4.148127922161357617e-01
-6.071831140114322678e-02 -1.587789945702213212e-01 -7.859917891225247644e-01 9.440705297822785669e-01 1.032631807539822061e-01 -3.131573890189692788e-01
-1.148200674753491711e-02 -1.780668259646533969e-02 -6.391944227254862110e-01 9.124267480148224863e-01 -3.418245892893895799e-01 -2.250186207055661636e-01
2.281553184086580754e-02 -1.894211956660357687e-02 -5.516332081108629160e-01 8.292979567827742926e-01 -3.830423475384286403e-01 -4.068703219309136032e-01
-5.189728813060324325e-02 -2.501345813806248874e-01 -7.933101157669720793e-01 9.321809654612143170e-01 3.589142735668746642e-01 4.710829928750414480e-02
-6.185415838756967710e-02 -1.534951217627104902e-01 -7.881225329009663438e-01 9.581546966477840765e-01 7.937793841745920120e-02 -2.750249446584561719e-01
2.972178758286404820e-02 1.196541414342817966e-01 -6.631772972918513753e-01 8.231749164302776256e-01 -3.161788177573503500e-01 -4.716079008684752605e-01
-6.765062147189611352e-02 -8.801599007713857559e-02 -7.997651172358434257e-01 9.612480297253860329e-01 1.675083238376950598e-02 -2.751756438413733297e-01
7.139074079202192835e-02 2.032919427699892978e-01 -6.682422451802162433e-01 6.397056090672630368e-01 -5.570238544159583638e-01 -5.296236015695214849e-01
-2.444438778979499821e-02 -4.025533366637829014e-02 -6.653581675435891185e-01 9.460042644344115459e-01 -2.859025368773947529e-01 -1.527601750423782934e-01
-6.496972974389188249e-02 -1.904558845519774835e-01 -8.328393955330037901e-01 9.942535959940701495e-01 8.243797141620008706e-02 6.829178370523171504e-02
-3.379645145982144994e-02 4.207655062376304544e-02 -7.453853558489271780e-01 9.195193114449687899e-01 -1.728498885295258192e-01 -3.529973823063012883e-01
-5.397463784365800349e-02 -1.250808463159230333e-01 -7.583298301363882166e-01 9.436337392361326959e-01 3.772870995859164966e-02 -3.288341688755818670e-01
-3.543628954215006371e-02 -1.026721118542994610e-01 -6.503523209389516779e-01 9.670355981479185070e-01 -1.105362719709041958e-01 -2.293989635841275077e-01
-7.639270683697244740e-03 1.169230982359203280e-01 -7.360177380852915840e-01 8.195963773983446776e-01 -4.127458091761664893e-01 -3.973696958287356029e-01
2.097089528005595740e-02 1.651129227905729843e-02 -5.891665513294868095e-01 8.633991078077759562e-01 -3.552552829553648484e-01 -3.582396747556583771e-01
4.860471905180569624e-02 3.211263252392699413e-02 -5.349084560984131986e-01 9.033248443721204612e-01 -2.762765492878737073e-01 -3.281394426972611411e-01
-3.613935895143009780e-02 -1.097203600204979534e-01 -6.515467907146978987e-01 9.774681096898223398e-01 -5.870223395400489541e-02 -2.027563618439993109e-01
-4.996282366444299711e-02 -1.976114669574625948e-01 -7.252101680097086112e-01 9.829221457242465210e-01 3.212417307522057175e-02 -1.811962829339398839e-01
-5.081424457434841752e-02 -1.445260449743259179e-01 -7.378422307536738334e-01 9.936741171650562698e-01 -8.443056088093563172e-02 -7.404883027824626929e-02
5.079380589845124833e-02 8.518216043898386991e-02 -5.818781531227417148e-01 8.897050180653706120e-01 -3.559390391449955282e-01 -2.858887567601003932e-01
7.321921123242623730e-02 1.090608555789948086e-01 -5.504085124257963590e-01 8.282702952561405985e-01 -4.589463559007577187e-01 -3.214600447982934317e-01
-5.085223698537750386e-02 -2.520995937663637609e-01 -7.949402356774581957e-01 8.919122846457993026e-01 4.424208560412439817e-01 9.357490388797372327e-02
-5.849735364207864219e-02 -6.132355731027770707e-02 -7.752629206977611487e-01 9.399996216626405054e-01 -5.048554209149586774e-02 -3.374195034579663410e-01
-5.857129791468472122e-04 3.455559934713866178e-03 -6.310673149681159666e-01 8.860245093756889956e-01 -3.712450104379430016e-01 -2.777367656802049445e-01
1.850537162787963333e-02 1.034798213884173673e-01 -6.724093099073374935e-01 8.343884084983586025e-01 -2.931589036860557940e-01 -4.667481558112105411e-01
-5.284796014833329642e-02 -2.464398864693265745e-01 -7.967639209985372117e-01 9.683236260483704116e-01 2.313065968136900352e-01 9.405643788175679920e-02
4.330065264288352617e-02 2.095849685263660375e-02 -5.395984906338727738e-01 8.954309906086057591e-01 -2.774973139454060544e-01 -3.481358668835712877e-01
2.972070198641904581e-02 5.612951497593832162e-02 -6.085597497355678120e-01 8.795390052201980113e-01 -3.594165686602911469e-01 -3.118186467623875746e-01
7.767370712598786753e-02 1.626802488819019399e-01 -6.257031592250872354e-01 6.155638979097182162e-01 -4.416718490266137165e-01 -6.526921673864382045e-01
-7.393735461463624148e-02 -8.525557711216286139e-02 -8.243078095809006633e-01 9.791727254029101157e-01 5.029253087625126101e-02 -1.967013857732031190e-01
4.804883262175324576e-02 9.287763209848759471e-02 -6.002058593840760015e-01 8.845942924409901931e-01 -3.737526814928192609e-01 -2.789298672744657814e-01
-6.302189226736121253e-02 2.056154085890013472e-02 -8.080119683984952061e-01 9.023478988966778802e-01 -1.838646032144404530e-01 -3.898231355904199225e-01
5.155738069124580353e-02 1.534226598425918187e-01 -6.504201224682872873e-01 7.509143047972619556e-01 -3.864985127876673365e-01 -5.354872607856940858e-01
6.467274735145614462e-02 1.270206987505068663e-01 -6.027410464194363771e-01 8.063767879454012411e-01 -5.218028180296716556e-01 -2.783492320074744675e-01
-5.428661073026964240e-02 -1.558056399758020460e-01 -7.674569779430796546e-01 8.550078708311188436e-01 2.112890977897032840e-01 -4.736226957949228877e-01
-5.397189422578235751e-02 -1.788792219809557660e-01 -7.619770146564291968e-01 9.990153858131385345e-01 -2.510545213537484013e-02 -3.657834306941896291e-02
1.124222234300584350e-01 1.666946022887200174e-01 -5.775477304060655515e-01 5.046342944347319559e-01 -7.827514089926409513e-01 -3.642038723028564462e-01
2.313220151754132314e-01 2.120094078207260813e-01 -6.050176676185983204e-01 5.175445521407697619e-02 -9.332096772473209567e-01 -3.555856783638020602e-01
2.306018103747677767e-02 1.553317682747750172e-01 -7.150762855496658466e-01 8.521835118545191268e-01 -4.336475455246158739e-01 -2.928020976423748034e-01
-4.993298634202567726e-02 -1.409582335198731329e-01 -7.306704581566334511e-01 9.931549719607989379e-01 -7.293544300673175662e-02 -9.123389075862226028e-02
-4.298251820971759479e-02 -1.255457604274568539e-01 -6.820933330363813107e-01 9.857364854613452909e-01 -5.254323061316628490e-02 -1.598836769249650513e-01
-4.271591531126079505e-02 -1.345330481080108387e-01 -6.789153663273628236e-01 9.799910074620500344e-01 1.709746836757888508e-02 -1.983060812706854970e-01
-1.182717588406103498e-02 4.352676745843299388e-02 -6.958207413265201646e-01 8.660298362982257192e-01 -1.956289451549723946e-01 -4.601321967204872188e-01
-4.763849403472501104e-02 -1.990599933786539044e-01 -7.133512736882561267e-01 9.701760774468528581e-01 5.424326500780163318e-02 -2.362541998592442849e-01
-1.666067407832988456e-02 -2.161129818580762377e-02 -6.556978124363981308e-01 9.311418985469825937e-01 -3.151463755493972840e-01 -1.834598777618665355e-01
-1.447594363742423472e-02 6.288467474953499114e-02 -7.103721285833310972e-01 8.833264710494928007e-01 -2.109167595271626838e-01 -4.186268817142665966e-01
3.667272738449552094e-02 1.703091793729966941e-01 -6.960232233772251087e-01 8.639598933628184207e-01 -4.016252540393100978e-01 -3.037605273539780160e-01
6.347591647739571352e-02 7.584966275325912000e-02 -5.341558119796862014e-01 8.984788805563230785e-01 -3.240655504376839247e-01 -2.961709307372641931e-01
-4.579703143845838959e-02 -1.892144937361696921e-01 -7.037045420531817808e-01 9.746762422979334817e-01 3.421816683143018983e-02 -2.209871936531088432e-01
3.642437645878088097e-03 1.425678146360501719e-01 -7.454044730166009547e-01 7.677975667302194829e-01 -5.135386342031323936e-01 -3.830991617113453929e-01
3.360195739250480124e-02 5.610865602761841431e-02 -5.977101223607292901e-01 8.781764531885654090e-01 -3.564993239302401418e-01 -3.189268710887076530e-01
-2.004062009577809236e-02 -5.039000740284073354e-02 -6.289018668132916323e-01 9.228295370728387681e-01 -3.058766650702607892e-01 -2.341476270890343048e-01
9.343309358692789002e-02 1.846137790033526849e-01 -6.279976708860471879e-01 5.138976659498328825e-01 -5.693387864277352772e-01 -6.416872565356953606e-01
-1.917876397721820017e-02 -7.097831924653034974e-02 -6.080022877162999384e-01 9.403100768489079941e-01 -2.025742145090085877e-01 -2.734605035328847022e-01
6.327805192985283544e-02 1.702549096132990325e-01 -6.474330537341405067e-01 7.041129738071723043e-01 -4.622181673955834125e-01 -5.390540657910751765e-01
7.329212304954417501e-02 1.878130548407569711e-01 -6.505705137465660481e-01 6.535681749565370735e-01 -5.093675037170003472e-01 -5.598154935700625501e-01
-3.984446837200367880e-02 -8.874022537314692205e-02 -6.925619560505427152e-01 9.801807123382776377e-01 -1.778102021259277965e-01 -8.734588244424154602e-02
-4.964633123019601690e-02 -1.438744580256275801e-02 -7.632573887013499592e-01 9.196212118415642012e-01 -1.217919352590673410e-01 -3.734481908336205191e-01
-9.936428526481308823e-03 -7.070858680189114065e-02 -5.795738940681561813e-01 9.162001355577101824e-01 -2.428012626657118367e-01 -3.187865405753035897e-01
-5.254143915607860371e-02 -2.223046401518642967e-01 -7.402614350626102180e-01 9.909338388969899380e-01 -3.733035488051754391e-02 -1.290603406681118948e-01
-1.817834453521963850e-02 -3.339085902550585627e-02 -6.444395241454305978e-01 9.270037736127064720e-01 -3.170123689400132228e-01 -2.004174684174087895e-01
-4.953179885265566323e-02 -2.237579122762536621e-01 -7.211626778010600258e-01 9.821855106485903875e-01 -3.077648997146041968e-02 -1.853764557245727862e-01
-4.860204792721049133e-02 -1.527098335659727857e-01 -7.142079606554484483e-01 9.926551927793302310e-01 -3.701897595952851477e-02 -1.151749263821709168e-01
-4.275134166254111745e-02 -1.325747386992189025e-02 -7.455355711447994027e-01 9.290378601573825446e-01 -1.181617181175829145e-01 -3.506087032087091826e-01
-5.918720614989205625e-02 -4.036267536690961270e-03 -7.895729030364373457e-01 9.147335746241487264e-01 -1.171496016877497520e-01 -3.867020277678001050e-01
7.632396202107681604e-02 1.925086979418878519e-01 -6.517214468473051525e-01 5.977158178595128879e-01 -5.755752866017498359e-01 -5.580760616025802756e-01
-1.190821050976032490e-02 7.679725634058044703e-02 -7.126705501079750871e-01 8.705626850733313438e-01 -2.376772804256873095e-01 -4.308481423046416903e-01
2.832031909922670329e-02 5.899430887172963517e-02 -6.158118681927297056e-01 8.795390052201980113e-01 -3.594165686602911469e-01 -3.118186467623875746e-01
6.212113268258622617e-02 1.731419359885901232e-01 -6.513007304232012462e-01 7.113211600589552930e-01 -4.378375986522581309e-01 -5.498367434600984760e-01
1.337104570835276384e-03 -3.837372053991867232e-02 -5.785640851277110697e-01 8.535553247491284301e-01 -3.674819974713756099e-01 -3.693240976796096087e-01
-6.649432727653264985e-02 -1.701797883510842158e-01 -8.359589393097932586e-01 9.920364799842760206e-01 9.947384700460336349e-02 7.725656051437937433e-02
8.233468853371053719e-02 1.252073986985127452e-01 -5.541188702987784875e-01 7.765356061877437543e-01 -5.328271930593856398e-01 -3.362850497109400871e-01
-4.041096128678210719e-02 -8.943725925325431148e-02 -6.970823455280895642e-01 9.785651233421016615e-01 -1.785747157989135692e-01 -1.025737308271197079e-01
-4.475684345422109578e-02 -1.649217242587032728e-01 -6.935998022769681581e-01 9.795700302260865744e-01 3.948028544089499797e-02 -1.971899159297183235e-01
2.611413667038829933e-01 2.164637563332575121e-01 -6.161737375816168649e-01 -1.138237437747758318e-01 -8.250491378570389278e-01 -5.534781616960607886e-01
-3.785473800245128806e-02 -8.981274142604139810e-02 -6.735528444289625716e-01 9.698743050777438590e-01 -1.978143058459264636e-01 -1.421736007585717998e-01
1.057598480648676113e-02 3.440538897371274440e-02 -6.375866284484603685e-01 8.841321573744199691e-01 -3.767735264781733040e-01 -2.763187254632865630e-01
-5.532891866595738423e-02 -9.651326278414874837e-02 -7.614723199662049025e-01 9.466876871960733242e-01 -2.281583354972824620e-02 -3.213438355574611549e-01
4.458770054418952078e-02 4.889231803707234231e-02 -5.609275427840597628e-01 8.961853519232192422e-01 -3.144118780076798902e-01 -3.130447028236369444e-01
3.170905994408046435e-02 1.234988744503018598e-01 -6.622861976739341516e-01 8.231749164302776256e-01 -3.161788177573503500e-01 -4.716079008684752605e-01
9.816405044122596124e-02 1.610251604608324560e-01 -5.896920935936577068e-01 6.454419483132437518e-01 -6.931992439916870863e-01 -3.207483429216082538e-01
-2.005527325089293336e-02 5.268348134002873162e-02 -7.171579057037105187e-01 8.892024044661693827e-01 -2.080067673804223416e-01 -4.074951148363987752e-01
-6.848683836769593747e-02 1.117782570355270580e-04 -8.124034385157079541e-01 9.094806520569638231e-01 -1.287318350633408492e-01 -3.953138729860928291e-01
-5.079942977635473755e-02 -1.021459487557325047e-01 -7.482600679651142395e-01 9.438475636820443659e-01 -2.460399160057461908e-03 -3.303720977435025685e-01
-1.284335758865643058e-02 5.982499072228317921e-02 -7.054037085798610107e-01 8.801271409844960703e-01 -2.044517783089486174e-01 -4.284573328217941568e-01
-6.573947404145383255e-02 -1.774122635945651616e-01 -8.377045054559028037e-01 9.940212801100365425e-01 8.482621387327894669e-02 6.874742270317477089e-02
-2.096121164723891480e-03 7.387917025514073588e-02 -6.920136426624844406e-01 8.477385869629030513e-01 -2.497856557395206345e-01 -4.679171020179944684e-01
7.994973019117050661e-02 1.497782100995909971e-01 -6.060390667818945643e-01 7.107290696465581314e-01 -6.517511980146807327e-01 -2.647348965394740739e-01
3.237432253307168800e-02 1.176334208141404519e-01 -6.575124718820359870e-01 8.111888265437620094e-01 -2.890767015455746880e-01 -5.083378289229368852e-01
6.129328298149279430e-02 6.729140818640262645e-02 -5.314128507616209252e-01 8.984788805563230785e-01 -3.240655504376839247e-01 -2.961709307372641931e-01
-3.941307825483880006e-02 -1.096926477785875181e-01 -6.672346048976092181e-01 9.809271792591616190e-01 -1.009712411060483678e-01 -1.660923762855136820e-01
-7.671707996937986163e-02 -6.675626735311679383e-02 -8.303709975321328374e-01 9.552612330614772551e-01 5.129370173662606974e-02 -2.912815352404270475e-01
-2.104080013083867856e-02 -6.139075261514870263e-02 -6.220799331340508553e-01 9.405411767779131571e-01 -2.310382431053269181e-01 -2.490052710446560014e-01
8.259085988350305108e-02 1.278137198793697638e-01 -5.576498683383454003e-01 7.663560856145008593e-01 -5.498900950046220482e-01 -3.321433929155105935e-01
7.925269718228573901e-02 1.173668785733268660e-01 -5.488127577920876021e-01 7.765356061877437543e-01 -5.328271930593856398e-01 -3.362850497109400871e-01
-8.465746920571054837e-03 4.411360870596836570e-02 -6.897023082105894209e-01 8.656806985088129069e-01 -2.117948297816563963e-01 -4.535855799152491707e-01
-3.067504163051940069e-02 -1.660356004859448453e-01 -6.392267594978239265e-01 9.593969039010376010e-01 1.018449720219903737e-01 -2.630307633318638705e-01
-3.529639328843540980e-02 -1.009342622473327344e-01 -6.505999714013730451e-01 9.670355981479185070e-01 -1.105362719709041958e-01 -2.293989635841275077e-01
-2.646508411501874436e-02 -4.153878325486675543e-02 -6.763573436689362950e-01 9.481282821695216079e-01 -2.926913542078503072e-01 -1.240343973349603973e-01
7.039799994625332846e-02 1.673702818060837649e-01 -6.364988511693288054e-01 6.947206994777660460e-01 -4.250257676461339784e-01 -5.802725622963211816e-01
-5.092829291099812417e-02 -2.725802470336982641e-02 -7.627922221203734532e-01 9.285553383088909207e-01 -9.310940672055320610e-02 -3.593266231135782696e-01
-4.398725969724896767e-02 -1.519907277148396241e-01 -6.871908733477795073e-01 9.795856753972421727e-01 3.933312512132902672e-02 -1.971415984127109222e-01
-6.137998716595496201e-02 -1.536020474541162639e-01 -7.865014368850707926e-01 9.581546966477840765e-01 7.937793841745920120e-02 -2.750249446584561719e-01
2.434111232155306698e-02 1.405412488995220477e-01 -6.914721832378931676e-01 8.483609101636564453e-01 -3.848686158671542068e-01 -3.635380511401707926e-01
3.608313997558617453e-02 1.714723544025661961e-02 -5.543117051962167530e-01 8.799834322928117292e-01 -3.119500095053516775e-01 -3.582127167756239960e-01
-6.356048606341418994e-02 -3.200667679609797006e-02 -7.932759134414895108e-01 9.271486802566298868e-01 -6.261185862817970904e-02 -3.694253373247621264e-01
1.917412248749086889e-02 -1.917115327416057946e-02 -5.588396411424993993e-01 8.292979567827742926e-01 -3.830423475384286403e-01 -4.068703219309136032e-01
7.677495940420414611e-02 1.864570590642130876e-01 -6.453427794152957198e-01 5.884795117665133635e-01 -5.655249871194907296e-01 -5.778177508302647647e-01
-2.799448545928234430e-02 -4.836469446270805911e-02 -6.727037325323921291e-01 9.483312113105881735e-01 -2.842856512463888263e-01 -1.408885451327004379e-01
1.083972643690373459e-02 -3.725480049380019282e-02 -5.584964351795453918e-01 8.398451092662935213e-01 -3.754087551696906888e-01 -3.920822094707064331e-01
3.342819412048544242e-02 1.750772444666002237e-01 -7.118576556810936040e-01 8.797191137178190790e-01 -3.853223344883817680e-01 -2.786054190139860554e-01
-4.323485860774763101e-02 -4.689653181796053782e-02 -7.366575148412657370e-01 9.350701252624291637e-01 -9.390674619038535953e-02 -3.417972847487809607e-01
6.607097109247161981e-02 9.012439406979731726e-02 -5.439375490511374478e-01 8.679925516909378080e-01 -3.819706192895455654e-01 -3.173127419575451635e-01
-4.048440419026937132e-02 -6.564129426752639274e-02 -7.245676845585219406e-01 9.246428429062629739e-01 -4.121511621315717550e-02 -3.785986361012935175e-01
-3.788069954959718405e-02 8.694225347529553616e-02 -7.815371739716909794e-01 9.219243453477655725e-01 -1.952545205559263475e-01 -3.345611657941922057e-01
-3.149477628859821687e-02 -1.101207580929712271e-01 -6.323449111478488538e-01 9.624756997167008832e-01 -6.607181795399144630e-02 -2.632015241732112987e-01
1.934426113442234280e-02 1.587148335969349178e-01 -7.317305164177972943e-01 8.518857015334265759e-01 -4.434126934431969480e-01 -2.787040272697023924e-01
-2.273370524996189135e-02 -1.222099555886486388e-01 -6.008690989634525303e-01 9.637207698357641572e-01 -1.705431723080641504e-02 -2.663670926577695885e-01
-4.171727765825467460e-04 1.080387568816711247e-01 -7.121846930232510475e-01 8.312781057259343021e-01 -3.546317385992802107e-01 -4.280339249624428577e-01
5.130207698004454059e-02 5.910000018828851648e-02 -5.521363392043794338e-01 8.922658740140742006e-01 -3.164616936068552211e-01 -3.220459696213897050e-01
-7.012718639603386650e-02 -1.310377916533617126e-01 -8.215949481115014663e-01 9.881835336910941292e-01 8.093844720996994091e-02 -1.301624811726526942e-01
9.508613995799289342e-03 -1.435824660660172704e-02 -5.839974756364200159e-01 8.473229878075648758e-01 -3.814507427390969596e-01 -3.695119554177541676e-01
-1.957786619021661609e-02 -3.206230065525264572e-02 -6.527922843710584067e-01 9.301744187744573900e-01 -3.034759949083991604e-01 -2.065862318063757253e-01
-2.812880937751673777e-02 -1.085544981442958384e-01 -6.209007064008339460e-01 9.560679806057612584e-01 -4.544559545463176808e-02 -2.896009570325964178e-01
-2.798150233965445918e-02 2.167667271662761588e-02 -7.214440769732997083e-01 9.051330486228009731e-01 -1.741043044882158441e-01 -3.878425652883769614e-01
-2.941673279703652458e-02 -1.260082158909796302e-01 -6.239307937777609503e-01 9.624904074861050374e-01 3.160190880210096004e-02 -2.694689868190680571e-01
-4.539144966094461886e-02 -2.962955717482512741e-02 -7.473513863593604922e-01 9.321460985273714028e-01 -9.815372727564138089e-02 -3.485247434861676319e-01
