4.757731694401765021e-02 8.127629559766316736e-02 -7.898497694302303307e-01 4.210346983057505765e-01 -7.921030741364994965e-01 4.419304275178312369e-01
-1.161392312631119444e-01 -3.572490874127572102e-02 -8.626001351361467506e-01 3.681818059413662358e-01 -6.312362519513193826e-01 6.826294397374058631e-01
-1.110391687506937924e-01 -5.569857973050039435e-02 -8.833005367323193413e-01 4.136565844909126932e-01 -5.859150712157006335e-01 6.968441428537754945e-01
-8.422197893187746698e-02 7.794044679525653774e-02 -7.135283855395986308e-01 2.732475945086050850e-01 -7.872325044543155848e-01 5.528116641550240296e-01
-3.562174091850322383e-02 -1.987205156885354096e-01 -1.008731707778387499e+00 1.828582713948226912e-01 -4.279780849801230747e-01 8.850975151695117393e-01
-1.379069079183598868e-02 1.012779243301678150e-01 -7.087299613498333484e-01 1.675090318272273726e-01 -8.870038799874848667e-01 4.303078446222574627e-01
3.635518154580377054e-02 4.063758974052620460e-02 -8.458526305670448497e-01 4.490533459424139173e-01 -7.318795745009557541e-01 5.125459793289014465e-01
7.260915825066116547e-02 -1.468106442781216998e-02 -9.368929977840766421e-01 4.631338584920397516e-01 -6.476130497184319212e-01 6.050655889675657928e-01
-3.125829661225910938e-02 -1.634488473815987886e-01 -9.900381873172677816e-01 2.299601574080428201e-01 -4.862298017791825688e-01 8.430295996384971069e-01
5.660384641208303542e-03 1.127605211790349421e-01 -6.869102989019469918e-01 9.126739335589816038e-02 -9.545554624814244216e-01 2.837148779265792897e-01
-1.190445428041974063e-01 -5.029572665204675580e-02 -8.742802067019180834e-01 3.937204418183835597e-01 -5.788237513710575710e-01 7.141059294972090798e-01
-8.234596512611495889e-02 -7.925575243569332740e-02 -9.160018363179170953e-01 3.693776692794112915e-01 -5.407653183720059209e-01 7.557334238233299750e-01
-1.451160998502438147e-02 4.009354459352428013e-02 -8.075972946312024447e-01 2.193350600571155884e-01 -8.169278099232165635e-01 5.334051788310631981e-01
-1.170290210968161389e-03 1.121680323484139513e-01 -6.862975049289015139e-01 1.118988582017354932e-01 -9.560989382827602689e-01 2.708384495372223588e-01
6.537146266629183244e-02 3.116143191972083060e-02 -8.797980631152312325e-01 4.008230591913689578e-01 -6.954861382198707087e-01 5.963555204443765634e-01
-7.162246421851257983e-02 -2.538399616834279698e-02 -8.736399985217198072e-01 2.465355468590597898e-01 -6.889224864706129381e-01 6.816201521155699217e-01
8.666531827980733516e-02 8.886062928116000847e-02 -8.056925541879893515e-01 2.496454613791039556e-01 -8.766557961085474915e-01 4.112806326124577860e-01
-5.279808699815042444e-02 -1.282133564110321255e-01 -9.612627471874156670e-01 2.868484049805611891e-01 -5.237287262678120836e-01 8.021385253445960650e-01
-4.026023793177193472e-02 -1.597786185465004949e-01 -9.853503406253626418e-01 2.541364248797881031e-01 -5.044839827212099781e-01 8.251730659243948773e-01
4.516126958685508924e-02 1.179182170040570937e-01 -6.735675573266765026e-01 6.124711435913893220e-01 -7.849549446469564762e-01 -9.340681528748091822e-02
-1.112937829312137944e-01 1.405648643849970354e-02 -7.970286849869777646e-01 3.078285779472163530e-01 -8.461198712909344666e-01 4.351123188391790020e-01
-1.262711267586357489e-01 -6.782664071151595087e-02 -8.838246948297985295e-01 4.329947884909342570e-01 -5.202188202333348777e-01 7.361303500160336633e-01
5.825805834693793123e-02 1.230055698710066647e-01 -6.506311483769149362e-01 3.986909290962876717e-01 -9.070800507246755684e-01 -1.350974634612330250e-01
8.660738264378264883e-02 1.346272057526507748e-01 -6.669562332671470362e-01 3.289452300258909889e-01 -9.430130985891744810e-01 -5.021286222132433780e-02
-5.128728756587509069e-02 -2.951245385529394492e-05 -8.511719541893093544e-01 2.130396093318960016e-01 -7.538944957995916685e-01 6.214959485457590693e-01
1.181827065252729486e-01 5.523505568638439195e-02 -8.849645267762945577e-01 3.728697488675842830e-01 -7.072254933756733086e-01 6.006665063901599488e-01
7.511886857739924483e-02 1.310140173344289671e-01 -6.851196493426296996e-01 3.317448365382792974e-01 -9.432679556946339527e-01 1.381764053145128832e-02
5.412845951444459486e-02 6.437702049187904452e-02 -8.255813576455088842e-01 4.201390300214192242e-01 -7.733668578942889393e-01 4.747493007508024609e-01
9.426034806438772506e-02 9.160354606953635681e-02 -8.045108141499793808e-01 2.303033739334454377e-01 -8.735778099755658888e-01 4.287448727077282085e-01
-8.187197374915251846e-02 -2.002900040781296909e-02 -8.633606664731335867e-01 2.927660694286823295e-01 -7.181949801376631415e-01 6.312558903458581616e-01
1.115123292534943023e-01 4.301505364738897330e-02 -8.952390339516478335e-01 3.706700105671064671e-01 -7.071338041552616138e-01 6.021341431002640299e-01
-6.155947898012802816e-02 9.680337953291807962e-02 -6.948331557165381422e-01 2.351266629100605965e-01 -8.643898524883011358e-01 4.444610616286109872e-01
-5.357070745330048955e-02 -1.731048186504277261e-02 -8.708359296850709530e-01 2.008607332004574142e-01 -7.298823393652403846e-01 6.533963089434302596e-01
-1.179714883520951024e-01 -4.682724057517082678e-02 -8.720604258764952377e-01 3.937204418183835597e-01 -5.788237513710575710e-01 7.141059294972090798e-01
-1.217797978426244793e-01 -2.301657242127450390e-03 -8.190171988747771969e-01 3.207458999391397669e-01 -7.960402803610343581e-01 5.132659541747899290e-01
5.301915892435729409e-03 1.002191255011765231e-01 -7.180060178402474236e-01 1.443145199607187568e-01 -8.982394525755060810e-01 4.151375737817076805e-01
-2.234787509039659961e-02 -2.053915892518549668e-01 -1.013905163162651890e+00 1.086080093202643482e-01 -3.755095411771477987e-01 9.204329876728762905e-01
1.205129936667861945e-01 1.094258717380838380e-01 -7.823131392294779829e-01 2.254612774944733111e-01 -8.202415018109354694e-01 5.257100827048132308e-01
1.367999101473242520e-03 -2.415129169271521825e-01 -1.024525460918588760e+00 5.235768653154745378e-01 1.097242298653067355e-01 8.448833407559216413e-01
-2.605543088788277520e-02 -1.719278403465313576e-01 -9.961744916471229061e-01 1.688525722824730513e-01 -4.994598302936094636e-01 8.497227116869778829e-01
-5.120465582095880264e-02 -3.113927104066230647e-02 -8.862230538239905808e-01 2.062312188506885136e-01 -6.968777877703171697e-01 6.868988522946506414e-01
-2.879239802580468507e-02 -9.606696881135058652e-02 -9.469191331398150169e-01 2.012071160973584460e-01 -5.848333973806043584e-01 7.858025157379202597e-01
-3.291263561002118893e-03 6.690900006394495669e-02 -7.708403308200036941e-01 2.220769243633736456e-01 -8.217544138053120006e-01 5.247871216567653319e-01
3.773164021963443943e-02 1.293165912487363560e-02 -8.819166820810695473e-01 4.238505792624758794e-01 -6.783709791005690937e-01 6.001362355107370261e-01
4.909477501014992279e-02 -2.667903579866834698e-02 -9.321695121705900755e-01 4.446664774132479958e-01 -6.361905165136498841e-01 6.305024588080436754e-01
9.486585045380441228e-02 1.271934870954289920e-01 -7.373089838949008490e-01 2.773616932453744077e-01 -9.081108315726388325e-01 3.136960450826719038e-01
-1.101777087434988450e-01 -8.900211363602861248e-02 -9.076383537896633991e-01 4.477031678332917264e-01 -4.834376934740853837e-01 7.522299316302772931e-01
-2.791373570723254538e-02 -8.705505466426378958e-03 -8.684893836191470706e-01 1.480345793467304771e-01 -7.433201009128720393e-01 6.523503590069639202e-01
-3.324856187557230502e-02 8.729934865206512296e-02 -7.249415451410848865e-01 2.412470222450616986e-01 -8.194832386906044652e-01 5.198529559048872262e-01
4.608338208626089338e-02 -5.950856180473314966e-02 -9.614746848170988569e-01 4.589606758202709469e-01 -5.919530978610360039e-01 6.625304732488331849e-01
2.291398074994539444e-02 1.202703301454764867e-01 -6.473896372556391388e-01 3.072483342181992969e-02 -9.988633503354729104e-01 3.644162411029403664e-02
5.946179947893735773e-02 6.025701378343800707e-02 -8.368957512903293372e-01 4.261915444446457979e-01 -7.522559841765290578e-01 5.024656224205683586e-01
-3.739350077555871760e-02 4.737467866474204259e-02 -7.851894550867134503e-01 2.643633993988137032e-01 -8.201051517668019875e-01 5.074835298843245468e-01
3.573445089798478469e-02 5.515695747917604558e-02 -8.235030560047100767e-01 4.456268914093698963e-01 -7.635853092654669716e-01 4.672837993412388702e-01
6.735561065520062618e-02 9.584363858657407587e-02 -7.799467953233837347e-01 3.649680700702677694e-01 -8.181623156477396686e-01 4.443070256963225773e-01
4.047529242218417256e-02 -7.814210664612855628e-02 -9.734054845856809912e-01 4.353979499306598333e-01 -5.653326515335134195e-01 7.005909065255314649e-01
-4.630746666800911182e-02 8.640387340168355357e-02 -7.201445726865435271e-01 2.551683115255500844e-01 -8.110168778698841896e-01 5.264415984735489884e-01
-1.433018086341461203e-02 -1.325089111486062177e-01 -9.767571270338646361e-01 6.747568787956178538e-01 -3.950698375913635485e-01 6.233963249358546177e-01
-5.734978504415749745e-02 -6.766297585300633244e-02 -9.172650559863199105e-01 2.380881754030177710e-01 -5.951867331571594200e-01 7.675068556091014793e-01
-1.162502760672623481e-01 4.307751107965137986e-03 -8.116668612323788556e-01 3.134602611899147129e-01 -8.311557930548895134e-01 4.592632277093911530e-01
2.142924858570573621e-03 1.086892490332873468e-01 -6.976437491292634130e-01 1.193293120687609621e-01 -9.244735362121285771e-01 3.620900386984413077e-01
-2.583266512879982962e-02 -1.843769762065244899e-01 -1.003170980612688279e+00 1.338079630240842366e-01 -4.750269451778007523e-01 8.697383689284909902e-01
-1.885725581433323611e-02 1.169253491374809828e-01 -6.571645474905402073e-01 1.086714308866905815e-01 -9.736047562059365612e-01 2.007094885704668874e-01
-8.001856856009292862e-02 3.489656763150408153e-02 -7.804212605411225967e-01 3.231584223236024789e-01 -8.144567404960258994e-01 4.819012885871022944e-01
6.227029723064326366e-02 1.262792206782852034e-01 -6.704789947094975666e-01 3.777671179009924884e-01 -9.258921730349198853e-01 3.960876853858992519e-03
9.193728858225670708e-02 1.368001361122827275e-01 -6.883979122940894202e-01 3.147937195287011658e-01 -9.481030998073224358e-01 4.478198612201066131e-02
-1.197827621379056739e-01 -4.757871106282236806e-02 -8.716708946640989719e-01 3.937204418183835597e-01 -5.788237513710575710e-01 7.141059294972090798e-01
-6.128381110052363162e-02 -1.480645691749971626e-01 -9.706173603768212255e-01 3.379631240183896268e-01 -5.042567569904677915e-01 7.946735492220609043e-01
-7.470947255156849820e-02 7.793607202643461178e-03 -8.304849500414650532e-01 2.777007474096488404e-01 -7.925825408705321484e-01 5.428583708439372879e-01
-4.484927567226167783e-02 1.078267347735044172e-02 -8.390376875914272725e-01 2.206162352664673421e-01 -7.913516361796092413e-01 5.701675759394829734e-01
-9.547926071295308181e-02 -3.609903129716870735e-03 -8.365538680656670056e-01 2.940449556369096884e-01 -7.985571251131980963e-01 5.252086080743842977e-01
2.990227520304909736e-02 -8.552512129306942545e-02 -9.726947075525280706e-01 4.367837362981404348e-01 -5.449981044247553807e-01 7.156794211648536130e-01
8.763092955739170201e-03 4.859818574679619640e-02 -8.037282992892361699e-01 6.419327670460371893e-01 -6.802179403445578476e-01 3.538726836392231956e-01
-1.357849811036284937e-01 -4.750106362890317568e-02 -8.621725470410280812e-01 3.825385214335036976e-01 -6.120781637919318063e-01 6.921160314777906608e-01
5.822324540085559164e-02 -7.251308210093072859e-02 -9.798728391776319047e-01 4.280442480942732164e-01 -5.493118260522189544e-01 7.176591387508315378e-01
8.717667357838902731e-03 -2.602668095973692183e-02 -9.039146539077100861e-01 4.316016008333421472e-01 -6.496664431451251165e-01 6.258223156849382907e-01
4.362349242601418903e-02 1.214358001801450933e-03 -8.990186874052092936e-01 4.187456154109041040e-01 -6.647449826771016923e-01 6.186810305640242369e-01
-4.171681789625303338e-02 2.971116853803589669e-02 -8.115913496840018171e-01 2.480871400335098731e-01 -8.156983028650517387e-01 5.225792281109803428e-01
-8.474140716347375313e-02 -1.542637422739118885e-02 -8.568788697819066380e-01 2.862738523548679637e-01 -7.149009007945351657e-01 6.379372880629144982e-01
-8.420394679913074942e-02 -1.417682995269779755e-01 -9.557606375769118756e-01 4.191155317753491039e-01 -4.929305093771491619e-01 7.624707758005226932e-01
3.277525128184369252e-02 -1.561489356428118758e-01 -1.014986609365342352e+00 2.434353013949971667e-01 -3.760945218252700339e-01 8.940314114659217992e-01
-5.109577588684335175e-02 1.015573922458781475e-01 -6.908183289401526039e-01 2.293637020172104024e-01 -8.688364345490343643e-01 4.387659309894995641e-01
-3.083186229051218877e-02 -1.398018254954571937e-01 -9.758232501811374693e-01 2.230706009648538435e-01 -5.211530528497601011e-01 8.237954858401168590e-01
5.275372112205232306e-02 -9.037825135996613302e-02 -9.890948161962114238e-01 3.900057377216042398e-01 -5.124298678569489951e-01 7.650563084324819574e-01
-6.471019318958397271e-02 8.770604430337368418e-02 -7.089314985196730756e-01 2.572818928608311961e-01 -8.273550768750764783e-01 4.992890989947448288e-01
1.101671792531669636e-01 6.089789645101389981e-02 -5.010709591162552101e-01 -5.940608222649206710e-02 -7.984949189195997832e-01 -5.990632536336051306e-01
2.952016340668186731e-02 2.332693073535403380e-02 -8.633128661795307357e-01 4.252251542303727150e-01 -7.009339855256010443e-01 5.726038038163495658e-01
-9.186666476894354838e-02 -1.216127050675347571e-01 -9.385663474808674245e-01 4.189970057130326664e-01 -4.808495123188210041e-01 7.702111760460665923e-01
4.850720019069190703e-02 2.402169105695379711e-02 -8.765048799011468939e-01 4.207454354406081065e-01 -6.907827504062550306e-01 5.880412147945609513e-01
-2.523568956528190327e-02 -4.807758865929169512e-02 -9.084273991246657465e-01 1.012123518764296154e-01 -6.742611193954602955e-01 7.315244375270198995e-01
9.690201933659470246e-02 -1.309886264692544482e-03 -9.399985985949952383e-01 4.509151953668259494e-01 -6.872011231442815005e-01 5.695876604496761253e-01
4.310477210163353445e-02 -4.834480070010541836e-02 -9.493038738916047548e-01 4.560250091661087191e-01 -6.181858927982267771e-01 6.402244863798242092e-01
-2.527988729519435422e-03 -4.017874176066026613e-03 -8.705437404306258786e-01 5.408732487601161099e-01 -6.585337780206766967e-01 5.232488814909129760e-01
1.116011860805723316e-01 1.284768568305661718e-01 -7.469203501068994999e-01 2.950573774166185270e-01 -8.478866270975486952e-01 4.404876974685785207e-01
-1.285978398854688010e-01 -6.466278422838135642e-02 -8.802202349060658237e-01 4.329947884909342570e-01 -5.202188202333348777e-01 7.361303500160336633e-01
5.727784215574339977e-02 1.180830283869956643e-01 -7.199580492018823330e-01 4.116638629996911547e-01 -8.821416527720242762e-01 2.288208214844372479e-01
-1.063761079811280791e-01 2.765603717481718640e-02 -7.744934055624065339e-01 3.423642744557084394e-01 -8.099192344234202867e-01 4.762536480567864938e-01
5.927220967802145080e-02 -1.125525751866945923e-02 -9.232883685419706055e-01 4.410872417228794418e-01 -6.602320218766239979e-01 6.078944994635233634e-01
-2.968832695489253062e-02 9.457172923597538527e-02 -7.143323474502061288e-01 2.318007995694721934e-01 -8.463688113248228895e-01 4.795083153977205970e-01
1.253469086261116763e-02 -4.257503860658784500e-02 -9.230102287464931887e-01 4.306146862491904148e-01 -6.337274262011433068e-01 6.426200598074927051e-01
2.884074846199625661e-02 -3.466760488416840286e-02 -9.261467084805511396e-01 4.290488052639752081e-01 -6.355401526963334602e-01 6.418768082835498712e-01
6.421604366787281347e-04 9.549031079935590971e-02 -7.250818981675615227e-01 1.617381875758720500e-01 -8.609764996266320303e-01 4.822449852205248355e-01
5.553750180230513506e-02 1.159210394690198820e-01 -5.973205642646695068e-01 -3.678147174603648567e-02 -9.808675532273050113e-01 -1.911699933621271441e-01
-4.648231565355193107e-02 9.113568585404034639e-02 -7.122755566730846200e-01 2.454964671361326845e-01 -8.398310755183219234e-01 4.841644857044110628e-01
-1.044345981980389082e-01 4.831663603085690345e-02 -7.433814566887350095e-01 3.394753897997979664e-01 -7.662953928859091990e-01 5.454794501739781420e-01
-1.315662615800682889e-01 -3.405829252976105316e-05 -8.091338662721881958e-01 3.115486354519298451e-01 -8.314725283618148444e-01 4.599900893798167800e-01
-6.539225148689815914e-02 -1.132661508838873621e-01 -9.464911110795660720e-01 3.279453968639355343e-01 -5.195209092997982170e-01 7.890182770228246767e-01
6.140895077200698299e-02 -9.932492465041116089e-03 -9.233896345540002493e-01 4.283159002366191404e-01 -6.625890050511940021e-01 6.144276198135656397e-01
9.558359830245781192e-04 -1.826084338641959792e-01 -1.016856287244375823e+00 4.158129001005719805e-01 -3.939200432423142773e-01 8.197113099390084257e-01
7.629241704922302969e-02 1.054502377497926469e-01 -5.803372595071767392e-01 7.950861055533839927e-01 -4.111680516092681148e-01 -4.458462942447672939e-01
4.196245591248063019e-03 2.684911281275481967e-02 -8.349708106955475717e-01 5.629614246643540598e-01 -7.037544952519730890e-01 4.333636403212915433e-01
5.648956871388315093e-02 -7.675536509082081342e-03 -9.174649082161588920e-01 4.277145318655183326e-01 -6.532002233426269511e-01 6.248117696204216198e-01
2.255583304947040429e-02 -1.835844175754057506e-01 -1.024246021896460634e+00 1.742908222807872665e-01 -3.714604339544449463e-01 9.119429013239056525e-01
-5.320777275147662438e-02 4.736651290806037640e-02 -7.764874266105417089e-01 2.814826107125993904e-01 -8.117732174089015151e-01 5.116559228270692872e-01
1.667253577094331466e-04 -5.027111166608708159e-02 -9.220662033554022363e-01 4.434123675953615118e-01 -6.146382383109696423e-01 6.523843255853590817e-01
-3.169441068349719559e-02 -2.349160314994158671e-02 -8.834998904560731336e-01 1.438716817424838534e-01 -6.967422463526127263e-01 7.027454598502254068e-01
1.001247715000081195e-01 8.233265085095851921e-02 -8.283193221427528341e-01 2.535579451942621132e-01 -8.855226173177010995e-01 3.893045885263519690e-01
-4.233510972074803341e-02 7.958533245958632207e-02 -7.326046744120949805e-01 2.608976034435213642e-01 -8.054114824471345635e-01 5.322074637392231189e-01
-5.137168590104399662e-02 9.742771254193872965e-02 -6.988516154799040425e-01 2.293637020172104024e-01 -8.688364345490343643e-01 4.387659309894995641e-01
5.191437892253851494e-02 -6.058614788187738354e-02 -9.664123484277076237e-01 4.530324022939778983e-01 -5.926559137291851354e-01 6.659734306964297801e-01
6.484758020417363822e-02 1.204827518328985686e-01 -6.212298532291299358e-01 4.557975122426746739e-01 -8.665145198522575809e-01 -2.034728844799728320e-01
5.642703725943772758e-02 8.774414549960063425e-02 -7.860086361561711144e-01 3.609191120818655008e-01 -8.198415993685598258e-01 4.445190057566040243e-01
-6.071697646827098338e-02 -5.955503780205536474e-02 -9.095299906883047569e-01 2.359043501991690550e-01 -6.181462144506881806e-01 7.498295773823488997e-01
4.931158875349822557e-02 1.967478363196036029e-02 -8.822378060921031162e-01 4.128715249263847364e-01 -6.974562405442115143e-01 5.857404684934246486e-01
3.519854266696213069e-02 1.078644685733834707e-01 -7.135559553506758412e-01 5.248818120483308425e-01 -8.336466961103162765e-01 1.718495546843656352e-01
1.888458749109455173e-02 -1.706269088920532306e-01 -1.017931785162934144e+00 2.459446154913496885e-01 -4.016347045650708325e-01 8.821569079249681478e-01
-7.482838761142594775e-02 2.803123860052991398e-02 -7.961022981469572102e-01 2.984196912452647399e-01 -8.347658236208940208e-01 4.627220630050088990e-01
-1.324181454091532539e-01 -4.576365714586887179e-02 -8.625616391721485643e-01 4.034604330507805536e-01 -6.203051838780440086e-01 6.726374638811778439e-01
-5.122948204854584769e-02 -1.768249344465137873e-01 -9.923645931881960314e-01 2.658795719980039385e-01 -4.967325945429281742e-01 8.261747894439828155e-01
5.237655982986622050e-02 1.172113072378401094e-01 -7.144173404519359449e-01 4.454300001312138657e-01 -8.682268895145324183e-01 2.185730617139883258e-01
-1.277308149402460180e-01 -3.423356241184179194e-02 -8.548804056561221110e-01 3.760229852538138906e-01 -6.642292406844712005e-01 6.460698339812354085e-01
-7.760180900061189845e-03 -1.172691643479919360e-01 -9.718851417903230372e-01 5.223616222407982956e-01 -4.840051032056951197e-01 7.020522741796410005e-01
-7.078029428397961120e-02 1.422363958154125065e-02 -8.222898317300069149e-01 2.833291929931822661e-01 -8.168762333853007984e-01 5.024318737182941197e-01
-1.158646274997786503e-02 -1.036842547999367731e-01 -9.591754242102810135e-01 5.520348469743258102e-01 -5.012095042027667757e-01 6.663681869828791404e-01
7.829225268638848045e-02 1.172845532117218342e-01 -5.980652845199728729e-01 3.374897160974267840e-01 -8.611491022860039424e-01 -3.801616960721952432e-01
-1.438734015331622103e-02 -7.569261964980761315e-02 -9.338693445225492162e-01 6.504011722385999450e-01 -5.085963286531084426e-01 5.641879913922611678e-01
-3.076293498469024820e-02 1.107720346733422068e-02 -8.435056921096866223e-01 2.018974999311233254e-01 -7.742159401365819038e-01 5.998558806580048808e-01
-8.867186918045610877e-02 -1.082180543597772299e-01 -9.319786039902766550e-01 4.236157646580986924e-01 -4.757652695302387325e-01 7.708418075337855058e-01
-2.399287634164676275e-02 -5.055912948693904591e-02 -9.108868348262604275e-01 1.012903138918762602e-01 -6.742805876203978865e-01 7.314957016073138085e-01
4.532563215145213320e-02 5.887277285880876052e-03 -8.951136774032371068e-01 4.162133788800289058e-01 -6.803170193921636022e-01 6.032704007048846906e-01
-5.003225632712220323e-03 5.136349205968803594e-02 -7.943621671412217644e-01 2.278750321875817331e-01 -8.136696836590792126e-01 5.348033429211550560e-01
6.997778138291486927e-02 1.265458954849900952e-01 -7.076203398874426620e-01 3.914625032510783420e-01 -9.033122946947229615e-01 1.754537169790192919e-01
-3.472320044351179247e-02 5.260023241916082087e-02 -7.782715522965986121e-01 2.649337408466651000e-01 -8.152815681711204077e-01 5.149039498405802995e-01
-2.001246551964542143e-03 1.164741512102969584e-01 -6.683375339890424982e-01 8.988550748886467434e-02 -9.761348802000123781e-01 1.976898864392841182e-01
1.714955802166806889e-02 4.325073761833619218e-02 -8.235077742895805519e-01 4.836707456793605808e-01 -7.444996538584108814e-01 4.601987344383707268e-01
-1.018321292815090456e-01 3.932230548023375044e-02 -7.583412634228493543e-01 3.445944492630864109e-01 -7.892649133656333138e-01 5.082475401485083699e-01
-1.878518003481185333e-02 9.167414662877777787e-02 -7.243022475921697678e-01 2.169357076653898875e-01 -8.456096292872959941e-01 4.877327686308544630e-01
-8.307424905110408382e-04 1.035771943062658851e-01 -7.088902481788268428e-01 1.479481388072691750e-01 -8.924842022294465771e-01 4.261259168301472777e-01
1.159662185041745591e-01 9.058170834554526984e-02 -8.185019188454930594e-01 1.974580342076745765e-01 -9.020083300350059119e-01 3.839157424153128995e-01
1.224591210833640142e-01 8.276666876757628188e-02 -8.429363879009388327e-01 2.325122632582060367e-01 -9.057851739010783776e-01 3.542474646000171590e-01
3.804489660650708233e-02 4.619997398760433693e-02 -8.393873541420164841e-01 4.453898704968325961e-01 -7.460835378588767108e-01 4.949618346850562234e-01
9.390068936407644506e-02 4.008149571888887375e-02 -8.877614680334365849e-01 3.744306707292865410e-01 -7.108746522706219650e-01 5.953645115190682180e-01
6.501000405190755782e-02 1.628484337897087922e-02 -8.967139847760640103e-01 3.998233776220186386e-01 -6.894920068689608383e-01 6.039387710444940049e-01
9.104683372268558561e-03 -1.101667068815691264e-01 -9.782011468169993229e-01 4.582763461986160136e-01 -5.097117877911346850e-01 7.281323258183306502e-01
-7.719148632348732386e-02 -9.402330855965823631e-02 -9.286802931499852365e-01 3.707320107869163106e-01 -5.143163618279557037e-01 7.733281684601596151e-01
8.505842577471990629e-02 1.135869153608456555e-01 -5.855674249741613657e-01 2.252788924823262984e-01 -8.579338728006988823e-01 -4.617346537819430052e-01
-5.957230866338684983e-02 6.168870007996949539e-02 -7.503732809900645062e-01 2.907875036318712803e-01 -8.035625221688917907e-01 5.193552740630578146e-01
-3.639921391105221254e-02 5.147526277984077608e-02 -7.791904314276897336e-01 2.649337408466651000e-01 -8.152815681711204077e-01 5.149039498405802995e-01
-1.169069124319228751e-03 3.691475737097555786e-03 -8.622111564494249203e-01 5.512835192446791099e-01 -6.560584994667213454e-01 5.154354728641363792e-01
1.151298226541357383e-01 8.351036577878316602e-02 -8.360255117115494850e-01 2.829579136207917567e-01 -8.787738217960270326e-01 3.843063741930043409e-01
6.057364396381356014e-02 1.143506766070985642e-01 -5.928317193298983101e-01 -1.641076747500863631e-01 -9.458785129173032935e-01 -2.799687659176839927e-01
-4.306667638578279278e-02 7.301964386872870916e-02 -7.421619985158596222e-01 2.786808238382996739e-01 -7.961560862983965148e-01 5.370963458028987780e-01
9.006596231136594632e-02 3.249680113561089628e-02 -8.941743434803237633e-01 3.802135972236522221e-01 -6.992483977070650392e-01 6.053835964001276215e-01
5.984064716077000523e-02 7.929793948194507891e-02 -8.044610724139183988e-01 3.849666382457145875e-01 -8.149059095120145813e-01 4.332771008029268067e-01
-1.310923611560764999e-02 -3.722634122135805301e-02 -8.996300570236152039e-01 -3.202327621977986427e-02 -6.686428653691376400e-01 7.428938203882847757e-01
-2.310147575032563474e-02 -3.132893862471687607e-02 -8.929930758063102658e-01 1.045693736762661891e-01 -6.975086448986977938e-01 7.089054495350814999e-01
2.716844783563450785e-02 -1.247473206443505123e-01 -9.976617178989188872e-01 3.919318181612724827e-01 -4.670788184278186206e-01 7.926076124343445217e-01
4.594394824734254756e-03 4.855673784603720816e-02 -8.015448770314509419e-01 1.220928463977793282e-01 -8.148457754226643424e-01 5.666742442835434046e-01
-1.133452872941829656e-02 -7.856573596307990515e-02 -9.393288180780705598e-01 5.096001864684087668e-01 -5.723463698783920472e-01 6.424385440167721395e-01
1.007706862768339290e-01 1.270007890125549599e-01 -7.425837900444427486e-01 2.999068773039321734e-01 -8.628870052581470995e-01 4.067946424210019396e-01
-1.107163825145435730e-02 -6.384341532016704623e-02 -9.264416071559528065e-01 5.556636214660353179e-01 -5.755668240222022725e-01 5.999673081629083304e-01
8.957702771903424538e-03 -1.592834787027776478e-01 -1.008687120117924607e+00 4.120691463346318750e-01 -4.398908780196872925e-01 7.979317226894269144e-01
2.200736343961396703e-04 -2.301149806037673939e-01 -1.025398313347526846e+00 5.295993476107095921e-01 1.166301030143298834e-01 8.401916150981142417e-01
4.404380721092053530e-02 1.205291316512819288e-01 -6.497291760885994805e-01 -3.582397944315082045e-02 -9.963485544442842734e-01 7.749968099058265891e-02
4.558518418354999546e-02 1.206505958682352331e-01 -6.444113503644632868e-01 -1.240181273283171189e-02 -9.999101359044552106e-01 5.090693123138955063e-03
2.831385099713141715e-02 -1.089803562213732674e-01 -9.884255301710886954e-01 3.910772641994670340e-01 -5.104743426278591789e-01 7.658162435890971675e-01
-7.221196355872754047e-02 6.061221952355561049e-02 -7.447153485470983103e-01 3.049863457483968365e-01 -7.942867872810418506e-01 5.254444104353955813e-01
-1.796250368111479076e-02 -1.213922307391498284e-01 -9.663367013024770635e-01 -2.134409252845727648e-02 -5.539185432275607335e-01 8.322972288688660347e-01
4.390166496686338099e-02 1.126691594089877790e-01 -7.149341707272111046e-01 4.775614377235561370e-01 -8.552909110304647289e-01 2.010286813071406053e-01
6.464593320171219126e-02 1.218390903838749845e-01 -6.281904532492180726e-01 3.346967412205432146e-01 -9.239588125163231691e-01 -1.851437392670212401e-01
-8.866824423700471469e-02 2.678895925342942175e-03 -8.309125486996199461e-01 3.005245450106497906e-01 -7.943138396451129291e-01 5.279682963913457927e-01
2.959897392695467686e-02 -9.387595435378591480e-02 -9.788688561911317310e-01 4.367837362981404348e-01 -5.449981044247553807e-01 7.156794211648536130e-01
-1.643990820692215610e-02 -8.051754369502614472e-02 -9.367429014851791358e-01 -1.855489970524752327e-02 -6.294856818569422030e-01 7.767905071729629407e-01
-3.312293498382611057e-02 -3.390573565323889982e-02 -8.935979721610789461e-01 1.372819035670390098e-01 -6.994369588097296697e-01 7.013854999955493330e-01
8.110074573737659220e-02 1.074381963345546059e-01 -7.677478909674904095e-01 2.943022581056628506e-01 -8.361069866265803396e-01 4.629376716018336335e-01
-6.068826629893001728e-02 -1.551885191003498088e-01 -9.752793644236615878e-01 3.383185426755852543e-01 -4.944007695157568438e-01 8.006924770372805256e-01
-5.581473093805632696e-02 3.453031249747534788e-03 -8.449678159490962015e-01 2.206162352664673421e-01 -7.913516361796092413e-01 5.701675759394829734e-01
-3.181610657831308170e-03 -3.802635879103631600e-02 -9.076979668752078734e-01 4.825406919632848068e-01 -6.201681700112110507e-01 6.185029680644549277e-01
-1.670002872357836954e-02 -5.282771856053632836e-03 -8.669550590138563884e-01 1.094179876627360409e-01 -7.436161140840994443e-01 6.595928887202326951e-01
-6.793660573528424729e-02 6.050861443366838816e-02 -7.473535304095385579e-01 3.049863457483968365e-01 -7.942867872810418506e-01 5.254444104353955813e-01
-1.187071490143725705e-01 -5.158567748304931228e-02 -8.755118069096085032e-01 3.937204418183835597e-01 -5.788237513710575710e-01 7.141059294972090798e-01
-8.326001074627258081e-02 -1.110835948013491614e-01 -9.367213062329698969e-01 4.236157646580986924e-01 -4.757652695302387325e-01 7.708418075337855058e-01
-4.154541814184722903e-02 -2.446213205070610699e-02 -8.820853100731480545e-01 1.740541229645667654e-01 -6.976023835392409778e-01 6.950223570212725743e-01
2.135529731277773305e-02 -1.315423990045140878e-01 -9.989668501551368651e-01 3.640118226151739522e-01 -4.805996644346888225e-01 7.978216314074492166e-01
-8.659449556761467104e-02 -1.068644059999128426e-01 -9.322847489507573027e-01 4.236157646580986924e-01 -4.757652695302387325e-01 7.708418075337855058e-01
-2.643206305235447102e-03 9.360836118473311873e-02 -7.273526161329422202e-01 1.780849109836523392e-01 -8.694247858839441179e-01 4.608538880931815074e-01
8.545856112752640843e-02 5.190072450863854325e-02 -8.678761829882867262e-01 3.865472577781333130e-01 -7.321805947459074648e-01 5.607965711215922022e-01
-1.138918268219583918e-01 -7.629946786676426729e-02 -8.971101368464410308e-01 4.349877161869711295e-01 -5.193641270982937153e-01 7.355586925935077014e-01
2.581435164154689474e-02 -1.790483472753344463e-01 -1.022993889061527772e+00 1.523522640548345131e-01 -3.636501582631072593e-01 9.189925734371214849e-01
-6.304954623310157769e-02 -1.451453559977233798e-01 -9.680140444197766758e-01 3.379631240183896268e-01 -5.042567569904677915e-01 7.946735492220609043e-01
4.738269771133601233e-02 9.500998107309792384e-02 -7.638190930440685866e-01 4.174788575586967920e-01 -8.032450069477170551e-01 4.248633454477422911e-01
-1.558958286484205327e-02 -1.807988581643345527e-01 -1.002345765960993118e+00 8.561710520300095384e-01 -2.130904350267832648e-01 4.707054239818391772e-01
6.262588688673230430e-02 6.847004182823478863e-03 -9.057783293260651680e-01 4.099485367011282411e-01 -6.787883493573064753e-01 6.092524715037166416e-01
-6.865843234606110179e-02 -6.309736686416250739e-02 -9.096566571123654299e-01 2.863794955055012914e-01 -5.991890536039666815e-01 7.476357820457747438e-01
-5.003374396713287930e-02 -1.208290203233098326e-01 -9.574328083476875140e-01 2.881068387441311773e-01 -5.227354782459490146e-01 8.023353845193681444e-01
2.584335694111623491e-02 2.152854726971081128e-02 -8.626992708611811445e-01 4.508275218196321488e-01 -7.009504147507031879e-01 5.526509401338121075e-01
-5.635025050900911020e-02 -1.608912451525623954e-01 -9.806335590135298874e-01 3.383185426755852543e-01 -4.944007695157568438e-01 8.006924770372805256e-01
-2.512998862620020868e-02 -1.047350662420944573e-01 -9.538947157571923130e-01 1.560414510997386039e-01 -5.729588518793673479e-01 8.045925798761540682e-01
-7.922861808083601909e-02 -1.481339642957488212e-01 -9.625640145049716434e-01 3.973035269954202087e-01 -5.059128141822335500e-01 7.656383819292319481e-01
-1.103877716097966949e-01 -6.397210731691692354e-02 -8.902657347226895501e-01 4.170989383822536478e-01 -5.384780482189680528e-01 7.321679228064336131e-01
2.591041854373641803e-02 4.014047964368500782e-02 -8.370835055846280737e-01 4.687680968572474627e-01 -7.254888522021586406e-01 5.039071310263716352e-01
-7.571416394589965126e-02 -1.754072421688036287e-01 -9.827875157863850131e-01 2.906835051057035657e-01 -5.590412317243023121e-01 7.765152935336414597e-01
5.052545345202607424e-02 -1.509216252149554391e-02 -9.211357785679343824e-01 4.277145318655183326e-01 -6.532002233426269511e-01 6.248117696204216198e-01
8.154452212974386272e-02 1.301461454914818461e-01 -6.451204332571760514e-01 2.864367490432519481e-01 -9.414802780142630390e-01 -1.776763206162240427e-01
-3.712676663030008845e-02 9.447984784511341549e-02 -7.111167085392472442e-01 2.204737753613790763e-01 -8.378339314841761754e-01 4.994252873370240153e-01
-7.835055490129047562e-02 -1.805264852289067135e-01 -9.852903098051725150e-01 2.723722582645258239e-01 -5.261439407500936305e-01 8.055966152733293750e-01
-4.358554429595994095e-02 5.761354722273146628e-02 -7.656047562961403319e-01 2.832017215357064965e-01 -8.061054015999147282e-01 5.196064534151326741e-01
5.448982830710501213e-02 1.223807138194047545e-01 -6.883276618586998685e-01 4.207402231638110446e-01 -9.042057989806885354e-01 7.341347084671305534e-02
-9.672147791320393623e-03 5.970148180179257053e-02 -7.794314590402250387e-01 2.264260527484618091e-01 -8.233217152443373932e-01 5.204542206994514641e-01
2.309371445827820488e-02 6.542219613013811053e-02 -7.924741687079019936e-01 4.950844398866396379e-01 -7.567780299152111478e-01 4.268236296408437491e-01
-5.151441548561102451e-02 9.043274676875255602e-02 -7.109984415930694635e-01 2.350103198150045591e-01 -8.315079177864511673e-01 5.033534863680689808e-01
2.561171713043765286e-02 5.297861450363526917e-03 -8.819304050346176149e-01 4.289452139877316661e-01 -6.806726141042929168e-01 5.938777616693923234e-01
4.205455703722994071e-02 -2.226776332259570307e-02 -9.228138216299860419e-01 4.337235469193296278e-01 -6.381668133645496122e-01 6.361029815744084770e-01
3.826476860402861641e-02 -1.074482161798285262e-01 -9.924300215709692674e-01 3.635088560294830184e-01 -4.946830632757978075e-01 7.893984915720385631e-01
-1.038153734773430703e-01 -2.734304844946551516e-02 -8.607960006391323082e-01 3.324930180819655190e-01 -7.058663402353767546e-01 6.254607123148993031e-01
7.768890290071873983e-02 -2.875170775042617394e-02 -9.557357885206747561e-01 4.749173523800578334e-01 -6.133610209564764881e-01 6.310639954707801813e-01
5.256977418315932765e-02 1.218965409269829325e-01 -6.833277601319430739e-01 4.157938641348881137e-01 -9.065807743568669030e-01 7.229634924587813316e-02
-6.395931010439602493e-02 -9.947095543755150870e-02 -9.380164076710338916e-01 3.203473618762013864e-01 -5.400031402822111914e-01 7.783149595275096200e-01
4.647264321521268893e-02 -2.210349149827533360e-02 -9.257034120889608975e-01 4.446664774132479958e-01 -6.361905165136498841e-01 6.305024588080436754e-01
-8.257065460812927638e-02 -1.673469706132530155e-01 -9.742959847337132606e-01 3.369999632226473030e-01 -5.496257670865150047e-01 7.644230117824126758e-01
-7.360680682461373525e-02 -9.573219763840669361e-02 -9.315353101304086891e-01 3.707320107869163106e-01 -5.143163618279557037e-01 7.733281684601596151e-01
1.405404343723684092e-02 -1.361524603995084015e-01 -9.981351406694553008e-01 4.210658172005817823e-01 -4.572228477686406944e-01 7.833586950200658316e-01
-1.264194248993361948e-02 -7.652690722636491805e-02 -9.363309783842962419e-01 5.731742908477850396e-01 -5.464196978238090585e-01 6.106527213902154250e-01
-2.502702120712966757e-02 -2.136473309952560684e-01 -1.016547372177029285e+00 8.470031360802016129e-02 -3.095879958787812747e-01 9.470908772036941148e-01
3.143538091669245086e-03 -2.220307218132711591e-01 -1.027829339412678955e+00 3.146251728363963496e-01 1.153129501499856047e-01 9.421857163772834332e-01
7.681053157557646283e-02 -2.021022064166303617e-02 -9.461268708487251544e-01 4.703185466080396782e-01 -6.463694237811867804e-01 6.008386078784200279e-01
-1.184493917717596018e-01 -8.769639918465543804e-02 -9.018627889704171618e-01 4.514455259919837871e-01 -4.816031030871210095e-01 7.511693471905500630e-01
-6.191723095383789427e-02 -7.734410389968984778e-02 -9.231651611274381830e-01 2.565141520717644785e-01 -5.815395752768528492e-01 7.720182719170066710e-01
-5.623657976042282375e-02 -2.190810142460130130e-02 -8.751522262646692640e-01 2.008607332004574142e-01 -7.298823393652403846e-01 6.533963089434302596e-01
2.439664526885905113e-02 1.130224055707056557e-01 -6.913582873497337022e-01 5.103184829736161221e-02 -9.540902514474406404e-01 2.951398694726191652e-01
5.811321209607395871e-02 -5.978676803822201985e-02 -9.699296112275530568e-01 4.688694521740311427e-01 -5.812953498462939406e-01 6.650241747975021989e-01
-5.374198034114449629e-02 -5.883408032658832276e-02 -9.110729398897756681e-01 2.212354399391142923e-01 -6.284454176618362586e-01 7.457286618702453351e-01
-1.156432475519966613e-01 -7.709029939683441357e-02 -8.966327895189188935e-01 4.349877161869711295e-01 -5.193641270982937153e-01 7.355586925935077014e-01
3.572788991568860012e-02 1.205183758895717466e-01 -6.348841200036268173e-01 1.661251854716775875e-02 -9.995709783411597105e-01 -2.412226120447360719e-02
-2.478409910589135859e-02 -4.594458076418883596e-02 -9.065238430886445320e-01 1.012123518764296154e-01 -6.742611193954602955e-01 7.315244375270198995e-01
4.761723587702330202e-02 1.183381403623130212e-01 -6.957172819427243082e-01 4.646939385578442994e-01 -8.754798181342366981e-01 1.326447568026820067e-01
-6.702572955455635140e-02 -7.516147341735893161e-02 -9.196072223769737874e-01 2.884856113695394297e-01 -5.743692425312558747e-01 7.660783414682953429e-01
-2.211497322121808509e-02 1.032489482814663989e-01 -7.010646898144072825e-01 1.914202664807169163e-01 -8.757852743355807323e-01 4.431234984035525848e-01
7.814493974487687900e-02 -2.504116974184563554e-02 -9.523684382976123075e-01 4.703185466080396782e-01 -6.463694237811867804e-01 6.008386078784200279e-01
-3.739107430473718715e-04 6.270797729113686270e-02 -7.787206378073715518e-01 2.264260527484618091e-01 -8.233217152443373932e-01 5.204542206994514641e-01
1.004075297329079935e-01 4.140897817686790133e-02 -8.902686496743277278e-01 3.744306707292865410e-01 -7.108746522706219650e-01 5.953645115190682180e-01
2.578997854780493842e-02 -8.345672866651575317e-02 -9.684906646525367480e-01 4.412642094673170368e-01 -5.780426694932379039e-01 6.864055431654928485e-01
-7.128712194218383980e-02 6.534025284522392008e-02 -7.384172931888061120e-01 2.918530655485142566e-01 -7.842580679719778347e-01 5.475044026770882200e-01
-6.001546786374643838e-02 1.687614816948530480e-02 -8.234658106691749024e-01 2.533220952825435690e-01 -8.205122692981073884e-01 5.124329536367976390e-01
3.716745088758469096e-02 9.732586668648267325e-02 -7.471136180273324490e-01 4.897001194463193041e-01 -7.933913093817370754e-01 3.615577729931879758e-01
4.329963056359727863e-02 -1.421480866822162070e-01 -1.011889843221101426e+00 2.257854075182697540e-01 -3.734006483794252707e-01 8.997738079882264817e-01
-5.621719161818087424e-02 -1.697908842655779516e-01 -9.861841806141726785e-01 3.025498579337916327e-01 -4.949920113038959735e-01 8.145222478297116098e-01
-2.671321110117906572e-02 6.712992701494288617e-02 -7.594803992901812961e-01 2.593965690305508609e-01 -8.125388905468914347e-01 5.220095509892567209e-01
1.027430657500266326e-01 3.694230870193902089e-02 -8.969247117954519677e-01 3.760832862637752405e-01 -7.027258263372530012e-01 6.039352405611583263e-01
-1.088531353455375050e-01 4.109406985864405559e-02 -7.510183016142982781e-01 3.352439609946216148e-01 -7.823010291622690682e-01 5.249919869753170154e-01
6.604983260854842275e-02 1.148575214045365750e-01 -5.991146584282701637e-01 -2.946291126140017091e-01 -9.156018689249920683e-01 -2.736181712192148341e-01
5.209385801883662653e-02 5.069035153486236428e-02 -8.449396409190019774e-01 4.243632661300251740e-01 -7.514227523538395959e-01 5.052520812470125966e-01
-4.345870976447473166e-02 -2.079217742288917148e-01 -1.010561637173166716e+00 2.793196350229105729e-01 -2.867069289568063284e-01 9.163949358103332665e-01
-1.231383313724000866e-01 -1.010005154614200679e-01 -9.072448117342996055e-01 4.628332275142233443e-01 -4.586895623809187361e-01 7.585441904540356495e-01
-1.035212106950638838e-01 -1.092317779206773698e-01 -9.241539540115932816e-01 4.517758974254811877e-01 -4.679866497901835620e-01 7.595307986668883293e-01
1.046594969209762721e-01 1.351332351881789906e-01 -7.235664867954116897e-01 2.900156785825686589e-01 -9.260390294252371923e-01 2.415421746972088446e-01
6.244539438811857329e-02 5.096987200466401163e-02 -8.527473718969459382e-01 3.991137594108451481e-01 -7.344712421584671524e-01 5.488717532276007338e-01
-6.578003334508854272e-02 -5.356685174381952547e-02 -9.028698797733003545e-01 2.708422981354635661e-01 -6.116479771285917577e-01 7.433244255472859496e-01
7.253132571267810469e-02 7.827114664539989997e-02 -8.163954498200974852e-01 3.369180929177321149e-01 -8.196966083251094881e-01 4.632317659282346178e-01
4.673020855424901004e-02 -7.312248249573767567e-02 -9.733841086919787777e-01 4.555196550889770157e-01 -5.637846776256565384e-01 6.889475169431659163e-01
7.018984933494477885e-02 1.284810094357782539e-01 -6.601454816111620438e-01 3.400013045912861909e-01 -9.379457367635801734e-01 -6.824153986574572894e-02
-1.333542844662030935e-01 -3.754158294833138954e-02 -8.547082703668973380e-01 3.825385214335036976e-01 -6.120781637919318063e-01 6.921160314777906608e-01
8.464903949945183637e-02 6.060197900449834640e-02 -8.555662410856499367e-01 3.780386425516428783e-01 -7.670175151990837881e-01 5.184312067338679997e-01
-1.085769716901797445e-02 3.695501713880542521e-02 -8.137913844438380284e-01 2.065416472019949157e-01 -8.119853992535066567e-01 5.459123183902430121e-01
3.981774499311905441e-02 1.143799399243270315e-01 -6.886257387501434346e-01 6.688379515348056303e-01 -7.415132851691400573e-01 -5.304566433173043410e-02
9.761531476565130094e-02 3.777181438060094043e-02 -8.927673942623469694e-01 3.759539058715333781e-01 -7.027516316326302137e-01 6.039857654759871464e-01
-1.223379152134106834e-02 -1.929882335397587467e-01 -1.011971964205691465e+00 7.185706955279705932e-01 -2.509809669295777756e-01 6.485867018121346250e-01
1.886844033119375666e-02 -3.625420328449676516e-02 -9.210266689217087022e-01 4.318752167764958738e-01 -6.334617896230780865e-01 6.420357920099017957e-01
8.545089957869232700e-02 1.145159458568561217e-01 -7.570303969118252763e-01 2.570610578404132207e-01 -8.604869896679411267e-01 4.398656080602034169e-01
8.572236702116783902e-02 9.797778683348681850e-02 -5.591516093021544620e-01 4.186479963490620793e-01 -7.563339402726221294e-01 -5.026856134251362906e-01
-6.445629611244049761e-02 3.060444135473854022e-02 -7.979892622205527752e-01 2.913718970519699192e-01 -8.305200019666779676e-01 4.746987928588039529e-01
-6.459425289822173614e-03 9.869143876735018972e-02 -7.167744717289656897e-01 1.784030787964595854e-01 -8.615792304687466263e-01 4.752405402539085499e-01
-6.669386006123252664e-02 7.642839981786980763e-02 -7.248495060441363380e-01 2.854680727651297545e-01 -7.769295066349232171e-01 5.611492859763590468e-01
-8.336206226136395891e-02 9.606490068301748453e-03 -8.229681898795766504e-01 2.679224355744358466e-01 -8.262828424920846127e-01 4.954535626262701054e-01
-4.086984032310102266e-02 1.770019074293275804e-02 -8.306183338278947392e-01 2.173478372450243501e-01 -8.042867725479032615e-01 5.530666371689653138e-01
-1.223173457586995694e-02 1.183913007342867196e-01 -6.495857099689682501e-01 8.213380353551399948e-02 -9.898320706529337709e-01 1.161314351229473657e-01
4.585732317639373140e-02 1.157908873025703667e-01 -7.062704074527800246e-01 4.835134833504595719e-01 -8.534546120888080178e-01 1.944991941439527805e-01
2.158308131174197300e-02 -8.102993586371630419e-02 -9.637425343297708613e-01 4.412642094673170368e-01 -5.780426694932379039e-01 6.864055431654928485e-01
-5.723654139756613295e-03 6.803531492454641116e-02 -7.680473277791010078e-01 2.220769243633736456e-01 -8.217544138053120006e-01 5.247871216567653319e-01
6.531449989038710935e-02 1.157767085755237596e-01 -7.379706296620182071e-01 3.766264047327291253e-01 -8.613467226272369937e-01 3.409316275698345278e-01
-6.072810401212030279e-03 -2.247379035763317490e-01 -1.021963857882089766e+00 5.493204907138750093e-01 1.150631053746768995e-01 8.276517868423916013e-01
-1.016364345590671653e-01 -3.679635585659869063e-02 -8.716002466632576384e-01 3.583443219652602263e-01 -6.473895594986824875e-01 6.726634412299808963e-01
-5.862457376053325370e-03 -4.324190129070359934e-02 -9.108348494935389894e-01 4.830487681002690326e-01 -6.198968952853091130e-01 6.183783039955778049e-01
-4.719154391512277863e-02 -1.016754493093655481e-01 -9.456220755434440184e-01 2.874417046555524657e-01 -5.381970796663196888e-01 7.922885647687687438e-01
3.413880437503636484e-02 1.107529933560505442e-01 -6.979876288847705057e-01 -1.863556174049650072e-01 -9.154696914134813346e-01 3.566326232482381897e-01
1.104635232640590881e-01 1.017492287851117505e-01 -7.917413584716425090e-01 1.899568828693903866e-01 -8.569861211630057651e-01 4.790523674761780759e-01
-5.500844421535055519e-03 9.396973033025042554e-02 -7.256944592738984179e-01 1.784030787964595854e-01 -8.615792304687466263e-01 4.752405402539085499e-01
-1.618688752192564903e-02 5.510273466088057986e-02 -7.835659503674535786e-01 2.485506583123725799e-01 -8.168897843208633436e-01 5.204936604077897710e-01
4.018189626126744685e-02 -1.671057146358200830e-03 -8.997895400984656789e-01 4.187456154109041040e-01 -6.647449826771016923e-01 6.186810305640242369e-01
7.288845148752506886e-02 9.585739480211799557e-02 -5.527004037960622229e-01 -1.742156834468039928e-01 -9.028582559975791844e-01 -3.930596204371197833e-01
1.827646157867124019e-02 5.955877904751078616e-02 -7.971474527019490885e-01 5.337333737248421972e-01 -7.408661548174437783e-01 4.077327880098846058e-01
-5.219457239304380047e-02 4.659463847008877418e-02 -7.782797909569940664e-01 2.842223670350141895e-01 -8.135780662545508690e-01 5.072557305605519540e-01
4.210828263271088057e-02 1.159067527384093077e-01 -6.905176353535663614e-01 5.285255309994943973e-01 -8.426503333120918260e-01 1.029620262559129695e-01
-5.892010822056126945e-02 3.066235512654733736e-02 -8.010304738953851755e-01 2.638718202084407438e-01 -8.335370087714963905e-01 4.853737915340616271e-01
8.207395280643862978e-02 -5.108399674356087911e-02 -9.789014745959327968e-01 4.594068648027206381e-01 -5.552352928819889177e-01 6.932958258278978381e-01
-7.914220705346154683e-02 8.471477898476945101e-02 -7.063661684190865042e-01 2.630030815629381680e-01 -8.215208328093778212e-01 5.058981126161521402e-01
-4.236710628284804043e-04 5.781575571155956467e-02 -7.862528329034550456e-01 1.868293068449174976e-01 -8.203693036251036297e-01 5.404526027076845818e-01
-7.302305859022903411e-02 1.002587476373702907e-02 -8.278597091854327239e-01 2.679224355744358466e-01 -8.262828424920846127e-01 4.954535626262701054e-01
-7.098835302431676444e-03 -1.480885941916488535e-01 -9.922435711134515168e-01 5.642342671438972390e-01 -4.287032794975284000e-01 7.055871242650715303e-01
2.963815906956399418e-02 7.131368464256514217e-02 -7.894105397870014862e-01 4.932363671376087666e-01 -7.650109646968167310e-01 4.140967399371068836e-01
-2.789143570391250382e-02 -1.357368736071439819e-01 -9.740365235227300689e-01 2.156343631073423250e-01 -5.200473039196472635e-01 8.264699771517395321e-01
1.066746247720334190e-01 6.338834960171976785e-02 -8.669790622864202989e-01 3.542375458186973192e-01 -7.892033977563627234e-01 5.016709659748694872e-01
6.088162825218829122e-02 1.941432403023041556e-02 -8.904080921365752355e-01 3.998233776220186386e-01 -6.894920068689608383e-01 6.039387710444940049e-01
