-7.303688572497801790e-02 -2.561823205504027562e-02 -8.993339313426238490e-01 -4.926686761151977678e-01 -4.621365381877774459e-01 7.373651711646782569e-01
-8.494040540229839953e-02 7.456762105447314881e-02 -7.861930741076000873e-01 -4.761964048442128838e-01 -7.822955073399660009e-01 4.015603606049178986e-01
6.292137063043112821e-02 -7.884675116954792395e-02 -8.171645825881881375e-01 -4.839396737813357330e-01 -5.847305146284559330e-01 6.510703628662229958e-01
2.423567460704218000e-03 -1.923175914717960289e-01 -9.418932063102753993e-01 -6.391733427349209906e-01 -2.327374292478237849e-01 7.330011780100910146e-01
-6.731064234349355170e-03 -1.079059774345514366e-01 -9.012099836720880441e-01 -6.105026310320254002e-01 -4.173707217589813223e-01 6.731182794437852168e-01
5.653034970852935381e-02 2.240339738865358352e-02 -7.164737523706731226e-01 -4.530106244286785655e-01 -7.000304041392220178e-01 5.520315275737575078e-01
-3.247565733287782058e-02 2.117210579134557250e-02 -8.138002517637850097e-01 -6.135409389147006287e-01 -6.454259137258830936e-01 4.549647306844523675e-01
6.264418391377905848e-02 -9.277911922790293975e-02 -8.292202991230109843e-01 -4.828966854793020347e-01 -5.666289550795574614e-01 6.676394374350220762e-01
-7.728007141845603944e-02 4.567189211628471662e-02 -8.320601257753709179e-01 -5.212864961743987058e-01 -7.281360823483720157e-01 4.450598100127479695e-01
5.052938108118239235e-02 -3.393822594463300618e-02 -7.845586170182917707e-01 -4.851505969387494011e-01 -6.115247073911772580e-01 6.250331435532917590e-01
-8.452035872343127698e-02 1.316162719778427859e-01 -6.881145535855680562e-01 -5.431553965970677966e-01 -7.837503803477372522e-01 3.011935531386077392e-01
-4.818306607194963731e-02 1.116077519684302161e-01 -6.686481525769665257e-01 -5.859627117001090513e-01 -7.542417471178736177e-01 2.962551052752210867e-01
2.594829868917801138e-02 -3.831513805635493319e-02 -8.072630066881320010e-01 -4.302605634841161208e-01 -6.292780326482086961e-01 6.472132609401098913e-01
-3.012273806921312788e-02 2.773945509260487483e-02 -7.999547572106771032e-01 -6.115804270286471223e-01 -6.762077042163272544e-01 4.107462988682205607e-01
-4.601822786598977998e-03 8.282657444576663197e-02 -6.732118869539649442e-01 -3.577388385108626889e-01 -8.014935356384103038e-01 4.791983261142915285e-01
-9.953867834823294791e-02 1.341307396340228608e-01 -5.416509949969554594e-01 -2.860355809825292361e-01 -8.604864498376347814e-01 -4.216001850780076166e-01
5.458490748189488012e-02 3.037478550738348729e-02 -7.072608874256749445e-01 -4.603815155691184935e-01 -7.249212701335849829e-01 5.123846330933347071e-01
4.838510296136645100e-02 -1.064890396473723855e-01 -8.500304279479892200e-01 -4.707297431258888887e-01 -5.442312012627744666e-01 6.944248760727914638e-01
5.347045716074905197e-02 -3.541093732473259148e-02 -7.837166369964561063e-01 -4.851505969387494011e-01 -6.115247073911772580e-01 6.250331435532917590e-01
-5.794268291114752084e-02 2.889694468572322900e-02 -8.349498801378437696e-01 -5.548096661932189200e-01 -6.703525184448424490e-01 4.927613370722442321e-01
3.226658406145707647e-02 -2.553274957112752208e-01 -9.188005589228540604e-01 -7.588382908797863813e-01 6.196187799031187271e-02 6.483248984656987401e-01
9.693627222218392792e-02 -6.721094418862802455e-02 -7.821465939130095579e-01 -4.462544824187987813e-01 -6.287452983956122177e-01 6.368173102755158022e-01
1.637123193516658998e-02 -2.040430805918606039e-01 -9.335606523095950626e-01 -6.539491695115476899e-01 -2.582916999467079200e-01 7.110807840420079184e-01
2.325810630569085519e-02 -1.214437800622364533e-01 -8.798714373417817480e-01 -6.877069704149739726e-01 -3.982780173608475027e-01 6.069874329257323176e-01
-4.538175919025989880e-02 -1.421363142653339455e-02 -8.696700165034353391e-01 -5.588869095131785425e-01 -5.412853322940346379e-01 6.282162139089888520e-01
2.543915766104669005e-02 -1.742382187508946800e-01 -9.089343897313004739e-01 -6.849935235108177700e-01 -3.458572285071240815e-01 6.412227773852120505e-01
1.090804328978521309e-01 -1.186026486130664290e-02 -7.110489278389616752e-01 -5.187729101835349965e-01 -6.489040058876400785e-01 5.565952378548341128e-01
1.039467820228313077e-01 -1.351460646872007232e-01 -8.298059115659852658e-01 -5.138549068155832122e-01 -4.418582121346038005e-01 7.353328872767487256e-01
-4.501262959246867673e-02 1.176522914293845756e-01 -6.387417453074946128e-01 -6.392906188598023176e-01 -7.607442294002133565e-01 1.121415269742946502e-01
-2.566432165739280027e-02 -1.371814522492187383e-01 -9.348631455947504776e-01 -5.499220855410007491e-01 -4.795470392123736825e-01 6.838277100387802898e-01
5.519425371437453737e-02 -2.042930623101689991e-01 -9.028062874230579071e-01 -5.125393778962362701e-01 -3.544025787264912797e-01 7.821139292313826763e-01
3.599914845914744393e-02 -1.186434418984065736e-01 -8.659566882624968320e-01 -3.839007139601861573e-01 -5.163165384272483394e-01 7.655308445564834585e-01
-9.688004866780949853e-02 7.536358932861660087e-02 -7.989051161476818930e-01 -4.798933283416568774e-01 -7.842074156675503671e-01 3.933460596283997468e-01
-1.097184762026585658e-01 8.516442482855758611e-02 -7.953761178838932855e-01 -4.886226218312407221e-01 -7.533731475361745700e-01 4.400873027095893453e-01
-5.189837078503563295e-02 -8.219040227788616468e-03 -8.703023857688679810e-01 -5.588869095131785425e-01 -5.412853322940346379e-01 6.282162139089888520e-01
2.990298297011106943e-02 -2.356079474588471390e-01 -9.234795340743273684e-01 -7.625496230732278224e-01 6.467911412010993177e-02 6.436883442688051682e-01
2.143666478020045396e-02 7.719751238238811708e-02 -6.603272772284880521e-01 -4.526633560081754215e-01 -7.822721222134830787e-01 4.279558539557896668e-01
1.155340007967915888e-01 -9.245355087206867661e-02 -7.924720917537341203e-01 -4.530692673052810204e-01 -5.493530112537355903e-01 7.020965090711593914e-01
-3.477978774005271306e-02 -4.566750121065639434e-02 -8.850402547965816602e-01 -5.368570079176259169e-01 -4.502704438545162557e-01 7.134711489897758163e-01
-1.334479845541988556e-02 2.050543795266431685e-02 -7.859584602059207503e-01 -6.368424526778422301e-01 -6.474708426786868198e-01 4.185847564690108324e-01
1.050198766450042703e-01 -4.916148142293096969e-03 -7.066867470337582224e-01 -5.109709863316718170e-01 -6.532954508832664597e-01 5.586713747655842610e-01
2.285813254292605110e-02 5.661909738627539379e-02 -6.942043599595051351e-01 -4.027544865339217628e-01 -7.730600629440310678e-01 4.900683244791154136e-01
5.728895824652929097e-02 4.131955578888709540e-02 -6.875214059312576564e-01 -4.668957128507691401e-01 -7.520940489053927758e-01 4.651482934749567311e-01
-3.965726676827697333e-02 -5.078201687984179591e-02 -8.919381147096373530e-01 -5.368570079176259169e-01 -4.502704438545162557e-01 7.134711489897758163e-01
3.056961570495456484e-02 8.709020006484145815e-02 -6.299616248698175491e-01 -5.338606903089319067e-01 -7.612906920874545902e-01 3.680071269471217876e-01
9.959739879165542542e-02 -4.897721687019968712e-02 -7.616261175651999338e-01 -4.544276421980010250e-01 -6.482322494937582391e-01 6.109750148104482470e-01
-1.565548674308596053e-02 1.175890835808765349e-02 -8.032015378072940859e-01 -6.574020653698798844e-01 -6.196652269765694498e-01 4.287627909736252962e-01
-9.044915289840939343e-02 1.470300209484642351e-01 -6.293262237777544899e-01 -4.343233914561658304e-01 -9.001859191836942831e-01 -3.207027498200712423e-02
1.952666184116979772e-02 -2.868299464481453842e-02 -8.019026367055567261e-01 -3.656926478491915322e-01 -6.402371132818723831e-01 6.755481671098975127e-01
-7.077268543282554114e-02 1.228920784298807717e-01 -6.841874845166416863e-01 -5.747727851620632045e-01 -7.414048982694461110e-01 3.463452356524006071e-01
-3.229471783452002309e-02 3.693330013056002337e-03 -8.372296175430020693e-01 -6.289441354337281798e-01 -6.088161168763137621e-01 4.834999589815565102e-01
-4.440659990768747178e-02 7.073200358528763942e-02 -7.421022992821528774e-01 -5.550797847036166299e-01 -7.269627858870543191e-01 4.042419331894196999e-01
1.079130216756785388e-01 -1.251542732733631480e-01 -8.210302578328024792e-01 -5.138549068155832122e-01 -4.418582121346038005e-01 7.353328872767487256e-01
-2.509945021577282553e-02 8.437362545258503613e-03 -8.219156527646139798e-01 -6.286142486455376099e-01 -6.086254581993866264e-01 4.841685430006710811e-01
-3.768644600903114927e-02 -6.986691420578299005e-02 -9.021844940274924562e-01 -5.209003122261139929e-01 -4.309831242116613503e-01 7.368286173646437787e-01
8.141027996424976543e-02 -1.287108799037393059e-01 -8.428697005602715508e-01 -5.234979640707115855e-01 -4.797963488307505076e-01 7.040918585401345631e-01
1.023964691793184112e-01 -5.712680358344496799e-03 -7.100176067440853167e-01 -5.109709863316718170e-01 -6.532954508832664597e-01 5.586713747655842610e-01
1.123134992925751419e-01 -8.229170459143156369e-02 -7.857598509659453612e-01 -4.493830990118549695e-01 -5.927069240212424761e-01 6.683960895605077779e-01
6.895340463597765535e-02 2.927894511074162140e-02 -6.957238470233462202e-01 -4.771854223301031372e-01 -7.235531493669913328e-01 4.987633835364713164e-01
-3.364445131789466081e-02 -1.949548981828474374e-03 -8.456712458706020508e-01 -5.968352505409639797e-01 -5.833310798044367695e-01 5.509197174234143901e-01
-9.411600998061861456e-02 1.450637899684402432e-01 -5.919575516202405518e-01 -3.723258862840940209e-01 -9.140212902053469479e-01 -1.610543866341947183e-01
-7.337245534521384671e-02 8.461260435286259429e-02 -7.550542203212865511e-01 -5.221674867578218748e-01 -7.347955386287865487e-01 4.329164263275895319e-01
5.369951957828250633e-02 4.167335771289598645e-02 -6.905522699029915668e-01 -4.668957128507691401e-01 -7.520940489053927758e-01 4.651482934749567311e-01
-3.980176920445518962e-02 7.203981081976067180e-02 -7.334273565362220415e-01 -5.550797847036166299e-01 -7.269627858870543191e-01 4.042419331894196999e-01
-6.023698158142522935e-02 1.796219900331034319e-02 -8.514692200970522817e-01 -5.695807509289622095e-01 -6.167045076833347350e-01 5.433721729848292048e-01
8.499410166147783330e-02 -6.922924609446501516e-03 -7.272208080340135661e-01 -5.074527878392142144e-01 -6.453054306132851581e-01 5.710276432321048645e-01
1.634372041691077929e-02 -1.171632718284519731e-01 -8.847525640736488839e-01 -6.644444274222145452e-01 -4.031237648829155140e-01 6.292891490040083413e-01
2.039420008622995495e-02 6.500055185145983856e-04 -7.706357830786859653e-01 -4.133908936287439273e-01 -6.942453495947547015e-01 5.891785498733682624e-01
5.404527998291503398e-03 -1.695756476187341710e-01 -9.275565958870266581e-01 -6.570189515370901123e-01 -3.722486183713416552e-01 6.555585888703847619e-01
1.566487788601459916e-02 -2.094796874305809575e-01 -9.354721669747934065e-01 -6.321267067708588039e-01 -1.681805272267794804e-01 7.563935066146132424e-01
-3.808599868164383884e-03 -5.225665266715935620e-02 -8.595475248343286134e-01 -6.659121556508420525e-01 -4.871226433728471639e-01 5.650420615050696371e-01
3.676389577607255387e-03 -8.977226672505154992e-02 -8.797935063858909333e-01 -6.444988354873316672e-01 -4.442490134990697559e-01 6.223054435408521545e-01
5.528090088003964619e-02 -4.514519618130494877e-02 -7.918321384493925974e-01 -4.845845328570356214e-01 -6.112874324178881880e-01 6.257040078852572629e-01
2.230508647967430549e-02 -4.806627745678764690e-02 -8.183825967215025976e-01 -2.860347007093145821e-01 -6.279476093306662898e-01 7.237858453479411036e-01
9.508538337298959309e-02 -3.751117865677450289e-03 -7.144636556928448679e-01 -5.132260906642395204e-01 -6.551179521325160016e-01 5.544541898617051379e-01
-1.467637451438742469e-01 1.075337580211280092e-01 -4.798452152754635880e-01 -2.080871757946906736e-02 -8.338461462708808281e-01 -5.516045699791641832e-01
2.107860084159156322e-02 -1.034043479528669596e-01 -8.698935024758742696e-01 -6.995474633095055683e-01 -4.186700558363625757e-01 5.790930244124971038e-01
1.099540229263410752e-02 3.609816549170788424e-02 -7.323646301756369104e-01 -3.672973098615134324e-01 -7.547200905178761410e-01 5.435901683595686373e-01
-1.385356421229714911e-02 -1.163078822999786405e-01 -9.120999277481459666e-01 -5.599140001217143281e-01 -4.278562648415748515e-01 7.095317675083453457e-01
-9.475058438431988028e-02 6.375795132494299633e-02 -8.197627714681258171e-01 -4.764053812677134792e-01 -7.951932689718032021e-01 3.751074215222910402e-01
-2.776634941859083827e-02 1.005628512354498211e-01 -6.566144810238042639e-01 -1.652771512587308811e-01 -8.556169773906968645e-01 4.905130490339743021e-01
-5.845263771989849672e-02 4.460588485404281579e-03 -8.642504583807135710e-01 -5.280787627401417605e-01 -5.804173564561370124e-01 6.198778207576961519e-01
-8.830368388620343789e-02 9.440291182482291044e-02 -7.563338376301177446e-01 -5.359317348656420510e-01 -7.132964917326171106e-01 4.516473075817494798e-01
-5.621857268969606553e-02 4.694041539018071335e-02 -8.029313529492221324e-01 -5.375124684142934539e-01 -7.369184482846853346e-01 4.099165120812585661e-01
-8.131430015120096055e-02 1.398574013136389405e-01 -5.924928917245517734e-01 -4.103723168211600991e-01 -9.054502641614011749e-01 -1.084176218005266784e-01
-3.966404350800867978e-02 4.249969014922450744e-02 -7.881833837788017050e-01 -5.628331872417023929e-01 -7.269577741780197666e-01 3.933842878172512658e-01
-1.862612743176110530e-02 1.245937047142626070e-01 -5.755149268876599278e-01 -2.088839046145780642e-01 -9.680755296133267684e-01 1.385542614171218767e-01
-5.243268763583620179e-02 -5.443391067695023400e-02 -9.030990299862792225e-01 -4.972863965434160538e-01 -4.433371763406799282e-01 7.457602750798254521e-01
4.416260053912695466e-02 3.169862090200072785e-02 -7.140275153877778669e-01 -4.330591820408069559e-01 -7.314485114005816468e-01 5.267284120113705503e-01
1.870076650107635810e-02 -1.332029856291258585e-01 -8.924607853774887412e-01 -6.631351059933807690e-01 -3.895948638955772925e-01 6.391147574773518025e-01
3.394250199826845307e-03 -1.206354761948943283e-01 -8.999359326193153708e-01 -6.050725735645402503e-01 -4.140738386107107316e-01 6.800220855958833965e-01
-1.424458474770150807e-01 1.074119266993968647e-01 -4.791838507583678353e-01 4.949029926523854789e-02 -8.601997868214579235e-01 -5.075500340172928171e-01
-8.381891807851685194e-02 9.949014384984614101e-02 -7.429777675847611951e-01 -5.359317348656420510e-01 -7.132964917326171106e-01 4.516473075817494798e-01
-3.791873336616215229e-02 -4.161270366271289239e-02 -8.846710693442397799e-01 -5.334414455068204886e-01 -4.965866700147880120e-01 6.847203103305887772e-01
-5.382765411520834542e-02 1.453681620684131419e-02 -8.486575520439496589e-01 -5.564146907750191495e-01 -6.286514404948234658e-01 5.433231618967878651e-01
-3.143498702211027646e-02 1.103921516682162401e-01 -6.393441377932271852e-01 -1.918735961300658543e-01 -8.826214679866135615e-01 4.291431781553462499e-01
3.262884670883121896e-02 -2.115159619393318369e-01 -9.170084539390113143e-01 -8.566072803227580135e-01 -1.335469020322240519e-01 4.983865891611085064e-01
1.061738988485582125e-01 -9.139254896067645906e-02 -7.977900344679564881e-01 -4.543488864351528100e-01 -5.606785250192916070e-01 6.922475575813382687e-01
3.001088044659522627e-02 -1.180041074359273051e-01 -8.682147462671914173e-01 -8.129066743774845394e-01 -3.635939384575273547e-01 4.549529499514010644e-01
-8.865640610800612498e-02 1.459784533418878316e-01 -6.240885235530476693e-01 -4.343233914561658304e-01 -9.001859191836942831e-01 -3.207027498200712423e-02
4.739020698797349884e-02 -2.300518811495864402e-01 -9.146837106475378398e-01 -3.572078462870194038e-01 -1.742236521884309511e-02 9.338624179937696779e-01
-5.333367304315746182e-02 4.644802752903113077e-03 -8.592450129963177252e-01 -5.662254675536722015e-01 -5.838645100524513243e-01 5.817997540346988572e-01
1.310401529115089517e-02 4.561025916642294509e-02 -7.178126160967495117e-01 -3.539321741013603528e-01 -7.639325007050061789e-01 5.395731187730536949e-01
4.526938364912521523e-02 5.879946766415630743e-02 -6.680374986683480509e-01 -4.884241856637186463e-01 -7.889848348084984586e-01 3.727529279575675925e-01
7.795437944441545048e-04 -2.791987091735204096e-02 -8.293616173613788112e-01 -6.938842446590858248e-01 -5.484226429782731449e-01 4.666446824754519329e-01
-6.883464195532913721e-02 4.076282378540187906e-02 -8.299984348903274300e-01 -5.410113399179371507e-01 -7.194914484742740424e-01 4.354753559647080996e-01
-3.464897465054669889e-02 1.275287509716651335e-01 -5.770685095304947110e-01 -1.501382811045547105e-01 -9.872536684712162058e-01 5.280805466115282010e-02
-1.583690583085100179e-03 -5.925028995417613853e-02 -8.627982853290742105e-01 -6.685269421158784864e-01 -4.634199287251630217e-01 5.816473994831898864e-01
5.503340118091921973e-02 -4.358339883494692646e-02 -7.904980051320225076e-01 -4.845845328570356214e-01 -6.112874324178881880e-01 6.257040078852572629e-01
-7.858061216886805256e-02 2.419714263097728565e-02 -8.625845536321972151e-01 -5.443570958969102813e-01 -6.123607446449336189e-01 5.733146348773808798e-01
1.013048771930872977e-01 -1.518578627452756014e-01 -8.405144782429144756e-01 -6.004608360419479984e-01 -3.164147396767794107e-01 7.343898807139711549e-01
-1.018263936658104912e-01 1.518019266144122192e-01 -6.165890375766939213e-01 -4.076424926137495741e-01 -9.076004596650696366e-01 -1.004440333290282789e-01
5.129527102277608996e-02 4.020415326039650933e-02 -6.953410938109606532e-01 -4.668957128507691401e-01 -7.520940489053927758e-01 4.651482934749567311e-01
-4.058090379175154083e-02 6.805658266831056402e-02 -7.416603977413115389e-01 -5.550797847036166299e-01 -7.269627858870543191e-01 4.042419331894196999e-01
7.596757945524382216e-02 5.237727913547336051e-02 -6.313356150691010749e-01 -5.332433883357436954e-01 -8.053519321672050202e-01 2.589589815989489230e-01
3.443226246455578093e-02 -2.383954280564513362e-01 -9.187633986947923992e-01 -3.876372012271128153e-01 8.291846436886277094e-02 9.180751213770692587e-01
-1.045118136988636565e-01 1.422366337020345151e-01 -6.965441605764404187e-01 -5.489174401970534634e-01 -7.725955020438095566e-01 3.190389224987885686e-01
8.109852103797478284e-02 -1.436591587018920813e-01 -8.523271418329533278e-01 -5.260428789324315124e-01 -4.415695560545227494e-01 7.268391958956882393e-01
6.230191222973489179e-02 -1.894614607521550587e-01 -8.909292892156581711e-01 -6.232348020416579315e-01 -3.157674018919924830e-01 7.154504381342401409e-01
-4.845830825389455671e-02 1.583796199921245346e-02 -8.414851218655051701e-01 -5.946363026076042502e-01 -6.170358653392178372e-01 5.154361342651876399e-01
-8.677462731922939987e-02 2.247456125237000391e-02 -8.719419980593331454e-01 -5.309515836439997472e-01 -6.027671201574893445e-01 5.956191859594310856e-01
2.250474809035410070e-02 -3.962811730828234846e-02 -8.106702511336508765e-01 -3.690727219075159993e-01 -6.402515596869742254e-01 6.736937481246016990e-01
3.036029202284767567e-02 -1.501774004976605958e-01 -8.894568043167548899e-01 -7.273976425624218978e-01 -3.595375806566132870e-01 5.844872947209548419e-01
-6.883394832339768954e-02 1.161919480678584166e-01 -6.948020879358403068e-01 -5.879837997793458948e-01 -7.123751315732237410e-01 3.831406048868667980e-01
-3.170265182729283676e-02 1.025883958882920222e-01 -6.540565755332266029e-01 -7.569918938806793896e-02 -8.531299814282075067e-01 5.161771667889770709e-01
-3.507686901377260469e-02 2.250987686109413161e-02 -8.154103056702968200e-01 -6.135409389147006287e-01 -6.454259137258830936e-01 4.549647306844523675e-01
3.259254766063998665e-02 -1.200629074846068928e-01 -8.683460195133737569e-01 -3.083908698481468980e-01 -4.910724470296774502e-01 8.147041936571749465e-01
-7.558359284421055369e-02 1.074140685091252642e-02 -8.733603424070340848e-01 -5.403548286050889882e-01 -5.482529217517249087e-01 6.383066606215713756e-01
-2.848141015455579045e-02 8.936807492254693341e-02 -6.821760350610744927e-01 -6.223923134461605278e-01 -7.139630396046243721e-01 3.207562723340912081e-01
1.097862861881325480e-01 5.877230974676286510e-03 -6.889311133323582359e-01 -5.079552492357897187e-01 -6.804232795792328758e-01 5.282098308252580754e-01
6.425578269309223378e-02 1.516356209347465532e-02 -7.190874311422433829e-01 -4.749280316090952470e-01 -6.954759023457015576e-01 5.392185401563471814e-01
-1.058906917399864006e-01 1.111572318534418263e-01 -7.508759307354107015e-01 -5.477807349937804382e-01 -6.938309507755251460e-01 4.674771418108104037e-01
-9.945908640201952047e-03 4.118867546192025303e-02 -7.446518283142663508e-01 -6.396571043018044467e-01 -6.797144178301590678e-01 3.589249212718980675e-01
5.396415957676802683e-02 -1.252202952568488015e-01 -8.597150284383358043e-01 -4.842524115358354253e-01 -4.761294788142342305e-01 7.340301910179263256e-01
6.456445674589890438e-02 6.163428010544950986e-02 -6.290743726557538329e-01 -5.878091011831901858e-01 -7.435323129810440523e-01 3.188105395360528171e-01
1.214988856661162846e-02 -1.988948333477262020e-01 -9.355727928283178452e-01 -6.539491695115476899e-01 -2.582916999467079200e-01 7.110807840420079184e-01
-3.439008086479470455e-02 1.261744976123553852e-01 -5.882317275198813977e-01 -1.776829110571686299e-01 -9.752388024726944549e-01 1.316740721246023871e-01
1.030923270067361786e-02 -6.133671235096273266e-02 -8.496084609183639502e-01 -7.176310228857540885e-01 -4.849382264350440286e-01 4.998406061275733614e-01
4.793684853857476530e-02 -1.881794240169179233e-01 -8.994345898792726057e-01 -4.083044042856691092e-01 -4.063364300285027819e-01 8.174216898716452073e-01
1.137065198550090694e-01 5.261440440320793756e-03 -6.859544457986542776e-01 -5.079552492357897187e-01 -6.804232795792328758e-01 5.282098308252580754e-01
-7.855505874068540242e-03 1.214820175589492457e-01 -5.803298003961946394e-01 -2.771233257748712542e-01 -9.412105821886512791e-01 1.931975731927663698e-01
-9.837379801454723682e-02 1.271816442178231588e-01 -7.167506516287752705e-01 -5.685584811813507722e-01 -7.021189672476738641e-01 4.286842769542816844e-01
1.662405576460484341e-02 3.576624975657204109e-02 -7.290869022873271987e-01 -3.586236125753853310e-01 -7.513520159904034657e-01 5.539487815407992954e-01
2.142452079542132501e-02 -8.522385455120387587e-02 -8.551087645269420667e-01 -7.412639372769030954e-01 -4.247349681170076163e-01 5.197383785630880215e-01
-3.048929042388764596e-02 -3.413643289959745336e-02 -8.727003597887349473e-01 -5.893020411807869952e-01 -4.879421575696336610e-01 6.439220101273513963e-01
-7.780450866270430255e-02 6.644909761039093088e-02 -7.933212364323555255e-01 -4.968169425208450729e-01 -7.710077910453451144e-01 3.983966764063380794e-01
-4.607923193325592914e-02 5.124420583260692885e-02 -7.806740466734261030e-01 -5.477659773748678740e-01 -7.370728561227798403e-01 3.958232418612677717e-01
2.510002322803258409e-03 9.147662748553529732e-02 -6.525770702670115053e-01 -3.921556019160203355e-01 -8.086508822488390757e-01 4.385176558863480012e-01
-2.694048646063335051e-02 -3.943799822386801629e-02 -8.735563202933317450e-01 -5.745786153508251060e-01 -5.014612902368569269e-01 6.468353648151247137e-01
-1.138147275390747476e-02 5.755706319087094958e-02 -7.151922752455995846e-01 -7.228825400101163146e-01 -6.338738065232354391e-01 2.750360535498321823e-01
-1.522250080756259137e-02 -1.897144170105679109e-02 -8.416780205637331980e-01 -6.674780096072701063e-01 -5.606695704703144045e-01 4.900232029601762629e-01
1.238569882058768584e-01 -4.081210930441486057e-02 -7.320944172768837355e-01 -4.924687410590519177e-01 -6.658722782800753359e-01 5.604361231200343241e-01
6.959732352297492985e-02 -1.388330356481877470e-01 -8.579509488167368358e-01 -5.127484940911256617e-01 -4.611086513461292724e-01 7.242014867846078285e-01
-2.336803384149241034e-02 1.039464925758217945e-01 -6.483330146318279086e-01 -2.870467006211995242e-01 -8.491914945424343664e-01 4.432583865639427856e-01
7.835732866109657024e-02 -3.287027709750283549e-02 -7.615298067931332016e-01 -4.910544199705654256e-01 -6.363258078879417967e-01 5.949411927603681649e-01
9.633815667533812688e-02 -1.639203475768371415e-02 -7.278544625313981831e-01 -5.127549878784648518e-01 -6.446225486772390045e-01 5.670485800551975375e-01
-5.331820530712828854e-02 7.056309895147709621e-03 -8.567911391563332035e-01 -5.564146907750191495e-01 -6.286514404948234658e-01 5.433231618967878651e-01
-5.088138655163476631e-02 1.239170416023491483e-01 -6.148990525975044363e-01 -6.499799878603605974e-01 -7.571343001779976545e-01 -6.537328869667703712e-02
1.002812915855482018e-01 2.014079157872236681e-02 -6.776858614291557670e-01 -4.985248216826447809e-01 -7.292328755115707883e-01 4.687135750534789369e-01
3.710635583452846775e-02 -2.099856803772528202e-01 -9.130220066527099387e-01 -1.292985485482101016e-01 -3.440974021448844344e-01 9.299886360491012027e-01
-9.437675358303097839e-02 1.224796874115988421e-01 -7.194310674489187152e-01 -5.523946708233513636e-01 -7.183001243628078791e-01 4.229716999827954349e-01
2.171659648105494361e-02 -1.659106681567352193e-01 -9.084194154022096068e-01 -6.849935235108177700e-01 -3.458572285071240815e-01 6.412227773852120505e-01
-7.845448103288887864e-02 1.395701699675522545e-01 -6.009849465796455181e-01 -4.129199511785436871e-01 -9.043522224022334521e-01 -1.079081635227402552e-01
2.742593760059088351e-02 -2.226465139616395084e-01 -9.265634012543012554e-01 -7.710187312833787221e-01 -1.101992823735126192e-01 6.272050973760749937e-01
-1.952030860817685620e-02 -8.212831795531001788e-02 -8.961008641508205752e-01 -5.597917121864768308e-01 -4.330234774977144152e-01 7.064870182127332976e-01
-1.515856166737500343e-02 6.192968114162940296e-02 -7.143147480918550229e-01 -6.659611322113072607e-01 -6.709532896270179458e-01 3.260635728236390696e-01
-2.778269918865827748e-02 4.417761114120102861e-02 -7.673264376507659135e-01 -5.879489763947836067e-01 -7.111774223771704095e-01 3.854123441942279849e-01
5.781319757411937377e-02 -3.570795898312824172e-03 -7.465309972555674856e-01 -4.796376815058333021e-01 -6.592805486592159259e-01 5.790482299768402452e-01
-4.672183719334975505e-02 1.066577590550197158e-01 -6.779797327400972629e-01 -5.990109650715246259e-01 -7.293813449578804287e-01 3.304371609724215397e-01
4.687693901161785887e-02 6.033902844702902779e-02 -6.626723925114490488e-01 -4.884241856637186463e-01 -7.889848348084984586e-01 3.727529279575675925e-01
1.086168491847775835e-01 -4.091074786273783681e-02 -7.452912494505304908e-01 -4.659617314812725120e-01 -6.744547086018130022e-01 5.727045580749449138e-01
5.164947807146209185e-02 -2.290544715266648046e-01 -9.124821068216686371e-01 -5.026313986824922919e-01 -8.992570783482883856e-02 8.598110514112309311e-01
5.451939475916483396e-02 -1.835714082083722276e-01 -8.933818124553417617e-01 -4.684716766456769599e-01 -4.063206995893617335e-01 7.844984240047904178e-01
-1.029630486362436564e-01 1.486895477293783407e-01 -6.741529532850527584e-01 -5.296038077544692468e-01 -8.136913569028741966e-01 2.396376066345315692e-01
7.866745400303712388e-02 -9.034849729501867599e-02 -8.156373451308687184e-01 -4.772764313247751522e-01 -5.674716651912220522e-01 6.709568669497233406e-01
1.594168962579865442e-02 -1.438782762746829980e-01 -9.018188884130787786e-01 -6.392681034217017055e-01 -3.942752207998795333e-01 6.602146182953136933e-01
-2.307166347643581361e-02 -3.559515650452573648e-02 -8.669628832646342209e-01 -6.289328546582532153e-01 -4.891610812448157208e-01 6.042887562472289975e-01
1.277401854607068980e-03 1.064208704657230581e-01 -6.232108518713341816e-01 -3.594305553639772777e-01 -8.577187536015704605e-01 3.675978993287516983e-01
2.232834521098451749e-02 5.948610104961934986e-02 -6.900705475055403104e-01 -3.978874630738389317e-01 -7.841195956810661505e-01 4.762793575178599914e-01
3.672581851714657418e-03 1.467251464567620109e-02 -7.663436013372720845e-01 -7.212822977826434112e-01 -6.033061875317948797e-01 3.402550381570285665e-01
7.774533801381060261e-02 -2.003676852747132975e-01 -8.801669703096255404e-01 -7.176896158323911035e-01 -2.092050616252927875e-01 6.641948942266209244e-01
-7.175937590088470042e-02 6.031992638533720252e-02 -7.978474958799487426e-01 -4.926117204182496878e-01 -7.791813217043912498e-01 3.875695560974444231e-01
-4.330012546244098510e-04 7.460835772370889851e-02 -6.835487859679857392e-01 -3.668307047827259471e-01 -7.919533278675903176e-01 4.881036370567806149e-01
-2.187776600775934513e-02 -8.704624723580056678e-02 -9.008868949052678543e-01 -5.600860111980037193e-01 -4.233404294998412976e-01 7.121000918488913367e-01
-8.553429267445468442e-02 6.850041210461549346e-02 -7.987459735032629293e-01 -4.798933283416568774e-01 -7.842074156675503671e-01 3.933460596283997468e-01
4.649296663985327122e-02 -9.532188016408003894e-02 -8.426465868966959150e-01 -4.822838275862042501e-01 -5.356724476772017907e-01 6.931503000420008442e-01
-4.110604948535274278e-02 1.225874176496708212e-01 -6.116294836253185485e-01 -1.529309358680052966e-01 -9.597922131869788265e-01 2.353954892519751207e-01
1.624454171933726460e-02 9.962530551421042158e-02 -6.217325662513558671e-01 -4.336058188634651089e-01 -8.393162292604050556e-01 3.279241698134477967e-01
5.222558618724078283e-02 -1.517448351757969827e-01 -8.773819286910210513e-01 -4.537765308514464802e-01 -4.570736852824460184e-01 7.649643823543351706e-01
1.109266090715517322e-01 -8.790834380189294084e-02 -7.916729106576635422e-01 -4.493830990118549695e-01 -5.927069240212424761e-01 6.683960895605077779e-01
1.103911633541410642e-01 -5.887422141486121224e-02 -7.641919257635145790e-01 -4.493470067204782814e-01 -6.497935701981787382e-01 6.130706188364035691e-01
3.290353804971844764e-02 -2.318458720462777123e-01 -9.201933045742860529e-01 -6.435878285956107003e-01 1.079270348437875310e-02 7.652961677906698901e-01
9.178569635767268309e-02 -3.832218822729161357e-03 -7.176054294939566702e-01 -5.043144993099933915e-01 -6.574375409783355106e-01 5.598595944503139687e-01
-5.498157717714365067e-02 8.628380549724059406e-03 -8.566756279076658265e-01 -5.564146907750191495e-01 -6.286514404948234658e-01 5.433231618967878651e-01
9.087204675837939893e-02 2.262220468933921411e-02 -6.836837339868243602e-01 -4.944714079853956834e-01 -7.242196470960929888e-01 4.806286814630923443e-01
1.020850819347608740e-01 1.627988230421444776e-02 -6.817742169028071508e-01 -4.985248216826447809e-01 -7.292328755115707883e-01 4.687135750534789369e-01
-6.906689189807301010e-02 1.247596686428444623e-01 -6.769573667883592716e-01 -5.675645269742154442e-01 -7.735094351879218122e-01 2.820525862242657111e-01
4.319546920984874278e-02 -1.681810929750604255e-01 -8.914677751729411792e-01 -3.770594567380263773e-01 -4.469553549286653937e-01 8.112071725428807722e-01
1.625690644629633128e-02 6.922521246457497002e-02 -6.792144109809349350e-01 -4.023557637026683453e-01 -7.893549935989331301e-01 4.637116922136758079e-01
-7.819259060408913220e-02 1.076104280658747858e-01 -7.228970582932280342e-01 -5.572401771215872435e-01 -7.091003346433785159e-01 4.320417808617017519e-01
1.411377311531684074e-02 8.744894723666699066e-02 -6.491112981925017955e-01 -4.427612797802337741e-01 -7.954851545421119940e-01 4.137219090530272481e-01
1.961840818716208829e-02 -9.083250121752604878e-02 -8.621470672140054692e-01 -7.113093813289900202e-01 -4.385289321601309465e-01 5.493007734309726109e-01
6.109084022146897552e-02 -2.052537840511830247e-01 -8.987510395850148992e-01 -6.224097666094289272e-01 -2.932792693411808149e-01 7.256675220814964300e-01
5.913740189479278764e-02 -1.906413259801362503e-01 -8.937715824161757139e-01 -5.364426404346682720e-01 -3.637834156609007774e-01 7.615056926993843955e-01
-1.308302124701413438e-01 1.204331611580395089e-01 -5.055717918829177870e-01 -1.737181171875554209e-01 -8.410640032563857504e-01 -5.122824984197223985e-01
-1.795739202543370503e-03 -1.298167629293303094e-01 -9.102345347625250271e-01 -6.255326834616475873e-01 -4.116324960870298422e-01 6.627726232173679621e-01
-8.825420232963930578e-02 2.992245984820259344e-02 -8.656542954899505427e-01 -5.443570958969102813e-01 -6.123607446449336189e-01 5.733146348773808798e-01
2.473653757356376881e-02 -1.655932611450166569e-01 -9.050221287243758184e-01 -6.849935235108177700e-01 -3.458572285071240815e-01 6.412227773852120505e-01
7.873425940402596634e-02 -1.536721324069531824e-01 -8.597673006543827823e-01 -5.511187046046707172e-01 -3.992963846640000258e-01 7.326872256489315172e-01
4.114522058881728978e-02 -1.604375905692628779e-01 -8.882237941221430289e-01 -4.004893731983284466e-01 -4.346939142366831321e-01 8.066284540485791910e-01
-5.470369107506246886e-02 1.910109301090353109e-02 -8.443764446080027630e-01 -5.695807509289622095e-01 -6.167045076833347350e-01 5.433721729848292048e-01
3.974516034974276066e-03 -1.030215512927097343e-01 -8.882202736560816936e-01 -6.367997193677894519e-01 -4.249276617011361057e-01 6.433681681077402237e-01
-7.533147076615201443e-02 2.576874379194358036e-02 -8.578228201905341299e-01 -5.511112657808688864e-01 -6.216778464650511982e-01 5.565905388559749811e-01
-3.954987077491809583e-02 2.502030118260663641e-02 -8.178809956225868705e-01 -6.135409389147006287e-01 -6.454259137258830936e-01 4.549647306844523675e-01
1.394985556613161440e-02 -1.487425611478589427e-01 -9.066864132223931838e-01 -6.490415498650398129e-01 -3.875860278966331007e-01 6.546160229692649102e-01
2.477490450004352779e-02 -6.327911142851361248e-02 -8.302272062894182625e-01 -2.907337652136553485e-01 -6.049073335877279689e-01 7.413238128756391987e-01
-3.667787902318059984e-02 2.384273825674885008e-02 -8.156785064603668811e-01 -6.135409389147006287e-01 -6.454259137258830936e-01 4.549647306844523675e-01
-5.575887615353006255e-02 5.084620505547487318e-02 -7.951658987485449304e-01 -5.303273393847275363e-01 -7.522174123552095582e-01 3.910522697169121487e-01
9.020829768029276201e-04 3.259057136663377069e-02 -7.426713995375202604e-01 -1.967346961389083160e-01 -7.583656400441206591e-01 6.214314244835084100e-01
-1.146619925214832220e-01 1.014774471962913982e-01 -7.746511669133337996e-01 -5.179860661055869508e-01 -7.028601635792750546e-01 4.875223336153667875e-01
2.998763689992094486e-02 1.431705135613724591e-03 -7.627271008537311880e-01 -4.358460510629151297e-01 -6.835375838593693576e-01 5.855037072679882826e-01
9.369407161831377895e-02 2.463187411755032863e-02 -6.772499379812225717e-01 -4.694008988476938149e-01 -7.924338211321714232e-01 3.895015215462486191e-01
4.929176354362650031e-02 -9.488694644539198697e-02 -8.403631045221527929e-01 -4.822838275862042501e-01 -5.356724476772017907e-01 6.931503000420008442e-01
-6.094232660893909165e-02 1.297231762294303314e-01 -6.344527819315992634e-01 -5.473677607002875867e-01 -8.314377432557916725e-01 9.539294332217929107e-02
-3.604619846617505147e-02 -1.097500932081687530e-01 -9.243222745496050274e-01 -5.131792357534521454e-01 -4.680151129745123151e-01 7.194504333301615651e-01
9.210253482370560005e-03 -6.743071792337733406e-02 -8.562658704197544379e-01 -6.835747097949718132e-01 -4.676081559180616520e-01 5.604179053595893523e-01
-8.513543097074545429e-02 9.941372176422089146e-02 -7.446606573775558235e-01 -5.359317348656420510e-01 -7.132964917326171106e-01 4.516473075817494798e-01
2.447807285289230542e-02 -1.532734962824054692e-01 -8.982128383060652421e-01 -7.080922238636082611e-01 -3.565892792989074356e-01 6.094665605207353343e-01
-9.491950285444460123e-02 1.424691403103681697e-01 -5.774384596734108976e-01 -3.429948865514996781e-01 -9.170559670833023924e-01 -2.033786149929059095e-01
2.583666034475558260e-02 -5.959711664054000504e-03 -7.740153205551602023e-01 -4.354559419700707035e-01 -6.617321238124418414e-01 6.103185388939398326e-01
-9.325479754791525522e-03 3.775099988810053098e-02 -7.499477033633246137e-01 -6.461202157907087740e-01 -6.639074487072132991e-01 3.765044040879827469e-01
-4.804567538851645114e-02 3.460917078875212771e-02 -8.137661485251548310e-01 -5.605821736945351130e-01 -7.042824550886213064e-01 4.355844923665832535e-01
-7.887568532581068492e-02 1.353754051667769576e-01 -6.663400216871130377e-01 -5.324540803746008466e-01 -8.200757321142440048e-01 2.096865419852327606e-01
-8.144697645244186601e-02 1.415732456810709916e-01 -6.063211963296044615e-01 -4.129199511785436871e-01 -9.043522224022334521e-01 -1.079081635227402552e-01
-4.389620121755354043e-02 9.514999261629002170e-02 -6.967783186907104964e-01 -5.804451887142531019e-01 -7.204878753983029460e-01 3.794477622842367115e-01
-1.292777255236666686e-02 9.028149501532008181e-02 -6.664438967820314197e-01 -3.111180173408301108e-01 -8.221064270499880422e-01 4.768087686788209933e-01
3.098554761315212847e-02 -1.652697592295434984e-03 -7.655581863551016442e-01 -4.505914291331470922e-01 -6.730304332180476745e-01 5.865129154196648820e-01
-5.176917029264726383e-02 9.144191751328606399e-02 -7.152307010962652978e-01 -5.633315695873521989e-01 -7.199671286148064953e-01 4.053453791773141135e-01
-3.715681061909990174e-02 9.989063484074801880e-02 -6.754591560632984271e-01 -6.129812283503092152e-01 -7.274830314387201735e-01 3.082571210189249955e-01
4.343887482805785204e-03 -1.921010079037334672e-01 -9.401522617778440560e-01 -6.220261226270463739e-01 -2.355311246612308007e-01 7.467319412515968091e-01
7.550190459377546792e-02 -3.110983056810077366e-03 -7.312374189058374885e-01 -4.932773816473886019e-01 -6.507785221121327179e-01 5.772042445379665931e-01
1.034868548973758851e-01 -8.773188803049000728e-02 -7.965184106235790873e-01 -4.493830990118549695e-01 -5.927069240212424761e-01 6.683960895605077779e-01
-4.042550611353386975e-02 5.931112024684279810e-02 -7.574090043500694147e-01 -5.577177038019225375e-01 -7.295593251210711339e-01 3.958461241376479145e-01
2.813744636739411165e-02 8.873717234546872612e-02 -6.299423061239912691e-01 -5.234831394407694072e-01 -7.798961635456073127e-01 3.431142328847333056e-01
-4.941373563732370799e-02 2.448218307625134663e-02 -8.310147638282784355e-01 -5.823447455552113183e-01 -6.609963701431524896e-01 4.732424283407106747e-01
7.815256853091513689e-03 6.968172715605884526e-02 -6.853247786161024147e-01 -3.705459229886405859e-01 -7.836300169310154162e-01 4.986178050583358057e-01
6.367012821635044395e-02 5.916547144869797881e-02 -6.368683940938068000e-01 -5.322223855040284501e-01 -7.954736762112405435e-01 2.897601815698207517e-01
-5.095096592431633958e-02 6.846117997237365083e-02 -7.551039909509703607e-01 -5.398375933121041248e-01 -7.372144024175055765e-01 4.063130538331192199e-01
-6.164879401669674797e-03 7.187801774839060187e-02 -6.916100714826661777e-01 -3.363898758412920409e-01 -7.866010773547956747e-01 5.177843146868728041e-01
1.058277593024354035e-01 -5.217738019757904577e-02 -7.604386674245237066e-01 -4.493470067204782814e-01 -6.497935701981787382e-01 6.130706188364035691e-01
5.156669081440180824e-02 -1.769188558434943437e-01 -8.916994488929357310e-01 -4.684716766456769599e-01 -4.063206995893617335e-01 7.844984240047904178e-01
4.249987088678149755e-02 -1.668138857059529856e-01 -8.910378003203669461e-01 -3.770594567380263773e-01 -4.469553549286653937e-01 8.112071725428807722e-01
7.397946251623592484e-02 4.607817546008129844e-02 -6.545228432568092058e-01 -4.934805410283755189e-01 -8.188951197350691213e-01 2.930660992002120935e-01
-3.292278273532365379e-02 1.269625438516714389e-01 -5.802089171649914556e-01 -2.028964872964791888e-01 -9.728993419772972162e-01 1.109048503127405688e-01
4.174495656722302522e-02 -1.192489791445226349e-01 -8.631995681180010260e-01 -4.352365237975142076e-01 -5.186150416177769396e-01 7.359399479308397218e-01
1.138639790591363526e-01 -3.457602920646644235e-02 -7.333915644723544291e-01 -4.879498152022053170e-01 -6.820537648540185849e-01 5.447087659406560922e-01
2.434065405012828670e-02 -7.729586160509666071e-02 -8.430544155609523971e-01 -8.343710584862850110e-01 -3.937938109707599943e-01 3.856829931454091587e-01
-6.046284964044162935e-02 4.857501884004811199e-02 -8.056641574191087951e-01 -5.446338571802263884e-01 -7.411934613841379971e-01 3.924362552241942859e-01
-3.834525398720496636e-02 1.082821234784785147e-01 -6.555329773775984137e-01 -6.515729894178048376e-01 -7.233267862787839952e-01 2.285847757676596481e-01
7.608696568149532491e-02 -1.581833670344323997e-02 -7.449659562984464189e-01 -4.970016280676904930e-01 -6.433780923626815085e-01 5.822834464123309850e-01
7.310147236903000167e-02 3.842323427211936232e-02 -6.748233460724863964e-01 -4.810056439602785616e-01 -7.987572770688753376e-01 3.614144197564255201e-01
1.101695585388190457e-02 -9.779270707085094272e-02 -8.775131424927545831e-01 -6.737767190903364289e-01 -4.219093417643343114e-01 6.066444099667017698e-01
-9.567184131393186020e-02 9.509728352363444603e-02 -7.635796973607246185e-01 -5.183209868201315018e-01 -7.124064285344869907e-01 4.730966446769010458e-01
-2.627268348979243037e-02 1.258059937028999931e-01 -5.788841881460707883e-01 -1.950733242110054277e-01 -9.714181354405131419e-01 1.352523726909975466e-01
8.494447335536688126e-02 -2.115763227450707940e-02 -7.433224194223185810e-01 -4.936158535858133911e-01 -6.443812427881023819e-01 5.840515414170304176e-01
-7.669721681922957168e-02 8.736658030972406508e-02 -7.543845207138100140e-01 -5.155220672623155309e-01 -7.375492149303976008e-01 4.361859164635449870e-01
1.005195959535085393e-01 -9.014204655210249217e-02 -8.005012480234745542e-01 -4.606470890505510174e-01 -5.581790777565556194e-01 6.901017146074154285e-01
2.768516669450730040e-03 -1.153655609321684733e-01 -8.972837836926825794e-01 -6.050725735645402503e-01 -4.140738386107107316e-01 6.800220855958833965e-01
-7.405928871375415390e-02 1.022189545481759776e-01 -7.263937823301848118e-01 -5.577348257775714968e-01 -7.078297885303493908e-01 4.334845494177878011e-01
-5.329836454218959962e-02 1.019430221145992271e-01 -6.981223666612440537e-01 -5.861990685515934274e-01 -7.100000451924418643e-01 3.902186410923684790e-01
3.694047081521469045e-02 4.946319270924437635e-03 -7.534108382798017089e-01 -4.505914291331470922e-01 -6.730304332180476745e-01 5.865129154196648820e-01
-1.045501282522548064e-01 1.430319981586598288e-01 -6.946840004729135654e-01 -5.489174401970534634e-01 -7.725955020438095566e-01 3.190389224987885686e-01
-4.150141547805311082e-02 3.267513292408871783e-02 -8.081272247170713241e-01 -5.877970300783948998e-01 -6.935328786452467087e-01 4.165414717276729739e-01
-4.954520462429606170e-02 -2.102528944423598389e-02 -8.789075308705857070e-01 -5.441557748248391224e-01 -5.311129332665209812e-01 6.494717429125078656e-01
9.941035875442567893e-02 -2.166506479873618607e-02 -7.311018628726078106e-01 -5.116950831446872572e-01 -6.488236688458515200e-01 5.632015524046078969e-01
3.845205708406194273e-02 -1.323101264399042520e-01 -8.733151190586099233e-01 -3.616802637520528663e-01 -4.930209520224754782e-01 7.912760123238271603e-01
-1.979965280872887298e-02 9.458907958311776887e-02 -6.632023587278847998e-01 -2.518999363520358359e-01 -8.294069884577373042e-01 4.986285887946126372e-01
1.398263300003741577e-02 -3.101726725381700328e-02 -8.115781596370443829e-01 -7.766284159589922353e-01 -4.933523320402418144e-01 3.917292176944190407e-01
3.980542411228023270e-02 1.392001520307090817e-02 -7.403267274827266542e-01 -4.483759643339097489e-01 -6.938123169533605417e-01 5.635454404495220393e-01
-5.999147005093658641e-02 1.281905723977377065e-01 -5.933193152244398139e-01 -7.405858438904243668e-01 -6.317633876520960534e-01 -2.289271278189967396e-01
-9.467025735413789334e-02 1.465775989193962014e-01 -5.992674609652431927e-01 -3.723258862840940209e-01 -9.140212902053469479e-01 -1.610543866341947183e-01
-9.208251345027169965e-02 1.366485539614866462e-01 -5.571017430585500918e-01 -2.749595234933810972e-01 -9.337727555540259461e-01 -2.290539268935019301e-01
5.823367766851530319e-02 7.133237130036937379e-02 -6.187167013684033989e-01 -5.973646032040722531e-01 -7.239597675195998949e-01 3.450185297224021008e-01
-9.538937270326905415e-02 1.187939182096404006e-01 -7.265987857695019869e-01 -5.634788040844577184e-01 -6.891254462095204314e-01 4.556289682780041983e-01
-1.059579778459661392e-01 9.288112016628756462e-02 -7.784367375674255962e-01 -4.970121557241224397e-01 -7.334317133114890419e-01 4.637422117636417207e-01
-2.509101866039857576e-02 -1.994979842003951134e-02 -8.546962082685788387e-01 -6.420593438063645353e-01 -5.293137934493605812e-01 5.546050009648201273e-01
4.879212459543418035e-02 -1.763784588988498436e-02 -7.691923531019766447e-01 -4.765412663993303100e-01 -6.430381262719004898e-01 5.995084566369731638e-01
1.210066413632158167e-01 -2.172190124309890738e-02 -7.114302848202721519e-01 -5.187729101835349965e-01 -6.489040058876400785e-01 5.565952378548341128e-01
-2.641968202540691864e-03 2.375456619484537374e-02 -7.630105956155153191e-01 -6.638824087473124136e-01 -6.450541613197708912e-01 3.783718756989123966e-01
-2.439918217674678924e-02 -9.978601364214206848e-02 -9.101252677107241063e-01 -5.248511686685349842e-01 -4.380887233132327307e-01 7.298010148342183312e-01
1.522143362515397148e-02 1.036955091500655762e-01 -6.134281298510199099e-01 -4.587773218853776758e-01 -8.068531401740480780e-01 3.721711691076544648e-01
-9.611621557367685739e-03 1.031058677917674193e-01 -6.405818810116384876e-01 -3.183280367707688741e-01 -8.388714341175429468e-01 4.415449898110552218e-01
-6.855364651333423209e-02 -4.559282522208146955e-03 -8.810128826686428605e-01 -5.039173416347940693e-01 -5.212751691900607831e-01 6.887231016784579607e-01
7.234616029249642255e-02 5.344903661605237416e-02 -6.355361489602180392e-01 -5.612208524130833931e-01 -7.860064838261577869e-01 2.592777703544444923e-01
-2.484136287365884196e-02 -1.021176198032821697e-01 -9.118428994986503833e-01 -5.248511686685349842e-01 -4.380887233132327307e-01 7.298010148342183312e-01
-8.049530483043550178e-02 7.439569102570742221e-02 -7.812320977082535256e-01 -4.995418460671269822e-01 -7.538562967363481304e-01 4.268004544266627565e-01
4.840819127676058986e-02 -1.673282804755325537e-01 -8.883040276267138990e-01 -4.270303843048597336e-01 -4.413012332195964116e-01 7.892390464487339941e-01
-2.351431200982236069e-02 -5.004498829616973316e-02 -8.785181188930611951e-01 -5.785453105843164634e-01 -4.543333933607682229e-01 6.773968491794053470e-01
4.164471357029184834e-02 -9.759711256455946837e-02 -8.476249807736948583e-01 -4.507578410769748634e-01 -5.438333811680100549e-01 7.078577697779365741e-01
-8.724472821472591122e-02 4.328779326996343157e-02 -8.475597849312725973e-01 -5.165350465230550414e-01 -7.296506349449561890e-01 4.481088000004547767e-01
-7.251829269285933743e-02 8.823915527726813521e-03 -8.725632694068373718e-01 -5.178168156865458061e-01 -5.675838558010718460e-01 6.400893000404191957e-01
5.415193461265026958e-02 5.444663562745034185e-02 -6.654786152655682852e-01 -4.978880513904201388e-01 -7.866676035391048094e-01 3.650500922129621406e-01
-1.478739537727694932e-02 6.883177935368391120e-02 -7.001295287502704578e-01 -1.527772506752221038e-01 -7.950350788772737598e-01 5.870079514203594417e-01
6.321935670427857035e-02 -6.801131591892767281e-02 -8.072184553901702309e-01 -4.789647612142960420e-01 -5.862834453938384760e-01 6.533486658531278968e-01
-7.488683827600894904e-02 -1.621368545707902592e-02 -8.944675729443301027e-01 -5.039173416347940693e-01 -5.212751691900607831e-01 6.887231016784579607e-01
9.101242066863543534e-02 -1.685542759014023728e-01 -8.562964715907396274e-01 -6.329700708960672717e-01 -2.777405484950544179e-01 7.226403511232221133e-01
1.102731145992836975e-01 -7.619315439219717656e-02 -7.816890169525689824e-01 -4.451823032304932370e-01 -5.966244264737347036e-01 6.677215067865345244e-01
2.215186729713537750e-02 4.675627395979418260e-02 -7.097060727227666455e-01 -3.789388394183629827e-01 -7.595341400241650831e-01 5.286901229624171306e-01
-4.093509043628410643e-02 -1.694736364399159964e-02 -8.680695232599511257e-01 -5.588869095131785425e-01 -5.412853322940346379e-01 6.282162139089888520e-01
-6.510511608318774769e-05 3.742202218837027694e-02 -7.368542061679198563e-01 -2.553588617784235959e-01 -7.697827006809279116e-01 5.850012354205799125e-01
-5.420257144616905109e-02 1.252898182039356711e-01 -6.342909397077544087e-01 -5.682046324244429680e-01 -8.188781092180057453e-01 8.113037615435511607e-02
