-6.379785705136632734e-02 -4.798747810120348317e-02 -8.893567402458523175e-01 9.015695916557230349e-01 -4.759760063772652122e-02 -4.300078369230775355e-01
-6.147374227662731616e-02 -9.550394040575792276e-02 -8.808099643264796219e-01 9.214622080030069329e-01 -5.004925686112961930e-03 -3.884357732509964301e-01
4.785003110297656598e-02 2.523610044603289207e-02 -6.714776160599834620e-01 8.556278192026386398e-01 -2.871094975103659075e-01 -4.306613187249139774e-01
2.815904667624544860e-02 4.265322244544910574e-02 -7.262390409590461227e-01 8.597976926495946026e-01 -3.342849101008654733e-01 -3.860071587332148946e-01
-6.865845357665345539e-02 -1.713597779971277602e-01 -9.145370523613552960e-01 9.650318349157560593e-01 1.061252593626180740e-01 -2.396893550501269232e-01
9.049822084532067878e-02 1.901753897706283669e-01 -7.601303839929116624e-01 4.834547515920428196e-01 -5.753757694319751037e-01 -6.597076830791335222e-01
2.438531896617263661e-01 2.294122444991437693e-01 -7.611767327501399727e-01 -1.100467513941858072e-01 -8.586716044286871741e-01 -5.005724605443758746e-01
-6.172941989560976062e-02 -2.272251658964758725e-01 -9.233763428938221995e-01 9.273779164853692691e-01 2.456471071703356934e-01 -2.821838031391967205e-01
-3.522452515028377806e-02 -1.729231059149754224e-01 -7.936050721463523416e-01 9.461652361026919866e-01 9.545129723602885363e-02 -3.092901483182034506e-01
3.966202853837130782e-02 9.112939682823459689e-03 -6.763502554698049840e-01 8.410480375071214265e-01 -3.204384584864876651e-01 -4.358410179506091442e-01
-6.429391036269557769e-02 -1.498605284983023089e-01 -8.938746008327922432e-01 9.289981815810464116e-01 1.055611279382370482e-01 -3.547100603133719332e-01
-5.339559702326938939e-02 -2.065211801266380598e-01 -8.841702669652242719e-01 9.975297342543256729e-01 -1.757225331203187118e-03 -7.022351057608548774e-02
5.877702865263046555e-02 8.919368202522713618e-02 -6.954919080105230744e-01 8.707830511779721672e-01 -3.371857113666811290e-01 -3.578305099224020069e-01
3.146150946072755888e-02 1.593667115140013357e-01 -8.056817159514337856e-01 8.006610480523260742e-01 -3.995139702774228585e-01 -4.464644148024802250e-01
-2.189063271632179630e-03 9.012349268672133207e-02 -8.147485823919055070e-01 8.180196363829134176e-01 -2.810647082902693050e-01 -5.018431072015154815e-01
2.228692574954959649e-01 2.300900941922127130e-01 -7.607900231710250649e-01 -2.120857573182016384e-02 -8.667464913229477874e-01 -4.982978186735184667e-01
-6.483219230875500450e-02 -6.814299542247387320e-02 -8.897674259962637944e-01 9.091092124245352402e-01 -1.739620573458888764e-02 -4.161944400287932444e-01
-4.943154655844104323e-02 -1.265152672553760682e-01 -8.558697967610892077e-01 8.528725079446413115e-01 1.225612177332354169e-01 -5.075305243036758451e-01
9.864976408282076503e-02 1.850309752683620412e-01 -7.504406211647429714e-01 4.347814899333782845e-01 -4.898213001596422589e-01 -7.556719856665516932e-01
-4.802820489913803281e-03 1.754289792063790446e-02 -7.917511926767357711e-01 9.222059296506653903e-01 -3.551603660434769494e-01 -1.529618831899482168e-01
-3.932647105470436083e-02 -1.211276401459626534e-01 -8.015258268370155648e-01 9.780265308379696432e-01 -5.824362939782230103e-02 -2.001793810851029976e-01
4.901386406039588001e-02 6.714818884828605006e-02 -6.999564606553368984e-01 8.778502832715179283e-01 -3.096079343140489826e-01 -3.654063589620506480e-01
9.588934834299644994e-02 2.033381872006848889e-01 -7.679058873126166640e-01 4.255934176809233471e-01 -6.415122708137798169e-01 -6.382258606653437027e-01
2.226513168710909235e-02 1.733264085362466039e-02 -7.167093069912359171e-01 8.401626321666862962e-01 -3.571926847952500150e-01 -4.080932950190513941e-01
-3.604256584936394586e-02 -1.495023936219993521e-01 -7.894213011129641577e-01 9.575509835965813066e-01 6.016257564952263298e-02 -2.819159064409724191e-01
-6.165347112611040126e-02 -2.323055952559815174e-01 -9.300982008919560506e-01 9.491064849503579870e-01 2.670600184654793319e-01 -1.669605545103203248e-01
-5.175990598536628351e-02 -2.480525903336827098e-01 -8.924403686154379622e-01 9.823421772144822484e-01 1.813065609899231212e-01 -4.617117940358565070e-02
-1.426449147311810613e-02 5.803027011122287998e-02 -8.196036081486330893e-01 8.343837501579857152e-01 -2.119759789842873832e-01 -5.087926314383383053e-01
-1.796410060288874608e-02 -2.075750733697924455e-02 -7.905985853816677178e-01 9.385613898399480792e-01 -2.833952341849121925e-01 -1.969509043974762841e-01
1.001156025524313070e-01 1.843306031815253876e-01 -7.491651404420001104e-01 4.219861647366888180e-01 -4.787641338100805943e-01 -7.698782896977310886e-01
-8.522823434130986919e-03 9.450468842564983818e-02 -8.276950636191831023e-01 8.099643414570832922e-01 -3.400170146668455295e-01 -4.778558310882471960e-01
2.021186817012848511e-02 1.343590293647380918e-01 -8.059309854919485261e-01 8.156708104966511330e-01 -3.257182374170266570e-01 -4.781095676910068759e-01
-1.775445819781486939e-02 -3.949041094946480895e-02 -7.664866328912345317e-01 9.396573298030378441e-01 -2.414630147484772837e-01 -2.423627757226789470e-01
-6.347231446085666029e-02 3.780705411920746301e-02 -9.118663321280406908e-01 8.803527635165737664e-01 -1.940425706269806039e-01 -4.328123063791098901e-01
2.581584420715954051e-02 1.828766125383268770e-02 -7.104675091570934464e-01 8.324724820356292909e-01 -3.620280999271198730e-01 -4.194344066914371116e-01
-6.478974109458156272e-02 -5.300713752546197532e-03 -8.989344880060291532e-01 8.805416862125273747e-01 -1.136823386767582406e-01 -4.601333118944786471e-01
1.665786984874654750e-02 -9.723614702225857540e-03 -7.044261015747996790e-01 8.317526697100717792e-01 -3.633669663213696110e-01 -4.197045916076839189e-01
-4.784705657717817223e-02 1.753183109490415170e-03 -8.660098937002842501e-01 8.967868580240192511e-01 -1.118524452504307681e-01 -4.280915343322113098e-01
-4.671923823733665354e-02 -1.381866323261701779e-01 -8.369365119255163243e-01 9.875240569776917443e-01 -4.699705092835141512e-02 -1.502914305419917329e-01
-6.661674017447383189e-02 -7.142861560841061441e-02 -8.935281479797410054e-01 9.091092124245352402e-01 -1.739620573458888764e-02 -4.161944400287932444e-01
-4.601417524672889170e-02 -1.461929030800167284e-01 -8.313178840992716534e-01 9.840412501557870284e-01 -2.138006282011320133e-02 -1.766513824051301196e-01
1.123301114982861032e-01 2.171566256635222569e-01 -7.715718056555631588e-01 3.705571461603889283e-01 -6.766360191818456826e-01 -6.362791046193591038e-01
-3.865370469843051188e-02 -3.616778093360644569e-02 -8.373005330796488010e-01 9.014775529311808144e-01 -9.032186845627598881e-02 -4.232968008853566499e-01
-4.777645787161004243e-02 -8.267293215885801461e-02 -8.500833732799348841e-01 9.122364000930832661e-01 -1.964551672615818395e-02 -4.091928689722904022e-01
-3.983293050582462774e-02 -1.708228298596111139e-01 -8.076860281271890374e-01 9.579205889814840225e-01 6.561129674632255881e-02 -2.794338972720244452e-01
-5.502663455943838933e-02 2.713328419748178497e-02 -8.897900244054552932e-01 8.869421407621547182e-01 -1.749762690498574413e-01 -4.274540258432921180e-01
1.170392096267217213e-01 1.850324460827220963e-01 -7.254805618909513365e-01 5.126542955272839208e-01 -7.779305466610094699e-01 -3.633313059029289471e-01
-5.252465018108724848e-02 -1.777054378732249584e-01 -8.755884840802490299e-01 9.982958552385440276e-01 -5.620132139766921553e-02 1.570977042160167855e-02
-1.116626859978777329e-03 7.108901702115462407e-02 -8.041219695529665534e-01 8.091991058955521066e-01 -2.237860533324674550e-01 -5.432463615632568965e-01
-7.510644871134627976e-02 -7.782418021789883067e-02 -9.128226377161322569e-01 9.322667773651375223e-01 2.503773301954980920e-02 -3.609040977135929973e-01
-1.155763161220399633e-02 -9.334748442754101094e-02 -7.162332628783393274e-01 9.355344834389719422e-01 -8.226785572277600656e-02 -3.435218045646480367e-01
-3.289778719119198364e-02 8.214781212052030268e-02 -8.651659478914088819e-01 8.828953832035407734e-01 -2.089296991093360367e-01 -4.205283856625558481e-01
7.505544721014988097e-02 1.725806010518168565e-01 -7.595859213617550676e-01 5.923317066685928056e-01 -4.647311426850436744e-01 -6.581550837710863355e-01
-3.194361769988121602e-02 -1.034125902050415519e-01 -7.744396063706748823e-01 9.683144953820641554e-01 -6.836686297019672898e-02 -2.401936928409912908e-01
3.075392679114920605e-02 -1.529002513728916317e-02 -6.737742846001146813e-01 8.109287332308146024e-01 -3.674557550046121390e-01 -4.553799048428207041e-01
1.482386114047402892e-02 -4.025437152304058019e-02 -6.825205822390397747e-01 8.299365682853497850e-01 -3.545056739585433214e-01 -4.307331189425024354e-01
-7.721115758292380893e-02 -1.373574923192254493e-01 -9.384268665622077510e-01 9.798618249540393954e-01 1.642536345807134590e-01 -1.135409508713258186e-01
-2.323912241721676208e-02 -8.424451496600954270e-02 -7.512752345131477050e-01 9.400499783913748297e-01 -1.414924839998557005e-01 -3.102997181724894138e-01
-7.449936474952016836e-03 -6.953207742231286292e-02 -7.138262233140453272e-01 9.186774979787181161e-01 -1.649985237075698719e-01 -3.588971187985279254e-01
1.675958358840360166e-02 -2.114819253742949295e-02 -6.944483889290309353e-01 8.293570684146288619e-01 -3.536676324694375539e-01 -4.325344596840293154e-01
8.266437028965184508e-02 2.064568369890496802e-01 -7.815304001678159418e-01 5.143992347727689429e-01 -5.853736812535225154e-01 -6.266825995357528933e-01
1.243372027066793478e-01 1.864040909228164011e-01 -7.184893422878072533e-01 4.544390207545582205e-01 -8.100678153553155791e-01 -3.705068298170831054e-01
-3.647640812562507467e-02 5.212294781453347819e-02 -8.590725238486035531e-01 8.880131571988519879e-01 -1.692231845195229789e-01 -4.275466599832097314e-01
-1.060444977204483968e-02 1.045386833634600610e-01 -8.385115101508684443e-01 8.245321922165337325e-01 -3.764695860675469907e-01 -4.223947380883512071e-01
-6.686772345529264083e-02 -1.283527781249254041e-01 -8.961463116424502884e-01 9.352862931086389775e-01 6.574680630675380777e-02 -3.477310848681255395e-01
-3.498240857657748670e-02 -1.175416988924828793e-02 -8.353140250129218458e-01 8.935231116799275952e-01 -1.043480830502365314e-01 -4.367240850440477495e-01
4.019599896503218278e-02 1.063180022188913755e-02 -6.764365404884593591e-01 8.410480375071214265e-01 -3.204384584864876651e-01 -4.358410179506091442e-01
-5.520564252678393513e-02 -1.082044403468436777e-01 -8.663497334686036666e-01 9.135806816617858539e-01 5.747843304860323493e-03 -4.066168963431415762e-01
9.970750722088975171e-02 1.665557892005287144e-01 -7.145439300788356540e-01 6.439780414216126347e-01 -6.781724904053464398e-01 -3.540824133223705039e-01
7.458048344121173678e-02 1.850326821506124431e-01 -7.691775831966304322e-01 6.087434322546855237e-01 -4.752446952077121756e-01 -6.352746755252517419e-01
-1.887635384369941612e-03 1.345514100737531527e-01 -8.517711139723590508e-01 8.056815331274738146e-01 -4.538687942585384882e-01 -3.806315604041049516e-01
-1.916713709362773133e-02 1.789105458494602216e-02 -8.135740506428559282e-01 8.639545035444450294e-01 -1.510402829573150307e-01 -4.803846882753919911e-01
-4.752501816933091955e-02 -1.291142963939019839e-01 -8.496731070398849672e-01 9.921717543087346103e-01 -1.190509873988097184e-01 -3.771037458441162810e-02
7.448439165118220240e-02 2.109400809022160816e-01 -7.930077767011968204e-01 5.341631302095232181e-01 -6.012432599208608064e-01 -5.942863726558941240e-01
-5.334406940601710972e-02 -2.320274679150717001e-01 -8.959325993110850428e-01 9.979206180314447172e-01 6.397606622083064354e-02 -7.842388580477826013e-03
2.530443040217658646e-01 2.308175746955777596e-01 -7.659857314578897292e-01 -9.204974165865277558e-02 -8.994764911946133701e-01 -4.271637705246104644e-01
-1.357477575131189884e-02 -8.039547630831511693e-02 -7.249045454424087875e-01 9.340067311311215370e-01 -1.271575262466896616e-01 -3.338598354408315871e-01
-7.088002201318591156e-02 -1.731433126291517521e-01 -9.282864942419016829e-01 9.834621110279512246e-01 1.176609318512138180e-01 -1.376887115501833347e-01
-4.612332771401123771e-02 4.184947664001753380e-03 -8.630343184379132282e-01 8.967868580240192511e-01 -1.118524452504307681e-01 -4.280915343322113098e-01
-7.138119731915408550e-02 1.735925680491463841e-02 -9.188473844458733275e-01 8.761282045161196130e-01 -1.648672869506941085e-01 -4.530100958531473321e-01
1.095791311450288741e-01 1.828629057823517590e-01 -7.315836090704918027e-01 5.259119211536635863e-01 -7.813803399266591176e-01 -3.359485311242804140e-01
6.122846504897538206e-02 5.399538577097601211e-02 -6.614134115666415736e-01 8.856402453633153149e-01 -2.736332326392779124e-01 -3.751882324756273257e-01
2.144014950121643157e-02 3.385929691186218005e-02 -7.333987520177562835e-01 8.609556328305656425e-01 -3.484045265371896183e-01 -3.706341648927105048e-01
1.034049692081693006e-01 1.910832341344450291e-01 -7.518581844049035956e-01 4.643110565586259231e-01 -5.347574038736784274e-01 -7.060097462214639519e-01
5.096624036893441373e-02 7.750516889203507009e-02 -7.040461170689825687e-01 8.770049736230061121e-01 -3.113053589905900309e-01 -3.659935104673992523e-01
2.488784102417717498e-02 1.502075076388498798e-01 -8.103284949667668435e-01 8.328539147309875768e-01 -3.648813593189996207e-01 -4.161922036016384441e-01
-2.407553742930527638e-02 -1.797068820819596180e-01 -7.645861430618613452e-01 9.286549984989951323e-01 1.225350830929095858e-01 -3.501214748829965528e-01
7.077010368372894933e-02 1.155588463659851794e-01 -6.935788803462960006e-01 8.232933186198612141e-01 -4.507945407592178766e-01 -3.449237503240122904e-01
-1.602113082657057042e-02 -1.131266073611694872e-01 -7.256565767931349997e-01 9.409146536789387838e-01 -1.644031439915555337e-02 -3.382444834061587580e-01
3.284865845510255566e-02 1.866358837603406540e-01 -8.288980425635064098e-01 8.405491353683303135e-01 -3.852747464757383944e-01 -3.808418579405471460e-01
-1.747233938119969326e-02 -2.398479152273613052e-02 -7.837676742277508435e-01 9.336651245557489043e-01 -2.857218791022061999e-01 -2.159454630007349718e-01
-4.905965287059348839e-02 -2.510556078706529526e-01 -8.696242624824570555e-01 9.770791356613333090e-01 1.849603578291094397e-01 -1.053851445272499660e-01
7.393575817099080905e-02 1.604887896357829469e-01 -7.531168728035172455e-01 6.022011511080079815e-01 -3.704749634538587189e-01 -7.071789554688772128e-01
-3.533319443077233279e-02 -1.331824921292364960e-01 -7.841594111678443779e-01 9.566036847808596644e-01 1.923359731758731914e-02 -2.907567006930475983e-01
3.786103574644975739e-02 1.159034474328641262e-01 -7.694827311247321999e-01 7.572583969139653481e-01 -2.609432826641429060e-01 -5.987222423927079928e-01
8.930985133040349189e-02 1.674462418608256287e-01 -7.364447917544074684e-01 6.598066115516282304e-01 -6.905168735756992415e-01 -2.963809755365558463e-01
-1.146702215048544214e-02 7.062986282788256184e-04 -7.933077073013514724e-01 9.312558786287495893e-01 -3.319038450510967686e-01 -1.503407002767154776e-01
-7.572946821361142833e-02 -1.467045061734115197e-01 -9.394507862057954739e-01 9.786744029096374753e-01 1.748910130275070085e-01 -1.077476062456924899e-01
-2.477437054200534727e-02 -1.230510905655434611e-01 -7.501312670173753139e-01 9.495241861366093827e-01 1.342181878179382268e-02 -3.134065645805749201e-01
6.063259292130312468e-05 -7.342204804339594673e-03 -7.440589803618552489e-01 8.770718457178825478e-01 -3.472677572150114078e-01 -3.318886594143923841e-01
-2.387625735194973814e-02 -6.660367057150003156e-02 -7.645588096458184602e-01 9.470088091402453223e-01 -1.853573316292429218e-01 -2.623298973088296626e-01
4.041784614959026412e-02 3.034444676027726884e-02 -6.902198469653301194e-01 8.565729365052503486e-01 -3.026615421430494668e-01 -4.179459239595035291e-01
-6.983359783442700218e-03 -2.503420005406247970e-02 -7.456740500597338617e-01 8.950674165823996331e-01 -3.154374615389327619e-01 -3.152039460894854872e-01
-7.818677167742295320e-02 -1.342744697129883980e-01 -9.423864012945472046e-01 9.798618249540393954e-01 1.642536345807134590e-01 -1.135409508713258186e-01
9.930325967242739291e-03 3.538082810497032563e-04 -7.276501254032888832e-01 8.526800877252990185e-01 -3.722608435840766838e-01 -3.665494950628739868e-01
1.058692472233313704e-02 -2.253341416239382222e-02 -7.058701290590828625e-01 8.445340279898103653e-01 -3.414621809634809102e-01 -4.125116417011394643e-01
-2.999870483050679978e-02 -7.501493772852019237e-02 -7.831963317586232431e-01 9.653479605830613819e-01 -1.629887555493441664e-01 -2.038086861804477290e-01
3.555860968276062378e-02 7.484643062380821887e-02 -7.386791410126308799e-01 8.699031452320863389e-01 -3.506498443162226475e-01 -3.468619388118746594e-01
1.733655918910063237e-02 3.470660297275796752e-02 -7.439108365561964975e-01 8.649585618272871423e-01 -3.457537653377042441e-01 -3.637320718282493481e-01
-4.846119737623645618e-02 -1.657581783049902613e-01 -8.440245489735800355e-01 9.855675389820048871e-01 -5.520258755615212870e-03 -1.691926501010755646e-01
3.757091549622320042e-03 2.732515855829354204e-02 -7.718945196988851176e-01 8.946692466128501886e-01 -3.461744009469535643e-01 -2.823654073965379263e-01
7.715135149353760657e-02 1.565498921359602669e-01 -7.425207950781933519e-01 7.720407895497605200e-01 -5.949363029534150416e-01 -2.236153275146958719e-01
8.789200620889350835e-03 1.548175334053850383e-01 -8.539504588139041896e-01 8.456052490087675455e-01 -4.225380514783689256e-01 -3.262106036009310706e-01
6.002026273880724933e-02 1.651374422590650981e-01 -7.692708702718014102e-01 6.627950655532601765e-01 -4.387709699272719366e-01 -6.067806333654117701e-01
-4.663935566527584869e-02 7.261621403493387361e-02 -8.900205228204277619e-01 9.003650330930961232e-01 -1.762606221125216643e-01 -3.978379070372438098e-01
5.669156058083885813e-02 3.366863403578008312e-02 -6.581551429066958558e-01 8.767057944865195296e-01 -2.566357675750325917e-01 -4.068476775341531848e-01
-7.032197769855552671e-02 -1.566938149447800188e-01 -9.147411690733492362e-01 9.650318349157560593e-01 1.061252593626180740e-01 -2.396893550501269232e-01
-2.307186432123589995e-02 -7.903259356493108623e-02 -7.532423216975822067e-01 9.397855289366506826e-01 -1.575374486604058932e-01 -3.032904744149242937e-01
-4.235048583553247675e-02 -1.333211146586236739e-01 -8.143501617325294983e-01 9.778700515078162514e-01 -3.118308855984525119e-02 -2.068762367986460848e-01
4.625406564466021803e-02 1.052960244199436790e-01 -7.441254005636229740e-01 8.662394926699439335e-01 -3.810615801563305705e-01 -3.231427137777958536e-01
6.757310553540456233e-02 1.001564432824533779e-01 -6.847661235514622691e-01 8.479112367493809588e-01 -3.817364917879626507e-01 -3.678638137022370858e-01
-6.494901064065579377e-02 -2.636401777026147614e-02 -8.948844753513043315e-01 8.857639165258521796e-01 -8.241167270210486562e-02 -4.567609882457392412e-01
-3.877743185995087549e-02 4.460012970016857814e-02 -8.609471310161130875e-01 8.941608225402418730e-01 -1.524206894104933319e-01 -4.210039867670943292e-01
2.743570410347155319e-01 2.284810220303055694e-01 -7.700306931294337298e-01 -3.001957339798570490e-01 2.309794684179700686e-01 -9.254896036529242087e-01
-4.544143928144555450e-02 -1.277201911895078090e-01 -8.330363615966599466e-01 9.856775166965374702e-01 -8.052672403083757646e-02 -1.481731412767118838e-01
8.925192179131746784e-02 1.586616086446341334e-01 -7.188913703173185343e-01 7.106178012612694994e-01 -6.204355727062114134e-01 -3.317861369185188258e-01
7.522013659810165842e-02 1.959120063275459345e-01 -7.783359677833279200e-01 5.747600502050131954e-01 -5.407205547199444018e-01 -6.142248500278104650e-01
-9.704096832431609266e-04 2.050082041091135995e-02 -7.787565366715509807e-01 8.997003886422862973e-01 -3.607317583121754101e-01 -2.457881388959307634e-01
-3.623784631282349344e-02 5.432990723787996939e-02 -8.594505473213103208e-01 8.880131571988519879e-01 -1.692231845195229789e-01 -4.275466599832097314e-01
2.685660682353306628e-02 9.755919444919072814e-02 -7.758074380369190948e-01 7.698461916981661490e-01 -2.512666819462491818e-01 -5.866872213296899785e-01
-4.996538110890412498e-02 -1.480372300233132599e-01 -8.578097233629881080e-01 9.955891998653390029e-01 -9.074177081665971145e-02 -2.383434791536166719e-02
1.864481870480387549e-01 2.195191144119004734e-01 -7.458309727882999063e-01 1.265864059705820166e-01 -9.803590227483350850e-01 -1.512351425409464434e-01
4.559956154497332020e-02 9.777050024065694900e-02 -7.371812058730131678e-01 8.680515793099028432e-01 -3.626075724407016865e-01 -3.391197488590788622e-01
-6.506766827726268021e-02 -7.355565090631065693e-03 -8.989586683121451038e-01 8.805416862125273747e-01 -1.136823386767582406e-01 -4.601333118944786471e-01
-5.125268311375512365e-02 -1.970403848616500697e-01 -8.635087468704433222e-01 9.876476775762008664e-01 2.319196993950007821e-02 -1.549651493357842580e-01
-3.127897156739661150e-02 -5.649086912767664614e-02 -8.149039501443897660e-01 9.619232390614920192e-01 -2.659481080192488411e-01 -6.304986910715543180e-02
-2.461201325544663809e-02 -4.990144154990147629e-02 -7.836565614465310636e-01 9.460240228802775375e-01 -2.514720802502013464e-01 -2.044513169144485387e-01
-4.405050263509209529e-02 3.971232521531658892e-03 -8.586040223413604622e-01 9.010089686785115459e-01 -1.110074674491963731e-01 -4.193568653681495895e-01
5.359845384457508771e-02 1.659925751609727940e-01 -7.770770156297565068e-01 7.103246210111983094e-01 -3.803246052902894414e-01 -5.922770697875133772e-01
7.055664943910430753e-02 1.246431993338568273e-01 -7.056259852528364851e-01 8.175048971086693594e-01 -4.620359821235645592e-01 -3.438146221824440185e-01
1.222543847644846221e-01 1.773439794012633963e-01 -7.022053850221459115e-01 5.058088396544652143e-01 -7.755382194209514690e-01 -3.777537398157477799e-01
-7.850056070142578946e-02 -3.400363922555514617e-02 -9.204946939250933102e-01 8.925847433794121821e-01 -3.572971476257330581e-02 -4.494617485051357053e-01
6.336698191219222731e-02 1.400537165039802412e-01 -7.486430784398500071e-01 8.086239011590641290e-01 -5.425090061633414118e-01 -2.276210989911951754e-01
-4.464172575666860293e-03 1.429703829729264686e-01 -8.677877694383129281e-01 7.846587173676963234e-01 -4.918889958250570738e-01 -3.773008256618300971e-01
-7.461798781273497327e-02 -9.320000294223643178e-02 -9.126509172576905415e-01 9.348633281006059059e-01 4.317618043866905397e-02 -3.523724949756807945e-01
-5.125673888166677739e-02 -1.751073953765804880e-01 -8.616060567010529470e-01 9.910087279819316253e-01 -4.769722931916750043e-03 -1.337121939345343180e-01
1.712465283316463582e-01 2.183012166423010936e-01 -7.502273356846714814e-01 -4.166656721192511792e-02 -3.389363484085943790e-01 -9.398861893358270159e-01
-7.340584676522272922e-02 -1.397397110853984548e-01 -9.208202715190482168e-01 9.652622028931769904e-01 1.179608394246619008e-01 -2.331397006690194007e-01
-2.792279361995243098e-02 5.727505964465809396e-02 -8.438338319635468876e-01 8.709902675725137433e-01 -2.028125261128992662e-01 -4.474852322095838053e-01
-3.253541874450686933e-02 9.673011199049637299e-02 -8.733364706361039786e-01 8.541940400706738989e-01 -2.719552804144267921e-01 -4.431623487644797410e-01
9.687762719183773408e-02 1.458195791949530029e-01 -6.828055882441439461e-01 7.123117813263520892e-01 -5.917841948349772396e-01 -3.773637408750299405e-01
2.837109539504715713e-02 9.372467302641947218e-02 -7.725292200545453847e-01 7.492880751483904644e-01 -2.274080829153258543e-01 -6.219750350819526208e-01
-1.754610239418029349e-02 5.262245034841548513e-02 -8.230986165010401034e-01 8.518734285060128864e-01 -1.881467670116790114e-01 -4.887867181792728277e-01
-8.465902800366598493e-03 -3.981382440231163305e-02 -7.362095368495142900e-01 9.060567503221331753e-01 -2.585213589236445286e-01 -3.350042868023744291e-01
3.114326859929639202e-02 1.424097486315171746e-01 -7.931259816626013981e-01 8.028485792503059493e-01 -3.468325681419004436e-01 -4.849137330204815188e-01
-5.782483885532832546e-02 4.950145895605721769e-02 -9.053026616346718791e-01 8.949395491891817267e-01 -1.844687996398529928e-01 -4.062689567964744008e-01
1.342700566109374383e-01 1.969008220284838850e-01 -7.294279756572435991e-01 4.183445718717580530e-01 -8.280074243058552774e-01 -3.733517436410591639e-01
7.505354226640337245e-02 1.510173661028020586e-01 -7.366282694787594787e-01 7.657120029337211031e-01 -5.730369008595020963e-01 -2.920853279720947993e-01
-3.047161477038932628e-02 -2.929408235736503940e-02 -8.219241976850564235e-01 8.875762969653491208e-01 -1.107397301634438502e-01 -4.471521320854969228e-01
7.553408291098856128e-03 4.096824797885249142e-02 -7.773937079880668399e-01 8.990375396780450057e-01 -3.840373642734529192e-01 -2.103492455216964541e-01
-1.558384079966638851e-02 -1.301166827173957652e-01 -7.258186971670536058e-01 9.365775979074796309e-01 5.695014769071025246e-02 -3.458020875816994466e-01
-1.092852304955955686e-02 -3.358628813104468785e-02 -7.492999080205996476e-01 9.154199679784479349e-01 -2.703322806779002718e-01 -2.982058689057310863e-01
5.665047426439596967e-02 5.303866140838567333e-02 -6.714452241849271363e-01 8.803802705688134056e-01 -2.707508344955629198e-01 -3.893899906432353730e-01
1.052805058606411451e-02 -2.849182555964283395e-02 -7.007627465280982237e-01 8.418871197776542914e-01 -3.561027200929615666e-01 -4.054835758632883147e-01
-3.843728893768944693e-02 -1.751206759181626049e-01 -8.040078459377846265e-01 9.528417250026035568e-01 7.917513019185509759e-02 -2.929572423633957090e-01
-7.111399847021140919e-02 -5.692973901226837385e-02 -9.038145953872152027e-01 9.072977104962889339e-01 -3.382525056017657468e-03 -4.204752347670878132e-01
-5.988434110352923445e-02 -5.614512137395045316e-02 -8.802045574423659202e-01 9.074409753653814859e-01 -5.335257600919476872e-02 -4.167785729390466321e-01
-7.109355637527248195e-02 -1.647854162069708750e-01 -9.226001354884776351e-01 9.756788242318856774e-01 1.109686475688312218e-01 -1.890417710513459248e-01
2.652101921550234498e-02 1.714385257261791806e-01 -8.280686727692733173e-01 8.544036253739270004e-01 -3.797203550327497568e-01 -3.546926795434218183e-01
4.678744449649114255e-03 -5.039280507754147209e-02 -6.960785251386346628e-01 8.647068440044511917e-01 -3.024642127735586716e-01 -4.009956033713250600e-01
1.695319283610781380e-01 2.169073797413432203e-01 -7.459382338687381431e-01 1.636714666125688722e-01 -9.760252244554854517e-01 -1.434796579432422725e-01
-3.192312216603013925e-02 -1.697850734301378783e-01 -7.827168278963955173e-01 9.373912788732045032e-01 1.152823456901928417e-01 -3.286450533092276083e-01
5.217660609403662608e-02 7.158632134855909268e-02 -6.961187251585927438e-01 8.778502832715179283e-01 -3.096079343140489826e-01 -3.654063589620506480e-01
8.753055295399586599e-02 1.318544455020760342e-01 -6.790289698293363596e-01 7.706339543019755656e-01 -5.157850052745662772e-01 -3.742848337974918893e-01
7.542305941468574471e-02 1.486257640725829332e-01 -7.311863532022098155e-01 7.625228637529953835e-01 -5.696309974897276751e-01 -3.067236687195634692e-01
-2.579888796258853617e-02 4.638620238435884474e-02 -8.356480037787408222e-01 8.747686235917472297e-01 -1.604196649517458384e-01 -4.572148141477588301e-01
1.996596770334565368e-02 -3.764999178476421959e-02 -6.748227494788541225e-01 8.222570715822934417e-01 -3.587073947279451058e-01 -4.418396917439642579e-01
1.023081224186999788e-01 1.991215187037475853e-01 -7.596620537945961704e-01 4.184155556126925024e-01 -6.225635056993145122e-01 -6.613192150487552379e-01
4.638327403779242408e-02 7.716896950067911320e-02 -7.146769906156085206e-01 8.692221366549922612e-01 -3.386368142423241689e-01 -3.602471168361233156e-01
-1.566478490748242011e-02 -4.968391376485704891e-02 -7.495905664651492106e-01 9.332872996462447945e-01 -2.303009272231901494e-01 -2.755654173497810167e-01
-3.948409844360018656e-02 5.523078406823188347e-02 -8.667610730061732216e-01 8.946376736498592441e-01 -1.721861619556503686e-01 -4.122806792918511376e-01
-4.859142993733955168e-02 -8.081548755286957486e-02 -8.520511971813322649e-01 9.115903843850571286e-01 -4.917052457132201765e-02 -4.081485398847886081e-01
8.168677684489979163e-02 1.540179635663014301e-01 -7.262741596413003764e-01 7.060619739874819389e-01 -6.223696334681235731e-01 -3.378350606814720658e-01
-7.578504766008538340e-02 -4.265491498555871314e-02 -9.143143292559107183e-01 8.960047190157246488e-01 -3.773785032468928574e-02 -4.424380161722357152e-01
-2.656032525685859610e-02 6.948334288883557808e-02 -8.466285771294719265e-01 8.713765647368347800e-01 -1.946051269384412308e-01 -4.503684347250657694e-01
2.127535218743632425e-02 1.165330014016464910e-01 -7.927484778110153174e-01 8.020488468670583515e-01 -2.948882218134940003e-01 -5.193828875453033733e-01
-1.130765843723512652e-02 1.017454301046946119e-01 -8.375674814325115847e-01 8.099643414570832922e-01 -3.400170146668455295e-01 -4.778558310882471960e-01
-1.521002336705179134e-02 -1.190957876331050561e-02 -7.905098669878160011e-01 9.421933652346302646e-01 -2.863864931508851019e-01 -1.739380322085444242e-01
-4.785154150759319408e-02 -1.336587258673378464e-01 -8.479303727744347263e-01 9.915965416411924860e-01 -8.409111925807143118e-02 -9.831064167805822485e-02
-6.859134611331202391e-02 -3.575474975168586866e-02 -9.004325096516508919e-01 8.970203744272466917e-01 -4.187271444883244181e-02 -4.400012768698388643e-01
9.215919366640615285e-02 1.936092252281334247e-01 -7.619206190969767256e-01 4.866383540936111141e-01 -5.773937768054286934e-01 -6.555909844037087764e-01
-1.878539222233203618e-02 9.743158065055035344e-02 -8.483373547319976726e-01 8.375318637119820719e-01 -3.228179749617169914e-01 -4.408275539354928330e-01
-4.309427117606754593e-02 7.108694588207387088e-02 -8.814402174215962837e-01 8.979115591190051093e-01 -1.722842704376622291e-01 -4.050592082155887175e-01
-5.225426850318263400e-02 -1.983723529854792278e-01 -8.708504755415452658e-01 9.908464757314313642e-01 7.871824871603151988e-03 -1.347638523632825602e-01
-6.064580915597067579e-02 -2.361997792513317873e-01 -9.366647860948749127e-01 9.366013450879198121e-01 3.499358103413692800e-01 -1.796799989505156250e-02
6.039819989296354302e-02 1.284452608700293874e-01 -7.368116335128129801e-01 8.343298585608741602e-01 -4.448821548446075247e-01 -3.255357974395601817e-01
-5.091989870532141749e-02 -9.502612185348384422e-02 -8.564982761374962950e-01 9.136999513961374664e-01 -2.127097439638944362e-02 -4.058324093353364859e-01
-6.404839044058535658e-02 -6.200403180240179196e-02 -8.883138281056638386e-01 9.017525115471967112e-01 -4.841732372760690351e-02 -4.295325024737693398e-01
-1.767884227350865686e-02 -6.833663518578141083e-02 -7.422862230965080466e-01 9.237929069432135876e-01 -2.060358319877443611e-01 -3.227319336826233176e-01
1.161698555019845432e-02 6.400261743003554660e-02 -7.833863381721237751e-01 7.736878139084342187e-01 -1.896360943672964205e-01 -6.045207344026389817e-01
-7.934716027608308686e-02 -1.236890143561352080e-02 -9.250545809770239769e-01 8.803371648680520245e-01 -1.098084917706207558e-01 -4.614635102444631931e-01
-4.707007283948887177e-02 -1.843117288790213637e-01 -8.391072359656785995e-01 9.741561420791553516e-01 4.682416020201886353e-02 -2.209690224235788258e-01
-3.174384557302310089e-02 -5.976530481918022192e-02 -8.115912878842227451e-01 9.699236236429362723e-01 -2.184641576890474501e-01 -1.073386049125414077e-01
-2.330676996998526113e-03 -1.144245348736731144e-02 -7.461146968310884420e-01 8.882120571466811665e-01 -3.393671321960470277e-01 -3.096922522832811220e-01
-3.871932006826530465e-02 -4.861751170581549153e-02 -8.349265313921079290e-01 9.039725585718353384e-01 -6.624113272784733220e-02 -4.224283675181167430e-01
1.346838773899581947e-03 -4.586899695957861317e-02 -7.067484616532153652e-01 8.694126149619446631e-01 -3.108742009376829207e-01 -3.840298635996820531e-01
8.838367140679957712e-02 1.366785621515332061e-01 -6.842555480341918628e-01 6.966261143095870967e-01 -5.997884696390507475e-01 -3.936570189263384201e-01
7.137808464307059120e-02 1.185986865375257965e-01 -6.960840893759532300e-01 8.109917213246676804e-01 -4.593066003527938590e-01 -3.623946396060672703e-01
-7.005699520002847680e-02 -1.276680722128405443e-01 -9.053928746060634358e-01 9.533762044944984471e-01 5.729922020995076304e-02 -2.962948060074552803e-01
3.141249278668161588e-02 7.871729673901539659e-02 -7.532000136142847913e-01 8.723028314827797614e-01 -3.621519205052270984e-01 -3.285327330137755575e-01
6.675940017829931628e-02 8.932325101952780233e-02 -6.763968513076232814e-01 8.818251126401928097e-01 -3.124593332615341890e-01 -3.532048071231033703e-01
-1.412532881788611597e-02 -1.075608658205114421e-01 -7.206534342951085303e-01 9.409146536789387838e-01 -1.644031439915555337e-02 -3.382444834061587580e-01
-3.609980033849406050e-02 -1.422357422833181451e-01 -7.881601646112980086e-01 9.595715718207044054e-01 4.791429476921148234e-02 -2.773564834474065988e-01
-4.560142811211909120e-02 -1.303555867149520098e-01 -8.326683976431233924e-01 9.856775166965374702e-01 -8.052672403083757646e-02 -1.481731412767118838e-01
-4.151768076225790562e-03 -7.260620537243883676e-02 -7.039705307474553031e-01 9.186774979787181161e-01 -1.649985237075698719e-01 -3.588971187985279254e-01
-6.068269665855904188e-02 -1.755280553060757920e-01 -8.932886145426444102e-01 9.122353256471170679e-01 1.523048609714761359e-01 -3.803024322377620559e-01
-5.316695835122099006e-02 -7.245692122613785202e-02 -8.633217608804626408e-01 9.104589854265099369e-01 -5.486148960914034867e-02 -4.099446948235777599e-01
2.150946129393695345e-03 -7.884819994156956613e-02 -6.855257045404090643e-01 9.203914094571139515e-01 -1.451986860930204737e-01 -3.630385584953859102e-01
2.262270771306780051e-05 2.305357173935398268e-02 -7.788681240218939816e-01 8.997003886422862973e-01 -3.607317583121754101e-01 -2.457881388959307634e-01
-3.469817062665699753e-02 -3.323409901370486669e-02 -8.295782918249694493e-01 8.951245276643582383e-01 -8.663940313387444303e-02 -4.373164687023178843e-01
-8.089126645635577595e-02 -9.897191740207314514e-02 -9.328315732606735633e-01 9.574008981847961230e-01 8.108656630080780803e-02 -2.771434446644736038e-01
-5.254871564677308926e-02 7.002182949310407911e-02 -9.022448312031441375e-01 9.003650330930961232e-01 -1.762606221125216643e-01 -3.978379070372438098e-01
5.473800630015931978e-02 3.292237969955186944e-02 -6.618940773711892156e-01 8.767057944865195296e-01 -2.566357675750325917e-01 -4.068476775341531848e-01
-5.239803388966005060e-02 -2.428522048467533223e-01 -8.892063601022610619e-01 9.947345095127051451e-01 8.058942675810870648e-02 -6.331350471516430933e-02
3.354285832813931351e-03 1.123653443016504605e-01 -8.193703898955769782e-01 8.204764605200879357e-01 -3.484086273482606688e-01 -4.532436498415938764e-01
-1.095680581655112881e-03 -4.063120423533119613e-02 -7.165181491787318002e-01 8.694126149619446631e-01 -3.108742009376829207e-01 -3.840298635996820531e-01
-1.640605561935224235e-02 -1.165611082472529786e-01 -7.265604115006299990e-01 9.409146536789387838e-01 -1.644031439915555337e-02 -3.382444834061587580e-01
-4.558846257399522955e-02 -1.347924472154911069e-01 -8.309825984067312765e-01 9.851394826292144691e-01 -3.635573057563439708e-02 -1.678644114139599408e-01
6.187045625981472258e-02 9.025526364537002355e-02 -6.889028593646572274e-01 8.722162004105060706e-01 -3.379576255036452759e-01 -3.535866840046408832e-01
-3.353719693991175782e-02 -8.879027020255456093e-02 -7.886873425381623059e-01 9.635162031735242660e-01 -1.643466165019835390e-01 -2.112503629971458352e-01
-6.857989020337607045e-02 -6.028410568376850465e-02 -8.983195348773073130e-01 9.072977104962889339e-01 -3.382525056017657468e-03 -4.204752347670878132e-01
-4.589942493005887830e-02 5.697057817332551455e-02 -8.815586828023239674e-01 9.015968913056575662e-01 -1.665590282835060776e-01 -3.992256701230874616e-01
-5.370160588139340913e-02 -1.370451122975865632e-01 -8.660775133134342996e-01 8.897284591478973326e-01 8.330765378616097894e-02 -4.488241346039150148e-01
1.915493203902535746e-01 2.306390971774022469e-01 -7.606075267698531039e-01 -1.547001057462548887e-02 -8.340800182966182641e-01 -5.514265153682167409e-01
9.685918388519983505e-03 7.589217444305290661e-02 -7.902557094839803842e-01 7.871250985207767226e-01 -2.242487961817155040e-01 -5.745838117191510719e-01
3.520725519280341193e-02 8.142200157644889635e-02 -7.462171553352151543e-01 8.640777037886007150e-01 -3.613157741580065863e-01 -3.504577480382186638e-01
-4.210776214903372977e-02 -1.901065681601770974e-01 -8.200646609662106679e-01 9.620495879262083161e-01 5.556123354950782273e-02 -2.671582671329292835e-01
-2.508463064139170723e-02 2.469396692152577358e-02 -8.266120424975611503e-01 8.778339021022917299e-01 -1.409269234583526709e-01 -4.577633040823909649e-01
-2.002607268929487358e-02 -4.526266475684869589e-02 -7.695430156173891367e-01 9.396573298030378441e-01 -2.414630147484772837e-01 -2.423627757226789470e-01
-2.602907407765260236e-02 1.098021768845071217e-01 -8.709465929084670988e-01 8.086614433479224484e-01 -3.697256887643210477e-01 -4.575692134641524689e-01
-6.528537946664700331e-02 -1.991787269360507096e-01 -9.161788827928131207e-01 9.513836580137033927e-01 1.504683526571229668e-01 -2.687534373977683577e-01
-9.912535060235956944e-03 7.337436372684541519e-02 -8.188594494814050995e-01 8.343837501579857152e-01 -2.119759789842873832e-01 -5.087926314383383053e-01
3.487431595937803830e-02 1.691492235465869853e-01 -8.080236520016004231e-01 8.323670700439221859e-01 -3.634864095689882002e-01 -4.183810353794035763e-01
-7.004099492958670847e-02 -6.742267239146899904e-02 -9.012332005738716845e-01 9.118123844299479419e-01 -1.931474386454250930e-02 -4.101525524358222152e-01
-7.791264496345975954e-02 -5.227468898924662877e-02 -9.183782381545337881e-01 9.160909358811676340e-01 7.707299052311448496e-03 -4.008964888068796695e-01
-6.356502264936154944e-02 -2.240174008970018393e-01 -9.277769810406708562e-01 9.670409602600625876e-01 1.901263734288383411e-01 -1.693627565496440002e-01
-7.592000320978846417e-02 -5.155949465977987395e-02 -9.141118097549907340e-01 9.043814424390529405e-01 -1.651837008505047761e-03 -4.267217805624121119e-01
-7.266362804203277403e-02 -1.589375782682980187e-01 -9.285147510803388737e-01 9.882567133498202372e-01 1.197455438548296891e-01 -9.491929859581967055e-02
4.398269999494236471e-02 4.012451631233815430e-02 -6.901221918310626036e-01 8.615452335023440211e-01 -3.026841580092006212e-01 -4.075808031785260188e-01
-5.536195250510886345e-02 -2.070057782949185909e-01 -8.972326356849770201e-01 8.224154269887363755e-01 2.796215391788017257e-01 -4.954237179205413510e-01
-2.288296753211685811e-02 -5.709274363486493281e-02 -7.685702328719959953e-01 9.387866126180763882e-01 -2.483702878441284012e-01 -2.387297553412690843e-01
-7.749264126606304759e-02 -4.280624898075451740e-02 -9.177595596695286018e-01 8.960047190157246488e-01 -3.773785032468928574e-02 -4.424380161722357152e-01
-2.483740772855824383e-02 7.687640859147837000e-03 -8.206452577847649366e-01 8.729100881099011167e-01 -1.478200541588346462e-01 -4.649486097026677145e-01
-4.585333815283400283e-02 -1.240726779760790710e-01 -8.380971067606208802e-01 9.859897504641076393e-01 -9.853026751707462394e-02 -1.345956847849898441e-01
2.760253290699599474e-02 1.825525353339077228e-01 -8.368189902324875140e-01 8.713524894281935440e-01 -3.616171553724830678e-01 -3.316291183047763158e-01
8.291734368549330547e-02 2.164777758883558167e-01 -7.910304971879734692e-01 5.341631302095232181e-01 -6.012432599208608064e-01 -5.942863726558941240e-01
4.850362960326369544e-02 1.883107344872672617e-01 -8.027195087496933334e-01 7.348092325713316830e-01 -4.877086981668615207e-01 -4.713763013350543152e-01
-7.677026384081993282e-02 -1.435634347924223120e-01 -9.438059166773372644e-01 9.786744029096374753e-01 1.748910130275070085e-01 -1.077476062456924899e-01
-5.985775546072917563e-02 -2.095366300481044941e-01 -9.069286945821583013e-01 8.839914472737092632e-01 2.192756279710698086e-01 -4.128889924965617464e-01
4.736574471664986574e-02 1.142142779629782591e-02 -6.632299405347008570e-01 8.556278192026386398e-01 -2.871094975103659075e-01 -4.306613187249139774e-01
-2.485016279419162769e-02 -9.182451162757007679e-02 -7.536170616747339679e-01 9.506036203578707156e-01 -1.012049012947209420e-01 -2.934456081055479282e-01
-6.107795337466647573e-02 -3.599868878058525706e-02 -8.853782284286458859e-01 8.939165270895623738e-01 -7.584297551081539690e-02 -4.417703992593905449e-01
-1.378365181657418420e-02 -6.311126563251638621e-02 -7.343598530388132373e-01 9.273681706552542314e-01 -2.037444819049853695e-01 -3.138095953740048238e-01
-5.637142053666942265e-02 4.268112584315605917e-02 -8.990042227444796641e-01 8.949395491891817267e-01 -1.844687996398529928e-01 -4.062689567964744008e-01
-2.860727187643396716e-02 -4.503254964467030830e-02 -8.168491139463637252e-01 8.083565875104071763e-01 -2.544585357220356409e-03 -5.886876527615380050e-01
-4.850877565623748500e-02 -6.554112741367544570e-03 -8.652245185821244577e-01 8.977791005147609527e-01 -1.129397264141241281e-01 -4.257197492205516132e-01
6.765101864722759817e-02 1.458081386276752767e-01 -7.471390497204554171e-01 8.086239011590641290e-01 -5.425090061633414118e-01 -2.276210989911951754e-01
-3.376573147797554825e-02 -1.125375788870007498e-01 -7.791879922223178268e-01 9.683144953820641554e-01 -6.836686297019672898e-02 -2.401936928409912908e-01
-4.774247670349950068e-02 -2.337456631448879274e-01 -8.492603838430267116e-01 9.843666939277591066e-01 1.315414230111398679e-02 -1.756393476019967870e-01
-4.943424799966372046e-02 1.574844119484753585e-02 -8.736169302337907228e-01 8.978342036125560588e-01 -1.451330578913523073e-01 -4.157284430136005682e-01
-1.735128857275030148e-02 8.180758220498114686e-02 -8.357105917730414113e-01 8.524275087494590508e-01 -2.409021759834380216e-01 -4.640403904119072553e-01
-7.147328279182314781e-02 -1.543440594239567643e-01 -9.184608173021461264e-01 9.756515381767524309e-01 8.861453138353110603e-02 -2.006278666611744643e-01
-4.125589732022125200e-02 -2.029437862074016941e-01 -8.196735132701334914e-01 9.517267763044336970e-01 6.371443054838152320e-02 -3.002609108842938523e-01
-4.154782969633700335e-02 -2.190801835417226229e-01 -8.221956285933738062e-01 9.640313126099453456e-01 -6.434411565251024930e-03 -2.657107951426788683e-01
3.125759030117122167e-02 4.770095512186741521e-02 -7.237086739095307530e-01 8.597976926495946026e-01 -3.342849101008654733e-01 -3.860071587332148946e-01
-1.705379612899889444e-02 -1.071912839413040469e-01 -7.287970437312090155e-01 9.313449438157271887e-01 -1.979114416982029334e-02 -3.635999260744275374e-01
5.835688711415922686e-02 8.353246585438414695e-02 -6.914225144478052254e-01 8.787503411272594711e-01 -3.124827458760697785e-01 -3.607663669169794973e-01
3.076274086038006603e-02 1.376425176205126888e-01 -7.904789565340487600e-01 7.830693305694311768e-01 -3.079917840541495644e-01 -5.403179475796496822e-01
-6.081386609109779712e-02 -5.451094769158763842e-02 -8.823679558794859101e-01 9.017525115471967112e-01 -4.841732372760690351e-02 -4.295325024737693398e-01
-5.011751561393959498e-02 -1.295757954863092087e-01 -8.577615967014827758e-01 8.528725079446413115e-01 1.225612177332354169e-01 -5.075305243036758451e-01
3.462836002347986775e-02 1.608659731966833595e-01 -8.013228600599532347e-01 8.092305683071052691e-01 -3.609518551891724436e-01 -4.635295519736083447e-01
5.267176339023266207e-02 1.933578058111382059e-01 -8.012032578295614771e-01 7.531549446785621438e-01 -4.320075039383103332e-01 -4.961120295328694252e-01
2.584228800319686714e-01 2.312842284598220499e-01 -7.681702249958665130e-01 -9.861035564330761227e-02 -8.997244823190176932e-01 -4.251727339278427720e-01
-4.768629533801430759e-02 -1.084203126244037280e-01 -8.498983853029605795e-01 8.934875289900388040e-01 4.249287751528180862e-02 -4.470731381997193887e-01
-1.356543869347802238e-02 8.441183234653351630e-02 -8.305252749706830695e-01 8.385250038284481899e-01 -2.894284691045616031e-01 -4.616351148107025182e-01
-6.812505176976954568e-02 -1.183274699838352956e-01 -8.980360514309511100e-01 9.279175420976115696e-01 3.304880617204840332e-02 -3.713176692242495802e-01
3.771031069841247751e-02 -5.170174064325286237e-04 -6.731358020164637246e-01 8.372362876387304809e-01 -3.170197884763609752e-01 -4.455713774192866516e-01
-4.731343303873881273e-02 -2.171029110199054757e-01 -8.454381784664470878e-01 9.742849298790580148e-01 4.750619051304519336e-02 -2.202544829816117933e-01
-1.828570782438756342e-02 1.032851387356702316e-01 -8.516285936351736252e-01 8.185055385566832875e-01 -3.310185654440739866e-01 -4.695480728140422055e-01
-2.292503178632123578e-02 -1.414375720291574656e-01 -7.483263484654374409e-01 9.347745051456963772e-01 9.940658087110473828e-02 -3.410497855286448998e-01
-5.270945042687484594e-02 -2.233693028596198948e-01 -8.804273871534038509e-01 9.950485981964135584e-01 9.168020460541059097e-03 -9.896582555704491746e-02
-4.363133427874551357e-02 -1.522341293883636426e-01 -8.193002686097868859e-01 9.811513289525694015e-01 -1.658439817672592662e-03 -1.932338460828683935e-01
1.815074334239242804e-01 2.256964806276511859e-01 -7.550060280936293777e-01 1.983795656207979277e-02 -6.487529072648753337e-01 -7.607405081858155116e-01
-4.738062128939659473e-02 -2.577403267846138379e-01 -9.168988234316302055e-01 9.310813085095115404e-01 3.100293348518058933e-01 1.922743052921077334e-01
-3.201835947077933536e-02 -1.864650812058058771e-01 -7.882945456327770106e-01 9.439960600869502505e-01 6.806406540532800031e-02 -3.228602198178244231e-01
-3.967199340178416411e-02 1.344161505292624202e-02 -8.521792517941855216e-01 8.946614839653778128e-01 -1.306076327004366822e-01 -4.272264919094504454e-01
-3.043435723352979835e-02 9.515221424155639873e-02 -8.682716904087680598e-01 8.607093769613767265e-01 -2.684792405708574248e-01 -4.325485704441227042e-01
2.754500094004957989e-02 5.273433155832402824e-02 -7.368269426625364549e-01 8.645181877447929431e-01 -3.418799150110897189e-01 -3.684106767867468268e-01
-2.433189580688945031e-02 -2.724321821495290577e-02 -8.116757284386393323e-01 8.368114050810260274e-01 -6.210619193334616234e-02 -5.439572531457387283e-01
1.608057366194804993e-01 2.149297465026493992e-01 -7.440066747794196189e-01 2.123909185432289182e-01 -9.370718630193723975e-01 -2.771036290952649250e-01
-4.685042949542782970e-02 2.244407056703482187e-02 -8.703742282094473204e-01 8.978342036125560588e-01 -1.451330578913523073e-01 -4.157284430136005682e-01
5.731891402443467509e-02 1.761069078131441423e-01 -7.804211082664999077e-01 6.846169625916331825e-01 -4.337220625071337987e-01 -5.858197564322700224e-01
3.366570213523741723e-02 1.600883678586131065e-01 -8.023746227621059157e-01 8.006610480523260742e-01 -3.995139702774228585e-01 -4.464644148024802250e-01
5.186960214500955374e-02 8.039770541075010046e-02 -7.043417762696471129e-01 8.770049736230061121e-01 -3.113053589905900309e-01 -3.659935104673992523e-01
2.308035470607109341e-01 2.307209162218655241e-01 -7.623558748335851343e-01 -2.496814679097842868e-02 -8.945350387321676644e-01 -4.462999620504839449e-01
-5.025961479825787753e-02 -5.158515163965803063e-02 -8.597521771886912356e-01 9.079831092915854329e-01 -7.092099502488358187e-02 -4.129611188790842102e-01
7.024910813147941524e-02 1.386690927901934878e-01 -7.266635665118944543e-01 8.162344458317553064e-01 -4.944666584830059164e-01 -2.987709040157313090e-01
-6.462433686199214877e-02 -1.725680383321121641e-02 -8.958394406288235912e-01 8.948804057506217768e-01 -7.665215376113440615e-02 -4.396743189309354483e-01
-5.404853888556467034e-02 -2.387190180752471191e-01 -9.173553928953948056e-01 6.869329453630846904e-01 5.423010479562260233e-01 -4.837692652085044953e-01
1.003618938496074614e-01 1.889978368237652806e-01 -7.522799234596554419e-01 4.643110565586259231e-01 -5.347574038736784274e-01 -7.060097462214639519e-01
-4.733752786940718243e-02 -1.781222821447470683e-01 -8.392890375277676229e-01 9.829847205697714863e-01 1.533811560578013898e-02 -1.830458449023958933e-01
