1.046615305188556277e-01 1.543577470085490677e-01 -7.509581273700922655e-01 6.377149783454780785e-01 -6.398543473511827395e-01 -4.288426524608042745e-01
-3.869334227627040795e-02 -1.051089994351695617e-01 -8.777988096154556441e-01 9.740693684854240253e-01 -9.197922497420377153e-02 -2.067091859389707242e-01
-2.041728747716260034e-02 -1.963648307922169212e-01 -8.382689449584083130e-01 9.040826554146234040e-01 8.762123628600092251e-02 -4.182787003065733256e-01
-4.915207323815575478e-03 -3.347194498662580536e-02 -8.070002296600258251e-01 8.980000001102200757e-01 -2.423175566791017366e-01 -3.672576772881881446e-01
9.337617562874357680e-03 -7.140422604059110112e-02 -7.574949784321036717e-01 8.922481497168467390e-01 -1.190781806080950245e-01 -4.355612772388396392e-01
-2.696122050170839720e-03 1.070592283085312485e-01 -8.800152818364330720e-01 7.750766422970752911e-01 -3.005506295695011265e-01 -5.558106850635997631e-01
-8.355682390931511161e-02 -1.433497534980563703e-01 -9.923008990222739190e-01 9.591529911023812804e-01 1.998198356456286628e-01 -2.002437837784467323e-01
4.865789210114470492e-02 7.146808311745682374e-02 -7.773726345152329742e-01 8.504832801256680952e-01 -2.991393410634538008e-01 -4.326590399550286903e-01
1.196597737767032647e-02 2.499859153599658101e-02 -8.149723642295718662e-01 8.582162200350600401e-01 -3.290374002429564126e-01 -3.939534349515055878e-01
-4.574702668188557371e-03 -6.561840519100951841e-02 -7.885416344874175421e-01 8.911605813711946933e-01 -1.541562126303945290e-01 -4.266950671353102464e-01
-6.419109476451403951e-02 3.463189502083544730e-02 -9.513374739521606172e-01 8.548369472774561828e-01 -1.520801240638230134e-01 -4.961102996653985464e-01
4.922588038168770191e-02 6.970581094354133533e-02 -7.750950297189753702e-01 8.439560600644511190e-01 -2.950893925244072458e-01 -4.479513579620724717e-01
2.415133023512910232e-02 -1.416471056451098706e-02 -7.623275113003961101e-01 8.209083685614653181e-01 -3.196071544421935640e-01 -4.732448808546347863e-01
1.288045968572482450e-02 -4.414871620914005007e-02 -7.626395651205941650e-01 8.403016926599544689e-01 -2.795074358981077811e-01 -4.645090511394590060e-01
-4.622680554443747009e-02 2.965160269395712353e-02 -9.174380220283339105e-01 8.632699860216523913e-01 -1.279432547746757742e-01 -4.882575701326489215e-01
-4.675381574309123156e-02 -1.654302731295303197e-01 -9.029749282346746231e-01 9.748356635261177239e-01 1.003656179924343472e-02 -2.226986675865924026e-01
4.981533680741304787e-02 7.959585741389721414e-02 -7.807169531203610457e-01 8.504832801256680952e-01 -2.991393410634538008e-01 -4.326590399550286903e-01
2.562922861713034378e-02 1.562569786371328096e-01 -8.678002862448275234e-01 7.768552148629020992e-01 -3.803545528418881272e-01 -5.018230657041996556e-01
6.341325651316429002e-02 3.852781284231459463e-02 -7.304625122391233960e-01 8.498201253350432527e-01 -2.334313545773994691e-01 -4.725627548545184298e-01
5.853799770882678333e-02 1.856909562104746281e-01 -8.483513148582028096e-01 5.877331319964762546e-01 -4.975176283226034335e-01 -6.380015478522480521e-01
3.653430916685872915e-02 3.435104654457837858e-02 -7.751812442003923609e-01 8.237456341046069941e-01 -3.140134903871310001e-01 -4.720578970301101962e-01
-3.720200121447549829e-02 -2.225103567292308904e-01 -8.828206164477584439e-01 9.428746893978151578e-01 4.846342496262500549e-02 -3.296037265169577957e-01
-1.171613366865470809e-02 -8.538067803756399510e-02 -7.985021474579635514e-01 9.074721258807343371e-01 -9.964353936097691822e-02 -4.081243754214125552e-01
6.653178414606558677e-02 1.415157316559576550e-01 -8.029038976979521181e-01 7.954765907710047435e-01 -4.775973638408753108e-01 -3.729849213943990938e-01
-5.929392649277542143e-02 -4.867913570933930095e-03 -9.324723996155008798e-01 8.651005760954609825e-01 -1.063618286885691377e-01 -4.901919569284310385e-01
-4.714258191134119980e-02 -1.935210141962366293e-01 -9.094947976606320150e-01 9.694239897437285647e-01 5.800745232541469620e-02 -2.384371271091521860e-01
1.529822328543265809e-02 1.363168177127586367e-01 -8.706955874205946078e-01 7.860373742515853746e-01 -3.069963164119057231e-01 -5.365617466696578353e-01
-3.879309651561427957e-02 -1.896006681096360502e-01 -8.804286366287393806e-01 9.437108987005454752e-01 8.102763604417814736e-02 -3.206934079006008020e-01
-1.685520286389984024e-02 8.720028763216668144e-02 -8.901247845524664637e-01 7.920408601597271891e-01 -2.479299095913451989e-01 -5.578548518812638246e-01
-5.526067595054615089e-02 -2.267674342318673764e-01 -9.563093571580645325e-01 6.989164021712456210e-01 3.440842976038670509e-01 -6.269943053317589277e-01
-6.805707304747052322e-02 -2.017809254546082121e-01 -9.690994658531517647e-01 9.549319788064655201e-01 1.576563259121196436e-01 -2.514943314523402362e-01
-3.368691110823737039e-02 2.306044443216782175e-02 -8.944847386492865704e-01 8.418007787447628898e-01 -1.193427941373744056e-01 -5.264301913760218721e-01
-4.511607617548739346e-02 8.241938827978632920e-02 -9.324164044672006435e-01 8.528226232876729984e-01 -1.859460758930659430e-01 -4.879729808797840240e-01
-6.614552433841169865e-02 -1.901029140589073074e-01 -9.584598211687225255e-01 9.185341423022526097e-01 1.626890703732951360e-01 -3.603155503251815883e-01
-4.323194189687767919e-02 -8.006544420974620602e-02 -8.956982718223966966e-01 8.703263079694897320e-01 -1.668280247960958126e-02 -4.921928501691415492e-01
9.137280890868146321e-02 1.588811205192069698e-01 -7.787425888605977731e-01 6.949221019008172684e-01 -5.949086987220201239e-01 -4.039392435436580109e-01
-3.319457126219562543e-02 -2.267782832006712268e-01 -8.720242648370748473e-01 9.387674499835183539e-01 3.155323685277060253e-02 -3.431035821666038044e-01
3.690106800840092793e-02 -1.175322331979357197e-02 -7.436083480658737255e-01 7.904857158585187893e-01 -3.576311699841424607e-01 -4.972245763027192123e-01
-4.540136211467996757e-02 -1.406057094599239554e-01 -8.973588420714661007e-01 9.749631768152551281e-01 -2.582744935352145402e-02 -2.208613744279360747e-01
8.495344321681516653e-02 1.182661507001683682e-01 -7.408960469076166788e-01 8.078448970770394366e-01 -4.074098608759506579e-01 -4.259152821015301793e-01
6.430459107902770921e-02 2.082279332580869724e-01 -8.618939451507509064e-01 5.619313296462130625e-01 -5.424502197964997663e-01 -6.244845392840145948e-01
-3.375238864039212250e-02 4.129900814386387037e-02 -8.994706693061282898e-01 8.396198864464685663e-01 -1.389173768408650811e-01 -5.251099015399274261e-01
8.762357521237172653e-02 1.692762948175841331e-01 -8.019352911122059613e-01 6.523758465953988228e-01 -6.665827552788069488e-01 -3.606566028008504343e-01
-7.753493914678798171e-02 -1.663607465650921713e-01 -9.854397906629279724e-01 9.570911948780320699e-01 1.853036748003837053e-01 -2.227980987181314709e-01
1.588084946633770700e-02 4.637221496593344969e-03 -7.909336165580583833e-01 8.341536316542718099e-01 -3.486686427723427184e-01 -4.273381522228993368e-01
-3.980312614905442969e-02 -1.150209441945076044e-01 -8.785551039940123763e-01 9.697153221010043067e-01 -9.233476187650808964e-02 -2.261116667307416783e-01
-5.248737901854939186e-02 2.426854213573384836e-02 -9.271550561669986701e-01 8.637398609944184624e-01 -1.200585338559677778e-01 -4.894276258832331306e-01
-1.368102172221230886e-02 6.313360276524833392e-02 -8.762444968754135033e-01 7.919692355181908727e-01 -1.960239541596297541e-01 -5.782381338067871246e-01
-4.618388929698359624e-02 -2.421066214432836261e-01 -9.192516699542115921e-01 9.703260937362411243e-01 1.068937701586847866e-01 -2.168893582355519156e-01
1.180914793121265113e-02 1.655238184615455133e-01 -9.005916706548761086e-01 8.436069622829821535e-01 -3.438932042068685302e-01 -4.123890848313181978e-01
6.021597172235310103e-02 9.603855595191952699e-02 -7.715915489887685830e-01 8.557053762350205206e-01 -3.038648443195944848e-01 -4.188489769226023673e-01
3.893336741950084029e-02 1.502192100551243137e-01 -8.466947129398012528e-01 7.137901289115092807e-01 -3.289591557615122452e-01 -6.182956620494468591e-01
-6.915640152309521227e-02 9.636461554504687638e-03 -9.528097689257772895e-01 8.426853696644577285e-01 -1.411856044269184651e-01 -5.195651959630109840e-01
6.600229283253578050e-02 7.033770344421594323e-02 -7.431881658629039267e-01 8.543895627677202675e-01 -2.703121105146425451e-01 -4.437903085272404957e-01
2.661455352184718959e-02 -3.210788079589563249e-02 -7.459791224157003020e-01 8.054082705842046108e-01 -3.337622366920957595e-01 -4.898165850936961885e-01
-6.089098463712590975e-02 -2.441954984110591698e-01 -9.913506056446724779e-01 8.800691162908192977e-01 4.742916586388192246e-01 2.292974262250108489e-02
6.944063626160349584e-03 1.685392231559087184e-01 -9.139707730781494455e-01 8.565684242825623018e-01 -3.336059123471152299e-01 -3.936973834928766958e-01
1.367389569618730413e-02 1.026632036092633427e-01 -8.556977617485190812e-01 7.537725917911177742e-01 -2.427051681151832785e-01 -6.106726465420581063e-01
-5.182788403945663008e-02 -2.023802088012603417e-01 -9.373272906836441765e-01 9.993794442761220198e-01 -2.973949451317622200e-02 1.887561454496902366e-02
-2.972199097543282847e-02 -6.658374060434049668e-02 -8.621791971330449167e-01 9.610982330993195211e-01 -1.670982034976005171e-01 -2.199281171684066838e-01
1.167232416820245672e-01 1.814961931451586075e-01 -7.787811591998365923e-01 5.041487927957584159e-01 -7.668654248418825814e-01 -3.971793233599380524e-01
-6.157625256912975173e-04 -7.972640407942052643e-02 -7.754612397933290380e-01 9.062874042246958917e-01 -5.503740529881803734e-02 -4.190632708334580681e-01
-3.666943622642168492e-03 1.891337870641110475e-02 -8.493294387801407774e-01 9.186447151489335328e-01 -3.231370631858078157e-01 -2.273198753399844341e-01
1.532202192347064708e-02 7.196467634121707369e-02 -8.431796968190455877e-01 7.207533815343529771e-01 -1.916771050624115347e-01 -6.661639816154042437e-01
2.588473930850334059e-01 2.424686535161146850e-01 -8.596009594718128088e-01 -1.246969563455528618e-01 -9.167645375491828563e-01 -3.794646910720257948e-01
3.443772830558571030e-02 1.446678084823012911e-01 -8.490977150313249178e-01 7.476430791754121730e-01 -2.924535789779331152e-01 -5.962388198566964670e-01
-2.696227120348846859e-02 -9.723785077347150974e-02 -8.361653083950966181e-01 9.488837137512053932e-01 -5.516898226124801463e-02 -3.107669241955756667e-01
-6.228990711137665642e-02 2.492485823681714341e-02 -9.449614110085911012e-01 8.692757539220321572e-01 -1.422851619873009843e-01 -4.734074316289616502e-01
-3.570585343448759441e-02 -8.584310743193675208e-02 -8.749723442782392224e-01 9.721045475672255298e-01 -1.477792010950799428e-01 -1.821374654562311068e-01
8.267124777566203786e-02 1.389998728451325716e-01 -7.671182216637641993e-01 7.509593114982666684e-01 -5.129823251561561603e-01 -4.158235762332783692e-01
-2.491890102058933430e-03 9.994055575864640995e-02 -8.759299821934303232e-01 7.836777243438131091e-01 -2.846052059706873916e-01 -5.521314165139356023e-01
-1.145109709835004028e-02 2.528695841176766337e-02 -8.619429400608493719e-01 7.935027344873284427e-01 -1.515841128996536780e-01 -5.893858388844759322e-01
4.673944646819339771e-02 3.279793558673219783e-02 -7.565161428959217282e-01 8.307989368754666870e-01 -2.805360445843143036e-01 -4.807001707671651469e-01
-1.464278171959904583e-02 1.307696023054693291e-01 -9.183492837713653767e-01 7.605116227151482722e-01 -4.429472647033405042e-01 -4.747839428698076847e-01
-5.651405969824675052e-02 -1.978943343960052337e-01 -9.436238544524105931e-01 8.334020789018473652e-01 2.305514755030226570e-01 -5.022817854804789706e-01
-5.038784361448921806e-02 -1.724923339672072287e-01 -9.241136142326761282e-01 9.958249792159392655e-01 -8.477264179968226065e-02 3.385572288220631970e-02
-1.161363574288196664e-02 -8.867511601978968205e-03 -8.454326526893912730e-01 9.097022012231218424e-01 -2.728943910178711629e-01 -3.130024863172686245e-01
-5.313916162526408082e-02 -2.524615442843604063e-01 -9.777187748643230147e-01 6.775243275155117262e-01 6.578092018410882647e-01 -3.290103943613993942e-01
-6.202926066515397630e-02 -1.541912363453677159e-01 -9.375924347703135098e-01 8.731333164516482670e-01 1.167505841182155252e-01 -4.732943194358044670e-01
-7.607607240257673042e-02 -2.371960207758227676e-02 -9.572899183977668924e-01 8.430970737943404014e-01 -5.829173156108696796e-02 -5.345927404960064688e-01
9.172610342545677031e-03 -5.375204520102534744e-02 -7.649846011728875794e-01 8.720934856878950203e-01 -2.066514467847964109e-01 -4.435629963855049485e-01
-4.117682895630719875e-02 -1.642146601768300629e-01 -8.824947290253535304e-01 9.585510002543897734e-01 4.824622787940939517e-02 -2.808064839114599587e-01
-1.903196167751859333e-02 1.202253205247884871e-01 -9.155426631582647135e-01 7.605116227151482722e-01 -4.429472647033405042e-01 -4.747839428698076847e-01
3.206561291867340759e-03 1.508412034518395728e-01 -9.050117496534711981e-01 8.302375857307575657e-01 -3.875629985883759510e-01 -4.006251032638235565e-01
-3.822227458370444642e-02 -1.751499879398039916e-01 -8.754452719287573181e-01 9.484747740236945113e-01 6.398353598635798944e-02 -3.103251684336677529e-01
7.936564761068656826e-02 1.457955947340766889e-01 -7.820066497132641681e-01 7.493575971906583089e-01 -5.285987280484525375e-01 -3.988064395646102045e-01
5.487052584657629156e-02 1.797719574696475808e-01 -8.475440294989954326e-01 6.511521794377128636e-01 -4.233216340205319672e-01 -6.299203389189010904e-01
-6.515163556915179455e-02 -2.343570260550597306e-01 -9.900449336807455314e-01 9.654653589493649157e-01 2.524988083265203298e-01 -6.419495667465636990e-02
-3.194885073675021725e-02 -7.065412766457643268e-02 -8.690296085755757627e-01 9.659780283482958252e-01 -1.826330593685441261e-01 -1.831163956996337827e-01
-4.078203786867468095e-02 1.079962725065005541e-01 -9.396149304579783923e-01 7.747040350819136556e-01 -3.951574254444864542e-01 -4.936438667135307767e-01
6.484650953373034821e-02 5.732938734126948738e-02 -7.379421831587595904e-01 8.555311987007341301e-01 -2.468603873537371096e-01 -4.551113239694742907e-01
-4.218958117574894695e-02 2.255094232445532809e-02 -9.086128227396181867e-01 8.533913924722488220e-01 -1.300146506484489983e-01 -5.047963172122373887e-01
-4.443907977306271045e-02 -1.995080347357553741e-01 -9.007570477319587487e-01 9.631861434874073868e-01 6.176827920390734472e-02 -2.616431399407284641e-01
-7.692296425500655399e-02 -4.730267141839420569e-02 -9.567487965770433700e-01 8.581901460508982726e-01 -1.911446333965641231e-02 -5.129759356074851118e-01
-3.178909078433311136e-02 -2.397294391198254854e-02 -8.818065736675427813e-01 8.477189571456987816e-01 -7.889307151649556371e-02 -5.245459493338042734e-01
1.985172000501797193e-02 1.434822216968842379e-01 -8.682067657482968048e-01 7.750197473785797042e-01 -3.097560442039062334e-01 -5.508135657846402466e-01
9.418575145060370177e-03 -5.882576844198567079e-02 -7.621836110209804227e-01 8.720003859210762043e-01 -1.952659124788484746e-01 -4.488725324379927439e-01
-6.042536098589480764e-02 -5.799235029603044822e-02 -9.279935846282020284e-01 8.720512602593560869e-01 -2.883202588284107179e-02 -4.885645441121981847e-01
-4.476790179018776822e-02 -1.312375640047415137e-01 -8.961529210373057053e-01 9.781067505275519158e-01 -7.989904051886227709e-02 -1.921544376188028258e-01
-6.189592566399852031e-02 -5.339904563094472617e-02 -9.308895009955998612e-01 8.720512602593560869e-01 -2.883202588284107179e-02 -4.885645441121981847e-01
7.885841012117204840e-02 1.594583809387937479e-01 -8.025738706120734145e-01 7.084769908806136662e-01 -6.060754974717684762e-01 -3.615699721452252935e-01
-3.784221773130985039e-02 -9.083395117961474974e-02 -8.823984979216160651e-01 9.725159364588346067e-01 -1.552727454270121932e-01 -1.735025298407892880e-01
1.687576245265145214e-01 2.321909947600622193e-01 -8.354401092475375323e-01 3.510832504535003895e-02 -6.560177338144338455e-01 -7.539284703693612810e-01
5.464029055076052160e-02 8.813201205529785920e-02 -7.773440048028218419e-01 8.612047481878308819e-01 -3.068500907044529047e-01 -4.051782367469947688e-01
-5.687345564445469431e-02 -1.857388087276305166e-01 -9.391075656659343407e-01 8.465886575884044030e-01 1.991126105862935924e-01 -4.936008642093064891e-01
-4.221713629748852226e-03 -1.099858136092996125e-01 -7.806946203712967769e-01 9.092970064173422351e-01 1.108083318253553357e-02 -4.160002034331720111e-01
-7.832810701997637570e-02 -1.347621171554985731e-01 -9.698842095142213848e-01 9.348711735395341949e-01 9.733358236255126861e-02 -3.413825751693936872e-01
-9.993912834054664504e-03 -7.869055254151465298e-03 -8.415037274712000581e-01 9.090019520676145826e-01 -2.913093851995105510e-01 -2.980843726731560173e-01
-6.492207726567006398e-02 -2.350567436389298381e-01 -9.925573837248549136e-01 9.330113173215243139e-01 3.582272590070010865e-01 -3.410443745738515192e-02
-3.483287487886774225e-02 -1.903762815754953264e-01 -8.698581155238362950e-01 9.338618460000491783e-01 8.454108472723771694e-02 -3.474979965100843393e-01
3.143332758058648563e-02 4.082408548348433197e-02 -7.888674538058031427e-01 8.326235044121422790e-01 -3.214738387475650772e-01 -4.509907658714839007e-01
-8.789831763794869746e-02 -2.000483621135761003e-02 -9.765079315394444848e-01 8.426672329240116888e-01 -8.827363206560528974e-02 -5.311494144194602862e-01
-5.256732006772148018e-04 -5.606238782082518385e-02 -7.834536300192715963e-01 8.990775120929939135e-01 -1.494903173059388135e-01 -4.114757250196445226e-01
-3.204855456921171242e-02 -1.244424334119204612e-01 -8.489031147839600777e-01 9.513385300908325792e-01 -8.208787066580675376e-03 -3.080383368665486343e-01
-1.178100245715503307e-02 -3.760402894367892435e-02 -8.219629470733106347e-01 9.079841487196068650e-01 -2.584096765064725076e-01 -3.298321160253365747e-01
3.261560590896959294e-02 1.157414994004961895e-01 -8.385446726289470520e-01 7.150852869813753010e-01 -2.482402633445071338e-01 -6.534751747368939823e-01
-7.476018897173331013e-02 -8.177359154880534109e-02 -9.529320028045479285e-01 8.744502787807141297e-01 4.898409193417670171e-03 -4.850904199504513237e-01
-8.127437719434768559e-02 -1.669514598399595914e-02 -9.666540119120193841e-01 8.373563480109191826e-01 -7.036009787387038916e-02 -5.421105081742982890e-01
-5.055056419463777040e-02 -4.748329544693558057e-02 -9.112850616295071760e-01 8.734003301042397860e-01 -4.981359858400184748e-02 -4.844486234575519634e-01
-3.975937466889230276e-02 2.431751566295626416e-02 -9.049593949380518865e-01 8.533913924722488220e-01 -1.300146506484489983e-01 -5.047963172122373887e-01
7.181174683221511201e-02 1.024922124863814898e-01 -7.528229943977855498e-01 8.532323876144131125e-01 -3.132400476768574804e-01 -4.169834112494261169e-01
3.762708095073060560e-02 1.637877447627900385e-01 -8.560361882491347441e-01 7.159784089918395100e-01 -3.804912453481241186e-01 -5.853215612558175795e-01
1.016888409565063489e-01 1.559771426283720896e-01 -7.578537012146887575e-01 6.341150222834831540e-01 -6.457714086873199699e-01 -4.252968683595164112e-01
-3.152709101303985406e-02 -1.728558392553042611e-01 -8.567264274504589050e-01 9.276566425612045030e-01 9.546701495299041162e-02 -3.610252104327880129e-01
1.576619078971025142e-02 -2.917538280437084047e-02 -7.666065735562209715e-01 8.472492572446900239e-01 -2.798829618516727735e-01 -4.514800369489842535e-01
-5.063855499028645235e-02 -2.257586694578439523e-01 -9.351166908971236813e-01 9.872248889702233132e-01 5.843474717373857430e-02 -1.482308973206038216e-01
1.504672322365546711e-01 2.267827707783518776e-01 -8.323169830217183041e-01 1.947460290634037694e-01 -7.573011763349983827e-01 -6.233529597953824108e-01
-7.216838311568905817e-02 -1.731270215768852538e-01 -9.674292740879243402e-01 9.462030764143775086e-01 1.463511592119979277e-01 -2.885846087047471697e-01
-3.902209373369137924e-02 3.549911694975788068e-02 -9.063821276154683249e-01 8.523405262579837327e-01 -1.203475089486094746e-01 -5.089519666806757714e-01
-7.683288823688869118e-02 -1.482923126080381432e-02 -9.597778566227824770e-01 8.431457350188887867e-01 -9.209473585938997287e-02 -5.297393973893643748e-01
2.113942070568160855e-03 -6.229246055789564029e-02 -7.754226476785759381e-01 8.990775120929939135e-01 -1.494903173059388135e-01 -4.114757250196445226e-01
-4.759226539901233871e-02 -1.802597644235109653e-01 -9.086497611359818372e-01 9.701776656311289493e-01 4.414876403131064858e-02 -2.383404786120923990e-01
-2.859022961233698146e-02 1.100101449854553326e-01 -9.221876216689879335e-01 7.796391605630680344e-01 -3.777093069421702531e-01 -4.994982069695346749e-01
5.603424507558096151e-02 8.022985986559712235e-02 -7.689581715972666487e-01 8.566564030521272022e-01 -2.850536315622999028e-01 -4.299816673335454809e-01
-8.550730445865885321e-02 -1.264925536183735821e-01 -9.872556619225044683e-01 9.458257811641002100e-01 1.763178770046916477e-01 -2.726272142209545390e-01
-6.013073512942769538e-02 -7.507320394369332295e-02 -9.264785587077457585e-01 8.763385756845980534e-01 -5.842231338171168832e-03 -4.816602216293985328e-01
9.975872405937681250e-03 1.732883228825324584e-01 -9.113986860779560439e-01 8.565684242825623018e-01 -3.336059123471152299e-01 -3.936973834928766958e-01
9.610601296395428206e-02 1.790065744439059692e-01 -8.045557972778614175e-01 6.536584793454822684e-01 -6.661840104709729760e-01 -3.590674819202686052e-01
-6.024791030797380098e-02 -1.149561705228945158e-01 -9.273748359705848987e-01 8.814697649867061502e-01 2.580784352797788062e-02 -4.715347374549581638e-01
-4.635973996756243692e-02 -1.585386787007654064e-01 -9.009393209344174203e-01 9.748356635261177239e-01 1.003656179924343472e-02 -2.226986675865924026e-01
-5.731443848927422063e-02 -2.120718749401755143e-01 -9.514673583548723945e-01 8.162281340708172905e-01 2.526066439604119918e-01 -5.195782102612942488e-01
-2.995974449801472664e-02 -5.460647534411908720e-03 -8.821187884899210907e-01 8.481910501144811487e-01 -1.114917204607273893e-01 -5.178238491749879158e-01
7.961214975651835501e-02 1.228772517052573593e-01 -7.554408396058286401e-01 8.094493825948740895e-01 -4.169198905029626867e-01 -4.134845848635410603e-01
-2.148325313188827190e-02 -1.927497083149149609e-02 -8.669639910186310860e-01 7.817313756098314137e-01 -7.088975335397819377e-02 -6.195729975205283013e-01
2.022957731698835637e-01 2.326231334782654925e-01 -8.348835325760457504e-01 1.405866803382019858e-01 -9.750569532781170334e-01 -1.717536700495217727e-01
-5.674011803757473410e-02 1.848396968877757951e-02 -9.332412939775385219e-01 8.637398609944184624e-01 -1.200585338559677778e-01 -4.894276258832331306e-01
-2.244884477131992018e-02 1.876680458344190394e-02 -8.757761290897603246e-01 8.265248108591746190e-01 -1.306741509940692325e-01 -5.475226052832747881e-01
-3.727095687559128095e-02 5.300051392070282558e-02 -9.085282325245901403e-01 8.503992590982757394e-01 -1.497728576104411513e-01 -5.043700935308379485e-01
-6.521144770518766398e-02 -4.827661252227603080e-04 -9.434663061925445682e-01 8.570854057716686958e-01 -1.002275364550277020e-01 -5.053306325064512716e-01
-4.445357915384533232e-02 4.818286359307114020e-02 -9.193760753138037201e-01 8.600751278457132720e-01 -1.510084283281719619e-01 -4.873060937799110759e-01
-2.955923842081763578e-02 -3.205375706931816449e-02 -8.769410710359617500e-01 8.301624948592111197e-01 -7.065493758053510709e-02 -5.530263211860905193e-01
1.616970068819935380e-02 -2.275987090825970505e-02 -7.703044957395709380e-01 8.194786699137740493e-01 -3.341252663812040447e-01 -4.656339935207061131e-01
-7.100371430875875196e-03 -4.722517555005877055e-02 -8.030242869327115507e-01 9.159814170129741973e-01 -2.009455189455760238e-01 -3.472735839400928892e-01
-7.515153192261089798e-02 -6.426137686364361348e-03 -9.586238235593173007e-01 8.495955818364359091e-01 -1.211564294433986888e-01 -5.133307578243628821e-01
-1.839127297356149895e-02 1.925644263918988366e-02 -8.699346450930411923e-01 8.048716814503659167e-01 -1.494267323420559179e-01 -5.743285018705205358e-01
-1.058205682846760989e-02 1.201496602740210889e-01 -9.012885457967572123e-01 7.924008245061449074e-01 -3.712688573031379669e-01 -4.840045133248283560e-01
-5.117806442206276896e-02 6.790652473826237767e-02 -9.376081112427602227e-01 8.675109853292735096e-01 -1.482839576945943483e-01 -4.748015988004469778e-01
-6.189871449837994893e-02 -1.721643029239297296e-01 -9.428678254030137262e-01 8.688108099439433296e-01 1.515437302527662677e-01 -4.713833623979806209e-01
-7.956154517322467853e-03 -3.310365940868174178e-02 -8.149594984923509422e-01 9.079841487196068650e-01 -2.584096765064725076e-01 -3.298321160253365747e-01
-3.723862665266979705e-02 -1.759573846591851454e-01 -8.726053309838913696e-01 9.484747740236945113e-01 6.398353598635798944e-02 -3.103251684336677529e-01
8.901526679706962819e-02 1.513778241596027974e-01 -7.719023095695934922e-01 6.944525030101402763e-01 -5.890459094346948143e-01 -4.132319417000633321e-01
8.525770722984653271e-02 1.334076755839464223e-01 -7.558840396228040381e-01 7.493159476138389063e-01 -5.045505940468278938e-01 -4.288989492859218156e-01
-1.962627415560216221e-02 -1.127152512776156794e-02 -8.655367234630239048e-01 7.817313756098314137e-01 -7.088975335397819377e-02 -6.195729975205283013e-01
-7.466931964834391811e-02 -1.562262563321676345e-01 -9.674710610401577870e-01 9.509046282286101048e-01 1.215047703785562400e-01 -2.846348165433439936e-01
1.180668721751912398e-01 1.980704272741845851e-01 -8.098730402835434550e-01 4.713372501517090196e-01 -7.984811089445574828e-01 -3.745251864402377451e-01
3.344753099263782226e-02 1.133100401968070436e-01 -8.367562238394652407e-01 6.879008695883053193e-01 -2.239993658771052554e-01 -6.903743026114949055e-01
-2.031864444880339057e-02 -5.351012054634502607e-02 -8.363352289673200435e-01 9.460812731308596568e-01 -1.856577991526315863e-01 -2.654456747526557914e-01
1.476820124096176953e-02 3.716481607619816913e-02 -8.189854845157106267e-01 8.493979123023713829e-01 -3.331656732585047132e-01 -4.092967392229995838e-01
-5.860981573373081482e-02 -9.123700371982515489e-02 -9.234765452317895695e-01 8.775921805655980679e-01 -6.682881715585617562e-03 -4.793613498208777468e-01
-1.543063976687390933e-02 -8.971605952267835971e-02 -8.064589100883391426e-01 9.262661614910783214e-01 -7.185243592517212563e-02 -3.699570590328052910e-01
-3.953371668659324406e-02 -2.240766642081244986e-01 -8.899861029698021841e-01 9.569401425230666947e-01 3.023015626861866312e-02 -2.887069470586181574e-01
-4.475526200073681043e-02 -6.954637122559916007e-02 -8.988490096136079188e-01 8.728630376569513905e-01 -2.253093274213410421e-02 -4.874448425843162513e-01
-1.968064179257245083e-02 -5.508341940250158046e-03 -8.664468531442029997e-01 8.084888100750815543e-01 -9.202607644328646141e-02 -5.812719202213652014e-01
3.713830969590121295e-03 1.409394832608103776e-01 -8.947128758935699588e-01 8.239349885397754258e-01 -3.712245802963107244e-01 -4.281628727993447847e-01
-4.655202792184327115e-02 -7.116465563381810244e-02 -9.020105938465965423e-01 8.756602617977972125e-01 -2.486917502443068695e-02 -4.822868752535336978e-01
-4.614630273666823351e-02 -1.023862015710680362e-01 -9.012293944814595559e-01 8.448848978986051028e-01 3.524525021613546943e-02 -5.337858012724444601e-01
2.266101774905535104e-02 1.353791173433833706e-01 -8.593667513848726180e-01 7.625822538137086992e-01 -2.809398375217455612e-01 -5.827015650070451747e-01
4.853965221899353422e-02 1.532402828378474080e-01 -8.377790701300091847e-01 6.586163476059977429e-01 -3.624666464643058195e-01 -6.594258387923965792e-01
-2.654006814767848749e-02 5.680128645693147821e-02 -8.927080981897783651e-01 8.206641347793467434e-01 -1.738557051496692762e-01 -5.443202840917995555e-01
-3.702966340506849696e-02 -1.354991028208495096e-01 -8.657475712278834834e-01 9.631375009891082195e-01 3.487519803006122656e-03 -2.689869725359931851e-01
-7.680828143151291476e-02 -9.927686142151896653e-02 -9.581624146206544346e-01 8.970422888645959159e-01 5.148456083604627948e-02 -4.389356125721474156e-01
-4.556376155320669002e-02 -1.586910629151830343e-01 -8.976555617163800571e-01 9.666555152339311174e-01 2.896245774248811661e-02 -2.544372042554657321e-01
-1.563409345622627719e-02 7.154587532714173914e-02 -8.818441234911758020e-01 8.065608880176412532e-01 -2.034956074903889467e-01 -5.550216857495853251e-01
4.937267102174341254e-02 9.725868568834701577e-02 -7.952327350540030482e-01 8.463727864131801448e-01 -3.336214107603097667e-01 -4.151504073242492932e-01
-6.077791343819066022e-02 -1.052879260451318189e-01 -9.278398676242313181e-01 8.831546258179613362e-01 2.157916745370479228e-02 -4.685853672793694469e-01
-3.294051086072342059e-03 6.357649453800787165e-02 -8.625567371760618496e-01 7.698494001468560999e-01 -2.073958915537403858e-01 -6.035883077563338750e-01
-3.565826607119784719e-02 7.807265803018699490e-02 -9.149331131260698413e-01 8.269476559885765576e-01 -2.290469410966941566e-01 -5.135124857578891033e-01
-3.678358864984825755e-02 -2.278058662944858204e-01 -8.821275966797581525e-01 9.532258153709602944e-01 9.399050441414875945e-03 -3.021128973764072301e-01
-5.965898440774092260e-02 -2.147330705458493950e-03 -9.337069730773088772e-01 8.651005760954609825e-01 -1.063618286885691377e-01 -4.901919569284310385e-01
4.078908655501208708e-02 5.085948894207702881e-02 -7.783492035726806701e-01 8.333409188451526006e-01 -3.029848539744094960e-01 -4.623235785036520773e-01
2.384872601261225824e-03 -1.110802563986997282e-01 -7.669745591267587148e-01 9.064605614480484297e-01 3.726476233657897985e-02 -4.206430648748256673e-01
5.712019188287437155e-02 2.019962103107048323e-01 -8.629396755300526856e-01 5.506023679711595786e-01 -5.697541006388747720e-01 -6.100961376617121124e-01
-6.851036687646212819e-02 3.256507214081828111e-02 -9.582776403726781522e-01 8.649670018535189353e-01 -1.606082364236806337e-01 -4.754335706462148314e-01
-2.080843440810781209e-02 7.119662992228688314e-02 -8.892354583390942313e-01 8.065608880176412532e-01 -2.034956074903889467e-01 -5.550216857495853251e-01
-4.905338296321382768e-02 -1.612691615049029192e-01 -9.137655113853736522e-01 9.838048403065664527e-01 -1.473255943731534637e-02 -1.786364685102037053e-01
3.589136549589298699e-03 2.993009902234404496e-02 -8.390112414952036746e-01 8.899725839229333246e-01 -3.185758970230125886e-01 -3.262793246614322795e-01
-5.592557547482367858e-02 3.901689727976408173e-02 -9.374616447811945363e-01 8.679350563186797318e-01 -1.339848362868462095e-01 -4.782643637762249433e-01
-1.363290776499122628e-02 -1.158669793135414239e-01 -8.011537899133546192e-01 9.186748531903584647e-01 4.199195819426396886e-02 -3.927762589091713941e-01
9.585175193358794199e-02 1.399114081588079539e-01 -7.453470106096378167e-01 6.899890658363253548e-01 -5.758674051062918631e-01 -4.385109129342858458e-01
7.237309838245456484e-02 1.886144653119031234e-01 -8.383952777152242630e-01 5.169755407351488419e-01 -5.273414565194216586e-01 -6.742753729134525198e-01
-5.872064906699276526e-02 4.553605089696930938e-03 -9.334562545953055679e-01 8.570854057716686958e-01 -1.002275364550277020e-01 -5.053306325064512716e-01
7.459659645800764682e-02 1.314076928846679426e-01 -7.738863483272081512e-01 7.966793179583649964e-01 -4.371480212424836975e-01 -4.173771338504007056e-01
-4.942468688050026537e-02 -1.270109520638676714e-01 -9.095166152046199048e-01 8.448951350890344658e-01 1.053549063240917238e-01 -5.244545303611400922e-01
1.812257816070438621e-01 2.262818640671061809e-01 -8.179762072665482942e-01 9.931859387790291371e-02 -9.681614829708019565e-01 -2.297806776077865598e-01
-4.319199229291496855e-02 -2.392168831900600978e-01 -9.055995120551312283e-01 9.648591235725618720e-01 4.723330732300466683e-02 -2.584876908831795217e-01
5.766802124573362776e-02 1.225685579008647594e-02 -7.264993619530276669e-01 8.142633533832811521e-01 -2.934098292918875805e-01 -5.008850800452328000e-01
4.807448105035093400e-02 3.879742683851016005e-02 -7.577132941574707958e-01 8.305675742651996707e-01 -2.923556574260829932e-01 -4.740102046899251631e-01
1.408199169408058393e-01 2.216526328068165463e-01 -8.298666974459900647e-01 2.924901024791460302e-01 -7.356893544366113202e-01 -6.109097426955809595e-01
-5.156911406131800546e-02 -4.140699368081819653e-02 -9.137461776057056451e-01 8.734003301042397860e-01 -4.981359858400184748e-02 -4.844486234575519634e-01
6.592987139315370504e-02 1.399372920878575455e-01 -8.021664655490852169e-01 7.954765907710047435e-01 -4.775973638408753108e-01 -3.729849213943990938e-01
-2.248953561822039995e-02 -1.340538295438170047e-01 -8.242357563212467930e-01 9.100667102691999411e-01 8.791276035627122731e-02 -4.050307759002232388e-01
-7.716630681946270998e-02 -1.318984808190954983e-01 -9.658861686083515252e-01 9.348711735395341949e-01 9.733358236255126861e-02 -3.413825751693936872e-01
1.100236497414983916e-01 1.813330063664328196e-01 -7.876450184614477434e-01 5.778844862950843764e-01 -7.147962790168690406e-01 -3.938474323936928534e-01
-6.225116899927835533e-03 -3.470598513284216258e-02 -8.093889318184008808e-01 8.980000001102200757e-01 -2.423175566791017366e-01 -3.672576772881881446e-01
-5.714835236656500006e-02 -1.392585680524685565e-01 -9.249275866011540392e-01 8.742891046435764535e-01 6.797127710382640242e-02 -4.806229988155040767e-01
1.656395957985971890e-01 2.405795957979780797e-01 -8.456039337057439376e-01 3.194766446335114973e-02 -8.388395567652358054e-01 -5.434404702828451450e-01
2.096725954241402540e-02 -1.103608873584398936e-02 -7.699636429183460695e-01 8.209083685614653181e-01 -3.196071544421935640e-01 -4.732448808546347863e-01
-4.012159627796515332e-02 -1.212926379610068800e-01 -8.780215476741800584e-01 9.692134059283656899e-01 -3.759123136525117925e-02 -2.433357209560096657e-01
8.405027351654117962e-02 1.127313017352779001e-01 -7.373808468052567289e-01 8.063829170990184370e-01 -3.992935137868655060e-01 -4.362468118606894762e-01
-7.145522115765622073e-02 -2.025696327868992952e-01 -9.885068942855183005e-01 9.804813493118009760e-01 1.676808640796848271e-01 -1.026618306538521208e-01
-5.887944265801479775e-03 1.437615086863628378e-01 -9.160493833058591662e-01 7.912241996843101255e-01 -4.620474346952208045e-01 -4.005950997272540448e-01
-1.688039839240729765e-03 -3.487730163120811300e-02 -7.981535271084514438e-01 8.974957321997694137e-01 -2.503687625757912705e-01 -3.630659628903084024e-01
1.664222642612873254e-02 6.247720530678806117e-02 -8.375489652101496540e-01 8.866278097104940414e-01 -3.553028690022624891e-01 -2.960591128925653126e-01
-7.556291067628806424e-02 -8.191625453482362373e-02 -9.543804730507450262e-01 8.744502787807141297e-01 4.898409193417670171e-03 -4.850904199504513237e-01
-8.136728543717540452e-02 -1.043297542291382746e-01 -9.687700545252478923e-01 9.223288843720429675e-01 8.413888343418453319e-02 -3.771340310121470418e-01
6.228006459521443633e-02 1.380682658415157416e-01 -8.076788453597804063e-01 7.967041380320709631e-01 -4.920043185977422961e-01 -3.509904085922378458e-01
-1.841581323818832633e-02 -1.533782922330066689e-01 -8.202977499164642028e-01 8.970788456085480034e-01 1.423388942663564027e-01 -4.183170854037234765e-01
4.791168467564912298e-02 3.040997356884444364e-02 -7.530965400424186607e-01 8.307989368754666870e-01 -2.805360445843143036e-01 -4.807001707671651469e-01
-4.586848198077213973e-02 -1.098249743223163599e-01 -9.013699993006689670e-01 8.406413692281613503e-01 7.800659879411671327e-02 -5.359450147979509804e-01
-5.396939124865431786e-02 -3.574905046850054401e-03 -9.235034192383388962e-01 8.619130025087521352e-01 -8.866051459560922443e-02 -4.992447188083111720e-01
3.467802855345773760e-02 7.784429790590231824e-02 -8.100331932299177362e-01 8.520273137566058974e-01 -3.258079855079521470e-01 -4.097543327311529149e-01
4.241298839852705033e-02 1.369432359233563601e-01 -8.364166061607924973e-01 6.952430656470528492e-01 -2.692306933750991949e-01 -6.664472322805842230e-01
-6.580397547941370384e-02 -6.216954308321898104e-02 -9.372291032705090119e-01 8.640512134049832538e-01 -2.514900684852824225e-02 -5.027753256355254052e-01
-2.349981878362659635e-02 4.872657136484327689e-02 -8.856106913841100825e-01 8.153672679122803135e-01 -1.684682930673139234e-01 -5.538904699019918665e-01
-9.202085287151770543e-02 -5.851359905360790231e-02 -9.828138458640733877e-01 8.806910150370382828e-01 4.910106465099902534e-02 -4.711394925955259549e-01
-2.048605257653142095e-02 -8.263250445948978895e-02 -8.216423018540894851e-01 9.427802460814065366e-01 -1.018137013927553486e-01 -3.174891774649797327e-01
-8.558605762822307783e-02 -1.241660070141446803e-01 -9.860643392692171050e-01 9.281207313028008166e-01 1.495948924874300479e-01 -3.409006838767388303e-01
-2.483247631234628688e-02 1.162309786941788936e-01 -9.213216839636161337e-01 7.682658344291077857e-01 -4.317654724913472797e-01 -4.725951591090101767e-01
1.653555088269850759e-01 2.394028318206764816e-01 -8.439199393019882756e-01 4.112571219924782834e-02 -8.161914116195917446e-01 -5.763161071794911106e-01
-4.886532258194565409e-02 -1.191482626314851051e-01 -9.074276098899348719e-01 8.406413692281613503e-01 7.800659879411671327e-02 -5.359450147979509804e-01
-3.451687377602912637e-02 -2.799233785670885918e-02 -8.856104177762240681e-01 8.477189571456987816e-01 -7.889307151649556371e-02 -5.245459493338042734e-01
7.430733033303961454e-02 1.470584613537268825e-01 -7.935602625726714265e-01 7.518171239544105822e-01 -5.369285722081648116e-01 -3.827253851986042732e-01
5.407121525211232120e-03 1.017243970648703810e-01 -8.660733892817746860e-01 7.652235493676444733e-01 -2.656496077546883217e-01 -5.863985039143297939e-01
-4.884673478257772761e-02 -1.958323105839364087e-01 -9.174560151053497981e-01 9.711559738686934562e-01 6.213721994299085949e-02 -2.302065166690683562e-01
4.769963373815420959e-02 1.432786458842507694e-02 -7.438786958375473990e-01 8.146030598605881190e-01 -2.994459696430695206e-01 -4.967433604289936411e-01
4.610273989175599912e-02 1.531517954199850505e-02 -7.470754983902014867e-01 8.109451553680890878e-01 -3.019437695511140163e-01 -5.011964834416631209e-01
7.537102578296606126e-02 1.604791973585571463e-01 -8.118625147326292701e-01 7.615429666383818352e-01 -5.585582675727490676e-01 -3.287323709185659415e-01
2.391136900817584024e-02 2.568506029882112671e-02 -7.919483913222106208e-01 8.297384989949724288e-01 -3.303993090895296914e-01 -4.498558878560238727e-01
4.670657479003487850e-03 3.856212480841488682e-02 -8.458627274369135973e-01 9.055485220503531885e-01 -3.734564620872173890e-01 -2.012762905503764077e-01
-1.392701600625173043e-02 1.298150069130052375e-01 -9.163121812605140581e-01 7.605116227151482722e-01 -4.429472647033405042e-01 -4.747839428698076847e-01
-3.691635162843920348e-02 -7.713998170919728059e-02 -8.858515292192776780e-01 7.655242295044014655e-01 6.750152508433662768e-02 -6.398563886943544610e-01
-1.280900179870305203e-02 -1.511709912250419445e-02 -8.434261913639541364e-01 9.236732657971481464e-01 -2.545010445741599514e-01 -2.864557843058717079e-01
-4.000165216478030611e-02 -1.708561329212967550e-01 -8.798978382612863136e-01 9.466447078545691118e-01 7.240136818877665470e-02 -3.140411421698286465e-01
3.103533877274057898e-02 -1.129584210220007517e-02 -7.532135028569217905e-01 7.918270974236857329e-01 -3.439006697640618615e-01 -5.047198996685292594e-01
-2.122388856186951597e-02 -4.499060809523663940e-02 -8.460483507974875250e-01 9.354860866235543693e-01 -2.194565407890506914e-01 -2.769559684113184761e-01
4.987665039649403359e-02 1.215224890372925831e-01 -8.169499103954189767e-01 8.556456207424415483e-01 -4.142984744991363710e-01 -3.102053283423259478e-01
-4.276634811804713027e-02 -6.027947471973242599e-02 -8.960502910649026376e-01 8.679528466865206182e-01 -4.261442487750716213e-02 -4.948149823127070968e-01
5.493029262581453770e-02 1.370806696388409129e-01 -8.252926368589376116e-01 5.363440058726416382e-01 -2.044963664014078086e-01 -8.188506234308605691e-01
1.237371412304845986e-01 1.963171494570104814e-01 -7.992921658138464336e-01 4.584120349770081093e-01 -8.013233448259150515e-01 -3.843687073959664025e-01
-2.768158194251924692e-02 -8.928728111551643976e-02 -8.412492390333004000e-01 9.486464099326475941e-01 -1.319436291326276101e-01 -2.875080305890791443e-01
-1.022978441415513598e-02 -1.523435421337404616e-02 -8.352017205303806646e-01 8.978410915496752853e-01 -2.953715898681844587e-01 -3.265532088705126457e-01
-2.409388772269184173e-02 -8.086784800205805424e-02 -8.330902321153044188e-01 9.510329292849897254e-01 -1.302919112499686949e-01 -2.802862559570873935e-01
6.655683604928112722e-03 -6.380146478104127550e-02 -7.653864325337638164e-01 8.720003859210762043e-01 -1.952659124788484746e-01 -4.488725324379927439e-01
-1.264329863430670858e-02 -8.238117162829147744e-02 -8.015737018515368684e-01 9.160595488663650920e-01 -1.130151900820597910e-01 -3.847888638480427836e-01
-1.852360901938421463e-03 1.559234566210947193e-01 -9.209497195626626942e-01 8.330752636213689666e-01 -3.961625383227568298e-01 -3.860580893749758769e-01
1.350813045772860342e-02 1.117930570743951024e-02 -8.005965933281922187e-01 8.367369317756008229e-01 -3.287944463544473783e-01 -4.379104007091245698e-01
-8.782457200485933868e-02 -6.115368693839288300e-02 -9.755048963297705544e-01 8.660001077367021072e-01 3.652296805238650773e-02 -4.987082175026440467e-01
-3.665986307111605141e-02 -2.620777910605396124e-02 -8.895370450432293907e-01 8.595832528478531964e-01 -8.912585319590322908e-02 -5.031632078318186707e-01
1.596955203546706614e-01 2.367497623228838888e-01 -8.415707287542537607e-01 1.531507549246419464e-01 -7.635259223531462025e-01 -6.273539767633494746e-01
-7.955051373726169939e-02 -1.439791977448067195e-01 -9.772880876920717608e-01 9.433747724786187838e-01 1.474516226464090973e-01 -2.971566213797955935e-01
4.216521126484867876e-02 1.513075734835670483e-01 -8.435427724685536921e-01 7.137901289115092807e-01 -3.289591557615122452e-01 -6.182956620494468591e-01
-3.019381959815523042e-02 -1.221379315375580449e-01 -8.432364055890977372e-01 9.513385300908325792e-01 -8.208787066580675376e-03 -3.080383368665486343e-01
3.413674565788286930e-02 -6.260660878109424940e-03 -7.517786955174063923e-01 7.918270974236857329e-01 -3.439006697640618615e-01 -5.047198996685292594e-01
-2.854814132221942385e-02 -3.789135290622797081e-02 -8.747354749868642143e-01 8.031338558523649640e-01 -2.084783910814939564e-02 -5.954337722939752053e-01
-3.129289433868209097e-02 7.262488202546694971e-02 -9.056744472152095105e-01 8.202731389122387418e-01 -2.161125410317869533e-01 -5.295727968729579960e-01
-2.878107790593444418e-02 3.042286369390116100e-03 -8.819426820265562350e-01 8.456010054605557213e-01 -1.000700297347690837e-01 -5.243519130440733589e-01
-5.349560551085186244e-02 5.771369653749847117e-02 -9.386222096900338485e-01 8.677034543147129630e-01 -1.530454276750815856e-01 -4.729353152790199410e-01
-5.041214057721760816e-02 -1.986478493797261269e-01 -9.253714570405785489e-01 9.818149386681589430e-01 3.446118498654543449e-02 -1.866865097894385150e-01
3.027927438730452364e-02 5.519444951945160806e-03 -7.661411353493092768e-01 8.044181699453271106e-01 -3.368376554450451255e-01 -4.893381261828017026e-01
-3.613253273076179328e-02 2.276415492803066098e-02 -8.984278985052955857e-01 8.533913924722488220e-01 -1.300146506484489983e-01 -5.047963172122373887e-01
-2.656818932180713896e-02 1.141479535512898852e-01 -9.222402517063126304e-01 7.682658344291077857e-01 -4.317654724913472797e-01 -4.725951591090101767e-01
-1.800729616537523337e-02 -1.756637954363071338e-02 -8.622139019695064244e-01 9.492482566110029829e-01 -2.969461929005302037e-01 -1.036856105872576012e-01
-7.007488308931754395e-03 1.415808824799136278e-01 -9.157454794256948416e-01 7.912241996843101255e-01 -4.620474346952208045e-01 -4.005950997272540448e-01
3.859896174576173816e-02 1.435542935841845578e-02 -7.587213005475468286e-01 7.973699063137569265e-01 -3.412821202064767467e-01 -4.977225602005222460e-01
7.065858857458513775e-02 8.823038873744562527e-02 -7.451546916870525061e-01 8.495597119518371043e-01 -2.981543596662448170e-01 -4.351462669497727642e-01
-9.931560366386312649e-03 -1.718247884944573700e-01 -8.088797353444486804e-01 8.919990967149517003e-01 1.553444314236981927e-01 -4.245064417477758534e-01
-3.984505284779874673e-02 1.098536214985825765e-01 -9.396312563356454817e-01 7.747040350819136556e-01 -3.951574254444864542e-01 -4.936438667135307767e-01
-1.856535175022571219e-02 3.039554140847328806e-02 -8.731482973576900619e-01 8.085846615271240490e-01 -1.527438216209440758e-01 -5.682078581819292040e-01
-8.925285369573814076e-03 -1.677737689971543489e-01 -8.052828530394077200e-01 8.919990967149517003e-01 1.553444314236981927e-01 -4.245064417477758534e-01
7.246689414312219857e-02 1.767244647805427116e-01 -8.300132987119183126e-01 5.409617011356688820e-01 -4.428613498829414019e-01 -7.150064773722418776e-01
-1.653738476587627779e-02 -1.063367534596232067e-01 -8.070291618805869316e-01 9.101702391301337292e-01 -1.128889876379341947e-02 -4.140805435739474127e-01
-1.219779795085083017e-02 -1.509416122946484300e-02 -8.414757509571444416e-01 9.236732657971481464e-01 -2.545010445741599514e-01 -2.864557843058717079e-01
-2.346669946428740772e-02 -1.383923911179579525e-01 -8.273730468343400979e-01 9.100667102691999411e-01 8.791276035627122731e-02 -4.050307759002232388e-01
4.351932522348491567e-02 2.861407917713596621e-02 -7.595014651252760540e-01 8.165778189451692315e-01 -3.085880931849329656e-01 -4.878258442838361297e-01
-3.634250207509577557e-02 -2.171737921567250262e-01 -8.796091623481109290e-01 9.426556807039198072e-01 4.603627333439534036e-02 -3.305766615690080013e-01
-3.290631587271592579e-02 -1.739784689310241717e-01 -8.605672152033154720e-01 9.276566425612045030e-01 9.546701495299041162e-02 -3.610252104327880129e-01
-2.364374900300994856e-02 -1.527660972622383040e-01 -8.318121854029945084e-01 9.099651320847650382e-01 1.224210765651555372e-01 -3.962026481519078103e-01
-4.021347164882194125e-02 -1.737275998375414632e-01 -8.811983555253986022e-01 9.466447078545691118e-01 7.240136818877665470e-02 -3.140411421698286465e-01
1.645363436914146563e-02 1.421044529443576676e-01 -8.726961987948256283e-01 8.086738180643239238e-01 -3.458360827137630933e-01 -4.758613872447183812e-01
-1.789178347563396415e-02 -1.260205510528850381e-01 -8.119196925056667569e-01 9.104577279984943372e-01 3.914705502985763724e-02 -4.117453504416400678e-01
4.955522938252214515e-02 1.240187874683460062e-01 -8.210351874297664443e-01 8.455577759635786173e-01 -4.158377730789036830e-01 -3.348297985369653174e-01
5.168890114346615799e-02 1.399129050166205979e-01 -8.287097292950741378e-01 6.342057913444613115e-01 -2.766003048091924543e-01 -7.219939650749216398e-01
-7.204210655514344148e-03 1.042965921360611836e-01 -8.849453800056432673e-01 8.029985309137940286e-01 -3.121468852506781855e-01 -5.076984157731720959e-01
-7.899072789132328964e-02 -1.201884214961368991e-01 -9.667539068554207304e-01 9.205832144669856554e-01 1.253878968876339928e-01 -3.698708160367992215e-01
6.135510643869709207e-02 1.514772205161570573e-01 -8.253546552860618890e-01 5.584498619599448377e-01 -2.813648990341663936e-01 -7.803637262638569716e-01
-3.545028469004304905e-02 -1.034867677199104441e-01 -8.642942796043849851e-01 9.698819512338903159e-01 -6.525254193420267079e-02 -2.346723384676317192e-01
2.144321500467031780e-02 1.300675801152670896e-01 -8.583996222776473228e-01 7.625822538137086992e-01 -2.809398375217455612e-01 -5.827015650070451747e-01
-4.071197097932842401e-02 -1.844511268443244090e-01 -8.852250261744633031e-01 9.494895650672475762e-01 7.909895662400093230e-02 -3.036658046099420249e-01
-3.672228767285003193e-02 -1.329306576456601163e-01 -8.646136776599925300e-01 9.631375009891082195e-01 3.487519803006122656e-03 -2.689869725359931851e-01
-6.224868618166849027e-02 -1.992292282273100124e-01 -9.541053355134745395e-01 8.845112900695345504e-01 1.853791118936500004e-01 -4.281055507851413422e-01
9.855837002323458718e-02 2.230163432215845065e-01 -8.517427526081109423e-01 3.445459459470504027e-01 -6.799928949052158611e-01 -6.472231099164154067e-01
