-3.081423124957628421e-02 -2.968991385503481559e-02 -9.133315851685875897e-01 -3.052816141394175675e-01 -6.415097749110497682e-01 7.037530424531078799e-01
-4.209725598791167617e-02 -8.934704323705935231e-03 -8.974791161355271107e-01 -3.010263792049008291e-01 -7.099962613293595570e-01 6.366226731126677363e-01
1.136248035494094311e-01 -5.880075418751441740e-03 -8.577034869373947323e-01 -9.629449353502646247e-02 -7.450491317010505821e-01 6.600220919532489017e-01
-8.025087605372509258e-02 1.023538335944165073e-01 -7.533392783215066002e-01 -2.170347713118359056e-01 -8.103394211227543664e-01 5.442847881541964528e-01
2.680744496241476219e-02 -1.500325346019498046e-02 -8.778808440973536742e-01 -6.985877264141046594e-02 -7.071442819083475495e-01 7.036097756920117741e-01
5.819946849912002208e-03 -4.953861387848223358e-02 -9.114691228755459340e-01 -5.262675409904994384e-01 -5.886118610273017859e-01 6.136599647669621627e-01
-7.563708216843574583e-02 1.301722222169617582e-01 -6.867999401943041260e-01 -2.356979142990582310e-01 -9.550150801599909256e-01 1.799796929158393455e-01
-9.066932200785300655e-02 -1.171955299486150508e-02 -9.157426123146201746e-01 -1.543458760517373574e-01 -6.666114265264360128e-01 7.292506815699328904e-01
9.601350733413513416e-02 -4.466018674546855943e-02 -9.002779301379397747e-01 -3.397760239084265249e-02 -6.966457929304866736e-01 7.166101881274249408e-01
1.347159936193350130e-02 1.156052645838805543e-01 -6.798360170396381408e-01 7.348271906478912041e-02 -9.754752857731974203e-01 2.074807384904540086e-01
-8.818956193728949566e-02 -4.546425270465132007e-02 -9.421357337782741981e-01 -1.040776332301361212e-01 -5.711664360676170782e-01 8.142092781165231052e-01
1.513413869220210997e-02 7.512282102779498094e-02 -7.631024560212608110e-01 5.288594376636353983e-02 -8.389595645913149324e-01 5.416178781509085605e-01
-3.546686846849129732e-03 -1.205917151964096129e-01 -9.716935606143143334e-01 -3.103366289360571240e-01 -5.191412849722903955e-01 7.963563919363759736e-01
6.727938096765938292e-02 9.585799208790284076e-02 -7.203099792200252649e-01 -1.584035916990382542e-01 -8.484782811239245381e-01 5.049682253348565242e-01
7.403447585233632888e-02 -1.947828973390573065e-02 -8.774033397822273983e-01 -7.391945507185516961e-02 -7.054519037003783577e-01 7.048925632515865569e-01
-2.046284779057752634e-02 -1.366298847793638860e-01 -9.873056293933965000e-01 -2.560980321487715261e-01 -5.123569332443566049e-01 8.196976094182321093e-01
1.029936791866295671e-02 1.142233728372174517e-01 -6.837637537315632841e-01 8.751560341303181445e-02 -9.549269783681341162e-01 2.836467612082992362e-01
1.221523900744294483e-01 -2.098672075193470238e-02 -8.734585168291917334e-01 -9.812898487959909044e-02 -7.435004148020297743e-01 6.614966632687642178e-01
-7.181082104614076866e-02 3.634190609933909966e-02 -8.505217093886963120e-01 -1.834723925545302115e-01 -8.244284751496218089e-01 5.354022511465428291e-01
-7.002897344737683827e-02 -1.053864078907266466e-01 -9.772299236143121570e-01 -7.793573206979040324e-02 -5.168001799349509762e-01 8.525512276021587343e-01
-9.337204798168760589e-02 4.193660555468965018e-02 -8.484002779570167796e-01 -1.570256212795584638e-01 -8.488939432227120552e-01 5.046999380043187822e-01
1.706223705213719133e-02 2.536427339832468542e-02 -8.332180669209222623e-01 7.591866596466588860e-03 -7.748681254471139201e-01 6.320773304965596751e-01
1.312008053141052247e-03 3.410490756668665968e-02 -8.196976063450162053e-01 2.106681660067670214e-01 -7.856775609979405051e-01 5.816611504782422948e-01
-2.000564538740906909e-02 4.984421054639903009e-02 -8.080885207804996417e-01 -2.523176948117069052e-01 -8.073906069664580354e-01 5.333443434285588536e-01
7.550038730728347858e-02 9.997080059957608178e-02 -7.102070792938804944e-01 -1.836769905976175232e-01 -8.642885668547080069e-01 4.682606499901922903e-01
3.686262142326577479e-02 -7.057949636353218203e-02 -9.279830147428199671e-01 -7.110276885998692564e-02 -6.401153817477702734e-01 7.649814993255387163e-01
2.597108320073849078e-02 1.196437863105000721e-01 -6.633334938669472880e-01 4.747322629048211090e-02 -9.920753969993609811e-01 1.163301313251765279e-01
-8.813026978236777886e-02 1.247930381519632842e-01 -7.160746415141192589e-01 -2.120049507741557093e-01 -9.103557760712079894e-01 3.553959226286034778e-01
8.607042143399199277e-03 3.113515486150538608e-02 -8.252046985398925338e-01 6.777543683023808108e-02 -7.920451748967485273e-01 6.066884959229480456e-01
4.795795490013360883e-03 5.185273305122858889e-02 -7.963650357281732983e-01 8.141030405658764013e-02 -8.113296490426719076e-01 5.788925314578767800e-01
-3.478676137624250875e-02 9.955047684721664292e-02 -7.370951783478113528e-01 -2.722148140680188400e-01 -8.443885658932338556e-01 4.614185137060298758e-01
-2.417559262733396178e-02 -1.245353488518816110e-02 -8.926608679073829711e-01 -3.330932597224349201e-01 -6.955488649361967202e-01 6.366008614614425687e-01
-8.538509152628125098e-02 1.183530035703450889e-01 -7.290175821573818826e-01 -2.260880005334879039e-01 -8.666447969515996830e-01 4.447594989783693609e-01
9.096004847594120479e-02 -3.388298521261456919e-02 -8.900305700769090000e-01 -4.762306105235107612e-02 -7.177662841186899234e-01 6.946535866447763885e-01
1.207120776934373328e-02 7.631864792576027734e-02 -7.609510565693664574e-01 5.288594376636353983e-02 -8.389595645913149324e-01 5.416178781509085605e-01
3.846078440976666291e-02 8.965940478860320861e-02 -7.389810506065574991e-01 -8.532471462405960549e-02 -8.625053084474759713e-01 4.988028528128592431e-01
-6.974849237949420910e-02 2.527820067203288487e-02 -8.666493199794560454e-01 -2.005840417442271706e-01 -7.967704791838611245e-01 5.700200397342801706e-01
-9.057142631539943922e-02 1.257053344262323846e-01 -7.152673697367373240e-01 -2.276586409590400928e-01 -9.005209055690109876e-01 3.704505929673362896e-01
-2.464138566173755280e-03 1.385451011811406237e-03 -8.647817712787702060e-01 -3.705750479168335443e-01 -7.008088616786436464e-01 6.095416911533780846e-01
6.230491654198257873e-02 -2.268263938036099714e-02 -8.818692779045336216e-01 -7.670260091566226401e-02 -7.052715583056264892e-01 7.047756664768767276e-01
-4.978567882859125104e-02 9.570047221102340185e-02 -7.507505422020058772e-01 -2.251677422453206845e-01 -8.253114057054444785e-01 5.178422264209899817e-01
-4.592872312978842075e-02 -1.172116301405205230e-01 -9.813254794203706277e-01 -1.627033298719603449e-01 -5.162920834163003958e-01 8.408151467773590237e-01
-1.164191905589420095e-01 8.844698780451247522e-02 -7.842136709601068567e-01 -1.607754100702429023e-01 -7.771794576225874440e-01 6.083940813043841045e-01
2.677045443119945023e-02 1.045524885020321787e-01 -7.121756896527092762e-01 8.932724508527088020e-03 -9.047240807041706523e-01 4.259043839018891164e-01
-3.573988749168927753e-02 -1.721995749789972385e-01 -1.013594825074416894e+00 -2.635735516172381665e-01 -5.102167463227054167e-01 8.186622347829090041e-01
-1.441836888109792811e-02 3.860958611698781656e-02 -8.222615861874552623e-01 -2.677878945792600551e-01 -7.982594856574276587e-01 5.395103679029215060e-01
6.362847820243054675e-02 1.138820313905347520e-01 -6.837530979664402375e-01 -8.681790679090262142e-02 -9.496953091997646368e-01 3.009010979448389911e-01
1.329336557339789449e-01 7.649784388710541803e-03 -8.393965562485761200e-01 -1.265934067405704022e-01 -7.322765192828684100e-01 6.691376604830900909e-01
7.953131016528974806e-02 -2.057252132973951680e-02 -8.779220071428953664e-01 -7.391945507185516961e-02 -7.054519037003783577e-01 7.048925632515865569e-01
9.486202092626414006e-02 -4.888407896143252829e-02 -9.044387438394022594e-01 -3.397760239084265249e-02 -6.966457929304866736e-01 7.166101881274249408e-01
1.000399197866411044e-01 7.998047017073087184e-02 -7.314073162358103453e-01 -2.618182556660523241e-01 -8.418764081943774791e-01 4.719060439597266288e-01
2.576431674179194969e-02 -1.580681517445032269e-01 -9.891845665233937046e-01 6.426344898091618067e-03 -5.069569819069943417e-01 8.619474001277582786e-01
9.129777224163958260e-02 -6.614058772299846733e-02 -9.201681047927635637e-01 -3.832141157295278211e-02 -6.647302480647251377e-01 7.460999709977645944e-01
7.777660532012149741e-02 -6.294125601666585024e-02 -9.180558936848050022e-01 -4.792833581797838194e-02 -6.636462114164987103e-01 7.465095985305524318e-01
3.396555603242767951e-02 -1.444244602277773570e-01 -9.811140187530134060e-01 -5.448051532090055632e-02 -5.028953951915761111e-01 8.626285961788406897e-01
9.790423179413340615e-02 8.223834468266515152e-02 -7.287871648333613672e-01 -2.650997936045128567e-01 -8.248379619790885409e-01 4.993640314530355950e-01
-6.199166741848135403e-02 1.295773394937584366e-01 -6.656324068729063681e-01 -2.262617336685068259e-01 -9.702164570769977736e-01 8.651967576383891301e-02
-9.358256621040812739e-02 -7.359838198579517210e-02 -9.602870544657000629e-01 -5.402768639483099961e-02 -5.041564486546727952e-01 8.619206949497906223e-01
9.174697427385865300e-02 5.752255114619304888e-02 -7.805467269381042295e-01 -1.394662310539931671e-01 -8.742389995550137183e-01 4.650326247185707085e-01
-5.528633079279593465e-02 1.060700043412136223e-01 -7.365135363622330456e-01 -2.408652663772972990e-01 -8.373187227984758563e-01 4.907965769075032236e-01
-6.663272210931453499e-02 -2.123072631529975170e-03 -8.996362873892554957e-01 -2.092988108405107461e-01 -7.222741048478283910e-01 6.591768543016481852e-01
2.843750516559718361e-02 1.008140444963871209e-02 -8.511272586216692693e-01 -3.396619745196818169e-02 -7.489449145791896578e-01 6.617611444899315076e-01
-9.897385341629376387e-02 -4.200036784264330435e-03 -9.105509892785268455e-01 -1.439833553161972701e-01 -7.015033200817866188e-01 6.979698312292014206e-01
-1.208843731010652983e-01 6.280027454088450700e-02 -8.204824587340326936e-01 -1.245312149074316449e-01 -8.301797491899324255e-01 5.434092017518842299e-01
3.459337236071906990e-02 3.756682515485838120e-02 -8.176103112648914761e-01 8.429573748027283445e-03 -7.973548870713799142e-01 6.034518426103391286e-01
1.208708214803351499e-01 -6.455188355853003213e-02 -9.175384220424831483e-01 -2.827983879045236834e-02 -6.592666750710998169e-01 7.513772034462337102e-01
5.482983861745678589e-02 -2.028873480785402250e-01 -1.005131836221051289e+00 -3.769186043688362853e-01 -3.025793631097148384e-01 8.754302340568136387e-01
-2.056203836137418528e-02 -1.464009711593313445e-01 -9.933098665037478625e-01 -2.548883347290318846e-01 -5.012443555191921085e-01 8.269135582872072510e-01
-6.286071372676159397e-02 -1.338527803390253401e-02 -9.101432511076654741e-01 -2.117746026197714349e-01 -6.839839001307969069e-01 6.980813291065031123e-01
-2.232248332208923436e-02 4.932396319414959762e-02 -8.099721482058472866e-01 -2.523176948117069052e-01 -8.073906069664580354e-01 5.333443434285588536e-01
-2.887546633547396699e-02 1.176994066607561923e-01 -6.875804602414534727e-01 -3.010268113845829263e-01 -9.229285212662859950e-01 2.399704220541718780e-01
-2.627094006583602977e-03 -1.881631281191706029e-01 -1.010964153662221365e+00 -3.322848371435840331e-01 -4.305657991929743300e-01 8.391661811404087512e-01
7.877716737738932329e-02 2.998178493411354090e-02 -8.235416906152750460e-01 -7.930580369852006928e-02 -7.653247493020415293e-01 6.387398669298001153e-01
-8.561109496453364609e-02 3.455550395570304578e-02 -8.580388188780875280e-01 -1.591796503239599203e-01 -8.348751817805512010e-01 5.269205535653677108e-01
-1.787566773797506434e-02 3.501750079216749828e-02 -8.292601853972821901e-01 -2.680984912660569486e-01 -7.960844407350468055e-01 5.425612981041233462e-01
-5.811349907033579176e-02 -9.122262893712634879e-02 -9.673837802033041777e-01 -1.005652440956502497e-01 -5.093447547951489573e-01 8.546663398324819694e-01
-3.814567696591916052e-02 9.890517784615238117e-02 -7.400022127311463027e-01 -2.573903607063225407e-01 -8.166971334972147334e-01 5.164842634126441956e-01
9.296498937104036298e-02 7.763767235221263885e-02 -7.395316625835223201e-01 -2.458172875159400639e-01 -8.433090868914936422e-01 4.779159393915843879e-01
-5.381935794937769274e-02 1.162471253787944053e-01 -7.156415649591317818e-01 -2.708146155502112462e-01 -9.011100674018328593e-01 3.386149589599602439e-01
4.058098481365424171e-02 -1.459457976895849052e-01 -9.815831217213105697e-01 -5.448051532090055632e-02 -5.028953951915761111e-01 8.626285961788406897e-01
6.097392282882985876e-02 9.329507929693735269e-02 -7.273965783574888322e-01 -1.917563753359941559e-01 -8.481731374316188177e-01 4.937932983115561614e-01
7.101728187937460246e-02 4.251472719780055587e-02 -8.086583178032561436e-01 -7.936265443152962229e-02 -7.975036697465716085e-01 5.980714554485381251e-01
-7.526086967842304798e-02 -3.325787121392101420e-02 -9.311710127830569173e-01 -1.360959236164424602e-01 -6.207135280272425559e-01 7.721351019730684495e-01
2.256492798307425246e-02 -3.099865426601533525e-02 -8.938869947195379195e-01 -6.182405293786872452e-02 -6.899611252825305074e-01 7.212013810838131533e-01
6.503412852574423642e-02 -1.692696437219965711e-01 -9.880099644812445625e-01 -3.281524510547766393e-01 -3.603670888340525513e-01 8.731847056333569279e-01
-9.934668292877237017e-02 8.047909786568130386e-02 -7.900276625066093850e-01 -1.621906702206246387e-01 -8.020969024521628077e-01 5.747475494249887351e-01
-7.031722645693273821e-02 2.661549663766548876e-02 -8.649801874909545107e-01 -2.005840417442271706e-01 -7.967704791838611245e-01 5.700200397342801706e-01
-1.025590898153423552e-01 -5.451525357370589492e-02 -9.494577458420461191e-01 -6.923773744800316987e-02 -5.230348778883368022e-01 8.494943509084764699e-01
4.350114708332335905e-02 4.182123230206200026e-02 -8.117474679793668102e-01 -1.680614636601392153e-02 -7.987232905843045794e-01 6.014637632663374367e-01
-1.049818847000483224e-01 3.072495807505568402e-02 -8.701960615990473880e-01 -1.568983305493552027e-01 -8.120183848720982089e-01 5.621468282402154459e-01
-9.051353593696276345e-02 -3.310598151067689621e-02 -9.335977103644612640e-01 -1.027206924370941965e-01 -6.187044005959015935e-01 7.788795311397711529e-01
9.030610872516070531e-02 -1.401960190806912365e-01 -9.683799886578620120e-01 -2.498253053541674706e-01 -3.669449139220892220e-01 8.960684945646774091e-01
3.736329278390816688e-02 5.628515208445696028e-02 -7.917404826753036140e-01 -1.656281736708929697e-02 -8.268785297579001048e-01 5.621366116045795058e-01
6.096412087766843457e-02 1.377009293117629866e-02 -8.443154034632955884e-01 -7.325453205526516465e-02 -7.294393573035361511e-01 6.801117537213778874e-01
5.283843195891456401e-02 -1.903208862864484152e-01 -1.001286684068082300e+00 -3.495646233597067276e-01 -3.425077838308022149e-01 8.720624932369805959e-01
-2.038615673223313079e-02 -9.534541190763479168e-02 -9.609478136856027808e-01 -2.424033399799728483e-01 -5.356193161414342097e-01 8.089206196795429848e-01
-1.666240106922895620e-02 6.542844923493064402e-02 -7.828823446425601240e-01 -2.420173107099734544e-01 -8.157640045840699461e-01 5.253158194283450433e-01
3.179988365362159536e-02 -5.062927101866375457e-02 -9.111682679129647910e-01 -7.542301018384703348e-02 -6.728059271509218009e-01 7.359643700108011721e-01
6.119807780605122927e-02 -1.344078329061006716e-01 -9.718055603746017512e-01 -1.354470608458812342e-01 -4.918266706333220828e-01 8.600933785130271403e-01
5.973546410574366583e-02 -9.642332192513689004e-02 -9.468333380626001716e-01 -7.239006022482198655e-02 -6.184299951337816070e-01 7.824985752699344932e-01
-4.984522363760402613e-02 -1.112005239041012894e-01 -9.782823008752120630e-01 -1.468637400353520472e-01 -5.219169145690243372e-01 8.402581604183191333e-01
-1.189113082443335641e-02 1.127724451901542385e-01 -5.842026320119022564e-01 1.674043717681192867e-01 -9.642121562922318923e-01 -2.055983802737897104e-01
5.760134800514026682e-02 1.751377702849895093e-02 -8.404694785422383019e-01 -7.139235268222826614e-02 -7.538075294596474629e-01 6.532054351491872746e-01
-4.450725815729072998e-02 2.760630068092957690e-02 -8.527697116613551787e-01 -2.404702766078753162e-01 -8.064493015915712437e-01 5.401977138331840456e-01
6.230126746999436332e-02 -8.155953924730481586e-02 -9.349273169319449739e-01 -6.721230792953775124e-02 -6.163200653358203995e-01 7.846222547998716879e-01
6.275548952656583024e-02 -7.147449028740639199e-02 -9.264377765323007496e-01 -6.634851635975623496e-02 -6.417209391018884324e-01 7.640628970805017905e-01
-3.027192595059801945e-03 4.683023844996821172e-02 -8.035174570105433345e-01 -3.503321037114631165e-01 -7.793200687729592291e-01 5.195456163964914387e-01
-4.722585984283558802e-02 -3.365779738297265677e-02 -9.236051394947323301e-01 -2.512022065979380714e-01 -6.473422294782651409e-01 7.196148201186770565e-01
1.001934520101909198e-01 -1.172046108931070751e-01 -9.550721033061353449e-01 -1.428132178422922005e-01 -4.724175557751164045e-01 8.697275652783429400e-01
-6.332172444424352675e-02 6.965111318243884242e-02 -7.948084065926486197e-01 -1.879671573403801921e-01 -8.184088347313719369e-01 5.430242416274015937e-01
-4.158634975667175986e-03 -7.326593675812594075e-02 -9.381990013222775149e-01 -3.429816601133494625e-01 -5.906075229789181646e-01 7.304425607989976088e-01
-6.399638412554498057e-02 -1.373691499579882958e-01 -9.973340172552229710e-01 -1.378845031779264430e-01 -5.708838188578294615e-01 8.093698345933564298e-01
2.033727325382262557e-02 -7.521305734560028433e-02 -9.331235445077709079e-01 -4.438988839372522144e-02 -6.324175152869930816e-01 7.733547854423724610e-01
8.097907415624150396e-02 -2.626325238662630124e-03 -8.592422402287192007e-01 -9.806462130436327529e-02 -7.220708562260429453e-01 6.848335627270475401e-01
-3.263369175431273667e-02 -1.407217801904267485e-01 -9.930534416974058365e-01 -1.917999825830980498e-01 -5.048508785337685323e-01 8.416283961017506643e-01
-8.216618318037556545e-03 1.751738953647570887e-02 -8.484168663303733871e-01 -3.471031693862194345e-01 -7.504635439954756571e-01 5.624267587302299587e-01
-4.229628855843081681e-02 5.804398394457067206e-02 -8.048933980895258689e-01 -2.028193076590613930e-01 -8.226527433960607594e-01 5.311372630720178067e-01
-9.370994900880280642e-02 3.409035039971369026e-03 -9.015049632771422461e-01 -1.837159687306527400e-01 -7.112466634896066342e-01 6.785105942490948783e-01
-9.789680727243028208e-03 1.172059770190201078e-01 -6.503933525002593141e-01 2.565873861048911242e-01 -9.635561988916440113e-01 7.564631431435361875e-02
-7.923520747676678078e-02 -1.008868965672449630e-01 -9.753592321035799984e-01 -6.938994932988827580e-02 -5.093538953246631307e-01 8.577550024625839598e-01
-2.817292414352406613e-02 -1.183566267163089492e-01 -9.780711886131180366e-01 -2.016710052655917296e-01 -5.180158030108091838e-01 8.312571404001483089e-01
-4.278267389309343971e-02 8.863006536958395465e-02 -5.346481553879055548e-01 -1.593022266630084449e-01 -8.717634813591702558e-01 -4.633046871646638865e-01
-7.921565808064853775e-02 -3.643126594853530326e-02 -9.343388450109109122e-01 -1.373093784807807860e-01 -5.743667882754139864e-01 8.069999548373018028e-01
-5.071874819189046979e-02 1.204751677592878351e-01 -7.013295391593931116e-01 -2.681977302932770368e-01 -9.301352618046050402e-01 2.508353488111537688e-01
1.115164399827762859e-01 4.872061566118333215e-03 -8.463228335223608179e-01 -1.179364195334242915e-01 -7.267092755800452775e-01 6.767456167080521112e-01
7.193822674044535181e-02 3.334539544442854941e-02 -8.203606042417818101e-01 -7.930580369852006928e-02 -7.653247493020415293e-01 6.387398669298001153e-01
-4.164383317230756915e-02 -1.107941047228829939e-01 -9.765557230145335277e-01 -1.627033298719603449e-01 -5.162920834163003958e-01 8.408151467773590237e-01
6.082689231085681471e-03 -5.408301359116508833e-02 -9.154262247900327720e-01 -5.265318669554327480e-01 -5.699003436574056058e-01 6.308548100629789435e-01
-4.570689318172620197e-02 -1.014116250690663412e-01 -9.714981008176151178e-01 -1.468912075791273253e-01 -5.174921486714618712e-01 8.429856755599938190e-01
5.521622083865380254e-02 -1.627856993315953543e-02 -8.762810612546703126e-01 -8.241120341009065819e-02 -7.016376867593470124e-01 7.077520399627915682e-01
1.195979937814675986e-01 1.920041481421542323e-02 -8.292273183910018330e-01 -1.264211824476529356e-01 -7.346390143324729172e-01 6.665757295680287964e-01
-4.889131619171111637e-02 -6.497534012533408287e-02 -9.486708320969813313e-01 -2.223093186782416908e-01 -5.625613147572209316e-01 7.963060554632512833e-01
-6.083436984237140105e-02 2.549045323058262216e-02 -8.629357775566443012e-01 -2.345727692607682269e-01 -7.920455880395086412e-01 5.635950695210907302e-01
-2.491562729323585842e-02 -1.275891524919799125e-01 -9.829631655833367399e-01 -2.087355636681022808e-01 -5.083697893806848889e-01 8.354577318483548121e-01
9.941772088168619737e-02 -1.636830844448678227e-02 -8.712573619699168770e-01 -9.381558859936185713e-02 -7.273440492603702179e-01 6.798303239347913696e-01
-7.558426746198558532e-02 -2.997166769862797536e-02 -9.285057447014340992e-01 -1.556646410323623830e-01 -6.339755281400220044e-01 7.575246195681336614e-01
-9.447986321274300103e-02 1.003582227954540225e-02 -8.945274808304124470e-01 -1.855419791830422160e-01 -7.577607268808627117e-01 6.255979977252371649e-01
-6.834579396508116966e-02 1.203238505739830932e-01 -7.150958992278187987e-01 -2.264503448948063102e-01 -9.089481596889051884e-01 3.500478314390417234e-01
3.806982979987310039e-03 -1.841684205973654481e-03 -8.639092133150774178e-01 7.279679129567402651e-02 -7.339221003176961133e-01 6.753213885568227770e-01
-1.896341015672477898e-02 -1.763266878021558515e-01 -1.010716291246564369e+00 -2.900142241908242324e-01 -4.813021760184805209e-01 8.271879865706885937e-01
-8.972843588939305448e-02 -5.721719287941614412e-02 -9.500244061107783189e-01 -8.602411769787178530e-02 -5.341654350771095627e-01 8.409917592599731595e-01
5.979476425697681508e-02 6.883712088781765437e-02 -7.697598740349279600e-01 -1.189920305942791245e-01 -8.529069263617977681e-01 5.083214254968219104e-01
-6.325218938714544104e-02 -1.983610870937991405e-02 -9.165449226072187594e-01 -1.996057688656822371e-01 -6.769014144589051707e-01 7.084927749378064910e-01
-6.381573414856697712e-02 1.358283255048209348e-02 -8.803909184938411014e-01 -2.135423255898199757e-01 -7.584928303487293855e-01 6.157014710809652902e-01
-7.982643488959111078e-02 8.791334975417181008e-02 -7.737195038419895088e-01 -1.697296810820780044e-01 -8.061719259371555868e-01 5.668144856922352481e-01
1.356657164860160802e-01 3.884153159735777121e-03 -8.430006314541067525e-01 -1.265934067405704022e-01 -7.322765192828684100e-01 6.691376604830900909e-01
4.724056674406337114e-02 -4.344797043114152768e-02 -9.030301903545163711e-01 -7.687576981592399161e-02 -6.742363065352032780e-01 7.345035867611379166e-01
-7.709227272450268342e-02 -1.179654717244163903e-01 -9.859350160626443316e-01 -9.316247429084127674e-02 -5.516147429914682876e-01 8.288799241738603607e-01
3.503402078292452287e-02 9.923147106347993129e-02 -7.224991027834056778e-01 -4.568227990571403080e-02 -8.813471676381463560e-01 4.702555681741930060e-01
1.093986441797817066e-01 1.105473168181461859e-02 -8.400268381248156002e-01 -1.218200726620679991e-01 -7.291747209873207236e-01 6.733974280984975636e-01
-3.867333497912249507e-02 -1.389654025521431246e-01 -9.933762619264528970e-01 -1.917999825830980498e-01 -5.048508785337685323e-01 8.416283961017506643e-01
-6.063201306626755244e-02 9.934438877119827760e-02 -7.498829561995582482e-01 -2.440783078033244569e-01 -8.110277608678840844e-01 5.316575502722514779e-01
-2.124259624119377923e-02 9.421741397378986804e-02 -7.387121333899718811e-01 -2.927651497927414859e-01 -8.319992278509278361e-01 4.712386358548007470e-01
-3.841047659651333768e-02 5.922139743410727991e-02 -8.016146201267404514e-01 -2.034243450164805733e-01 -8.183265939924783128e-01 5.375501106122898554e-01
9.373139340637832995e-03 -7.130518168888191899e-02 -9.296931608085581278e-01 1.539209905002319745e-01 -6.148385630894076526e-01 7.734868260168235032e-01
2.858911326024360031e-02 2.865496915105520542e-02 -8.289936889268865183e-01 -1.536134956549133415e-02 -7.876586471202013939e-01 6.159203556924390810e-01
2.733381012463384843e-02 -1.385391312455313551e-01 -9.776705213255996174e-01 -1.029165457733733496e-02 -5.239832694631281207e-01 8.516663755067422903e-01
-1.082053104722416614e-01 1.511696374586070715e-02 -8.919944411061430101e-01 -1.578313091091149978e-01 -7.543174441065964020e-01 6.372554208332752435e-01
-6.968676907181010904e-02 3.429715943693812524e-02 -8.529423986415608505e-01 -1.834723925545302115e-01 -8.244284751496218089e-01 5.354022511465428291e-01
-9.591197867702955238e-02 6.752287419647863553e-02 -8.075175048427046809e-01 -1.438432794778780610e-01 -8.159784068680694391e-01 5.599003040489405336e-01
6.027305698082666141e-02 -3.544203198515959857e-02 -8.943213895117978485e-01 -7.039489698272100027e-02 -6.882764675132854171e-01 7.220249737690693781e-01
1.091816061161239304e-01 -9.923662740480888866e-02 -9.433675258342001380e-01 -9.494005094104730758e-02 -4.990143582905351427e-01 8.613774184103020204e-01
9.969185313928351222e-02 -2.509481826830553194e-02 -8.803673938378603347e-01 -7.175103616904229820e-02 -7.021411154626977513e-01 7.084134688058005835e-01
5.631986240824916196e-02 -1.608831322803628838e-01 -9.870853710075547793e-01 -2.509389077446833594e-01 -4.149361733810704722e-01 8.745613967011003353e-01
1.680365799505818825e-02 9.416096549346135436e-02 -7.319965018574855486e-01 3.046813880337978508e-02 -8.641789085328098752e-01 5.022613926680998819e-01
4.097810348843291400e-02 -1.481923873828025831e-02 -8.763567108775263126e-01 -7.389357038017370372e-02 -7.033049613576716208e-01 7.070373905149246463e-01
-1.274502914234412199e-01 2.787041627517831618e-02 -8.804348332638003427e-01 -1.484322449089742757e-01 -8.141325409202260222e-01 5.613876330006377646e-01
1.379007893236251781e-02 -1.258861654317667000e-01 -9.692029113448379363e-01 1.662316145914651544e-01 -5.315179504347633532e-01 8.305755345999198402e-01
-1.166461175591922278e-01 -3.384153639271125086e-02 -9.373240454164166735e-01 -8.648885594759322948e-02 -6.023406899884036214e-01 7.935397727783843891e-01
9.941795518176389790e-02 -5.024640923619311250e-02 -9.055566406253452438e-01 -2.560031898209579049e-02 -6.974579399343543429e-01 7.161683082143059931e-01
3.369167130142623062e-02 1.199102479732380988e-01 -6.637945093601730351e-01 3.075017888569836488e-02 -9.927515380414899671e-01 1.161843802529147901e-01
4.247310250962825495e-02 -5.211403604470599311e-03 -8.664877553977010649e-01 -6.637271287139714926e-02 -7.212171210635016649e-01 6.895219556119769333e-01
2.096487251139565744e-02 -5.483898066330811921e-02 -9.158514040625251873e-01 -6.416700539199164666e-02 -6.567231108446075494e-01 7.513969331196429513e-01
4.941858025160567047e-02 1.136619878308702397e-01 -6.875927553496106182e-01 -5.560466526098740286e-02 -9.545864224647346852e-01 2.926993051703275506e-01
-1.987005146721397553e-02 1.164296435345919117e-01 -6.793190821211310126e-01 -3.196877031775717248e-01 -9.337476191702025474e-01 1.609818503155782954e-01
4.226657422295086730e-02 9.721576701615194938e-02 -7.253208640184759526e-01 -6.849503525759655098e-02 -8.738800555929707725e-01 4.812920927896975343e-01
8.501937826006698840e-02 7.969686857958499515e-02 -7.399849424657458652e-01 -2.458172875159400639e-01 -8.433090868914936422e-01 4.779159393915843879e-01
-2.507959473439449680e-03 -2.696067981740529057e-02 -8.955310114158314683e-01 -4.071558026484810022e-01 -6.482846303390165099e-01 6.433903872734466622e-01
-1.636600675868358709e-02 1.162710457543289222e-01 -6.254480669936099968e-01 -7.505468502239371897e-01 -6.463169782571127620e-01 -1.376727614146016354e-01
3.677376066462874349e-02 9.694215590266104521e-02 -7.265993677849565957e-01 -6.849503525759655098e-02 -8.738800555929707725e-01 4.812920927896975343e-01
-1.263200786826102623e-02 1.175320203261901869e-01 -6.231475344330931199e-01 2.011887126233908862e-01 -9.793317789560708198e-01 -2.079347589221845413e-02
-2.577090961245828357e-02 4.742092276066298129e-02 -8.143546935986500923e-01 -2.285013156528505063e-01 -8.181755132204253655e-01 5.276134743459549581e-01
4.687562830774383987e-02 3.438652076781994332e-02 -8.212810269125492280e-01 -2.497823792120196229e-02 -7.812281610633748929e-01 6.237456596978364631e-01
-1.482405091214212406e-02 -1.393505639280077646e-01 -9.872444776238453734e-01 -2.560980321487715261e-01 -5.123569332443566049e-01 8.196976094182321093e-01
4.091527957020630463e-02 -1.680402842490468507e-01 -9.938810931861419284e-01 -1.179755343720775423e-01 -4.708352948960791151e-01 8.742973741066280002e-01
8.192840374554667682e-02 -3.369158033747989001e-02 -8.906277236655750773e-01 -5.726616719578555420e-02 -7.033755598687945199e-01 7.085078742497957771e-01
-1.792444698797601710e-02 1.186134819577744359e-01 -6.561708929623526476e-01 -3.153168792500807283e-01 -9.451841552331408103e-01 8.486564885867424468e-02
-8.123536717990963163e-02 -1.012331756629228363e-01 -9.757147351457869933e-01 -6.385282621921076207e-02 -5.077348959729255373e-01 8.591438133369648789e-01
-5.985096015089474281e-02 4.458389841386795754e-02 -8.326865530944808080e-01 -1.965602659899477189e-01 -8.370626940529363180e-01 5.105782095416930844e-01
-4.606659369085851913e-02 -2.539916073994383933e-02 -9.158036424564792721e-01 -2.615018512796548067e-01 -6.402089159363472115e-01 7.223221758557052397e-01
-1.029436175433746242e-01 4.677893457730822324e-02 -8.426955358196654977e-01 -1.289754786224640570e-01 -8.586324016487585364e-01 4.961005187993568488e-01
9.148188803224796550e-02 -5.752656754063816685e-02 -9.124971194889190951e-01 -3.557716264807408990e-02 -6.634495678433062205e-01 7.473746961373809450e-01
8.688296573541874623e-02 -1.581040002009362431e-03 -8.572989672914389514e-01 -9.413373866732581419e-02 -7.223403758665885022e-01 6.851008835473991754e-01
-7.300794341518640831e-03 1.185538222341489811e-01 -6.349609932255122491e-01 1.372707069611946440e-01 -9.905283413371904766e-01 3.218387510526168720e-03
-1.786217420512148379e-02 1.062957361389476468e-01 -5.670978904888279715e-01 1.945754852426845316e-01 -9.074785994138850898e-01 -3.723210605759327274e-01
6.508002953958941239e-02 -1.221526649783375058e-02 -8.711043115438437123e-01 -8.241120341009065819e-02 -7.016376867593470124e-01 7.077520399627915682e-01
6.166579637783879686e-03 -9.431455371531685672e-03 -8.725510515387595589e-01 1.465119979993861343e-01 -7.032143336050630245e-01 6.957182155546990376e-01
1.235829024119427730e-02 -1.977534591891361992e-01 -1.007646134059813070e+00 -6.844923093066307418e-01 -2.930650153823127213e-01 6.675201684286702353e-01
3.897814174652745184e-02 -1.372301072392998478e-01 -9.763520875590527837e-01 -5.436646686543310930e-02 -5.265903930166510039e-01 8.483789514498449869e-01
-6.532847757085552542e-02 6.223488999053344850e-02 -8.066802638083927501e-01 -1.879671573403801921e-01 -8.184088347313719369e-01 5.430242416274015937e-01
9.231376184451434153e-02 7.939221722772120404e-02 -7.367539991550600131e-01 -2.628924576595885187e-01 -8.424532595486395881e-01 4.702765794525324838e-01
-2.024428718337457911e-02 1.148341185574203865e-01 -6.875238273569093117e-01 -3.293186992044306316e-01 -9.145093040397416218e-01 2.349934619921357493e-01
5.417194574707645538e-02 9.550964090739838541e-02 -7.254882048400024264e-01 -1.372315549207442920e-01 -8.763307307679109037e-01 4.617487960415422865e-01
-1.158737470640086586e-01 4.098227591641705886e-02 -8.564665555532929853e-01 -1.392487296101602989e-01 -8.632625138912530804e-01 4.851676240353539060e-01
2.427332864452350081e-02 -1.151624194754982677e-01 -9.627374611063649334e-01 -7.473275168163056106e-03 -5.517851366638975019e-01 8.339528242742899611e-01
6.119804791779934194e-02 -2.619845872302447101e-02 -8.853825320518691200e-01 -7.745411220588045709e-02 -6.919634688678282242e-01 7.177655733279501016e-01
3.156233182770272483e-02 -1.666826098240852816e-01 -9.939495875738946218e-01 -3.949738205796005097e-02 -4.811792893820640571e-01 8.757319500168639914e-01
-7.814599562314845926e-02 -7.653474832031045838e-02 -9.607931074018566386e-01 -6.937720392460663965e-02 -5.105692464104580885e-01 8.570331663334042060e-01
-6.970629310334675033e-02 6.844287641989427184e-02 -7.987124708016022367e-01 -1.678014314984708488e-01 -8.218559163799181722e-01 5.444222004091940903e-01
-1.372364195547331675e-02 1.171508294999572541e-01 -6.296869381683563027e-01 2.935516233475919945e-01 -9.554711122426172709e-01 3.003994174178175811e-02
4.253419969882227258e-02 -1.046171950414492499e-02 -8.718595648367719608e-01 -7.389357038017370372e-02 -7.033049613576716208e-01 7.070373905149246463e-01
-5.789414832611873563e-02 1.288116924278423225e-01 -6.585400888180900081e-01 -2.324058099669268351e-01 -9.726173653193511681e-01 1.732100707397246772e-03
1.023582564916092896e-01 7.061854398704353608e-02 -7.475226168242137259e-01 -2.538602855832882144e-01 -8.795330110621519815e-01 4.024632130462558188e-01
-1.322084098019693857e-02 -2.007131038301673831e-01 -1.020721914127498131e+00 -2.598040453874803646e-01 -2.984962379733210325e-01 9.183691272664137317e-01
7.793492550604254332e-02 1.027255841046313400e-01 -7.043168624838269665e-01 -1.530668191930357191e-01 -8.615362883887894840e-01 4.840720738189667194e-01
-2.994333199555973546e-02 -2.653358677344453201e-02 -9.099960429813237495e-01 -3.034419384566068301e-01 -6.770215651557023318e-01 6.704959286228513449e-01
8.972557829235403015e-02 -7.861827306407397076e-02 -9.303917010959839029e-01 -5.665458865503729402e-02 -6.368124972941778816e-01 7.689343930884358080e-01
-7.220634905490630473e-02 8.312947989637263502e-02 -7.779056997649169691e-01 -1.814421093742763225e-01 -8.121629666841586603e-01 5.544998435460547492e-01
-1.053195949590283453e-01 8.188186182601926710e-02 -7.897555395158126768e-01 -1.621906702206246387e-01 -8.020969024521628077e-01 5.747475494249887351e-01
1.074805161772047907e-01 2.730805915019154928e-02 -8.221748372833788121e-01 -1.157289151618244027e-01 -7.620853059414186559e-01 6.370500801849422468e-01
-3.116746757754254929e-02 1.223883151325316776e-01 -6.508830867128284625e-01 -2.469915757155128067e-01 -9.690170955735923908e-01 1.014894914468426456e-03
6.672922945959054546e-03 1.201597925992861221e-01 -6.367278791894170897e-01 9.677313096029219186e-02 -9.951784239787904163e-01 -1.596450973982202481e-02
-2.044397171769151908e-02 4.220431283962652186e-02 -8.198500212865089676e-01 -2.523777870049806471e-01 -8.069784332621704470e-01 5.339393794020076411e-01
5.611155619495785014e-03 -1.248015407518126077e-02 -8.755156315921204246e-01 1.465119979993861343e-01 -7.032143336050630245e-01 6.957182155546990376e-01
9.560398536650613344e-02 -1.097258365813955500e-01 -9.514492367221233371e-01 -9.264207647045721861e-02 -5.259054023962245195e-01 8.454826748063539732e-01
-3.595690135464472970e-02 1.209322707085795923e-01 -6.818158752501745079e-01 -2.730304597006502076e-01 -9.479538634160367128e-01 1.638225897434827938e-01
-3.949674193860426563e-02 1.038974540920698936e-01 -7.319189417475033821e-01 -2.722148140680188400e-01 -8.443885658932338556e-01 4.614185137060298758e-01
2.364049601112221122e-02 3.280824453476927777e-02 -8.238057684418883531e-01 -1.536134956549133415e-02 -7.876586471202013939e-01 6.159203556924390810e-01
1.322955498812258216e-03 3.989055980142060254e-02 -8.118884740981279213e-01 2.243875229439067087e-01 -7.817796297441034215e-01 5.817824765874873849e-01
1.813052557208568588e-02 -5.515945756332307076e-02 -9.163476117353934747e-01 -5.701745871131796289e-02 -6.544095957672234620e-01 7.539874603532090713e-01
-3.772856456983229856e-02 9.347893613283914105e-02 -5.458069763418716969e-01 -2.172255536638536544e-01 -8.630338519914618756e-01 -4.560544146833926948e-01
1.860317094436817961e-02 3.394856936413235410e-02 -8.221935318333818410e-01 2.349131312290332965e-02 -7.858381240830264458e-01 6.179859229346824634e-01
5.255909208630698409e-02 -7.830258053587764097e-03 -8.681440700151965562e-01 -7.300396658921218251e-02 -7.173341880149414207e-01 6.928939915796539228e-01
-7.212654720996145019e-02 5.129699618104209546e-02 -8.260855013418495485e-01 -1.569943507674021743e-01 -8.481083388190668870e-01 5.060286745360231819e-01
-6.905518186840264860e-02 -3.732982248519063628e-02 -9.331314014602735130e-01 -1.872495533022237035e-01 -5.876797889946309139e-01 7.871277344849079149e-01
-1.202485855057324471e-01 9.505452160594264621e-02 -7.766956174128656354e-01 -1.955928437680378995e-01 -7.735057723658751438e-01 6.028534312612003898e-01
-1.133527181887013235e-01 3.205076466167224025e-02 -8.706051349396496386e-01 -1.527686827898602773e-01 -8.418706616739087822e-01 5.176055627322663222e-01
2.273113134107065947e-02 4.915799764288913271e-02 -8.017905109625333981e-01 1.236946948554254293e-02 -8.135983803204005493e-01 5.812956835937000966e-01
1.354112689630584086e-02 7.799996354222026029e-02 -7.584902482928994605e-01 5.288594376636353983e-02 -8.389595645913149324e-01 5.416178781509085605e-01
1.155953094645086401e-02 1.083260803679961595e-02 -8.505153152812203743e-01 3.318913257988196502e-02 -7.531090744870646558e-01 6.570579908986967643e-01
-6.429984350894986378e-02 6.417862834499389602e-02 -8.033947344977497851e-01 -1.879671573403801921e-01 -8.184088347313719369e-01 5.430242416274015937e-01
-7.064771304251859022e-03 1.078335841987534821e-01 -6.953296793341670057e-01 3.771602788745569423e-01 -8.612626730857638746e-01 3.405535669882651661e-01
-2.617741151194634061e-02 -1.757856835802107387e-01 -1.012803397827864105e+00 -2.740543347201050417e-01 -4.900906200777838118e-01 8.274692778181518271e-01
8.804292568761272475e-02 -6.421754459362669087e-02 -9.186219653116426409e-01 -3.832141157295278211e-02 -6.647302480647251377e-01 7.460999709977645944e-01
-5.827947628034364780e-02 1.271734790878589760e-01 -6.798121546963394879e-01 -2.433209362606719439e-01 -9.542037364649423870e-01 1.740406598860528564e-01
1.052918817339275510e-02 -2.309348206425294869e-01 -1.017972920927422642e+00 -4.202392467931602704e-01 -6.819919774596550077e-02 9.048468626687743432e-01
2.532959312464337816e-03 8.301726262954514657e-02 -7.489510823129843509e-01 1.127074179771873214e-01 -8.422499955655612380e-01 5.271735794809214726e-01
1.969343299539147094e-02 2.437592340992800546e-02 -8.344612954840596730e-01 7.591866596466588860e-03 -7.748681254471139201e-01 6.320773304965596751e-01
7.130981875932544678e-02 2.943977509179115590e-02 -8.251796381986342688e-01 -8.485677806174647675e-02 -7.692443245273814512e-01 6.332949521347788213e-01
-1.163854458474215953e-01 1.542128641828491298e-02 -8.936564116693742621e-01 -1.571878201454242341e-01 -7.543513771166220350e-01 6.373742927355837695e-01
3.739675654025594043e-02 -1.917146158465150851e-01 -1.006460608991510908e+00 -9.013427962081235756e-02 -4.393152281221885946e-01 8.937997214013810865e-01
-2.181342752831346918e-02 -2.005319219022700869e-02 -8.993415419522902132e-01 -3.348997905171252065e-01 -6.694368369753023185e-01 6.630961103882965224e-01
-1.866083669755777899e-02 -1.669998027703658294e-01 -1.005173815574237572e+00 -2.859741325408076684e-01 -4.898295001898654855e-01 8.235811169892609529e-01
3.644532875388251797e-02 3.921981476315421211e-02 -8.153992156432806615e-01 -1.680614636601392153e-02 -7.987232905843045794e-01 6.014637632663374367e-01
4.083797739319613984e-02 6.923773635877594756e-02 -7.719197305528257003e-01 -2.278783330106677260e-02 -8.413510244922581816e-01 5.400084890437093499e-01
2.922583276009360284e-02 4.751797956785885901e-02 -8.042049845719559942e-01 9.900191490769615077e-03 -8.126596604431086668e-01 5.826544966761495470e-01
-1.580291524229691588e-02 1.177335311764497044e-01 -6.465676697929001460e-01 -3.858491291973478177e-01 -9.225484757157830229e-01 -4.975887070037862681e-03
2.024440292313119810e-02 -1.584284647405118374e-01 -9.891275360309254028e-01 6.107883559276089391e-02 -5.020357075234999078e-01 8.626873849860163812e-01
4.438263123390968901e-02 -7.186432545851920151e-02 -9.283543567410695863e-01 -7.169879645594648410e-02 -6.400718886374747729e-01 7.649622604827146510e-01
1.006665921855091766e-01 -5.788793240511409116e-02 -9.124195510384603969e-01 -2.719937420066158643e-02 -6.645197980605894728e-01 7.467754897079882381e-01
-2.016512088879393681e-03 -2.153104551529360922e-01 -1.021251183579501065e+00 -2.974344735168433784e-01 -1.205791171360045821e-01 9.470973606100163700e-01
1.095440447948430041e-01 -8.581215632519662018e-02 -9.342898017491158003e-01 -5.611850576634761639e-02 -5.523743898775943517e-01 8.317050238623713287e-01
-7.163515364159998844e-02 1.105147460488369315e-01 -7.367515431219029409e-01 -2.133276678800607729e-01 -8.388277169989052373e-01 5.008586300656694412e-01
-1.099702964920187820e-02 1.811995827686666005e-02 -8.492148076962632297e-01 -3.081815510776670930e-01 -7.731250449206543696e-01 5.543480824281792341e-01
1.320036156242484771e-01 -8.042190882899868942e-03 -8.572378545303726005e-01 -9.704571761329294777e-02 -7.586611314817439666e-01 6.442169015725687231e-01
8.928984415155619137e-02 8.704933017096930237e-02 -7.254136517785556570e-01 -2.650997936045128567e-01 -8.248379619790885409e-01 4.993640314530355950e-01
-2.490815228648346827e-02 1.038392762623672472e-01 -5.671088953969243285e-01 4.165816737978108031e-01 -8.702724446304800354e-01 -2.628413612289784429e-01
5.735575565648150242e-02 -4.382822216314270942e-03 -8.640246719954826071e-01 -8.180067620809154672e-02 -7.169430886529510882e-01 6.923158650534202430e-01
-5.465567872488495682e-02 -8.276654068715270929e-03 -9.020390322590180476e-01 -2.619760695729878575e-01 -7.164469172959512244e-01 6.465851480417852404e-01
8.144734922015995499e-03 4.261765527300109824e-02 -8.097337401691869774e-01 8.073899874209922167e-02 -8.034942545842361783e-01 5.898120013464001055e-01
1.239629197879331679e-01 -1.787779323403694900e-02 -8.696956039072629707e-01 -9.812898487959909044e-02 -7.435004148020297743e-01 6.614966632687642178e-01
5.638774905528717157e-02 -7.648967240203907551e-03 -8.675216460379736594e-01 -8.144884775948343925e-02 -7.171687449817296667e-01 6.921235990919418768e-01
-7.183467479661895250e-02 7.082439704376332357e-02 -7.957755406608377768e-01 -1.684814535726712748e-01 -8.165425622772798375e-01 5.521523737082856265e-01
-7.773576475654710854e-03 1.088218422634527477e-01 -6.915791000337407901e-01 3.799399223185360719e-01 -8.801595075903838605e-01 2.845433123916951135e-01
-2.502410431721497838e-02 -1.137046287781517430e-02 -8.919214784261988438e-01 -3.330932597224349201e-01 -6.955488649361967202e-01 6.366008614614425687e-01
-6.181756897107036630e-02 -5.185120325765783800e-03 -9.014625528651289965e-01 -2.092988108405107461e-01 -7.222741048478283910e-01 6.591768543016481852e-01
7.215485382164638084e-02 -1.620528305084421306e-01 -9.827563713895850483e-01 -2.867293453536115533e-01 -3.909445420974020369e-01 8.746134274737279446e-01
-1.981909489218212569e-02 1.788489977005775639e-02 -8.542871137337363363e-01 -3.298836394998916899e-01 -7.474862426691296635e-01 5.765770559176736088e-01
-4.409659767518445128e-02 -3.464645994364758119e-02 -9.234021496017721375e-01 -2.512022065979380714e-01 -6.473422294782651409e-01 7.196148201186770565e-01
9.814399585819462424e-02 -8.716454277448124066e-02 -9.361745823905165409e-01 -5.639024031889002669e-02 -5.735212740399731057e-01 8.172475078091970824e-01
-2.874029499971339236e-03 1.186415731526284378e-01 -6.493007561239023673e-01 1.303092715603979268e-01 -9.898195799400786310e-01 5.724240484679617852e-02
-3.773622771773400136e-02 -1.116563561074241234e-01 -9.762439426828150024e-01 -2.086099620464576809e-01 -5.224471868452132961e-01 8.267592277637415554e-01
2.945197982716201562e-02 -7.793367000882564510e-02 -9.347436812335823131e-01 -6.174756489484485578e-02 -6.365011688276244195e-01 7.688000392238704128e-01
-1.102374675841823332e-01 4.737368799189014927e-03 -9.038918952591693534e-01 -1.439833553161972701e-01 -7.015033200817866188e-01 6.979698312292014206e-01
1.292098990785012572e-02 1.194546940147663966e-01 -6.582948034930984349e-01 7.870928258537249200e-02 -9.889459295902991443e-01 1.256614387219686102e-01
-9.884469867653578046e-02 7.948958114829213217e-02 -7.912669390069523301e-01 -1.621906702206246387e-01 -8.020969024521628077e-01 5.747475494249887351e-01
-5.253404444475558849e-02 -8.040578844766066435e-02 -9.596897260336539892e-01 -1.565175560796033538e-01 -5.338026537776868752e-01 8.309975821016368780e-01
-3.620511792022781949e-02 1.229153723214645305e-01 -6.343271721814733866e-01 -2.196789700026527126e-01 -9.735279129602392167e-01 -6.312331443970913003e-02
-4.343699287474387521e-02 6.491000037143106194e-02 -4.967438358642548568e-01 2.117914175254987513e-02 -8.097497696474085238e-01 -5.863930034632014454e-01
6.673607818254302659e-02 1.162161399372538678e-01 -6.763264440780085707e-01 -5.290495255376938266e-02 -9.341254096388550421e-01 3.530025284078350811e-01
-2.497628165765045094e-02 7.157442841198699210e-04 -8.783411926220796584e-01 -3.214928964365099673e-01 -7.233416458439088093e-01 6.110803391770093240e-01
2.403879398860048894e-02 -1.904661188664513449e-01 -1.006285862180313684e+00 8.008493882153880361e-02 -4.320014468630705706e-01 8.983101649665129473e-01
8.299687816719107658e-02 2.609112635625222484e-02 -8.276811626825121282e-01 -8.485677806174647675e-02 -7.692443245273814512e-01 6.332949521347788213e-01
2.331555057445010640e-02 -2.153312232519052627e-01 -1.015119825298111289e+00 1.094259825128792024e-01 -2.106347709432804804e-01 9.714210969609227142e-01
9.700828280623435829e-02 5.402305150436722408e-02 -7.855477184186431261e-01 -1.394662310539931671e-01 -8.742389995550137183e-01 4.650326247185707085e-01
1.065257528176759144e-01 -8.914503650416107094e-02 -9.368694455328693271e-01 -9.309852730478775096e-02 -5.639464401378321279e-01 8.205468157695491316e-01
4.666650279051571398e-02 1.127233069478536659e-01 -6.909250569396930830e-01 -6.413646195633024294e-02 -9.302499627272693417e-01 3.612776232949365118e-01
-5.018990435301332043e-02 1.017615223199440505e-01 -7.413628378106162931e-01 -2.408652663772972990e-01 -8.373187227984758563e-01 4.907965769075032236e-01
3.356031535585159153e-02 1.260394704669401920e-02 -8.480094451182860205e-01 -3.396619745196818169e-02 -7.489449145791896578e-01 6.617611444899315076e-01
1.286410478877024477e-01 7.872166210607420278e-03 -8.399653044853682138e-01 -1.265934067405704022e-01 -7.322765192828684100e-01 6.691376604830900909e-01
7.469730539631525001e-02 -1.005719440974196625e-02 -8.678069258261027485e-01 -8.914913503682403428e-02 -7.137722780951022417e-01 6.946809100192072872e-01
-4.832159535080084167e-02 -4.844976540890434669e-02 -9.362993149740098664e-01 -2.381164100586259935e-01 -5.974962304132084290e-01 7.657015279485851478e-01
-2.845517608948722535e-02 8.969968281278355160e-02 -5.357504928444117853e-01 3.789125015425121208e-03 -8.718105722513062039e-01 -4.898285094218866043e-01
-2.669195129414514422e-02 1.031883906275575524e-01 -7.253772370834234984e-01 -2.895290968909729479e-01 -8.393207922428739254e-01 4.601233636344625455e-01
7.512738317689805767e-02 -4.642949276369792017e-02 -9.032502861721025678e-01 -4.682406750662344852e-02 -6.869052741369813253e-01 7.252369620096134062e-01
5.718758778980125197e-03 7.183597010865101773e-02 -7.671538759931749718e-01 9.721377057398584987e-02 -8.349530762724940436e-01 5.416667270876873719e-01
-9.285890577463871975e-02 1.263161694054524553e-01 -7.151882628213085402e-01 -2.276586409590400928e-01 -9.005209055690109876e-01 3.704505929673362896e-01
-1.266913735836422139e-01 5.292374289194161363e-02 -8.379714487454471561e-01 -1.211093631547072308e-01 -8.633966270907159624e-01 4.897742199061074220e-01
3.176532587001466151e-02 -2.111776172407358598e-01 -1.014668548758617783e+00 2.642179965271047870e-02 -2.161118621520479177e-01 9.760110406856501442e-01
-7.662864935908281216e-02 -1.067878243634589747e-01 -9.787768493737469822e-01 -1.048599052863199016e-01 -5.392308708988473587e-01 8.356042532999783390e-01
1.094633407600418065e-02 -5.020648175513220401e-02 -9.121105040908495942e-01 5.339485661889444013e-02 -6.707442822874220001e-01 7.397642172107128378e-01
