8.981994175999949426e-02 1.677272839612188940e-02 -9.187938841071792151e-01 -5.034683592411836051e-01 -4.437599128329965809e-02 -8.628733294294216316e-01
-1.024214696174105196e-02 -1.562969134753368350e-01 -8.871799923075253114e-01 -6.533576733447367113e-01 2.348704482562426477e-01 -7.196941178149672824e-01
-1.184479282506837802e-02 5.968382005174074911e-02 -8.688680314585405240e-01 -7.853850087318752227e-01 -1.636117427021367143e-01 -5.969937903439214155e-01
1.291410177540631143e-01 -2.356220454507602230e-02 -9.509536096333305322e-01 -6.039332671513427675e-01 1.851642873935595568e-01 -7.752282215592645187e-01
-3.432265889611107318e-02 -1.585569923559488892e-01 -8.662530460672783761e-01 -6.459099478816072715e-01 2.352091188189399662e-01 -7.262761249359621640e-01
1.860092767560131161e-03 -6.410767856322753533e-02 -8.785643930310402805e-01 -6.407952648079341396e-01 1.036502394174480951e-01 -7.606826253230944967e-01
-2.957303316935459142e-02 -4.937760477084660732e-02 -8.506458537552687993e-01 -6.286234103479125812e-01 9.103865838405300615e-02 -7.723629785548965510e-01
3.634274929911507357e-02 4.905713304638070066e-02 -8.919288789603101453e-01 -4.606280228346361638e-01 -5.028658946987227957e-02 -8.861676384854856314e-01
8.263775798041066156e-02 -7.844331411660340758e-03 -9.155608073382692780e-01 -5.113756616854885362e-01 9.571480304372892434e-02 -8.540103097235005603e-01
8.904928219209642948e-02 -1.591812528478033784e-01 -9.684399480444928487e-01 -6.405392624570932503e-01 3.043905493667714013e-01 -7.050218767578197987e-01
-1.211460169592747105e-02 -2.305092423149042447e-01 -9.228676129241658588e-01 -4.865244422440523908e-01 4.992202634344215517e-01 -7.169889090324762515e-01
2.667689313773224935e-02 1.894612722808458605e-01 -8.973340768435699166e-01 -4.299674980528547796e-01 -1.463931175517624028e-01 -8.908967424744825836e-01
4.235989008588441490e-02 -1.812794559582965592e-01 -9.442175424360738090e-01 -4.688202934261593291e-01 3.637711858029017420e-01 -8.049087257890553682e-01
-2.915217267021066871e-02 -1.753416009247695806e-01 -8.774632118109618739e-01 -6.154523172439994028e-01 2.993811322125836671e-01 -7.291017644157110622e-01
4.224607126487279346e-02 1.685752322607535214e-01 -9.024986809192395709e-01 -4.656215671848533688e-01 -7.706818968212905685e-02 -8.816218295343192235e-01
-1.775218915459157998e-01 3.033933328922506223e-01 -9.921251183634770543e-01 9.522824331456081204e-02 -9.273118904575328170e-01 -3.619727054507004271e-01
-2.138324064624254339e-02 -5.976703098833360643e-03 -8.541192475148259300e-01 -6.288284760474276425e-01 3.226498343845020378e-02 -7.768743261014526835e-01
9.501658924734721068e-02 -1.329248460449839186e-01 -9.624732743548588543e-01 -6.406948484270881261e-01 3.174560994274961412e-01 -6.990935102940596391e-01
-3.660702444251869719e-02 -1.883289233482748556e-02 -8.423730017730717279e-01 -6.267760955163413916e-01 5.115418463466829546e-02 -7.775184727603920987e-01
3.293138165859371691e-02 -7.577530124245011878e-02 -9.021838645276994972e-01 -3.490843236583915932e-01 2.183417161560967101e-01 -9.112996378590160207e-01
-7.194070226089899212e-02 -9.118932558337923544e-02 -8.193235457552930923e-01 -6.512323703756908166e-01 3.416177084775805228e-02 -7.581090773677653383e-01
-2.372083419136573890e-02 -1.181302927807741099e-01 -8.656057642001508956e-01 -6.637577217024046572e-01 1.298629476941844940e-01 -7.365876062605252184e-01
7.812712154727625979e-03 -2.304481755035671722e-02 -8.802608573072067122e-01 -7.239059962664314840e-01 5.850749230887816168e-04 -6.898983738615706018e-01
-1.142042590821476522e-01 1.378175758683068408e-01 -8.088590783637981119e-01 -4.911803376774946939e-01 -1.415845662989216880e-01 -8.594740755048803083e-01
1.242006158214335881e-01 -4.881038998100706988e-02 -9.541190876438480073e-01 -6.513010131675951442e-01 2.658821858800446414e-01 -7.107134819873007769e-01
-6.922452694204778156e-02 1.610709151296703390e-01 -8.438180392291201315e-01 -5.595483557054521384e-01 -3.495239825355462293e-01 -7.514909335845747496e-01
9.001740554981867148e-02 8.655665365090352281e-02 -9.276237251996327648e-01 -5.403210689564099667e-01 -9.702454997402680525e-02 -8.358465045354560585e-01
-4.067434474066752154e-02 -7.821874011737045551e-02 -8.447857446554454253e-01 -6.471618655968401912e-01 8.185599677935127827e-02 -7.579453248806778953e-01
1.052478804133047049e-02 1.635537156238867640e-01 -8.860249905420867211e-01 -4.388558529777820683e-01 -1.007020628749581287e-01 -8.928967660597003642e-01
4.896138983148642975e-04 -8.946184491967558439e-02 -8.814534800332174402e-01 -6.417067143167258791e-01 1.264212812951148457e-01 -7.564589562141049717e-01
-1.355143668099215160e-02 -8.971214730522666936e-02 -8.695775053373785424e-01 -6.402501769246868868e-01 1.250026989628758300e-01 -7.579274610408992530e-01
-1.618201001479898857e-02 1.514231808101926535e-01 -8.727610484113809131e-01 -3.736572174968441629e-01 -9.779000111172293785e-02 -9.223976363234487330e-01
-9.589618969523502900e-02 2.612081431483747607e-01 -9.094595936216128829e-01 -4.270004366825944780e-02 -6.944933995481835654e-01 -7.182308989835621826e-01
2.584024379151288187e-02 1.654428096292120953e-01 -8.937672755947919656e-01 -4.523314986598649945e-01 -9.495858538792116554e-02 -8.867801770344473367e-01
8.358807511586985317e-02 1.233716294009264691e-01 -9.262437111626412589e-01 -5.479587959025873367e-01 -1.550770065736026965e-02 -8.363615660785163053e-01
1.188259288511189227e-01 4.584536438326298341e-02 -9.382964312707213761e-01 -5.095263647597294554e-01 -1.184964699127290799e-01 -8.522566926888617278e-01
7.230957984212416090e-02 -1.381461250482668712e-01 -9.454294668898191034e-01 -5.619050853789347988e-01 3.229467660837543885e-01 -7.615563415147542647e-01
-4.254956670793932222e-02 -7.783796804089822274e-02 -8.431535130866232297e-01 -6.366209230501513883e-01 8.753084075916539586e-02 -7.661932864824428924e-01
1.574294864403091854e-02 -2.426968382653841294e-01 -9.510011396398484473e-01 -6.381447619993966258e-01 4.066512451135527728e-01 -6.537629750760827196e-01
-1.211253013306265169e-01 2.668478234875725774e-01 -9.221293516223252329e-01 -7.166570299053470761e-01 -6.935175360547221057e-01 7.373010695661423586e-02
-2.986299616815902593e-03 2.248706841121751732e-02 -8.716790015378697021e-01 -7.302719970394272453e-01 -1.012362532265317500e-01 -6.756138182221411714e-01
-3.887616911369824041e-02 -7.109496662759064167e-02 -8.454847432884687874e-01 -6.372505674116818453e-01 1.013501022344086150e-01 -7.639632655504872139e-01
-3.539980203145200177e-03 -2.520165302449647871e-01 -9.430366815802111446e-01 -4.232940968375473734e-01 5.251513561768635929e-01 -7.382669982385006158e-01
4.159392215159640749e-02 8.917621118162510907e-02 -8.981677407722010731e-01 -4.898802150802412103e-01 -6.128219255892711909e-02 -8.696331799949373886e-01
1.125697011246366841e-02 -9.139263558019522504e-02 -8.911190572425461420e-01 -6.539241298890275944e-01 1.434166863640634060e-01 -7.428424371434564355e-01
3.651643651676181324e-02 -4.084709123981626611e-02 -8.962903105873806231e-01 -3.864755631044757833e-01 1.768947117059111729e-01 -9.051767231284513215e-01
-9.022343074636839100e-02 4.666049340407055213e-02 -8.074117793119744979e-01 -4.440748085762369901e-01 -1.993957680281173706e-01 -8.735209740358017561e-01
2.505504605251456310e-02 1.417894662405880524e-01 -8.918215572999422802e-01 -4.739213493850682468e-01 -3.826395610288672866e-02 -8.797354285581504563e-01
2.826923455681794317e-02 1.805925601073479769e-01 -8.966452614753231964e-01 -4.299674980528547796e-01 -1.463931175517624028e-01 -8.908967424744825836e-01
-2.983078945082680983e-02 -1.400899054848805669e-01 -8.648289046702986038e-01 -6.635897312236140877e-01 1.655581652801977333e-01 -7.295472311808375299e-01
-9.884225494597011219e-02 2.428545175252818933e-01 -8.911947091612192340e-01 -5.012219595108485803e-01 -7.028143871053912362e-01 -5.048053927819893261e-01
-5.705120681735417754e-02 8.997089864458711339e-02 -8.348486661297697120e-01 -5.522018884991427567e-01 -1.309760660601187454e-01 -8.233579686001682996e-01
6.601189921494746149e-02 -7.860442427790496900e-02 -9.191998772312439669e-01 -4.763357595386625287e-01 2.476479161061896084e-01 -8.436674426769041890e-01
-3.661143824141710468e-02 -2.605932344291302452e-02 -8.428063166595707312e-01 -6.194773274634504112e-01 4.655328539106119712e-02 -7.836329704511157956e-01
-5.064492037994808293e-02 1.634564129857351278e-01 -8.606111585413745990e-01 -6.497776248473289273e-01 -3.838167189191505346e-01 -6.561049950472116477e-01
1.699991472639104267e-04 -2.392008620366429805e-01 -9.364610171765318514e-01 -4.894042414837862509e-01 4.750189771677171824e-01 -7.313278743137142657e-01
6.455455224395156844e-02 6.502119892527877254e-02 -9.089098007942633117e-01 -4.978861882345624879e-01 -1.164280083203541732e-01 -8.593915652621995083e-01
1.261956771208716521e-01 -2.334294218232298851e-02 -9.485489372776584327e-01 -6.206950788704808097e-01 1.619591226252378724e-01 -7.671420087991732695e-01
6.123618954808694032e-02 -2.128164808083577719e-01 -9.708538127998497247e-01 -5.076580099872062268e-01 3.738857327485005100e-01 -7.762040992824932317e-01
-6.586976968472725569e-02 1.657679714957721873e-01 -8.485260308274229502e-01 -5.880707206794655306e-01 -3.544942949540267341e-01 -7.269846094138316950e-01
1.213453070067887773e-01 -1.122837164617376642e-02 -9.419438944837631444e-01 -5.935844786446956567e-01 1.192221612258755059e-01 -7.958916653569982902e-01
2.198582699525004555e-02 -1.684654543772608482e-01 -9.223948268642930826e-01 -7.252729313286722101e-01 2.466536638256668912e-01 -6.427605659989494846e-01
6.492584702585926792e-02 3.530392121873810601e-02 -9.058163704463300103e-01 -4.901854114362120818e-01 -7.193412336736561274e-02 -8.686447745255134745e-01
2.445900035230698377e-02 -1.500111111877151238e-01 -9.186467937565573338e-01 -7.478892596843356166e-01 2.040423766444738329e-01 -6.316869191158630548e-01
-1.175246762896981489e-01 2.585149616849596321e-01 -9.027403818359840404e-01 -3.458739846893396086e-01 -8.308083171597043792e-01 -4.360375291799763464e-01
2.484944560426694329e-02 -1.133460273394124862e-01 -9.093037000146286797e-01 -8.203773588913506609e-01 1.034758703770339988e-01 -5.623821950134687553e-01
3.075799708975811633e-02 1.109447784481943679e-02 -8.882703532507277844e-01 -4.285709003171144782e-01 4.207482862943509594e-02 -9.025279453829567755e-01
9.208947729384620029e-02 -1.204968468166429940e-01 -9.541067576648081250e-01 -6.446661335375215574e-01 3.202078155537745330e-01 -6.941703905584437617e-01
3.198607662010634345e-02 -7.932760810568764698e-02 -9.026727079504918150e-01 -3.491554330666735151e-01 2.182975743774070443e-01 -9.112829706413723141e-01
-3.152942654810847456e-02 -4.379025868359950197e-02 -8.484239973141748381e-01 -6.245863907887821975e-01 7.005182454843338069e-02 -7.778075483812677549e-01
-3.549439139270907243e-04 7.064586808707026822e-02 -8.745864012233603990e-01 -4.436611544964930709e-01 -3.657262611097639865e-02 -8.954480571256969723e-01
-8.325843430948363932e-02 1.743344062540526374e-01 -8.403170544797331498e-01 -5.304572156020598284e-01 -4.026973429115961456e-01 -7.459557576878472762e-01
2.480742347858180818e-02 8.829387567131620485e-02 -8.886972981140658367e-01 -4.750831856843998335e-01 -5.848134911412691123e-02 -8.779953863692869787e-01
-2.401424429019066026e-02 2.101210037097221706e-01 -8.854280811355311753e-01 -2.534480020418221069e-01 -3.870313429929295168e-01 -8.865499702792267733e-01
-1.607721720297780252e-02 3.938016352017497529e-02 -8.611218230691832787e-01 -6.649330879825239293e-01 -9.173493814341994457e-02 -7.412480621423898075e-01
8.338260009499204317e-02 1.057484624214805879e-01 -9.253226195994438408e-01 -5.472318299741415482e-01 -5.952180570536540899e-02 -8.348619520068721878e-01
1.920998351578974200e-03 1.523771683463238935e-01 -8.807587679400641356e-01 -4.262932517978059166e-01 -9.165198883003775054e-02 -8.999299841738529482e-01
-1.746201388666823381e-02 1.694204993606537035e-01 -8.748091627456353603e-01 -3.514112913103412672e-01 -1.597364309620198375e-01 -9.224935647272096695e-01
-1.067397709272726869e-01 5.733701481539271033e-02 -8.020636770487336031e-01 -3.907293625223886013e-01 -2.059575198779519112e-01 -8.971689167980413382e-01
-1.083849832392178025e-01 3.206884666113208465e-02 -7.943767491769349043e-01 -4.182484194759262808e-01 -2.368662751177187664e-01 -8.769051415733328803e-01
-3.224756040278486252e-02 2.531509916218727119e-02 -8.456891242957061960e-01 -6.361322309971091382e-01 -5.918315907416492327e-02 -7.693069207856138014e-01
-7.585724307858632276e-02 -2.489791792359546951e-02 -8.129140003792332259e-01 -5.862371965506019134e-01 5.186510964960316938e-02 -8.084775567580867461e-01
-4.887415592125244485e-02 -4.181984001224574310e-02 -8.345163492493467006e-01 -6.100567608591038749e-01 6.757792134876572376e-02 -7.894706917145678515e-01
8.033249509106480182e-03 -1.718511633943787809e-01 -9.094093340192749286e-01 -6.725709115834876961e-01 2.619415682409435009e-01 -6.921235321235881255e-01
8.201579548587713264e-02 -1.113704533692816828e-01 -9.414814366491855990e-01 -5.989732843982179533e-01 3.075585013099155218e-01 -7.393502369305159361e-01
-1.273788566984475623e-01 2.659361947584301111e-01 -9.107072221949576996e-01 -2.184605145935886450e-01 -8.823253312588504871e-01 -4.168657018542832327e-01
4.353984200869490118e-02 1.194053228580081172e-01 -9.013292542412842945e-01 -4.996055866683643543e-01 -5.155969504862178282e-02 -8.647172113565524398e-01
2.649603966206941566e-02 8.712384615477197780e-02 -8.895330750015197907e-01 -4.750831856843998335e-01 -5.848134911412691123e-02 -8.779953863692869787e-01
5.551432672527605028e-03 -1.208809113039599134e-02 -8.779051290456547640e-01 -7.318595527430283854e-01 -5.786224187092779171e-03 -6.814309316933238048e-01
-1.027989486825579557e-01 3.908950061527136088e-02 -7.990177131287734547e-01 -4.704751621366596859e-01 -2.034501905493975860e-01 -8.586391219702825817e-01
-1.019815482155453507e-01 2.634155650092052658e-01 -9.119241821562490413e-01 1.049128382265598208e-01 -7.325473817095776718e-01 -6.725828052557467629e-01
2.713333588538378513e-02 1.303761887203759018e-01 -8.924569375790827319e-01 -4.910586300465752951e-01 -3.133712194196153211e-02 -8.705626954132456019e-01
-7.162978765685082405e-02 -3.389492582468175280e-02 -8.167271571387588747e-01 -5.926687010229584329e-01 6.582396278363969455e-02 -8.027521515083076986e-01
-5.717184629461619094e-02 6.966969853014041980e-02 -8.314826220826584402e-01 -5.722304561585147553e-01 -1.405131295110532974e-01 -8.079655719643182854e-01
2.055889699830747500e-02 -6.404103941390726362e-02 -8.950129235197509248e-01 -2.223566269211116331e-01 2.473983190569135904e-01 -9.430544004415011283e-01
2.941953929211831367e-02 -5.406989181159683328e-02 -8.958725534502608445e-01 -3.500370127577731583e-01 1.864417276421367897e-01 -9.179943201858223878e-01
-6.763456939765170352e-03 -1.981930609767942886e-01 -9.072253877870455341e-01 -6.179807255113249909e-01 3.468917507392768607e-01 -7.055252909467779610e-01
-8.325259886713299792e-03 6.197995934240066451e-02 -8.709864570638982118e-01 -3.489780834484532135e-01 2.220227217140882062e-03 -9.371282558240086047e-01
2.279496160404901814e-02 -1.198132628763692170e-01 -9.081485954975903052e-01 -7.102880271200543438e-01 1.503250004680767582e-01 -6.876723876703015881e-01
-1.049245530308030860e-01 1.419261034761601925e-01 -8.147997274759395392e-01 -4.900123995220565520e-01 -1.782482802840162639e-01 -8.532967824212319696e-01
2.142105081343523981e-02 -1.010936106500993359e-01 -9.026184027763336504e-01 -7.454349623795302193e-01 1.077972935391732501e-01 -6.578042720808811028e-01
9.047709687027585129e-03 -2.240815434427742003e-01 -9.341647721306450824e-01 -6.352602364576229732e-01 3.637834632647113375e-01 -6.812532743634613919e-01
1.250111965775855746e-02 -2.758723864953692151e-01 -9.859189443211763271e-01 -6.891944517969879058e-01 6.912069031596957958e-01 -2.173569061167196781e-01
-7.222534779029365914e-02 2.219715888085101174e-01 -8.811720315266259318e-01 -1.070729676118033352e-01 -4.816412676452687669e-01 -8.698028908366884915e-01
-7.491610493340797317e-02 2.262313383742600437e-01 -8.834707760957135614e-01 -1.135477882783230835e-01 -5.462231139355848697e-01 -8.299079524740162750e-01
-8.023416789028446974e-03 -1.820168337719673957e-01 -8.987425548959895316e-01 -6.164176406083139437e-01 3.009538196181716918e-01 -7.276373346689355426e-01
5.431331032048958285e-02 1.250490442260002166e-01 -9.080384028792294338e-01 -5.135546448400355457e-01 -4.318595127794969818e-02 -8.569694279117799907e-01
3.005234988912235811e-02 -1.648970920807300844e-01 -9.310012347889268236e-01 -2.388716449659602226e-01 3.831113835904891296e-01 -8.922813485636900133e-01
-5.813421534810756658e-02 1.638892257865698088e-01 -8.539439249789267938e-01 -6.134657240623134777e-01 -3.658175033716191127e-01 -6.998838186639672054e-01
-9.688497008131266575e-02 2.378893443070263791e-01 -8.865207002513626477e-01 -3.956464754788551752e-01 -7.043410488115687818e-01 -5.893789556814686970e-01
8.273453876587043287e-02 2.404783911741174146e-02 -9.149685407782662816e-01 -5.098283088186315037e-01 -4.056467780451650240e-02 -8.593192668861497907e-01
-9.574058639456943867e-03 -1.659594986036176945e-01 -8.909398623206986612e-01 -6.533576733447367113e-01 2.348704482562426477e-01 -7.196941178149672824e-01
2.688906160825982328e-02 -1.181232424254425734e-01 -9.122648551696911357e-01 -2.382519080166319303e-01 2.952851372378533790e-01 -9.252257649097632708e-01
3.891281613166948372e-02 -5.474387693805218835e-02 -8.999785084660740786e-01 -3.801371674611626061e-01 1.751060145217230579e-01 -9.082035111102148006e-01
-8.260474536385574440e-02 1.128275297996145787e-01 -8.224110850472006184e-01 -4.941271767658887981e-01 -1.164781631777505044e-01 -8.615516065124069200e-01
6.914664939161618840e-02 -1.856090402756024049e-01 -9.640209572339826227e-01 -5.714690413968324112e-01 3.451478047599544352e-01 -7.445106631837921096e-01
5.433090100844351067e-02 8.798026833404894165e-03 -8.995354676401551286e-01 -4.419756472157355121e-01 5.808256752909351540e-03 -8.970082449017533488e-01
1.272225200453371355e-02 -7.237011559174884312e-02 -8.892247951538296835e-01 -6.846297904515022958e-01 1.075595134566915967e-01 -7.209112296887126847e-01
2.051603223428630218e-02 -1.902048756861616022e-02 -8.864054276908426289e-01 -3.491601607095149440e-01 1.197283766637131652e-01 -9.293827510744848697e-01
5.077689921983444959e-02 1.222846125142527246e-01 -9.057798334402513696e-01 -5.135546448400355457e-01 -4.318595127794969818e-02 -8.569694279117799907e-01
1.151998013121256076e-01 -3.894047461642394931e-02 -9.435089090497233988e-01 -6.156286355417689427e-01 2.202601504976996194e-01 -7.566286071803725033e-01
8.759425631391455636e-02 -1.266625100784799784e-01 -9.527762152265557560e-01 -6.446661335375215574e-01 3.202078155537745330e-01 -6.941703905584437617e-01
4.558247267325637314e-02 -3.899055762413405207e-02 -9.000778669624618367e-01 -4.139536752101660166e-01 1.662960182600660142e-01 -8.949793232755962613e-01
-1.697360802526070092e-03 -2.022966616240356452e-01 -9.134835273496140218e-01 -5.939008475319318414e-01 3.472016573529726480e-01 -7.257635926610001009e-01
9.032232820208034585e-02 -1.202605602557880599e-01 -9.523566369561278222e-01 -6.446661335375215574e-01 3.202078155537745330e-01 -6.941703905584437617e-01
-1.272422489544285280e-02 1.489209876548044653e-01 -8.738898887635321300e-01 -3.855914734157400159e-01 -1.221247957373709364e-01 -9.145516660611274773e-01
-7.079043506334518898e-02 -9.275845824305784448e-04 -8.153916677749480924e-01 -5.926691347492089035e-01 1.009490769037697626e-02 -8.053827596580069859e-01
1.124231178085625671e-01 -7.098981895933025033e-02 -9.516068208125236794e-01 -6.529878870020293657e-01 2.656346379115045453e-01 -7.092566944134180984e-01
-6.408513042775145635e-03 -2.488857048136449424e-01 -9.391985615605948912e-01 -4.027564746803262152e-01 5.380054228062088884e-01 -7.404980669348085742e-01
7.101168351148529068e-02 -1.737809916055806370e-01 -9.600404352602146529e-01 -5.709733715214121430e-01 3.347888191941929548e-01 -7.496037990538932938e-01
-5.249693977500005659e-02 1.134024945327967576e-01 -8.424108902605980109e-01 -6.002425021094762725e-01 -1.450594235819010203e-01 -7.865536868462584819e-01
2.861899803861703631e-02 -2.276749787249484347e-01 -9.608058204054812368e-01 -9.608802832530148885e-01 1.639149287874979433e-01 -2.232509291720762568e-01
-4.567049744487344798e-02 -5.420646278542707447e-02 -8.381532867127062802e-01 -6.197177232192501162e-01 7.660752586224993388e-02 -7.810769683643306038e-01
7.326744400626923615e-02 -7.967595495447875320e-02 -9.238731793631849154e-01 -5.222070405138720117e-01 2.500220895657627174e-01 -8.153457926345807349e-01
5.904668574549225279e-02 -1.532536876866073539e-01 -9.424869037537421113e-01 -5.268922048281328152e-01 3.371101092033947366e-01 -7.802188018525471058e-01
-1.819763134256543319e-02 -6.005947618357957915e-03 -8.567613349872287287e-01 -6.489793055978166914e-01 1.261863443848466708e-02 -7.607014072359031820e-01
6.547534662700291164e-02 -1.937114005587683985e-01 -9.649591251180408280e-01 -5.714690413968324112e-01 3.451478047599544352e-01 -7.445106631837921096e-01
3.619468544704255303e-02 -1.445517524978708890e-01 -9.253465159646954152e-01 -4.061525325232615558e-01 3.276827889139159455e-01 -8.530323031248812082e-01
8.501208869159999904e-02 -1.689237228228741838e-01 -9.690289037755185353e-01 -6.218207616964963602e-01 3.025503365512700049e-01 -7.223587987807046362e-01
1.090059228539623920e-01 -5.897785174786351892e-02 -9.441823017142703112e-01 -6.373178225124362939e-01 2.545140899103950916e-01 -7.273572513868888922e-01
-2.181347773729741882e-02 2.537983268777796106e-02 -8.546555325083448063e-01 -6.581898733562135950e-01 -4.334869026325310903e-02 -7.516029414949040310e-01
8.285819016030156192e-02 -2.010905043948596760e-01 -9.802463884447216724e-01 -5.279824793101707270e-01 2.954596237712303064e-01 -7.962023061147512903e-01
-3.319988869117986019e-02 -7.747342333139096981e-02 -8.510657317355942997e-01 -6.372505674116818453e-01 1.013501022344086150e-01 -7.639632655504872139e-01
-1.082897805445695028e-01 2.264132147009208507e-01 -8.670419312206891771e-01 -3.529428810870079425e-01 -7.018502960206787211e-01 -6.187386238676940708e-01
1.695845468955245114e-02 1.670799942634297597e-01 -8.894677297155061391e-01 -4.314195385387480930e-01 -7.815958160544972388e-02 -8.987592901162549941e-01
8.533995339187175344e-02 -2.056518379711477496e-01 -9.837757328522300782e-01 -5.128719327268981276e-01 3.398756399939794615e-01 -7.883190534039241637e-01
3.108647673018626739e-02 1.026079356900586881e-01 -8.931473948365322713e-01 -4.926556529962220488e-01 -5.181224768913838402e-02 -8.686805503522370131e-01
-7.324145184332536695e-02 1.898693856250363854e-01 -8.572804660623818407e-01 -5.354681467161257480e-01 -4.909659488714004372e-01 -6.871872386047362946e-01
1.770626955114442368e-03 8.813990563555004765e-02 -8.765067007293781964e-01 -4.401767925019168803e-01 -5.355114120643297837e-02 -8.963128173903422979e-01
-2.616506643548683481e-02 7.646642885248597366e-02 -8.575391613148125591e-01 -6.698368397792345830e-01 -1.274508392897603648e-01 -7.314881349953009648e-01
3.031861842166185331e-02 1.667340012799823912e-01 -8.961597972348309682e-01 -4.455666412470819515e-01 -7.323783436669249747e-02 -8.922480528558586199e-01
-1.558877439555404927e-02 -3.079266471456631668e-02 -8.602452784120744322e-01 -6.347717391327492020e-01 6.052685676696252515e-02 -7.703254758920391465e-01
-2.552979981651046920e-02 -8.176378298499344111e-02 -8.580531283997652192e-01 -6.437679199072762204e-01 1.182104773314181234e-01 -7.560351502062169216e-01
-1.652299686590218836e-02 -1.857111550889941343e-01 -8.931288845974011403e-01 -5.932379308503801241e-01 3.325451838758894385e-01 -7.331319513438974145e-01
1.004676933301944519e-01 -1.527838792707787892e-02 -9.277261449315467035e-01 -5.520173688117120392e-01 8.466311814646487743e-02 -8.295233456364636826e-01
-5.320053535670535988e-02 -1.169217427209653104e-01 -8.382048965822476161e-01 -6.792996219289948456e-01 1.226223935106064145e-01 -7.235438979473565180e-01
-7.259288583936554518e-02 1.939634653074455706e-01 -8.607065311812104325e-01 -5.307322351357176560e-01 -4.925824521600147832e-01 -6.896998060111890760e-01
7.070116754612228160e-02 -1.237219656027005871e-01 -9.381125023247941508e-01 -5.546658863211646473e-01 3.037610397055417466e-01 -7.746450705378337132e-01
-2.911312266985290748e-02 -8.460539099848056466e-02 -8.554109200515561673e-01 -6.528045232222513539e-01 1.133219588752391177e-01 -7.490022617437464003e-01
8.853573209027137958e-02 -1.887866012553098827e-01 -9.795644599037720557e-01 -5.687587459666063605e-01 2.849229437139562116e-01 -7.715778671215673956e-01
7.899621028526426780e-02 -1.151138476952721784e-01 -9.405923612373122689e-01 -5.989732843982179533e-01 3.075585013099155218e-01 -7.393502369305159361e-01
4.587849736229623020e-03 -2.032470914232953618e-01 -9.193865373080577497e-01 -6.427644931260304562e-01 3.410809437742322592e-01 -6.859428519712964523e-01
2.362428652685986952e-02 -1.160533876250062768e-01 -9.083181668837416733e-01 -7.611626009515084501e-01 1.305177635694587668e-01 -6.352925375805713593e-01
3.689718367419167477e-02 -2.563424457282937330e-01 -9.827015050738969748e-01 -3.371525904218649616e-01 5.994347134728419402e-01 -7.259518958275114064e-01
1.124075497561707535e-02 -2.737779648192184001e-01 -9.773261187635041702e-01 -5.051670570335584642e-01 8.013271710460330155e-01 -3.204387764166741204e-01
-5.349060015020751235e-02 -1.041749016681725731e-01 -8.363357409892826499e-01 -6.720434719528085576e-01 8.005293257096068871e-02 -7.361719227139837951e-01
1.164941451842141373e-01 -8.063242789962606072e-02 -9.595877964971841756e-01 -6.677556008645456620e-01 2.973019644886645274e-01 -6.824324138148850638e-01
6.808066509507390562e-02 -9.951699507538923350e-02 -9.270861911188460480e-01 -4.967619034015141599e-01 2.835848553818076656e-01 -8.202482801731338924e-01
5.849608506748792819e-02 -3.003607748373289532e-02 -9.049231588612323129e-01 -4.343166616909265310e-01 1.108204530006478422e-01 -8.939171463700538167e-01
-4.465783001666909918e-02 1.859498485673059531e-01 -8.703179536286933526e-01 -2.355103444427359694e-01 -2.896799550903616516e-01 -9.276962871971137226e-01
-3.491061815261577161e-02 -1.433200534554273931e-01 -8.609305507997789819e-01 -6.772493804971415621e-01 1.690757620437954023e-01 -7.160633095652561009e-01
5.972086816640804346e-02 -8.034664310256386943e-02 -9.162101205845419871e-01 -4.625154454338892829e-01 2.404069840503749722e-01 -8.533955382792282052e-01
1.139063670022835706e-01 -7.081483247277124693e-02 -9.529068597013655717e-01 -6.529878870020293657e-01 2.656346379115045453e-01 -7.092566944134180984e-01
-6.759747310277106069e-02 2.352402577911230919e-01 -8.907665865251636061e-01 -1.348279922635768069e-01 -5.737327005687804515e-01 -8.078689255072427633e-01
3.232476908127931980e-02 -7.308457908197464603e-02 -9.013068139920823452e-01 -3.490843236583915932e-01 2.183417161560967101e-01 -9.112996378590160207e-01
-6.541689809666463573e-02 1.824004181029478255e-01 -8.583631916378717808e-01 -5.878942411103352805e-01 -4.317429404448122066e-01 -6.840894639192818261e-01
7.246937714724430157e-02 -9.474289304004099299e-02 -9.282972725394025293e-01 -5.253768348514356035e-01 2.786666627119598338e-01 -8.039428291206196509e-01
1.254055321906279857e-03 1.783402765919785138e-01 -8.840021989409896364e-01 -3.951970214296478545e-01 -1.419140938923564854e-01 -9.075680162984183230e-01
-5.395044576350106758e-02 -1.121538640467168862e-01 -8.367836025343687867e-01 -6.720434719528085576e-01 8.005293257096068871e-02 -7.361719227139837951e-01
-6.995230116694418736e-03 8.922843005716195319e-02 -8.722668471306589399e-01 -4.401767925019168803e-01 -5.355114120643297837e-02 -8.963128173903422979e-01
-8.140005977575337504e-02 -2.704207018587566694e-02 -8.090323853571214086e-01 -5.862371965506019134e-01 5.186510964960316938e-02 -8.084775567580867461e-01
-6.977379098661945500e-03 -1.511771399729915644e-01 -8.885915229051994935e-01 -6.550895077471223793e-01 1.919356199242301664e-01 -7.307656632901784466e-01
5.256622640069302799e-02 1.327366049475803278e-01 -9.071873797703675635e-01 -5.046794294362422217e-01 -1.782714993292447772e-02 -8.631227411145981909e-01
5.513210768531134898e-02 3.445886354470713980e-02 -9.005562598591655421e-01 -4.639573969851737978e-01 -6.196101676150783666e-02 -8.836879348416057933e-01
-4.617202001982806392e-02 1.297257808053793871e-01 -8.514846549001060527e-01 -6.542466546853259457e-01 -2.008032014878497196e-01 -7.291360566487504746e-01
-2.124327106623254136e-02 -2.215370801269506418e-01 -9.105167428075934266e-01 -4.704642692440367813e-01 5.076384378130140984e-01 -7.217801519988183978e-01
6.551111478397933507e-02 -2.032171438144717290e-01 -9.693942403318164258e-01 -5.401765657270775067e-01 3.606754504516378468e-01 -7.603436705074937407e-01
1.457815685575905573e-02 1.108108405763710835e-01 -8.846073370573686034e-01 -4.710233456326540780e-01 -5.041971228429070057e-02 -8.806786363266628781e-01
-8.268622512000332880e-02 -3.528628532393500439e-02 -8.087362044826056362e-01 -5.887819022353244502e-01 6.322423170202286224e-02 -8.058154677876576688e-01
8.870448641000575063e-02 1.136380190330937290e-01 -9.292585905515020617e-01 -5.411726607802719302e-01 -4.070824954724658329e-02 -8.399255857769780675e-01
-1.057667630035871859e-01 2.578335788328099398e-01 -9.070013337155407029e-01 2.332360589804071405e-01 -6.943547694814380389e-01 -6.807880689977366950e-01
-4.398126242260174540e-02 2.146761011121204113e-02 -8.358972010602686575e-01 -6.188524781857713819e-01 -5.102944024267306450e-02 -7.838479485664606727e-01
5.403345866332003727e-02 -2.459528152653201183e-01 -9.852980075745918498e-01 -5.151732460830295013e-01 5.625362187458012864e-01 -6.466448245516623894e-01
1.205989390898590113e-01 -9.183039226083566930e-02 -9.688456631343925762e-01 -6.775889698003982886e-01 3.146138674571177241e-01 -6.647490522058003837e-01
1.045079337672406156e-01 -1.127570366358063153e-01 -9.623912614729620563e-01 -6.682958316654856734e-01 3.116712955392356710e-01 -6.754566491755272795e-01
-1.120224140306706195e-01 1.616110443675707331e-01 -8.170449052460190265e-01 -4.504754480289969720e-01 -3.481280401961719950e-01 -8.221184454518988272e-01
-5.215249304614379827e-02 1.389621383233641087e-02 -8.292565649155406726e-01 -6.023556690318627727e-01 -2.565430028042179310e-03 -7.982236945580781784e-01
7.011965098202430080e-02 -6.917753201233220461e-02 -9.188681058649975641e-01 -5.077688454826536635e-01 2.415235140625272836e-01 -8.269444913125071350e-01
-6.681889698700498037e-02 5.768368979740812197e-02 -8.232481216541256419e-01 -5.332971198771262467e-01 -1.124804979700052138e-01 -8.384165548861626238e-01
-2.478835103294346059e-02 -1.521131442203708661e-01 -8.727444775650329278e-01 -6.676613158898465628e-01 2.001279713263693083e-01 -7.170614773902098671e-01
-9.409387243921014943e-02 2.145190433134463448e-01 -8.632395332312426950e-01 -4.292769401350410852e-01 -6.163368040450823981e-01 -6.601895581178106598e-01
1.263236665108756485e-01 -1.221267473727669431e-02 -9.460479320091660371e-01 -6.039332671513427675e-01 1.851642873935595568e-01 -7.752282215592645187e-01
-7.174561395057434121e-02 1.412586490126523098e-02 -8.147727036002619938e-01 -5.790857048234536730e-01 -4.300670125164295782e-02 -8.141315434968576792e-01
7.954463143997184127e-03 4.740148143350961935e-02 -8.777527421640822780e-01 -4.253992138265011436e-01 -2.382862432650013906e-02 -9.046920501134632087e-01
-6.000304595361795335e-02 1.870330365972980302e-01 -8.670820473234908121e-01 -7.258027120990021563e-01 -5.362984178142262692e-01 -4.308067201886370268e-01
-7.858446225448917355e-02 -3.076254504970297315e-02 -8.113775136705155822e-01 -5.886717709209101645e-01 6.326774586967218172e-02 -8.058925104835072961e-01
2.606751691613061472e-02 -2.427580669064208219e-01 -9.651065523457293960e-01 -8.734795776410562151e-01 3.067856465430985335e-01 -3.780423184236587075e-01
-5.293429450368539874e-03 -8.512546092199817227e-02 -8.758182307459011495e-01 -6.427568658440917515e-01 1.259293162293538271e-01 -7.556490049780304474e-01
-8.837859013207469139e-02 1.250296919779929905e-01 -8.211253905493389738e-01 -4.559213633302562907e-01 -1.443243834547882631e-01 -8.782403900979933731e-01
-1.360101225250448798e-01 2.790168475151314498e-01 -9.370943175763937205e-01 -3.831358338012147979e-01 -8.840695873768370516e-01 -2.676338871159574806e-01
5.529292610502065108e-02 6.359503519309665787e-02 -9.034370842691439307e-01 -4.932964246768790084e-01 -1.033323930691840975e-01 -8.637019474006086828e-01
-1.082999739997149782e-02 1.609234803705995309e-01 -8.760463708254306869e-01 -3.882173515063482849e-01 -1.059718062993544735e-01 -9.154546762451151176e-01
4.640373796856027411e-02 1.494723599028033034e-01 -9.040143451976558886e-01 -5.007281720880082387e-01 -1.736921615097045124e-03 -8.656028424056294579e-01
7.665404701268456467e-02 3.376169702291619001e-02 -9.121527727727516410e-01 -4.748828327488761603e-01 -8.096290657304153204e-02 -8.763168964020080498e-01
3.838829594889864999e-02 2.663383761186015677e-02 -8.917923323543401892e-01 -4.365128903957407047e-01 -1.502500967115054202e-02 -8.995725349313072883e-01
-1.819279679694081608e-02 2.279132852123082753e-01 -8.958930092098423836e-01 -2.289913555224745156e-01 -4.608722706836251293e-01 -8.574145492181124428e-01
-6.161800096430907620e-02 1.725123149355442254e-01 -8.554054821822698607e-01 -6.174885582649464189e-01 -3.709281115505789206e-01 -6.936282984952378827e-01
-3.701297646390629918e-03 -1.453991539007989664e-01 -8.900107538561428111e-01 -6.550895077471223793e-01 1.919356199242301664e-01 -7.307656632901784466e-01
-3.611874313466258320e-03 1.016350691580390070e-01 -8.746222743445434267e-01 -4.367752016623469014e-01 -4.857225999143680029e-02 -8.982584031180229633e-01
-7.314561938307495570e-02 1.439463329346310216e-01 -8.345587869826517347e-01 -5.488076843322257092e-01 -2.412495864751280916e-01 -8.003803862186278373e-01
1.845885688422216342e-02 -2.692893212656279345e-01 -9.847034401006813376e-01 -7.055576115985909835e-01 6.775485575001264360e-01 -2.076449107124705429e-01
9.966244443561055044e-02 -2.967596548540442358e-02 -9.294308040068183230e-01 -5.805120238916534614e-01 1.526443264319218285e-01 -7.998159161490606683e-01
1.538015985051930691e-02 -7.750187857835405536e-02 -8.925155989743549512e-01 -6.850580284898615258e-01 1.075432453986876341e-01 -7.205067299968140881e-01
5.598018221232767960e-02 -1.332964740167974504e-01 -9.321555450960570255e-01 -5.258723160769440685e-01 3.203743140472812834e-01 -7.879204313143585159e-01
-5.282758048589430988e-02 1.780188217621172797e-01 -8.665282232788878991e-01 -1.560261614663809894e-02 -1.881173793329423694e-01 -9.820226117367595320e-01
-1.061662748971070741e-01 8.625041793823548519e-02 -8.079634212258646198e-01 -3.996736317043054765e-01 -1.017313899551107043e-01 -9.109949025203668560e-01
-1.030007763763660447e-02 1.508432461423494242e-01 -8.751042197776242038e-01 -3.882173515063482849e-01 -1.059718062993544735e-01 -9.154546762451151176e-01
8.435123751012824078e-03 8.300322775712351553e-02 -8.796504803637107406e-01 -4.607461292778987638e-01 -5.272153004165669454e-02 -8.859646971665972037e-01
-2.643267084738503553e-02 -5.117764891652566012e-02 -8.534139549408272796e-01 -6.286234103479125812e-01 9.103865838405300615e-02 -7.723629785548965510e-01
-1.253605859304448844e-01 2.847625419030472838e-01 -9.451191458670272771e-01 1.459188029599238767e-01 -8.007846091305115266e-01 -5.809059413729874555e-01
-2.117331351406393294e-02 6.997615083423831817e-02 -8.610582325697405670e-01 -7.007999371993207660e-01 -1.392174694898602461e-01 -6.996412968159240187e-01
4.093016847367123012e-02 8.714623600978610440e-02 -8.976447045196199737e-01 -4.917421698368664718e-01 -6.624739733157157529e-02 -8.682170930999476566e-01
-6.159133423579742084e-02 1.860309383460359289e-01 -8.643197779243944057e-01 -6.386405189976458452e-01 -4.460377862691341511e-01 -6.270475107314817942e-01
5.065162348069270765e-02 6.043055671790999173e-02 -9.005481251555915723e-01 -4.695661514764015720e-01 -9.277393099125751108e-02 -8.780094686938577642e-01
-5.490672092813383282e-02 -1.488951973236820048e-01 -8.436266986119983491e-01 -6.713466964093319778e-01 2.079487432016258741e-01 -7.113725700511234207e-01
5.522002015470334202e-02 1.708351892384729342e-01 -9.095966281972445167e-01 -4.719329205054136334e-01 -6.911050993806747145e-02 -8.789215300351512772e-01
-5.830805778863229656e-03 8.032378789261096497e-02 -8.724142748123793201e-01 -4.061603616061481015e-01 -3.050495328462176498e-02 -9.132925098154840438e-01
6.784452153043414591e-02 2.867347158179043426e-02 -9.069087224114440460e-01 -4.748828327488761603e-01 -8.096290657304153204e-02 -8.763168964020080498e-01
2.217633961047066685e-02 -2.023459360675231578e-01 -9.371195320827908626e-01 -7.596306719558746368e-01 2.748844073566152901e-01 -5.894063155549563726e-01
-3.245224914456505683e-02 8.143009895319391900e-02 -8.527685715146692269e-01 -6.661621627221709918e-01 -1.422588027193483207e-01 -7.321136564811349112e-01
3.961745042436368852e-02 -1.779283371309721140e-01 -9.411173227945940356e-01 -4.621158888946146903e-01 3.675121244840663937e-01 -8.070834799377002433e-01
-9.005026178615108123e-02 3.513060318542693666e-03 -8.015269117413342803e-01 -5.550281341857794537e-01 -6.611029429454087780e-02 -8.292003372228821112e-01
-4.594320721650031053e-02 -3.437936442075628651e-02 -8.361443174718971028e-01 -6.100567608591038749e-01 6.757792134876572376e-02 -7.894706917145678515e-01
-5.148462839360827548e-02 2.348372786594090933e-01 -8.931110812852283143e-01 -1.313445308511106968e-01 -5.741611491677306445e-01 -8.081383476867637361e-01
-7.858630433859074838e-02 2.818732435621187568e-02 -8.112167277429996881e-01 -5.475334932329430915e-01 -1.284723005766650883e-01 -8.268627103532180112e-01
-1.774258411765874954e-02 -1.374007578094810500e-01 -8.751656803510204918e-01 -6.596550039186702685e-01 1.598688585821356201e-01 -7.343685885580240047e-01
-7.898455480209555513e-02 2.060337985920629167e-01 -8.656887428201903711e-01 -4.997554100515926856e-01 -5.557229585800097516e-01 -6.643918447958594431e-01
-2.405253555375052102e-02 -2.360182026443668687e-02 -8.527058735970725056e-01 -6.347717391327492020e-01 6.052685676696252515e-02 -7.703254758920391465e-01
-7.500394178015375168e-02 -3.119102595864497833e-03 -8.123469633053300720e-01 -5.817014184805798793e-01 1.331310387534704112e-02 -8.132934408950348582e-01
1.530766106864883160e-02 -7.920312315492568367e-02 -8.927005958451073031e-01 -6.850580284898615258e-01 1.075432453986876341e-01 -7.205067299968140881e-01
-3.028377415675877551e-02 7.864374814822232274e-02 -8.541993871706029529e-01 -6.650248358718580111e-01 -1.426773924834633389e-01 -7.330655696100641938e-01
5.756856219276394043e-02 -1.502775836310318303e-01 -9.402028181400018392e-01 -5.268922048281328152e-01 3.371101092033947366e-01 -7.802188018525471058e-01
9.996203166008139906e-02 -1.245305677619791898e-02 -9.270914590910409592e-01 -5.428768274466786448e-01 9.926273129237782322e-02 -8.339254525422559183e-01
1.579380687489672502e-02 -5.657031371565097305e-02 -8.903971379190780411e-01 -7.267311876178209618e-01 5.983135425117860201e-02 -6.843113253425384679e-01
1.599290378793853662e-02 -2.760814034047376908e-01 -9.944398717879927574e-01 -3.283322971606337792e-01 7.393563639881883809e-01 -5.878350701271463086e-01
-1.852461041068637418e-02 2.428782711750464285e-02 -8.574109736116204417e-01 -6.458028747702305727e-01 -5.010969943013972305e-02 -7.618580346505028356e-01
3.489173487168618221e-02 -1.074014100024634627e-01 -9.118752114210857407e-01 -3.840266101287483358e-01 2.742020924759814848e-01 -8.816670432736019025e-01
-6.419800867268793398e-02 2.237491635447304561e-01 -8.835568796665888014e-01 -1.550911449925728713e-01 -5.163699012283986534e-01 -8.422047624243563790e-01
-7.717756990445284043e-03 3.506004051868019666e-02 -8.684577933784639603e-01 -6.991838336741127424e-01 -8.788942726768317337e-02 -7.095191437187082784e-01
6.523564152016225054e-03 1.302989531530740486e-01 -8.816065120896939833e-01 -4.467598722150442625e-01 -4.081614201869248476e-02 -8.937223613231948249e-01
-4.536904578757649034e-03 -1.794900295085066766e-02 -8.687503226601012152e-01 -6.610069989061317930e-01 4.117708514855099311e-02 -7.492490874574211368e-01
-1.294393799638344535e-02 7.655700381634074347e-02 -8.693500177146797903e-01 -3.518900557081614533e-01 -1.103503200255506918e-02 -9.359762907052773251e-01
-8.074943536148182499e-02 1.087116590722322640e-01 -8.229187157311783629e-01 -4.941271767658887981e-01 -1.164781631777505044e-01 -8.615516065124069200e-01
2.383185769368514895e-02 -2.147666080702496094e-01 -9.454032490522907839e-01 -7.793899519285473199e-01 2.839827755361737371e-01 -5.584846336575320924e-01
-3.443335618875840998e-02 1.482386101507372766e-01 -8.654136695132133017e-01 -2.943610350445096113e-01 -1.056432586158698728e-01 -9.498373981669415711e-01
-8.076912860601442867e-03 1.375235881696686424e-01 -8.749089810518552168e-01 -4.220602470557086594e-01 -7.352617306427798594e-02 -9.035812358221014806e-01
1.392761655362646615e-02 6.612590835699497238e-02 -8.815340560884246113e-01 -4.611235162368110263e-01 -4.926351125292150607e-02 -8.859673860997552275e-01
-7.816733101293346642e-02 -3.970417780766596211e-02 -8.123841868001330235e-01 -5.886717709209101645e-01 6.326774586967218172e-02 -8.058925104835072961e-01
1.931135875530300833e-02 -1.578795309822429993e-01 -9.156390930995793598e-01 -7.075393606491724441e-01 2.101217927355671367e-01 -6.747124464168061664e-01
-8.087145017382155188e-02 2.251942800351293683e-01 -8.825365421373053687e-01 1.091369319071822455e-02 -4.728274506847132685e-01 -8.810874492239314515e-01
7.157002777901792789e-02 -1.586704072714401337e-01 -9.537576230761322105e-01 -5.562595087645946235e-01 3.295165706223653901e-01 -7.628854360873903451e-01
-5.092261189854339204e-02 -2.234151376923024582e-02 -8.313646555686339257e-01 -6.086612380907735487e-01 6.079031793741612733e-02 -7.910979929761385865e-01
-2.433239073674894892e-02 -4.334992286013907709e-02 -8.542007088173524387e-01 -6.286234103479125812e-01 9.103865838405300615e-02 -7.723629785548965510e-01
5.995288523676272491e-02 -1.822937184922816811e-01 -9.559006345218989953e-01 -5.407601666056591760e-01 3.445127199329755530e-01 -7.673913134881077402e-01
-3.699434187142698616e-02 -1.720548744243495520e-02 -8.419537064282293093e-01 -6.267760955163413916e-01 5.115418463466829546e-02 -7.775184727603920987e-01
3.607171720549513447e-03 -3.717728428958519751e-03 -8.762924963767750874e-01 -7.242178817772421118e-01 -3.929771960844293671e-02 -6.884505421216986498e-01
7.325773252672676886e-03 -2.106645123518882112e-01 -9.256326444809276355e-01 -6.349448901441172577e-01 3.412714142240306225e-01 -6.930936504639215734e-01
7.359924190673346189e-02 3.590640257635603627e-02 -9.106954998249137123e-01 -4.748828327488761603e-01 -8.096290657304153204e-02 -8.763168964020080498e-01
-1.134549358936196434e-01 1.909256101267022554e-01 -8.316702889056702963e-01 -4.339157836850556227e-01 -5.143772245249339514e-01 -7.396845027165362962e-01
6.689700084807523317e-02 5.429452139186609350e-02 -9.088683145171116973e-01 -4.897167352114908390e-01 -1.145847036072336345e-01 -8.643193072892917383e-01
5.939716016683007499e-02 8.481418667524741328e-02 -9.082649876071441364e-01 -5.072332962501839848e-01 -8.672435141704648576e-02 -8.574341199453551221e-01
-1.584559121139113985e-02 -9.496934010816806063e-04 -8.587124553834392104e-01 -6.446430966970850829e-01 -6.048916380616621222e-03 -7.644597363441797411e-01
-8.067500657414394816e-02 2.041130006900115923e-01 -8.628105559091779897e-01 -4.997554100515926856e-01 -5.557229585800097516e-01 -6.643918447958594431e-01
1.100359925132379235e-01 -7.083493076001967648e-02 -9.493510682959164226e-01 -6.529878870020293657e-01 2.656346379115045453e-01 -7.092566944134180984e-01
8.377449633826583586e-02 3.118759199883939723e-02 -9.159225768591600092e-01 -5.098283088186315037e-01 -4.056467780451650240e-02 -8.593192668861497907e-01
-6.997544874466844755e-02 2.031976736462662025e-01 -8.712542222814950721e-01 -6.465641010354291618e-01 -5.806779762783491616e-01 -4.947402865317604426e-01
-1.970912757998938628e-02 9.331859125030325663e-02 -8.672739567435433505e-01 -2.611907771607553941e-01 7.090081026402665458e-03 -9.652611608664257714e-01
-1.827931150660637091e-02 -2.031960463284040730e-01 -9.006277584942441461e-01 -5.777287796716035206e-01 3.952993786790761632e-01 -7.141203388470994673e-01
3.439511076651530219e-02 4.418941352853007765e-02 -8.906402763867967698e-01 -4.606280228346361638e-01 -5.028658946987227957e-02 -8.861676384854856314e-01
-9.310677421860782260e-03 2.171469605779611789e-01 -8.929847053092572207e-01 -2.781739514470272789e-01 -3.956251007731849123e-01 -8.752714049793665074e-01
5.649507797758506616e-02 -1.207202923384641663e-01 -9.276685702270630607e-01 -5.136872002167869322e-01 2.988884275449489314e-01 -8.042332797224611696e-01
-1.397322330076153363e-01 2.854723464118232856e-01 -9.493069092343102700e-01 2.015442566133091584e-01 -7.487259319260933799e-01 -6.314977367240451889e-01
-6.542320436769488712e-02 4.195080207871323963e-02 -8.217902438287219002e-01 -5.657766162337090066e-01 -8.587846615147325113e-02 -8.200742097972625322e-01
6.912177631678372014e-02 -1.710517429299754644e-01 -9.574281568612988957e-01 -5.403117350135113739e-01 3.350314314728706222e-01 -7.718919412274803937e-01
-8.985503546488196602e-02 3.282211652352542974e-02 -8.049409849095109371e-01 -4.988850760426217223e-01 -1.501095249307995982e-01 -8.535694531946402819e-01
-1.935756701046371236e-02 -1.408593139496170654e-01 -8.745814777372126203e-01 -6.635026983635824438e-01 1.903539080159382668e-01 -7.235534250954136493e-01
9.164088247931649611e-02 -1.253203794907760231e-02 -9.215719269937232561e-01 -5.520173688117120392e-01 8.466311814646487743e-02 -8.295233456364636826e-01
4.584293557527201884e-02 -2.400066317084613710e-01 -9.759010742125795446e-01 -4.324470787560431573e-01 4.707527251475805419e-01 -7.690132611610096536e-01
-5.604999566963538016e-02 2.520328825860282396e-02 -8.267849780209030053e-01 -5.965340984788989331e-01 -4.445804066626857926e-02 -8.013554467101872136e-01
-8.819080595717931903e-02 2.303521734424094081e-01 -8.854393574018334379e-01 -8.092794380843121305e-01 -5.857118720569570725e-01 4.481510934355391329e-02
3.205434822072936174e-02 -2.201045011964283815e-01 -9.581362883076323111e-01 -2.472245963578166283e-01 4.664560400674648277e-01 -8.492930952505702846e-01
4.454094235566174315e-02 -4.050940452170621181e-02 -8.998783460274478729e-01 -4.139536752101660166e-01 1.662960182600660142e-01 -8.949793232755962613e-01
-1.338036757739606841e-01 2.784402632090701712e-01 -9.402848494218707387e-01 6.942637648130124406e-01 -2.239836860666203078e-01 -6.839803602762813961e-01
-3.592211922877784624e-02 1.635897399206056313e-01 -8.672287189997461843e-01 -3.213959942154449578e-01 -1.707265795725467772e-01 -9.314274260132802130e-01
1.564566615458839148e-03 3.995237433309033886e-02 -8.748429043410365091e-01 -4.048132004146524632e-01 -9.695303476750277011e-03 -9.143480047884066098e-01
6.680539997281097209e-03 -2.079518984624750266e-01 -9.236869349456104938e-01 -6.427644931260304562e-01 3.410809437742322592e-01 -6.859428519712964523e-01
-3.265142832239732035e-02 1.509404223931553324e-01 -8.662664032359925770e-01 -2.943610350445096113e-01 -1.056432586158698728e-01 -9.498373981669415711e-01
2.424758769785791482e-02 -1.186851749315034066e-01 -9.096056501855958043e-01 -7.611626009515084501e-01 1.305177635694587668e-01 -6.352925375805713593e-01
-1.590848361459125740e-02 -2.144936797107173110e-01 -9.095788149959452840e-01 -5.324117107519077408e-01 4.662794787889209536e-01 -7.064851151401274620e-01
7.189622311235298324e-02 1.163990693747898875e-01 -9.185520555099366824e-01 -5.396126325076645580e-01 -2.980609340883318484e-02 -8.413856450129465481e-01
